0.0483479 -0.10419 0.110003 0.5 0.5 0.5
-0.0459362 -0.0966409 0.110311 0.5 0.5 0.5
-0.0454438 -0.0972261 0.110518 0.5 0.5 0.5
0.0576624 -0.0939859 0.106323 0.5 0.5 0.5
0.0641495 -0.091706 0.103135 0.5 0.5 0.5
0.0385294 -0.061328 0.106847 0.5 0.5 0.5
0.041336 -0.0904291 0.112576 0.5 0.5 0.5
0.049137 -0.0654017 0.103999 0.5 0.5 0.5
0.0474603 -0.0630427 0.104056 0.5 0.5 0.5
0.0405359 -0.0509612 0.103741 0.5 0.5 0.5
0.0414092 -0.0577961 0.10503 0.5 0.5 0.5
0.0463283 -0.0708763 0.106311 0.5 0.5 0.5
-0.0432769 -0.0700078 0.106516 0.5 0.5 0.5
0.0361431 -0.0894553 0.114078 0.5 0.5 0.5
-0.0407977 -0.0555413 0.103909 0.5 0.5 0.5
-0.0353307 -0.0569221 0.106115 0.5 0.5 0.5
-0.0416997 -0.0626771 0.105297 0.5 0.5 0.5
-0.0421451 -0.0487947 0.101841 0.5 0.5 0.5
-0.0396705 -0.058713 0.105051 0.5 0.5 0.5
0.0323997 -0.0755908 0.111751 0.5 0.5 0.5
0.0331888 -0.0517688 0.106011 0.5 0.5 0.5
0.0370799 -0.0550024 0.105825 0.5 0.5 0.5
0.0199113 -0.0215448 0.100504 0.5 0.5 0.5
-0.241216 0.0365855 0.107911 0.5 0.5 0.5
-0.238392 0.0379528 0.109957 0.5 0.5 0.5
-0.248921 0.0406072 0.109474 0.5 0.5 0.5
-0.25204 0.040306 0.10712 0.5 0.5 0.5
-0.253363 0.0428812 0.108934 0.5 0.5 0.5
-0.202269 0.0482568 0.107079 0.5 0.5 0.5
-0.198698 0.0471049 0.112717 0.5 0.5 0.5
-0.186696 0.0474848 0.109266 0.5 0.5 0.5
-0.187012 0.0480875 0.107384 0.5 0.5 0.5
0.211575 0.051957 0.109655 0.5 0.5 0.5
-0.262028 0.0464282 0.104065 0.5 0.5 0.5
0.205507 0.0510996 0.110242 0.5 0.5 0.5
0.268975 0.0641015 0.111651 0.5 0.5 0.5
0.269327 0.0650264 0.113023 0.5 0.5 0.5
0.27037 0.0643871 0.10854 0.5 0.5 0.5
-0.274622 0.0722639 0.102378 0.5 0.5 0.5
0.192986 0.0726873 0.106947 0.5 0.5 0.5
0.208233 0.0715668 0.112066 0.5 0.5 0.5
-0.275906 0.076013 0.102195 0.5 0.5 0.5
-0.197968 0.0765216 0.104267 0.5 0.5 0.5
-0.199879 0.0770563 0.105107 0.5 0.5 0.5
0.278005 0.0755189 0.111352 0.5 0.5 0.5
-0.20699 0.0792254 0.108965 0.5 0.5 0.5
0.206433 0.0796272 0.10787 0.5 0.5 0.5
-0.261014 0.0913336 0.103912 0.5 0.5 0.5
-0.260797 0.0908264 0.110882 0.5 0.5 0.5
-0.222564 0.099832 0.0961604 0.5 0.5 0.5
0.240093 0.100526 0.10726 0.5 0.5 0.5
-0.00779364 0.216078 0.108781 0.5 0.5 0.5
-0.0179936 0.214234 0.105397 0.5 0.5 0.5
-0.0131939 0.215808 0.108211 0.5 0.5 0.5
0.0072396 0.214639 0.106587 0.5 0.5 0.5
0.0255494 0.216021 0.107845 0.5 0.5 0.5
-0.0346793 0.218674 0.109196 0.5 0.5 0.5
-0.0400618 0.220195 0.108795 0.5 0.5 0.5
-0.00735302 0.250262 0.108119 0.5 0.5 0.5
-0.0123123 0.245388 0.110072 0.5 0.5 0.5
-0.0106317 0.238507 0.113417 0.5 0.5 0.5
-0.00755702 0.248423 0.108968 0.5 0.5 0.5
0.0355043 0.252132 0.103262 0.5 0.5 0.5
0.0386075 0.248187 0.104481 0.5 0.5 0.5
0.0453388 0.246191 0.102651 0.5 0.5 0.5
-0.0254016 0.238579 0.112362 0.5 0.5 0.5
-0.0142674 0.245851 0.109718 0.5 0.5 0.5
0.0126702 0.251455 0.107592 0.5 0.5 0.5
0.000356099 0.241508 0.112567 0.5 0.5 0.5
-0.00121893 0.243134 0.111789 0.5 0.5 0.5
0.0208646 0.242313 0.111446 0.5 0.5 0.5
0.0244027 0.251257 0.106311 0.5 0.5 0.5
0.029811 0.238755 0.111988 0.5 0.5 0.5
0.0335561 -0.491324 0.101071 0.5 0.5 0.5
-0.0838493 -0.488283 0.101161 0.5 0.5 0.5
-0.0738488 -0.487656 0.0980342 0.5 0.5 0.5
-0.0775287 -0.488425 0.0993218 0.5 0.5 0.5
-0.0712871 -0.485478 0.0985219 0.5 0.5 0.5
0.0720213 -0.485192 0.0984203 0.5 0.5 0.5
0.0702358 -0.483971 0.0983905 0.5 0.5 0.5
0.0733181 -0.484132 0.0999857 0.5 0.5 0.5
0.075439 -0.4832 0.101911 0.5 0.5 0.5
0.0874583 -0.484164 0.103824 0.5 0.5 0.5
0.0895877 -0.485376 0.10255 0.5 0.5 0.5
-0.0881014 -0.481537 0.104399 0.5 0.5 0.5
-0.0745744 -0.482376 0.102548 0.5 0.5 0.5
-0.0579635 -0.481866 0.10032 0.5 0.5 0.5
-0.0561494 -0.483535 0.100782 0.5 0.5 0.5
0.0765862 -0.478262 0.104706 0.5 0.5 0.5
-0.095715 -0.476507 0.100563 0.5 0.5 0.5
-0.0712416 -0.474973 0.102936 0.5 0.5 0.5
0.0586173 -0.477775 0.102785 0.5 0.5 0.5
0.057818 -0.472436 0.104176 0.5 0.5 0.5
0.0599073 -0.472049 0.102809 0.5 0.5 0.5
0.0609084 -0.474666 0.101797 0.5 0.5 0.5
0.0614351 -0.472582 0.102017 0.5 0.5 0.5
0.0956448 -0.471591 0.102058 0.5 0.5 0.5
-0.0921985 -0.466852 0.101317 0.5 0.5 0.5
-0.0912212 -0.46926 0.103375 0.5 0.5 0.5
-0.0970852 -0.470895 0.0990099 0.5 0.5 0.5
-0.0701184 -0.467501 0.100043 0.5 0.5 0.5
-0.0661814 -0.467743 0.0985156 0.5 0.5 0.5
-0.0700281 -0.467921 0.100256 0.5 0.5 0.5
-0.0222005 -0.467985 0.103571 0.5 0.5 0.5
0.0242142 -0.468492 0.103225 0.5 0.5 0.5
0.0623904 -0.464817 0.098088 0.5 0.5 0.5
0.0741983 -0.468168 0.101478 0.5 0.5 0.5
0.0953736 -0.470941 0.102135 0.5 0.5 0.5
-0.0849813 -0.461822 0.099859 0.5 0.5 0.5
0.0601716 -0.464718 0.0996364 0.5 0.5 0.5
0.0730475 -0.464785 0.0988693 0.5 0.5 0.5
0.0810225 -0.461571 0.099563 0.5 0.5 0.5
0.0393101 -0.455768 0.104077 0.5 0.5 0.5
0.0339843 -0.456128 0.101815 0.5 0.5 0.5
-0.0306358 -0.455317 0.100339 0.5 0.5 0.5
0.0388836 -0.454842 0.10253 0.5 0.5 0.5
-0.0116201 -0.159385 0.100535 0.5 0.5 0.5
0.0133566 -0.151861 0.104664 0.5 0.5 0.5
0.00552114 -0.162077 0.0998172 0.5 0.5 0.5
0.0278038 -0.153877 0.10109 0.5 0.5 0.5
-0.0372052 -0.144141 0.102711 0.5 0.5 0.5
-0.0177219 -0.152537 0.103143 0.5 0.5 0.5
0.0474965 -0.137277 0.102717 0.5 0.5 0.5
-0.0616983 -0.116573 0.101158 0.5 0.5 0.5
-0.0604883 -0.128429 0.0986058 0.5 0.5 0.5
0.0519006 -0.119387 0.106337 0.5 0.5 0.5
0.0568617 -0.111778 0.105324 0.5 0.5 0.5
0.0547317 -0.118592 0.105168 0.5 0.5 0.5
0.06968 -0.107169 0.0994918 0.5 0.5 0.5
0.0615272 -0.103212 0.104433 0.5 0.5 0.5
-0.0647045 -0.10169 0.101111 0.5 0.5 0.5
-0.0612536 -0.109343 0.10261 0.5 0.5 0.5
-0.0636305 -0.102937 0.101646 0.5 0.5 0.5
-0.0693322 -0.0978152 0.098883 0.5 0.5 0.5
0.069236 -0.103465 0.100201 0.5 0.5 0.5
0.0570644 -0.0837629 0.104794 0.5 0.5 0.5
0.0610761 -0.0816518 0.102462 0.5 0.5 0.5
0.0545605 -0.089271 0.107245 0.5 0.5 0.5
0.0614524 -0.0779421 0.101409 0.5 0.5 0.5
-0.0525746 -0.0697786 0.102589 0.5 0.5 0.5
-0.0257967 -0.0436945 0.105313 0.5 0.5 0.5
-0.0321756 -0.0328731 0.10058 0.5 0.5 0.5
-0.022801 -0.0445731 0.106301 0.5 0.5 0.5
-0.00113712 -0.041875 0.10776 0.5 0.5 0.5
-0.0052559 -0.0423681 0.107692 0.5 0.5 0.5
-0.00333099 -0.0299579 0.104254 0.5 0.5 0.5
-0.00497834 -0.0442994 0.108256 0.5 0.5 0.5
-0.00465769 -0.0374615 0.106325 0.5 0.5 0.5
-0.00356566 -0.0231748 0.102303 0.5 0.5 0.5
-0.000264835 -0.00909754 0.0982561 0.5 0.5 0.5
0.00189791 -0.0261264 0.103252 0.5 0.5 0.5
-0.00530015 -0.00275678 0.0963266 0.5 0.5 0.5
-0.00107658 -0.0167164 0.100462 0.5 0.5 0.5
0.00162881 -0.0402258 0.107333 0.5 0.5 0.5
0.0117665 -0.0335778 0.104928 0.5 0.5 0.5
0.0144267 -0.0149457 0.099234 0.5 0.5 0.5
0.0180597 -0.011018 0.0977247 0.5 0.5 0.5
0.0283861 -0.0375977 0.103347 0.5 0.5 0.5
0.0290065 -0.0297238 0.100869 0.5 0.5 0.5
0.0238693 -0.044204 0.106391 0.5 0.5 0.5
-0.0250264 -0.0233926 0.0995202 0.5 0.5 0.5
-0.022757 -0.00852435 0.0956476 0.5 0.5 0.5
-0.0274812 -0.00590805 0.093778 0.5 0.5 0.5
-0.025919 -0.023294 0.099284 0.5 0.5 0.5
-0.0232748 -0.0100584 0.0959814 0.5 0.5 0.5
-0.0199172 -0.0231651 0.100574 0.5 0.5 0.5
-0.0167458 -0.00733143 0.0964435 0.5 0.5 0.5
-0.0151028 -0.00705763 0.0965777 0.5 0.5 0.5
-0.00951861 -0.0233971 0.102067 0.5 0.5 0.5
-0.235609 0.0276801 0.0957947 0.5 0.5 0.5
-0.235138 0.0312391 0.101396 0.5 0.5 0.5
-0.231285 0.0327512 0.10267 0.5 0.5 0.5
-0.226895 0.0357179 0.104887 0.5 0.5 0.5
-0.222962 0.0262599 0.0905023 0.5 0.5 0.5
-0.222504 0.035455 0.102528 0.5 0.5 0.5
0.2392 0.0319655 0.101922 0.5 0.5 0.5
0.242053 0.0330274 0.10261 0.5 0.5 0.5
0.244871 0.0340377 0.103229 0.5 0.5 0.5
0.207584 0.0456322 0.0995406 0.5 0.5 0.5
0.213178 0.0356864 0.0949545 0.5 0.5 0.5
0.215524 0.0408017 0.102815 0.5 0.5 0.5
-0.190037 0.0470207 0.106478 0.5 0.5 0.5
-0.189754 0.04949 0.101701 0.5 0.5 0.5
-0.266894 0.0550338 0.103273 0.5 0.5 0.5
-0.182235 0.0547234 0.106847 0.5 0.5 0.5
-0.186143 0.051466 0.103087 0.5 0.5 0.5
0.18919 0.0709995 0.0990933 0.5 0.5 0.5
0.277196 0.0785591 0.104099 0.5 0.5 0.5
-0.201241 0.0800762 0.101467 0.5 0.5 0.5
0.205628 0.0837836 0.102552 0.5 0.5 0.5
0.278433 0.0799137 0.110019 0.5 0.5 0.5
-0.27268 0.0872031 0.101512 0.5 0.5 0.5
-0.274003 0.0865749 0.103867 0.5 0.5 0.5
-0.268386 0.0891614 0.0976291 0.5 0.5 0.5
0.26498 0.0904557 0.0996303 0.5 0.5 0.5
-0.211703 0.093796 0.10694 0.5 0.5 0.5
0.254569 0.09622 0.111149 0.5 0.5 0.5
0.216002 0.0970278 0.105097 0.5 0.5 0.5
0.24744 0.10043 0.104041 0.5 0.5 0.5
0.248261 0.100202 0.0998297 0.5 0.5 0.5
0.00566635 0.178903 0.0996122 0.5 0.5 0.5
-0.00647019 0.180964 0.101199 0.5 0.5 0.5
-0.0263733 0.188566 0.102326 0.5 0.5 0.5
-0.0159333 0.184431 0.102342 0.5 0.5 0.5
-0.0182851 0.185007 0.102088 0.5 0.5 0.5
0.0143359 0.183001 0.10233 0.5 0.5 0.5
0.000826084 0.183828 0.103001 0.5 0.5 0.5
0.0178974 0.188938 0.103795 0.5 0.5 0.5
0.0230772 0.187246 0.102402 0.5 0.5 0.5
0.0219573 0.188308 0.102944 0.5 0.5 0.5
0.0315635 0.187891 0.101178 0.5 0.5 0.5
0.0290878 0.186952 0.101267 0.5 0.5 0.5
-0.0131986 0.192831 0.10298 0.5 0.5 0.5
-0.0146214 0.192323 0.103099 0.5 0.5 0.5
-0.00639862 0.19008 0.104195 0.5 0.5 0.5
0.0252533 0.190523 0.102336 0.5 0.5 0.5
0.0318739 0.194327 0.100248 0.5 0.5 0.5
-0.00876299 0.19528 0.102167 0.5 0.5 0.5
-0.012345 0.195858 0.101634 0.5 0.5 0.5
0.00535054 0.198299 0.0999357 0.5 0.5 0.5
0.0237291 0.19964 0.0981374 0.5 0.5 0.5
-0.0430542 0.216113 0.103994 0.5 0.5 0.5
-0.0345342 0.21317 0.100524 0.5 0.5 0.5
-0.0130833 0.213431 0.10252 0.5 0.5 0.5
0.0157714 0.213521 0.103261 0.5 0.5 0.5
0.0437219 0.213748 0.0993771 0.5 0.5 0.5
0.0379714 0.214993 0.102884 0.5 0.5 0.5
0.0461371 0.214858 0.100723 0.5 0.5 0.5
-0.0510414 0.218837 0.10375 0.5 0.5 0.5
-0.052121 0.228136 0.107155 0.5 0.5 0.5
-0.0565522 0.234384 0.102117 0.5 0.5 0.5
-0.0417886 0.249264 0.101151 0.5 0.5 0.5
0.048019 0.248645 0.0996036 0.5 0.5 0.5
0.0402068 0.253196 0.100697 0.5 0.5 0.5
-0.0323285 0.256385 0.101573 0.5 0.5 0.5
-0.0256549 0.254244 0.104173 0.5 0.5 0.5
-0.0162765 0.259162 0.103963 0.5 0.5 0.5
-0.0136619 0.255779 0.10532 0.5 0.5 0.5
-0.00167556 0.257703 0.105208 0.5 0.5 0.5
0.0195052 0.253276 0.10599 0.5 0.5 0.5
0.0245342 0.259722 0.102912 0.5 0.5 0.5
0.0235792 0.261137 0.102486 0.5 0.5 0.5
0.0241515 0.26391 0.101153 0.5 0.5 0.5
0.0268457 0.258666 0.102904 0.5 0.5 0.5
0.0272956 0.259852 0.102292 0.5 0.5 0.5
0.0334955 0.260998 0.100524 0.5 0.5 0.5
0.0260216 0.261031 0.102034 0.5 0.5 0.5
0.00835557 0.266206 0.10179 0.5 0.5 0.5
-0.00440589 0.265535 0.101737 0.5 0.5 0.5
0.0183111 0.26777 0.100022 0.5 0.5 0.5
0.0288279 0.268745 0.0977977 0.5 0.5 0.5
-0.00156906 0.314771 0.0998187 0.5 0.5 0.5
-0.00342289 0.322009 0.0986443 0.5 0.5 0.5
-0.0505681 -0.488559 0.100363 0.5 0.5 0.5
-0.0528693 -0.489753 0.0953251 0.5 0.5 0.5
-0.0323315 -0.493657 0.096695 0.5 0.5 0.5
-0.0327852 -0.493887 0.0964724 0.5 0.5 0.5
0.0270211 -0.490505 0.094674 0.5 0.5 0.5
0.0536266 -0.488403 0.0995154 0.5 0.5 0.5
0.0557193 -0.488158 0.0968218 0.5 0.5 0.5
-0.0574218 -0.485104 0.0980435 0.5 0.5 0.5
0.0223382 -0.483598 0.097519 0.5 0.5 0.5
0.0228767 -0.485705 0.0950907 0.5 0.5 0.5
0.0690833 -0.487324 0.0946386 0.5 0.5 0.5
0.0668527 -0.481352 0.0985304 0.5 0.5 0.5
-0.0640263 -0.481424 0.0982868 0.5 0.5 0.5
-0.022334 -0.483493 0.101334 0.5 0.5 0.5
0.0649765 -0.484855 0.0950545 0.5 0.5 0.5
0.103692 -0.476425 0.0940967 0.5 0.5 0.5
0.0183344 -0.466051 0.0907969 0.5 0.5 0.5
-0.0918687 -0.459711 0.093114 0.5 0.5 0.5
0.0573546 -0.459495 0.0982018 0.5 0.5 0.5
-0.0367434 -0.452664 0.0987422 0.5 0.5 0.5
0.0308083 -0.452457 0.0927855 0.5 0.5 0.5
0.0293543 -0.454016 0.0949908 0.5 0.5 0.5
0.00358815 -0.165438 0.0976726 0.5 0.5 0.5
0.000498699 -0.168664 0.0953356 0.5 0.5 0.5
-0.00969469 -0.166862 0.0958447 0.5 0.5 0.5
0.00333124 -0.17333 0.0923636 0.5 0.5 0.5
0.00480292 -0.170948 0.0938734 0.5 0.5 0.5
0.00686192 -0.163125 0.0990866 0.5 0.5 0.5
0.0183699 -0.1564 0.101698 0.5 0.5 0.5
0.0301398 -0.160284 0.0968152 0.5 0.5 0.5
0.0356423 -0.15191 0.100257 0.5 0.5 0.5
-0.0399424 -0.14938 0.0991551 0.5 0.5 0.5
0.0434594 -0.149854 0.0985558 0.5 0.5 0.5
0.0375552 -0.148677 0.101417 0.5 0.5 0.5
-0.0546413 -0.145732 0.0948522 0.5 0.5 0.5
-0.0551809 -0.149494 0.0926375 0.5 0.5 0.5
-0.0569528 -0.14835 0.0923705 0.5 0.5 0.5
-0.0595855 -0.143443 0.0932877 0.5 0.5 0.5
-0.0558072 -0.139338 0.0968753 0.5 0.5 0.5
0.0676123 -0.140051 0.0916177 0.5 0.5 0.5
0.0660769 -0.138462 0.0931064 0.5 0.5 0.5
0.0665541 -0.128906 0.0962228 0.5 0.5 0.5
0.0720082 -0.130045 0.0925384 0.5 0.5 0.5
-0.062417 -0.116698 0.100685 0.5 0.5 0.5
-0.0704147 -0.111389 0.0969936 0.5 0.5 0.5
-0.0682148 -0.116258 0.0972048 0.5 0.5 0.5
0.0651888 -0.118835 0.0997729 0.5 0.5 0.5
0.0677569 -0.117527 0.0985046 0.5 0.5 0.5
0.0655511 -0.119044 0.0995091 0.5 0.5 0.5
0.0732104 -0.0984342 0.0979945 0.5 0.5 0.5
0.0686954 -0.0919714 0.100638 0.5 0.5 0.5
0.0708042 -0.0944348 0.0994062 0.5 0.5 0.5
-0.0596547 -0.0659072 0.0980488 0.5 0.5 0.5
-0.0617203 -0.0791249 0.100264 0.5 0.5 0.5
-0.0668958 -0.0831631 0.0984172 0.5 0.5 0.5
0.0670609 -0.0862117 0.100571 0.5 0.5 0.5
0.0673963 -0.0553118 0.0921774 0.5 0.5 0.5
0.0675841 -0.0649206 0.0946177 0.5 0.5 0.5
0.0668387 -0.0801936 0.0991104 0.5 0.5 0.5
0.0728627 -0.0576076 0.0895718 0.5 0.5 0.5
-0.0505784 -0.0324764 0.0934447 0.5 0.5 0.5
-0.0405212 -0.0321147 0.0974646 0.5 0.5 0.5
-0.0387024 -0.0372818 0.0996792 0.5 0.5 0.5
-0.0403945 -0.0407199 0.100103 0.5 0.5 0.5
-0.043205 -0.0383145 0.0983618 0.5 0.5 0.5
-0.0344326 -0.0365648 0.100998 0.5 0.5 0.5
-0.0325988 -0.0259289 0.0984263 0.5 0.5 0.5
-0.0332249 -0.0166192 0.095388 0.5 0.5 0.5
-0.0389544 -0.00975276 0.0912892 0.5 0.5 0.5
0.0212753 -0.00500439 0.0954376 0.5 0.5 0.5
0.0299624 -0.00437791 0.0932007 0.5 0.5 0.5
0.0290004 -0.024341 0.0992816 0.5 0.5 0.5
0.0450337 -0.0235211 0.0940857 0.5 0.5 0.5
0.0405205 -0.0178454 0.0939662 0.5 0.5 0.5
0.0452023 -0.020611 0.0931379 0.5 0.5 0.5
0.0439643 -0.0193998 0.0932106 0.5 0.5 0.5
0.220781 0.0308936 0.0955089 0.5 0.5 0.5
0.219834 0.0266127 0.0893322 0.5 0.5 0.5
0.22825 0.0281374 0.0950122 0.5 0.5 0.5
0.228264 0.0247033 0.0900823 0.5 0.5 0.5
0.229735 0.030803 0.0992854 0.5 0.5 0.5
0.225256 0.0229245 0.0866292 0.5 0.5 0.5
0.236634 0.0317225 0.102398 0.5 0.5 0.5
0.257483 0.0368837 0.0969273 0.5 0.5 0.5
-0.211099 0.0399634 0.0975749 0.5 0.5 0.5
0.263617 0.0459726 0.100724 0.5 0.5 0.5
0.261764 0.0431801 0.100976 0.5 0.5 0.5
0.262313 0.0424452 0.0988525 0.5 0.5 0.5
-0.269073 0.0598459 0.103142 0.5 0.5 0.5
0.269853 0.0529994 0.093609 0.5 0.5 0.5
0.188753 0.0615908 0.0932068 0.5 0.5 0.5
0.188144 0.0629121 0.0941778 0.5 0.5 0.5
0.271172 0.0596485 0.0965658 0.5 0.5 0.5
0.271568 0.0652951 0.097517 0.5 0.5 0.5
0.272677 0.0686407 0.100295 0.5 0.5 0.5
-0.273135 0.0726487 0.0933475 0.5 0.5 0.5
-0.201496 0.0816591 0.0973554 0.5 0.5 0.5
0.208071 0.0891049 0.100342 0.5 0.5 0.5
0.20958 0.0893548 0.0909483 0.5 0.5 0.5
-0.255321 0.0960808 0.0961209 0.5 0.5 0.5
-0.256038 0.0956057 0.0986355 0.5 0.5 0.5
-0.248651 0.100086 0.108495 0.5 0.5 0.5
-0.238007 0.101013 0.0958174 0.5 0.5 0.5
-0.241344 0.100891 0.103337 0.5 0.5 0.5
0.216284 0.0968065 0.0991353 0.5 0.5 0.5
0.215603 0.0966806 0.101451 0.5 0.5 0.5
0.220062 0.0982296 0.0935091 0.5 0.5 0.5
0.236646 0.101153 0.0925133 0.5 0.5 0.5
0.23836 0.100941 0.10302 0.5 0.5 0.5
-0.00508025 0.175262 0.0958661 0.5 0.5 0.5
0.0224188 0.172331 0.0910292 0.5 0.5 0.5
0.0137531 0.17394 0.0940088 0.5 0.5 0.5
0.0272394 0.171984 0.0900172 0.5 0.5 0.5
-0.0338384 0.182642 0.0982525 0.5 0.5 0.5
-0.0477723 0.183232 0.0919756 0.5 0.5 0.5
0.0438328 0.183034 0.0943527 0.5 0.5 0.5
0.0418521 0.184354 0.0959631 0.5 0.5 0.5
0.0493966 0.183486 0.0916804 0.5 0.5 0.5
-0.04581 0.190418 0.0954945 0.5 0.5 0.5
-0.0472141 0.191687 0.0946449 0.5 0.5 0.5
-0.0364729 0.192463 0.0989755 0.5 0.5 0.5
-0.0396143 0.192765 0.0978117 0.5 0.5 0.5
0.0396577 0.190733 0.0986734 0.5 0.5 0.5
0.047217 0.194766 0.094961 0.5 0.5 0.5
0.0386892 0.195309 0.0981151 0.5 0.5 0.5
0.0383652 0.19576 0.0979344 0.5 0.5 0.5
0.0336671 0.202228 0.0935771 0.5 0.5 0.5
0.0507967 0.196034 0.0927622 0.5 0.5 0.5
-0.0047352 0.202727 0.0941002 0.5 0.5 0.5
0.0166543 0.202424 0.0947016 0.5 0.5 0.5
-0.0171252 0.201441 0.0962356 0.5 0.5 0.5
-0.0124786 0.201556 0.0960582 0.5 0.5 0.5
-0.048092 0.213896 0.0983186 0.5 0.5 0.5
-0.0350088 0.212807 0.0958627 0.5 0.5 0.5
-0.029778 0.212832 0.0976312 0.5 0.5 0.5
0.026253 0.213191 0.0981896 0.5 0.5 0.5
-0.00484548 0.213495 0.095192 0.5 0.5 0.5
-0.00390821 0.213114 0.0976763 0.5 0.5 0.5
-0.00252375 0.212959 0.0987271 0.5 0.5 0.5
0.0369034 0.213297 0.0988669 0.5 0.5 0.5
0.0523916 0.216105 0.0994081 0.5 0.5 0.5
0.0543041 0.216517 0.0989257 0.5 0.5 0.5
0.0568028 0.218557 0.0996132 0.5 0.5 0.5
0.0594651 0.225691 0.102297 0.5 0.5 0.5
0.0645543 0.230656 0.0965775 0.5 0.5 0.5
-0.059336 0.242551 0.0923023 0.5 0.5 0.5
-0.0603255 0.243455 0.0905559 0.5 0.5 0.5
0.0617842 0.236894 0.0964008 0.5 0.5 0.5
0.0572461 0.242754 0.0960538 0.5 0.5 0.5
0.0473875 0.258003 0.0950429 0.5 0.5 0.5
-0.0365513 0.2642 0.0967886 0.5 0.5 0.5
-0.0348909 0.267295 0.0950728 0.5 0.5 0.5
0.0407935 0.267465 0.0934768 0.5 0.5 0.5
-0.0234732 0.273026 0.0941423 0.5 0.5 0.5
-0.0149886 0.273621 0.0948736 0.5 0.5 0.5
-0.00515692 0.273529 0.0957487 0.5 0.5 0.5
-0.00193427 0.272576 0.0967916 0.5 0.5 0.5
0.00552344 0.271083 0.0985048 0.5 0.5 0.5
-0.00916416 0.309776 0.0963115 0.5 0.5 0.5
-0.0117512 0.310907 0.0948367 0.5 0.5 0.5
0.0167068 0.314798 0.0922955 0.5 0.5 0.5
0.0078483 0.318379 0.0988485 0.5 0.5 0.5
0.0171092 0.319199 0.0912035 0.5 0.5 0.5
0.0158356 0.324592 0.0909162 0.5 0.5 0.5
-4.54282e-05 0.324452 0.0979085 0.5 0.5 0.5
0.00347985 0.324915 0.0973361 0.5 0.5 0.5
-0.00331661 0.325921 0.0962956 0.5 0.5 0.5
-0.0389297 -0.495131 0.0940064 0.5 0.5 0.5
0.0394456 -0.496085 0.0885816 0.5 0.5 0.5
-0.0850854 -0.494194 0.0905852 0.5 0.5 0.5
-0.0257347 -0.491642 0.0847327 0.5 0.5 0.5
-0.0266093 -0.492127 0.0914042 0.5 0.5 0.5
0.0352283 -0.494431 0.0945611 0.5 0.5 0.5
0.0821986 -0.494819 0.0878231 0.5 0.5 0.5
0.0894088 -0.493659 0.0921994 0.5 0.5 0.5
-0.0678878 -0.48824 0.0918317 0.5 0.5 0.5
0.06806 -0.48913 0.0891961 0.5 0.5 0.5
-0.100768 -0.477476 0.0955629 0.5 0.5 0.5
-0.0985793 -0.483351 0.0955166 0.5 0.5 0.5
-0.0183532 -0.462816 0.0916526 0.5 0.5 0.5
-0.0630709 -0.459959 0.0907084 0.5 0.5 0.5
-0.0535488 -0.456152 0.095157 0.5 0.5 0.5
-0.0589393 -0.459537 0.0933787 0.5 0.5 0.5
-0.0563537 -0.45606 0.091468 0.5 0.5 0.5
0.0605556 -0.457379 0.0913494 0.5 0.5 0.5
0.0640475 -0.458133 0.0885488 0.5 0.5 0.5
0.0774333 -0.457295 0.0906065 0.5 0.5 0.5
-0.0503465 -0.449356 0.0847392 0.5 0.5 0.5
-0.0388823 -0.449314 0.0910826 0.5 0.5 0.5
-0.0281756 -0.45211 0.0885685 0.5 0.5 0.5
-0.0305177 -0.451315 0.0904993 0.5 0.5 0.5
-0.0238155 -0.455171 0.0882028 0.5 0.5 0.5
0.0489021 -0.449598 0.0871796 0.5 0.5 0.5
0.0488638 -0.451614 0.0930438 0.5 0.5 0.5
0.04269 -0.450942 0.0945587 0.5 0.5 0.5
0.053818 -0.453906 0.0936236 0.5 0.5 0.5
0.0349927 -0.450811 0.09191 0.5 0.5 0.5
0.0463085 -0.448465 0.0846042 0.5 0.5 0.5
0.0413441 -0.449793 0.0912347 0.5 0.5 0.5
0.0230156 -0.175847 0.0879687 0.5 0.5 0.5
0.0226495 -0.173324 0.089932 0.5 0.5 0.5
-0.0261177 -0.172833 0.0888871 0.5 0.5 0.5
-0.0200215 -0.174133 0.089213 0.5 0.5 0.5
-0.0183015 -0.177514 0.0869783 0.5 0.5 0.5
-0.0177598 -0.172224 0.0910682 0.5 0.5 0.5
-0.0154197 -0.17162 0.0918397 0.5 0.5 0.5
-0.00312809 -0.175676 0.0901643 0.5 0.5 0.5
-0.0661515 -0.135278 0.0929483 0.5 0.5 0.5
0.0699429 -0.140289 0.089925 0.5 0.5 0.5
-0.0854088 -0.12371 0.0829737 0.5 0.5 0.5
-0.0735487 -0.133455 0.0886219 0.5 0.5 0.5
-0.075808 -0.130835 0.0877907 0.5 0.5 0.5
-0.0732662 -0.118222 0.0932715 0.5 0.5 0.5
-0.0730629 -0.115122 0.0942604 0.5 0.5 0.5
-0.0736061 -0.123964 0.0914662 0.5 0.5 0.5
0.0826048 -0.113297 0.0896594 0.5 0.5 0.5
-0.0802518 -0.0960687 0.0914102 0.5 0.5 0.5
0.0831469 -0.100065 0.0906369 0.5 0.5 0.5
0.0846446 -0.0994202 0.0895168 0.5 0.5 0.5
0.0852292 -0.109194 0.088401 0.5 0.5 0.5
-0.0673225 -0.0640543 0.0932366 0.5 0.5 0.5
-0.0707667 -0.0818998 0.0955856 0.5 0.5 0.5
-0.0667956 -0.0540709 0.0909548 0.5 0.5 0.5
0.0804006 -0.0831692 0.0908489 0.5 0.5 0.5
-0.0807536 -0.082885 0.088916 0.5 0.5 0.5
-0.0773809 -0.0643877 0.0862597 0.5 0.5 0.5
0.0807596 -0.0763443 0.0886862 0.5 0.5 0.5
0.0763544 -0.0735132 0.091314 0.5 0.5 0.5
0.077425 -0.0713783 0.0898964 0.5 0.5 0.5
0.0781328 -0.0758601 0.0905852 0.5 0.5 0.5
-0.0464611 -0.00359769 0.0861418 0.5 0.5 0.5
-0.0522849 -0.0273205 0.091021 0.5 0.5 0.5
-0.0443784 -0.0112928 0.0895539 0.5 0.5 0.5
-0.0517999 -0.0134664 0.0868284 0.5 0.5 0.5
-0.0503743 -0.0150471 0.0879889 0.5 0.5 0.5
0.0521231 -0.012286 0.0872789 0.5 0.5 0.5
0.0567862 -0.0397106 0.0938704 0.5 0.5 0.5
0.0493519 -0.0362139 0.0962632 0.5 0.5 0.5
0.0528895 -0.0341795 0.0939436 0.5 0.5 0.5
-0.0258818 0.0145408 0.0859084 0.5 0.5 0.5
-0.0251929 0.00346329 0.0906982 0.5 0.5 0.5
-0.0275929 0.00617015 0.0889819 0.5 0.5 0.5
-0.0281771 0.0109859 0.0868299 0.5 0.5 0.5
-0.00229557 -0.000587421 0.0955303 0.5 0.5 0.5
-0.000934579 0.0204763 0.0871219 0.5 0.5 0.5
0.0010193 0.00969467 0.0914624 0.5 0.5 0.5
0.0209206 0.00256268 0.09262 0.5 0.5 0.5
0.0246359 0.0126142 0.0876015 0.5 0.5 0.5
0.0229359 0.0157789 0.0867252 0.5 0.5 0.5
0.0161668 -0.00134094 0.0948899 0.5 0.5 0.5
0.0128586 0.0159869 0.0881807 0.5 0.5 0.5
0.232362 0.0261076 0.0929913 0.5 0.5 0.5
0.231596 0.0167445 0.0776572 0.5 0.5 0.5
-0.250208 0.0262459 0.0862849 0.5 0.5 0.5
-0.248105 0.027577 0.0909096 0.5 0.5 0.5
-0.259015 0.0388456 0.0976571 0.5 0.5 0.5
0.205401 0.041953 0.0921247 0.5 0.5 0.5
0.20929 0.0392981 0.0942664 0.5 0.5 0.5
0.262726 0.0412379 0.0956804 0.5 0.5 0.5
0.261826 0.0394962 0.094208 0.5 0.5 0.5
-0.26648 0.0473644 0.0977082 0.5 0.5 0.5
-0.261301 0.0357697 0.0870604 0.5 0.5 0.5
-0.264221 0.0451101 0.0991251 0.5 0.5 0.5
-0.204063 0.0427285 0.0913496 0.5 0.5 0.5
-0.209956 0.0371292 0.0923228 0.5 0.5 0.5
0.205539 0.0438124 0.0943188 0.5 0.5 0.5
-0.201929 0.04606 0.0909209 0.5 0.5 0.5
-0.19186 0.054366 0.0932579 0.5 0.5 0.5
-0.195576 0.053207 0.0910391 0.5 0.5 0.5
-0.197923 0.0496673 0.0922187 0.5 0.5 0.5
0.196554 0.0505619 0.0930907 0.5 0.5 0.5
0.272646 0.0626249 0.0884371 0.5 0.5 0.5
0.272393 0.0613662 0.0900543 0.5 0.5 0.5
0.193083 0.0730722 0.0931322 0.5 0.5 0.5
-0.194828 0.0759244 0.0944135 0.5 0.5 0.5
-0.198967 0.0759684 0.0850041 0.5 0.5 0.5
0.202061 0.0793638 0.0864588 0.5 0.5 0.5
0.274059 0.0822207 0.0947143 0.5 0.5 0.5
-0.269223 0.0875624 0.0926325 0.5 0.5 0.5
-0.268078 0.0874947 0.0896157 0.5 0.5 0.5
0.20784 0.0863985 0.0833991 0.5 0.5 0.5
-0.259756 0.0928365 0.0912301 0.5 0.5 0.5
-0.258102 0.0937229 0.0869122 0.5 0.5 0.5
-0.260789 0.0919057 0.0889832 0.5 0.5 0.5
-0.258272 0.0939426 0.0914267 0.5 0.5 0.5
-0.212986 0.0929771 0.0910981 0.5 0.5 0.5
-0.213729 0.0946057 0.0961563 0.5 0.5 0.5
-0.212284 0.091651 0.0874964 0.5 0.5 0.5
-0.224302 0.100142 0.0933137 0.5 0.5 0.5
-0.23059 0.100508 0.0877659 0.5 0.5 0.5
0.226909 0.0999989 0.0897918 0.5 0.5 0.5
0.240476 0.101443 0.0913851 0.5 0.5 0.5
-0.0142456 0.176587 0.0971482 0.5 0.5 0.5
0.0398709 0.173611 0.0866552 0.5 0.5 0.5
0.0319726 0.170947 0.0876746 0.5 0.5 0.5
0.0477198 0.174974 0.0840939 0.5 0.5 0.5
0.0312733 0.170989 0.0880999 0.5 0.5 0.5
0.045702 0.180592 0.0911645 0.5 0.5 0.5
0.0611322 0.190738 0.0847106 0.5 0.5 0.5
-0.049702 0.197353 0.0912998 0.5 0.5 0.5
-0.0495057 0.202979 0.0866055 0.5 0.5 0.5
-0.0110938 0.203262 0.0896984 0.5 0.5 0.5
0.0131828 0.203269 0.0907492 0.5 0.5 0.5
0.0083217 0.203236 0.0931195 0.5 0.5 0.5
-0.00432543 0.203186 0.0913321 0.5 0.5 0.5
0.0234393 0.203629 0.0900701 0.5 0.5 0.5
0.0178238 0.203687 0.0886802 0.5 0.5 0.5
0.00913084 0.203432 0.0884754 0.5 0.5 0.5
0.0380677 0.203749 0.0891167 0.5 0.5 0.5
0.048834 0.20113 0.0897992 0.5 0.5 0.5
-0.00230925 0.216271 0.088207 0.5 0.5 0.5
-0.00492884 0.213757 0.0933768 0.5 0.5 0.5
0.0623836 0.215103 0.0864287 0.5 0.5 0.5
-0.0636502 0.221504 0.0945402 0.5 0.5 0.5
0.0678707 0.218497 0.0866743 0.5 0.5 0.5
0.0691636 0.219478 0.0860893 0.5 0.5 0.5
-0.0635308 0.223377 0.0959538 0.5 0.5 0.5
-0.0676955 0.234583 0.0853239 0.5 0.5 0.5
-0.0630784 0.233668 0.0957711 0.5 0.5 0.5
-0.064422 0.239322 0.0882508 0.5 0.5 0.5
-0.061914 0.244667 0.0874469 0.5 0.5 0.5
0.0512791 0.252431 0.0948042 0.5 0.5 0.5
0.0519973 0.249428 0.0955435 0.5 0.5 0.5
0.0502461 0.257365 0.0934718 0.5 0.5 0.5
-0.0494203 0.254816 0.0935629 0.5 0.5 0.5
-0.0506935 0.260924 0.0893363 0.5 0.5 0.5
-0.0245888 0.275757 0.0904355 0.5 0.5 0.5
-0.0214513 0.279503 0.0849456 0.5 0.5 0.5
-0.0192686 0.278566 0.0868478 0.5 0.5 0.5
0.0181828 0.276667 0.0905475 0.5 0.5 0.5
0.0265743 0.276586 0.0892381 0.5 0.5 0.5
-0.00982712 0.302633 0.0901172 0.5 0.5 0.5
-0.00464573 0.300779 0.0932354 0.5 0.5 0.5
0.0155559 0.305368 0.0907431 0.5 0.5 0.5
-0.0151669 0.321518 0.089488 0.5 0.5 0.5
-0.0952155 -0.490496 0.0888469 0.5 0.5 0.5
-0.0336568 -0.495569 0.0895912 0.5 0.5 0.5
0.028452 -0.491935 0.0868282 0.5 0.5 0.5
0.057825 -0.490393 0.0857178 0.5 0.5 0.5
0.0592128 -0.489232 0.088931 0.5 0.5 0.5
0.0591958 -0.489275 0.0886635 0.5 0.5 0.5
-0.101639 -0.48843 0.0846564 0.5 0.5 0.5
-0.0663429 -0.489865 0.0866217 0.5 0.5 0.5
0.099246 -0.489963 0.0860753 0.5 0.5 0.5
0.117977 -0.486454 0.0835153 0.5 0.5 0.5
-0.116506 -0.481268 0.0860926 0.5 0.5 0.5
-0.121985 -0.482333 0.0827854 0.5 0.5 0.5
0.019197 -0.48143 0.0863868 0.5 0.5 0.5
0.0197984 -0.482351 0.0853892 0.5 0.5 0.5
0.0175437 -0.476526 0.0841878 0.5 0.5 0.5
0.119375 -0.47806 0.0856603 0.5 0.5 0.5
-0.107423 -0.470282 0.0846015 0.5 0.5 0.5
-0.105223 -0.468998 0.0845041 0.5 0.5 0.5
0.104281 -0.467865 0.0881916 0.5 0.5 0.5
0.119345 -0.469096 0.0808542 0.5 0.5 0.5
0.115718 -0.470496 0.0832091 0.5 0.5 0.5
-0.0858452 -0.455285 0.0824825 0.5 0.5 0.5
-0.081291 -0.455381 0.088518 0.5 0.5 0.5
-0.0715724 -0.456606 0.0866331 0.5 0.5 0.5
-0.0724292 -0.456112 0.0857867 0.5 0.5 0.5
0.0712927 -0.455195 0.0841801 0.5 0.5 0.5
-0.050021 -0.452971 0.0941145 0.5 0.5 0.5
-0.0553092 -0.451231 0.0844571 0.5 0.5 0.5
0.052662 -0.450134 0.0851994 0.5 0.5 0.5
-0.0446606 -0.448839 0.0871223 0.5 0.5 0.5
-0.0371675 -0.448224 0.0850908 0.5 0.5 0.5
-0.00707246 -0.179585 0.0866897 0.5 0.5 0.5
-0.000856965 -0.183185 0.0837127 0.5 0.5 0.5
0.0088778 -0.185625 0.0813254 0.5 0.5 0.5
0.00556931 -0.176115 0.089944 0.5 0.5 0.5
0.0119334 -0.187368 0.0796451 0.5 0.5 0.5
0.0476478 -0.181462 0.0758839 0.5 0.5 0.5
0.0333543 -0.174455 0.0861694 0.5 0.5 0.5
0.0330217 -0.175202 0.0856734 0.5 0.5 0.5
0.0399375 -0.175308 0.0833488 0.5 0.5 0.5
0.0448029 -0.179033 0.0787663 0.5 0.5 0.5
0.0398377 -0.180048 0.0795538 0.5 0.5 0.5
-0.0496378 -0.174841 0.0788963 0.5 0.5 0.5
-0.0411111 -0.174531 0.0826688 0.5 0.5 0.5
-0.033987 -0.171352 0.0876246 0.5 0.5 0.5
0.0535719 -0.176182 0.0772937 0.5 0.5 0.5
0.0551539 -0.173025 0.0789387 0.5 0.5 0.5
-0.0529766 -0.169804 0.0811531 0.5 0.5 0.5
-0.0567508 -0.169564 0.0794479 0.5 0.5 0.5
0.0575834 -0.168054 0.0814441 0.5 0.5 0.5
-0.0596389 -0.155842 0.0865929 0.5 0.5 0.5
0.0577385 -0.159848 0.0864848 0.5 0.5 0.5
0.0587568 -0.166908 0.0815216 0.5 0.5 0.5
-0.0681222 -0.152552 0.0832347 0.5 0.5 0.5
-0.0637116 -0.149954 0.0875893 0.5 0.5 0.5
0.0663431 -0.152308 0.0859383 0.5 0.5 0.5
0.0618678 -0.155118 0.0868657 0.5 0.5 0.5
-0.0747557 -0.152436 0.0789496 0.5 0.5 0.5
-0.0707232 -0.140535 0.0876291 0.5 0.5 0.5
-0.0775415 -0.151411 0.0775552 0.5 0.5 0.5
-0.0745494 -0.144896 0.0828433 0.5 0.5 0.5
-0.0745064 -0.145103 0.0827694 0.5 0.5 0.5
-0.0771671 -0.148353 0.0793334 0.5 0.5 0.5
0.0748195 -0.147636 0.0827246 0.5 0.5 0.5
0.0787338 -0.139414 0.0841032 0.5 0.5 0.5
-0.0864529 -0.130953 0.0791643 0.5 0.5 0.5
-0.0875409 -0.127667 0.0795804 0.5 0.5 0.5
0.0787686 -0.123604 0.0901253 0.5 0.5 0.5
0.0843423 -0.114284 0.0880396 0.5 0.5 0.5
0.0855891 -0.11219 0.0874919 0.5 0.5 0.5
0.0719377 -0.0482925 0.0873309 0.5 0.5 0.5
0.0730367 -0.0406755 0.08409 0.5 0.5 0.5
-0.0681966 -0.0458373 0.0877349 0.5 0.5 0.5
-0.0677571 -0.023781 0.0804084 0.5 0.5 0.5
-0.0633631 -0.026106 0.0842438 0.5 0.5 0.5
-0.0608708 -0.0254495 0.0854685 0.5 0.5 0.5
-0.0651081 -0.0454968 0.0897058 0.5 0.5 0.5
-0.0609499 -0.0188121 0.083207 0.5 0.5 0.5
-0.0621157 -0.00632027 0.0783616 0.5 0.5 0.5
0.0656553 -0.0359244 0.0876606 0.5 0.5 0.5
0.0626896 -0.0368356 0.0896561 0.5 0.5 0.5
0.0657577 -0.0350095 0.0873012 0.5 0.5 0.5
0.0568143 -0.00850569 0.0836996 0.5 0.5 0.5
0.0604951 -0.0273175 0.0877809 0.5 0.5 0.5
-0.0540017 -0.0188891 0.0873617 0.5 0.5 0.5
-0.0537849 -0.0122342 0.0852936 0.5 0.5 0.5
-0.0552883 -0.0311324 0.0906348 0.5 0.5 0.5
-0.0460859 0.000675631 0.084512 0.5 0.5 0.5
-0.0447403 0.00999963 0.0810848 0.5 0.5 0.5
-0.0484771 -0.000892999 0.0840891 0.5 0.5 0.5
0.0324182 0.022294 0.0814342 0.5 0.5 0.5
0.0417531 0.00321588 0.0864329 0.5 0.5 0.5
0.0368708 0.0100893 0.0852276 0.5 0.5 0.5
0.0396957 0.00330118 0.087092 0.5 0.5 0.5
0.0342563 -0.00352696 0.0917625 0.5 0.5 0.5
-0.0341187 0.00275711 0.0884643 0.5 0.5 0.5
-0.0362465 -0.0021948 0.0898079 0.5 0.5 0.5
-0.0387399 -0.00039466 0.0882028 0.5 0.5 0.5
-0.0334537 0.00412588 0.0881192 0.5 0.5 0.5
0.0207114 0.0257435 0.083166 0.5 0.5 0.5
0.019374 0.0315184 0.0811092 0.5 0.5 0.5
-0.0231822 0.00872914 0.0889925 0.5 0.5 0.5
-0.0187948 0.0152268 0.0873342 0.5 0.5 0.5
-0.014607 0.00944248 0.0904595 0.5 0.5 0.5
-0.0138892 0.0109111 0.0899608 0.5 0.5 0.5
-0.0143763 0.032302 0.0812307 0.5 0.5 0.5
0.012421 0.0261586 0.0840547 0.5 0.5 0.5
0.00559815 0.0213809 0.0866761 0.5 0.5 0.5
0.00599526 0.0258567 0.0848027 0.5 0.5 0.5
0.0120923 0.0219123 0.0858274 0.5 0.5 0.5
0.00898549 0.0297493 0.0829164 0.5 0.5 0.5
0.0113684 0.0291534 0.0829292 0.5 0.5 0.5
-0.221123 0.0249294 0.0874868 0.5 0.5 0.5
-0.00852635 0.0235663 0.0853018 0.5 0.5 0.5
-0.00534868 0.0112302 0.0906724 0.5 0.5 0.5
-0.0111667 0.0257976 0.0841805 0.5 0.5 0.5
-0.214538 0.0324564 0.092326 0.5 0.5 0.5
-0.210392 0.0245268 0.0786156 0.5 0.5 0.5
-0.211265 0.0276544 0.0833033 0.5 0.5 0.5
-0.210766 0.0356458 0.0916638 0.5 0.5 0.5
0.216725 0.0257016 0.0856674 0.5 0.5 0.5
0.21215 0.029046 0.0857981 0.5 0.5 0.5
0.205271 0.0350391 0.0838358 0.5 0.5 0.5
0.211248 0.0347964 0.0914822 0.5 0.5 0.5
0.262292 0.0342869 0.0801575 0.5 0.5 0.5
-0.266312 0.0422528 0.0867164 0.5 0.5 0.5
-0.267317 0.0408994 0.0778477 0.5 0.5 0.5
0.267791 0.0433225 0.0826868 0.5 0.5 0.5
0.268901 0.0474235 0.0881077 0.5 0.5 0.5
0.268465 0.0474643 0.0903124 0.5 0.5 0.5
0.198446 0.0498546 0.0841048 0.5 0.5 0.5
0.19524 0.0634962 0.0835883 0.5 0.5 0.5
-0.196377 0.0688196 0.0837694 0.5 0.5 0.5
-0.271905 0.0761612 0.0865101 0.5 0.5 0.5
-0.272235 0.0793654 0.0871496 0.5 0.5 0.5
-0.271426 0.0744478 0.0827716 0.5 0.5 0.5
0.271543 0.0749352 0.0835931 0.5 0.5 0.5
-0.204644 0.0832897 0.0871012 0.5 0.5 0.5
-0.204796 0.0840866 0.0893158 0.5 0.5 0.5
0.268115 0.0841966 0.0838989 0.5 0.5 0.5
0.270335 0.0806901 0.0845354 0.5 0.5 0.5
-0.267923 0.0872793 0.0887081 0.5 0.5 0.5
-0.26759 0.0866087 0.0866888 0.5 0.5 0.5
0.264084 0.0883468 0.0848468 0.5 0.5 0.5
0.265869 0.0862356 0.0831917 0.5 0.5 0.5
-0.260136 0.0916549 0.0839732 0.5 0.5 0.5
0.26078 0.0914071 0.0845827 0.5 0.5 0.5
-0.242505 0.100856 0.084032 0.5 0.5 0.5
0.221185 0.097152 0.0840608 0.5 0.5 0.5
0.22156 0.0985442 0.090208 0.5 0.5 0.5
0.226739 0.0982483 0.0792114 0.5 0.5 0.5
-0.010272 0.160355 0.0811698 0.5 0.5 0.5
-0.00932288 0.159375 0.0803346 0.5 0.5 0.5
-0.00787367 0.163942 0.0845429 0.5 0.5 0.5
-0.0090203 0.16097 0.0817938 0.5 0.5 0.5
0.0021102 0.162572 0.0836486 0.5 0.5 0.5
0.0076837 0.163691 0.0844456 0.5 0.5 0.5
-0.0274416 0.16051 0.078581 0.5 0.5 0.5
-0.0232308 0.167293 0.08601 0.5 0.5 0.5
0.0274416 0.167256 0.0854899 0.5 0.5 0.5
0.00973657 0.168884 0.0887566 0.5 0.5 0.5
0.0234733 0.167821 0.0863899 0.5 0.5 0.5
0.0148627 0.165521 0.0853904 0.5 0.5 0.5
-0.0580271 0.188857 0.0835747 0.5 0.5 0.5
-0.0569712 0.187966 0.084705 0.5 0.5 0.5
-0.0597054 0.195639 0.0817823 0.5 0.5 0.5
0.0590762 0.198073 0.0846896 0.5 0.5 0.5
-0.0239753 0.20284 0.0831855 0.5 0.5 0.5
-0.0253737 0.202835 0.0824481 0.5 0.5 0.5
-0.0145946 0.202966 0.0863015 0.5 0.5 0.5
-0.0165179 0.202713 0.0851493 0.5 0.5 0.5
0.0264581 0.203451 0.0849035 0.5 0.5 0.5
0.0274458 0.203142 0.0832083 0.5 0.5 0.5
0.0572681 0.203905 0.0794073 0.5 0.5 0.5
0.0570948 0.201498 0.0834711 0.5 0.5 0.5
-0.0411117 0.216137 0.0817072 0.5 0.5 0.5
-0.0402211 0.214441 0.0857572 0.5 0.5 0.5
-0.0321464 0.215982 0.0866076 0.5 0.5 0.5
0.0411288 0.214658 0.0870236 0.5 0.5 0.5
0.0485545 0.213858 0.0831413 0.5 0.5 0.5
0.0550924 0.213232 0.0890578 0.5 0.5 0.5
0.0754612 0.224946 0.0752403 0.5 0.5 0.5
-0.0568355 0.256423 0.0863856 0.5 0.5 0.5
-0.0601759 0.250689 0.0859361 0.5 0.5 0.5
0.058384 0.249116 0.0900314 0.5 0.5 0.5
-0.0448832 0.267393 0.0888218 0.5 0.5 0.5
0.0486615 0.266629 0.0887471 0.5 0.5 0.5
0.0524327 0.264542 0.0870069 0.5 0.5 0.5
0.0405522 0.272483 0.0877913 0.5 0.5 0.5
0.0377159 0.273608 0.0880329 0.5 0.5 0.5
0.046039 0.270425 0.0865691 0.5 0.5 0.5
0.0488488 0.269697 0.0851913 0.5 0.5 0.5
0.0415981 0.274222 0.0831989 0.5 0.5 0.5
-0.0315822 0.275906 0.0864347 0.5 0.5 0.5
-0.00635429 0.276975 0.0913662 0.5 0.5 0.5
0.00848376 0.282255 0.0825115 0.5 0.5 0.5
-0.00202723 0.281864 0.0835887 0.5 0.5 0.5
0.000363155 0.296628 0.0883211 0.5 0.5 0.5
0.00575933 0.29628 0.0857323 0.5 0.5 0.5
-0.0186667 0.315803 0.0830068 0.5 0.5 0.5
-0.0137028 0.326259 0.0857374 0.5 0.5 0.5
0.016001 0.325133 0.0898174 0.5 0.5 0.5
0.0176713 0.323791 0.0868712 0.5 0.5 0.5
0.0207902 0.317282 0.0863822 0.5 0.5 0.5
-0.00994188 0.33148 0.0821076 0.5 0.5 0.5
0.0166533 0.327091 0.0837265 0.5 0.5 0.5
-0.00168126 0.333864 0.0865542 0.5 0.5 0.5
-0.0725594 -0.492681 0.0765944 0.5 0.5 0.5
-0.0656253 -0.490392 0.0747812 0.5 0.5 0.5
-0.0272888 -0.491784 0.0803288 0.5 0.5 0.5
-0.0257038 -0.491173 0.0824831 0.5 0.5 0.5
0.0416997 -0.495802 0.0841513 0.5 0.5 0.5
0.0437907 -0.494659 0.0789904 0.5 0.5 0.5
0.0479971 -0.493722 0.0768087 0.5 0.5 0.5
0.0484115 -0.493891 0.0784675 0.5 0.5 0.5
0.0827966 -0.494839 0.0820357 0.5 0.5 0.5
-0.108929 -0.490764 0.0789318 0.5 0.5 0.5
0.103531 -0.489059 0.0812254 0.5 0.5 0.5
-0.125492 -0.478898 0.0800719 0.5 0.5 0.5
0.125622 -0.485542 0.0803553 0.5 0.5 0.5
0.130422 -0.478831 0.0749517 0.5 0.5 0.5
-0.123792 -0.47024 0.0766959 0.5 0.5 0.5
-0.121757 -0.468904 0.0778764 0.5 0.5 0.5
0.112728 -0.466469 0.0781321 0.5 0.5 0.5
0.123118 -0.467857 0.0761907 0.5 0.5 0.5
0.018689 -0.465574 0.085815 0.5 0.5 0.5
0.0220063 -0.460352 0.0740865 0.5 0.5 0.5
0.0217981 -0.459675 0.082134 0.5 0.5 0.5
0.100504 -0.461477 0.0748657 0.5 0.5 0.5
-0.0836627 -0.455041 0.0836483 0.5 0.5 0.5
-0.0798282 -0.453851 0.0798719 0.5 0.5 0.5
-0.0772409 -0.453396 0.0797245 0.5 0.5 0.5
-0.0820321 -0.455442 0.088321 0.5 0.5 0.5
-0.0831619 -0.454974 0.0837681 0.5 0.5 0.5
-0.0609042 -0.451139 0.0792946 0.5 0.5 0.5
-0.0277486 -0.450659 0.0774263 0.5 0.5 0.5
-0.0260065 -0.451976 0.0749365 0.5 0.5 0.5
-0.0307078 -0.449338 0.0800028 0.5 0.5 0.5
0.0748942 -0.452758 0.0802231 0.5 0.5 0.5
-0.0464471 -0.445919 0.0766888 0.5 0.5 0.5
0.0355449 -0.448181 0.0777515 0.5 0.5 0.5
0.0324936 -0.450216 0.082914 0.5 0.5 0.5
0.0422615 -0.445559 0.0763605 0.5 0.5 0.5
-0.0172917 -0.191758 0.0736477 0.5 0.5 0.5
-0.0143248 -0.189756 0.0761546 0.5 0.5 0.5
-0.0176258 -0.195515 0.0697347 0.5 0.5 0.5
0.0262432 -0.181633 0.0822894 0.5 0.5 0.5
0.0186905 -0.184081 0.0815235 0.5 0.5 0.5
-0.0364674 -0.192258 0.0695483 0.5 0.5 0.5
-0.0358695 -0.188182 0.0726311 0.5 0.5 0.5
-0.0392556 -0.191192 0.0699183 0.5 0.5 0.5
-0.0307456 -0.193178 0.0697186 0.5 0.5 0.5
-0.0406368 -0.182371 0.0763094 0.5 0.5 0.5
-0.0281023 -0.188298 0.0749283 0.5 0.5 0.5
-0.017819 -0.183606 0.0818756 0.5 0.5 0.5
-0.0204241 -0.186215 0.0788219 0.5 0.5 0.5
-0.0222973 -0.178786 0.0851998 0.5 0.5 0.5
-0.0720014 -0.164777 0.0743792 0.5 0.5 0.5
-0.0723041 -0.161237 0.0756054 0.5 0.5 0.5
-0.0708762 -0.16888 0.0733576 0.5 0.5 0.5
-0.0809221 -0.153133 0.0741654 0.5 0.5 0.5
0.080631 -0.147155 0.0790576 0.5 0.5 0.5
0.0735947 -0.161974 0.0762721 0.5 0.5 0.5
0.0902018 -0.145934 0.0720074 0.5 0.5 0.5
0.0845755 -0.136231 0.0807474 0.5 0.5 0.5
0.0858416 -0.139536 0.0783456 0.5 0.5 0.5
0.0975435 -0.127202 0.071929 0.5 0.5 0.5
-0.0930482 -0.105714 0.0796861 0.5 0.5 0.5
0.099402 -0.107778 0.0752533 0.5 0.5 0.5
0.102139 -0.0950993 0.0733165 0.5 0.5 0.5
0.0983416 -0.105024 0.0766553 0.5 0.5 0.5
0.0971848 -0.0920358 0.0782024 0.5 0.5 0.5
0.0912501 -0.0729586 0.0789765 0.5 0.5 0.5
0.092769 -0.0784909 0.0791882 0.5 0.5 0.5
-0.0870293 -0.0734111 0.0806736 0.5 0.5 0.5
-0.0786867 -0.0496426 0.0808428 0.5 0.5 0.5
-0.0817708 -0.0719487 0.0848424 0.5 0.5 0.5
-0.0814496 -0.0624183 0.0822605 0.5 0.5 0.5
-0.0819062 -0.047047 0.0772422 0.5 0.5 0.5
-0.0682281 -0.0130379 0.0762275 0.5 0.5 0.5
0.0748181 -0.0312329 0.0795185 0.5 0.5 0.5
0.0797254 -0.039978 0.078899 0.5 0.5 0.5
0.0726196 -0.0367344 0.0831239 0.5 0.5 0.5
0.0734263 -0.032283 0.0809415 0.5 0.5 0.5
0.0733888 -0.029902 0.0801286 0.5 0.5 0.5
0.0577531 -0.00478662 0.0818107 0.5 0.5 0.5
0.0685195 -0.0161232 0.0789113 0.5 0.5 0.5
0.0660992 -0.0198903 0.0818258 0.5 0.5 0.5
0.0663852 -0.00345782 0.0756716 0.5 0.5 0.5
0.0567628 0.00745134 0.0770014 0.5 0.5 0.5
0.0570899 0.0142184 0.0736294 0.5 0.5 0.5
0.0579232 0.0137667 0.0733113 0.5 0.5 0.5
-0.0516817 0.00249044 0.0809237 0.5 0.5 0.5
-0.0536919 0.0167765 0.0730824 0.5 0.5 0.5
-0.0401087 0.0120666 0.0821639 0.5 0.5 0.5
-0.0393113 0.0167768 0.0804053 0.5 0.5 0.5
-0.0367532 0.0103569 0.0843185 0.5 0.5 0.5
0.0388011 0.0244296 0.0784659 0.5 0.5 0.5
0.0496555 0.00898391 0.0802014 0.5 0.5 0.5
-0.0341561 0.0258781 0.078711 0.5 0.5 0.5
-0.0301131 0.0345702 0.0786042 0.5 0.5 0.5
-0.0370687 0.0290932 0.0771829 0.5 0.5 0.5
-0.0227957 0.0321445 0.0798861 0.5 0.5 0.5
-0.0207362 0.0333622 0.0799484 0.5 0.5 0.5
0.006238 0.0368036 0.0807004 0.5 0.5 0.5
0.260232 0.0309019 0.0785228 0.5 0.5 0.5
-0.0243981 0.0442051 0.0793189 0.5 0.5 0.5
-0.0104524 0.0471587 0.0785895 0.5 0.5 0.5
0.00999484 0.0422906 0.079088 0.5 0.5 0.5
-0.00419714 0.0411569 0.0795321 0.5 0.5 0.5
-0.269487 0.0449118 0.0735525 0.5 0.5 0.5
-0.201157 0.0429141 0.0838001 0.5 0.5 0.5
-0.200658 0.0434971 0.0830461 0.5 0.5 0.5
-0.046527 0.0521726 0.0779862 0.5 0.5 0.5
0.00622894 0.0485345 0.0779271 0.5 0.5 0.5
0.0316248 0.0536648 0.0800264 0.5 0.5 0.5
0.0419156 0.0510896 0.0793731 0.5 0.5 0.5
0.0378567 0.040433 0.0783254 0.5 0.5 0.5
0.0426696 0.0505947 0.0792753 0.5 0.5 0.5
-0.0532805 0.0519434 0.0758094 0.5 0.5 0.5
-0.0388675 0.0604168 0.0802707 0.5 0.5 0.5
-0.0225422 0.0462716 0.0794443 0.5 0.5 0.5
-0.0201462 0.0577615 0.0795849 0.5 0.5 0.5
0.0370858 0.0587432 0.0805102 0.5 0.5 0.5
0.0422904 0.061288 0.0804702 0.5 0.5 0.5
0.0420189 0.059033 0.080254 0.5 0.5 0.5
0.271632 0.0543343 0.0761163 0.5 0.5 0.5
0.271946 0.056504 0.0805636 0.5 0.5 0.5
0.271936 0.0570182 0.0840122 0.5 0.5 0.5
0.270698 0.0519307 0.0878256 0.5 0.5 0.5
-0.196995 0.0612645 0.0780547 0.5 0.5 0.5
-0.0339282 0.0677386 0.0805267 0.5 0.5 0.5
-0.0251855 0.0624599 0.080133 0.5 0.5 0.5
-0.0328906 0.0643871 0.0804559 0.5 0.5 0.5
-0.0289825 0.0558997 0.0802257 0.5 0.5 0.5
0.0189576 0.0566034 0.0783744 0.5 0.5 0.5
0.0261739 0.0549632 0.079485 0.5 0.5 0.5
0.0468569 0.0610207 0.0798338 0.5 0.5 0.5
0.0538553 0.0604861 0.0786434 0.5 0.5 0.5
0.196797 0.0607564 0.0799896 0.5 0.5 0.5
-0.196557 0.0637993 0.0788811 0.5 0.5 0.5
-0.0532264 0.0695035 0.0765626 0.5 0.5 0.5
0.0345859 0.065511 0.0802334 0.5 0.5 0.5
0.0372776 0.0657215 0.080301 0.5 0.5 0.5
-0.0390486 0.0663489 0.0801612 0.5 0.5 0.5
-0.0243945 0.0656096 0.0800544 0.5 0.5 0.5
-0.0230131 0.065293 0.07998 0.5 0.5 0.5
-0.0063225 0.0642724 0.0765532 0.5 0.5 0.5
-0.0111733 0.0654735 0.0774324 0.5 0.5 0.5
0.0190877 0.0693361 0.0773539 0.5 0.5 0.5
0.0215742 0.0747871 0.0770932 0.5 0.5 0.5
0.0338342 0.068631 0.0800456 0.5 0.5 0.5
0.199758 0.0728921 0.0774605 0.5 0.5 0.5
-0.201149 0.0750803 0.0766608 0.5 0.5 0.5
-0.0227558 0.0652098 0.0799541 0.5 0.5 0.5
0.0294741 0.0746152 0.0786435 0.5 0.5 0.5
0.0337279 0.0746976 0.0789584 0.5 0.5 0.5
0.0358514 0.07133 0.0796941 0.5 0.5 0.5
0.0318778 0.0786508 0.0781113 0.5 0.5 0.5
0.201217 0.076935 0.080808 0.5 0.5 0.5
-0.204611 0.0808321 0.0779636 0.5 0.5 0.5
-0.204088 0.0804297 0.079159 0.5 0.5 0.5
-0.0339026 0.0791245 0.0786361 0.5 0.5 0.5
0.0391577 0.0867274 0.0765623 0.5 0.5 0.5
0.04133 0.087587 0.0761219 0.5 0.5 0.5
0.0498003 0.0825154 0.0764682 0.5 0.5 0.5
0.0524903 0.0859023 0.0749693 0.5 0.5 0.5
0.205335 0.0822433 0.0792989 0.5 0.5 0.5
-0.257788 0.091205 0.0741949 0.5 0.5 0.5
-0.237714 0.100095 0.0797543 0.5 0.5 0.5
0.231606 0.100119 0.0835323 0.5 0.5 0.5
0.0241304 0.160393 0.0796339 0.5 0.5 0.5
0.0376025 0.162266 0.0771876 0.5 0.5 0.5
-0.0487935 0.1665 0.0730582 0.5 0.5 0.5
-0.0470629 0.167781 0.075793 0.5 0.5 0.5
-0.0484867 0.167677 0.0745247 0.5 0.5 0.5
0.0442535 0.170039 0.0812145 0.5 0.5 0.5
0.0535649 0.170061 0.0752098 0.5 0.5 0.5
-0.0540744 0.184282 0.0867639 0.5 0.5 0.5
-0.0564837 0.18375 0.0822136 0.5 0.5 0.5
-0.0535361 0.175225 0.0780598 0.5 0.5 0.5
0.0618748 0.192869 0.0841394 0.5 0.5 0.5
0.0614252 0.190325 0.0840978 0.5 0.5 0.5
0.0682468 0.19438 0.0739784 0.5 0.5 0.5
0.0150013 0.201555 0.0780196 0.5 0.5 0.5
0.0383309 0.202366 0.0765063 0.5 0.5 0.5
0.0390505 0.201828 0.0741786 0.5 0.5 0.5
0.0405621 0.203796 0.0819236 0.5 0.5 0.5
0.033939 0.202541 0.0780293 0.5 0.5 0.5
-0.0655099 0.215588 0.0781437 0.5 0.5 0.5
-0.0400755 0.218234 0.0790289 0.5 0.5 0.5
0.0644411 0.214523 0.080939 0.5 0.5 0.5
0.0671615 0.215585 0.0807863 0.5 0.5 0.5
0.0662458 0.214198 0.0712621 0.5 0.5 0.5
-0.070823 0.222362 0.0807709 0.5 0.5 0.5
-0.0713933 0.222215 0.0786435 0.5 0.5 0.5
-0.0398827 0.221787 0.0750491 0.5 0.5 0.5
-0.038104 0.220378 0.0778901 0.5 0.5 0.5
-0.0308594 0.222805 0.0774812 0.5 0.5 0.5
-0.0234321 0.21917 0.0825946 0.5 0.5 0.5
-0.0102519 0.221344 0.0804905 0.5 0.5 0.5
0.0271391 0.217809 0.0850905 0.5 0.5 0.5
0.0401881 0.219965 0.0784717 0.5 0.5 0.5
0.0322952 0.225368 0.0741159 0.5 0.5 0.5
0.0727732 0.219691 0.0752097 0.5 0.5 0.5
0.0722612 0.231742 0.0833979 0.5 0.5 0.5
-0.0654308 0.247816 0.0784206 0.5 0.5 0.5
0.0650457 0.249595 0.0808855 0.5 0.5 0.5
0.0661483 0.254801 0.0761925 0.5 0.5 0.5
0.0638274 0.249729 0.0826837 0.5 0.5 0.5
-0.0443588 0.272493 0.0817967 0.5 0.5 0.5
-0.0529596 0.268246 0.0795532 0.5 0.5 0.5
-0.0364386 0.276884 0.0805064 0.5 0.5 0.5
-0.00323161 0.284292 0.0806635 0.5 0.5 0.5
0.010858 0.288498 0.074265 0.5 0.5 0.5
0.0140859 0.288123 0.073872 0.5 0.5 0.5
0.0150613 0.287659 0.074222 0.5 0.5 0.5
0.0209227 0.282108 0.0801301 0.5 0.5 0.5
0.0154294 0.283092 0.08023 0.5 0.5 0.5
3.74618e-05 0.292564 0.0775716 0.5 0.5 0.5
0.0149625 0.300185 0.0824027 0.5 0.5 0.5
0.0215176 0.310276 0.0765308 0.5 0.5 0.5
-0.0178857 0.320386 0.0756217 0.5 0.5 0.5
-0.016693 0.324192 0.0757373 0.5 0.5 0.5
-0.0178105 0.320826 0.071172 0.5 0.5 0.5
-0.115156 -0.493341 0.0733141 0.5 0.5 0.5
-0.106201 -0.491582 0.0742654 0.5 0.5 0.5
-0.089482 -0.491277 0.0694714 0.5 0.5 0.5
-0.0945834 -0.491111 0.0784979 0.5 0.5 0.5
-0.0795326 -0.494035 0.0780776 0.5 0.5 0.5
-0.0745718 -0.49208 0.0682934 0.5 0.5 0.5
-0.032176 -0.490612 0.0667553 0.5 0.5 0.5
0.0953577 -0.491164 0.0769102 0.5 0.5 0.5
-0.0969345 -0.490189 0.0760051 0.5 0.5 0.5
-0.0238105 -0.484462 0.0685296 0.5 0.5 0.5
0.130546 -0.484612 0.071801 0.5 0.5 0.5
0.130819 -0.485438 0.0694376 0.5 0.5 0.5
-0.127816 -0.485585 0.0731658 0.5 0.5 0.5
0.130197 -0.482292 0.074992 0.5 0.5 0.5
-0.129051 -0.47854 0.0742145 0.5 0.5 0.5
-0.0196699 -0.478061 0.0700543 0.5 0.5 0.5
-0.0187397 -0.472289 0.0703981 0.5 0.5 0.5
-0.0165814 -0.467094 0.0820509 0.5 0.5 0.5
-0.102608 -0.462773 0.0723316 0.5 0.5 0.5
-0.0863906 -0.452388 0.0723583 0.5 0.5 0.5
-0.0197604 -0.462536 0.0727494 0.5 0.5 0.5
-0.0744801 -0.452569 0.0788856 0.5 0.5 0.5
-0.0820151 -0.45129 0.0726366 0.5 0.5 0.5
0.0842651 -0.450557 0.0719989 0.5 0.5 0.5
-0.0691022 -0.448609 0.0743038 0.5 0.5 0.5
-0.065916 -0.445867 0.0721893 0.5 0.5 0.5
-0.056539 -0.445019 0.0737083 0.5 0.5 0.5
-0.0457479 -0.445699 0.0763798 0.5 0.5 0.5
0.0654409 -0.452732 0.0804019 0.5 0.5 0.5
0.0633988 -0.45114 0.0793072 0.5 0.5 0.5
0.0631649 -0.450205 0.0783988 0.5 0.5 0.5
0.00996363 -0.188948 0.078116 0.5 0.5 0.5
-0.0501803 -0.187076 0.0708707 0.5 0.5 0.5
-0.0517685 -0.188257 0.0696659 0.5 0.5 0.5
-0.0245107 -0.194564 0.0697606 0.5 0.5 0.5
-0.0239319 -0.19572 0.0686467 0.5 0.5 0.5
0.0219884 -0.195428 0.0693793 0.5 0.5 0.5
0.0240094 -0.192128 0.0723322 0.5 0.5 0.5
-0.0627656 -0.185209 0.06843 0.5 0.5 0.5
-0.0608645 -0.184023 0.069714 0.5 0.5 0.5
0.0588014 -0.180317 0.0731414 0.5 0.5 0.5
-0.065748 -0.179183 0.0705642 0.5 0.5 0.5
-0.0619963 -0.17366 0.0749628 0.5 0.5 0.5
-0.0623131 -0.171943 0.0757303 0.5 0.5 0.5
-0.0613067 -0.172497 0.0758485 0.5 0.5 0.5
0.0715528 -0.16892 0.0740465 0.5 0.5 0.5
0.0739192 -0.179139 0.068293 0.5 0.5 0.5
0.0741873 -0.17469 0.0702132 0.5 0.5 0.5
0.0713331 -0.173812 0.0719014 0.5 0.5 0.5
0.0856087 -0.154712 0.072122 0.5 0.5 0.5
0.0930094 -0.140346 0.0716888 0.5 0.5 0.5
0.101041 -0.134022 0.0659216 0.5 0.5 0.5
0.0962915 -0.137127 0.0695676 0.5 0.5 0.5
-0.0887396 -0.126323 0.0788813 0.5 0.5 0.5
-0.0877042 -0.131429 0.0779012 0.5 0.5 0.5
-0.0907482 -0.14002 0.071303 0.5 0.5 0.5
-0.0957409 -0.124474 0.0723033 0.5 0.5 0.5
-0.0963765 -0.0993833 0.077328 0.5 0.5 0.5
-0.104115 -0.0907838 0.0678012 0.5 0.5 0.5
-0.0988293 -0.0746268 0.0690657 0.5 0.5 0.5
-0.0941053 -0.0766724 0.0749801 0.5 0.5 0.5
-0.0941194 -0.0663828 0.0717233 0.5 0.5 0.5
-0.0936873 -0.0714783 0.0737701 0.5 0.5 0.5
-0.089432 -0.0516593 0.0718178 0.5 0.5 0.5
0.0975918 -0.0641221 0.0696318 0.5 0.5 0.5
0.0981389 -0.0784919 0.0737859 0.5 0.5 0.5
0.0869332 -0.0610398 0.0794645 0.5 0.5 0.5
0.095836 -0.0535204 0.0679178 0.5 0.5 0.5
0.0938019 -0.0504101 0.0689276 0.5 0.5 0.5
0.0902639 -0.0593738 0.0755315 0.5 0.5 0.5
0.0886814 -0.058903 0.0769744 0.5 0.5 0.5
0.087601 -0.0502744 0.0751568 0.5 0.5 0.5
0.0840716 -0.0487451 0.0779937 0.5 0.5 0.5
-0.0733146 -0.0191741 0.0745281 0.5 0.5 0.5
-0.0744266 -0.0133139 0.0713931 0.5 0.5 0.5
-0.0747104 -0.0109925 0.0702752 0.5 0.5 0.5
0.0772857 -0.0156471 0.0718074 0.5 0.5 0.5
0.0781301 -0.00790527 0.0681886 0.5 0.5 0.5
0.0791308 -0.0274737 0.0747322 0.5 0.5 0.5
0.0785117 -0.0214539 0.0729776 0.5 0.5 0.5
0.0777897 -0.0210861 0.0734386 0.5 0.5 0.5
0.0836774 -0.0206998 0.0680007 0.5 0.5 0.5
0.0714751 0.00438871 0.0679101 0.5 0.5 0.5
0.0764374 -0.00348956 0.0678286 0.5 0.5 0.5
0.0674355 0.00429356 0.0712761 0.5 0.5 0.5
-0.062049 0.000235042 0.0756101 0.5 0.5 0.5
-0.059152 0.0147569 0.0707083 0.5 0.5 0.5
-0.0614299 0.00687558 0.0728414 0.5 0.5 0.5
-0.0590283 0.00314312 0.0761877 0.5 0.5 0.5
-0.2221 0.0153696 0.0732378 0.5 0.5 0.5
-0.252548 0.0262664 0.0830486 0.5 0.5 0.5
-0.248542 0.0201847 0.0750774 0.5 0.5 0.5
0.211953 0.017792 0.0705953 0.5 0.5 0.5
0.213896 0.0175675 0.071833 0.5 0.5 0.5
0.214704 0.0233097 0.0808204 0.5 0.5 0.5
0.220109 0.0225263 0.0835589 0.5 0.5 0.5
0.243699 0.0179602 0.0749824 0.5 0.5 0.5
0.257505 0.0246664 0.0699597 0.5 0.5 0.5
-0.043502 0.0263584 0.0754215 0.5 0.5 0.5
-0.0441969 0.0239415 0.075719 0.5 0.5 0.5
0.0484118 0.0260682 0.0749074 0.5 0.5 0.5
0.203415 0.0231295 0.0687767 0.5 0.5 0.5
-0.0428513 0.029178 0.0752128 0.5 0.5 0.5
0.0376518 0.0299365 0.0780476 0.5 0.5 0.5
0.0525965 0.0336513 0.0734018 0.5 0.5 0.5
0.199217 0.0366148 0.0755877 0.5 0.5 0.5
-0.196442 0.0411814 0.0731513 0.5 0.5 0.5
-0.0456869 0.0344599 0.0744369 0.5 0.5 0.5
0.0582319 0.037905 0.0724817 0.5 0.5 0.5
0.0515932 0.0390918 0.0752006 0.5 0.5 0.5
0.0562525 0.0441201 0.0749096 0.5 0.5 0.5
0.0615836 0.0443559 0.0725296 0.5 0.5 0.5
0.0596825 0.0441173 0.0734723 0.5 0.5 0.5
0.195113 0.0458437 0.0722895 0.5 0.5 0.5
0.195569 0.0422154 0.0717731 0.5 0.5 0.5
0.193395 0.0411906 0.0662328 0.5 0.5 0.5
0.191163 0.0450586 0.0626952 0.5 0.5 0.5
-0.271426 0.0540054 0.0728282 0.5 0.5 0.5
-0.272157 0.0601105 0.0763936 0.5 0.5 0.5
-0.0611807 0.0554102 0.0723754 0.5 0.5 0.5
0.0651764 0.0623817 0.0737229 0.5 0.5 0.5
0.066984 0.0601766 0.0726016 0.5 0.5 0.5
-0.197497 0.0653834 0.0754323 0.5 0.5 0.5
-0.0573738 0.0652929 0.0749145 0.5 0.5 0.5
-0.00542885 0.0672957 0.0759051 0.5 0.5 0.5
0.00390738 0.0760984 0.0732676 0.5 0.5 0.5
-0.0547722 0.0750619 0.0752693 0.5 0.5 0.5
0.00178566 0.0770954 0.0732508 0.5 0.5 0.5
0.0128136 0.0728083 0.0754702 0.5 0.5 0.5
0.0134927 0.070555 0.0759859 0.5 0.5 0.5
-0.26627 0.0793534 0.0716882 0.5 0.5 0.5
-0.263513 0.0793797 0.0649418 0.5 0.5 0.5
-0.0533856 0.0783057 0.0751 0.5 0.5 0.5
-0.0563389 0.0827418 0.0725187 0.5 0.5 0.5
-0.0461941 0.0818688 0.0763847 0.5 0.5 0.5
