0.192670 0.099280 0.201207 0.8 0 0
0.231857 0.137459 0.038143 0.8 0 0
0.209627 0.458055 0.294933 0.8 0 0
0.198044 0.475441 0.025976 0.8 0 0
0.317432 0.271269 0.205690 0.8 0 0
0.249948 0.764342 0.217579 0.8 0 0
0.523830 0.535273 0.142536 0.8 0 0
0.329138 0.418520 0.211251 0.8 0 0
0.401277 0.492358 0.181907 0.8 0 0
0.186774 0.057807 0.025237 0.8 0 0
0.220456 0.430771 0.026655 0.8 0 0
0.682708 0.511605 0.151645 0.8 0 0
0.586906 0.468051 0.141430 0.8 0 0
0.206606 0.505055 0.025488 0.8 0 0
0.235983 0.762157 0.043251 0.8 0 0
0.203052 0.661034 0.029861 0.8 0 0
0.185205 0.263212 0.039819 0.8 0 0
0.228421 0.387419 0.027465 0.8 0 0
0.328418 0.497801 0.211940 0.8 0 0
0.180370 0.322724 0.040091 0.8 0 0
0.656677 0.544954 0.125070 0.8 0 0
0.166352 0.292598 0.039063 0.8 0 0
0.398159 0.509550 0.181864 0.8 0 0
0.154521 0.411620 0.029452 0.8 0 0
0.145999 0.578138 0.032210 0.8 0 0
0.263497 0.224609 0.192618 0.8 0 0
0.117388 0.454520 0.111746 0.8 0 0
0.751784 0.508710 0.131769 0.8 0 0
0.256265 0.690010 0.203652 0.8 0 0
0.269423 0.344865 0.201202 0.8 0 0
0.664820 0.554212 0.121082 0.8 0 0
0.236188 0.530333 0.034560 0.8 0 0
0.210869 0.588721 0.277242 0.8 0 0
0.723736 0.503257 0.078308 0.8 0 0
0.241406 0.926886 0.213969 0.8 0 0
0.238858 0.094394 0.212500 0.8 0 0
0.331986 0.341083 0.207982 0.8 0 0
0.338942 0.487589 0.186897 0.8 0 0
0.705741 0.408110 0.125685 0.8 0 0
0.228440 0.037139 0.028445 0.8 0 0
0.691637 0.365536 0.118775 0.8 0 0
0.273247 0.684431 0.203911 0.8 0 0
0.178349 0.527157 0.039979 0.8 0 0
0.306130 0.195777 0.207925 0.8 0 0
0.298089 0.408453 0.202501 0.8 0 0
0.347583 0.454352 0.150823 0.8 0 0
0.238276 0.186396 0.038398 0.8 0 0
0.232875 0.063631 0.027062 0.8 0 0
0.196363 0.342609 0.040548 0.8 0 0
0.707663 0.485620 0.120138 0.8 0 0
0.769433 0.501052 0.096035 0.8 0 0
0.210660 0.841441 0.044397 0.8 0 0
0.624122 0.471837 0.143028 0.8 0 0
0.198709 0.782135 0.206025 0.8 0 0
0.252909 0.455852 0.116042 0.8 0 0
0.480375 0.495431 0.085067 0.8 0 0
0.264994 0.440281 0.201795 0.8 0 0
0.374380 0.540757 0.156894 0.8 0 0
0.161553 0.799398 0.032161 0.8 0 0
0.178132 0.345594 0.208388 0.8 0 0
0.263252 0.772900 0.196148 0.8 0 0
0.166952 0.265441 0.027895 0.8 0 0
0.233419 0.290462 0.027349 0.8 0 0
0.220997 0.300233 0.213520 0.8 0 0
0.221417 0.330703 0.201487 0.8 0 0
0.171581 0.507378 0.026960 0.8 0 0
0.154420 0.688332 0.032059 0.8 0 0
0.297834 0.484281 0.203064 0.8 0 0
0.188591 0.687404 0.213696 0.8 0 0
0.516728 0.461938 0.126375 0.8 0 0
0.284074 0.186605 0.211642 0.8 0 0
0.226322 0.078631 0.200287 0.8 0 0
0.240976 0.882217 0.042884 0.8 0 0
0.300879 0.568496 0.214974 0.8 0 0
0.276024 0.272793 0.200908 0.8 0 0
0.408553 0.457198 0.147191 0.8 0 0
0.196758 0.483761 0.038483 0.8 0 0
0.255012 0.799241 0.041626 0.8 0 0
0.681738 0.580323 0.127033 0.8 0 0
0.101430 0.510790 0.194715 0.8 0 0
0.201239 0.622574 0.214659 0.8 0 0
0.254485 0.584260 0.037739 0.8 0 0
0.245958 0.240817 0.038688 0.8 0 0
0.654859 0.528166 0.123762 0.8 0 0
0.128215 0.445133 0.143280 0.8 0 0
0.201272 0.781186 0.030650 0.8 0 0
0.217205 0.867669 0.031714 0.8 0 0
0.222766 0.179238 0.026504 0.8 0 0
0.194745 0.376543 0.027662 0.8 0 0
0.174710 0.637848 0.030514 0.8 0 0
0.196007 0.638002 0.042772 0.8 0 0
0.102700 0.501761 0.195835 0.8 0 0
0.523741 0.532655 0.113484 0.8 0 0
0.510045 0.478637 0.164259 0.8 0 0
0.260327 0.652226 0.031133 0.8 0 0
0.149227 0.840806 0.042042 0.8 0 0
0.252523 0.279198 0.200502 0.8 0 0
0.150408 0.632206 0.040215 0.8 0 0
0.238727 0.853570 0.218341 0.8 0 0
0.227819 0.362974 0.214131 0.8 0 0
0.275420 0.075781 0.203606 0.8 0 0
0.195308 0.366217 0.212042 0.8 0 0
0.251895 0.483195 0.202079 0.8 0 0
0.258086 0.179234 0.200039 0.8 0 0
0.612348 0.467116 0.129342 0.8 0 0
0.276489 0.256101 0.032540 0.8 0 0
0.233563 0.808725 0.204617 0.8 0 0
0.263414 0.455437 0.166199 0.8 0 0
0.266778 0.195304 0.031590 0.8 0 0
0.235123 0.217978 0.039032 0.8 0 0
0.243706 0.260951 0.039159 0.8 0 0
0.244651 0.178667 0.199748 0.8 0 0
0.176606 0.796835 0.211254 0.8 0 0
0.162788 0.469740 0.096469 0.8 0 0
0.494788 0.488454 0.089582 0.8 0 0
0.155991 0.518624 0.039704 0.8 0 0
0.288858 0.633248 0.034310 0.8 0 0
0.285812 0.570457 0.203138 0.8 0 0
0.220129 0.244526 0.200668 0.8 0 0
0.307903 0.408884 0.203057 0.8 0 0
0.283299 0.220730 0.212215 0.8 0 0
0.237500 0.306888 0.027513 0.8 0 0
0.492924 0.478778 0.166519 0.8 0 0
0.213106 0.728900 0.204812 0.8 0 0
0.236655 0.637954 0.203482 0.8 0 0
0.259199 0.153238 0.199914 0.8 0 0
0.418275 0.458121 0.126838 0.8 0 0
0.254891 0.229422 0.169227 0.8 0 0
0.319922 0.368648 0.211937 0.8 0 0
0.190801 0.688631 0.030234 0.8 0 0
0.223022 0.388884 0.264754 0.8 0 0
0.228518 0.516967 0.202718 0.8 0 0
0.212370 0.679861 0.043372 0.8 0 0
0.203889 0.636381 0.214930 0.8 0 0
0.242256 0.653208 0.216599 0.8 0 0
0.250640 0.915128 0.218427 0.8 0 0
0.708348 0.387161 0.125434 0.8 0 0
0.671447 0.545790 0.120541 0.8 0 0
0.241918 0.890670 0.218501 0.8 0 0
0.633197 0.529612 0.133302 0.8 0 0
0.212733 0.768101 0.216753 0.8 0 0
0.303049 0.498885 0.190192 0.8 0 0
0.234603 0.666793 0.030153 0.8 0 0
0.198668 0.571727 0.204806 0.8 0 0
0.173311 0.179222 0.038947 0.8 0 0
0.576789 0.490436 0.161782 0.8 0 0
0.202737 0.938342 0.032058 0.8 0 0
0.207442 0.824249 0.044350 0.8 0 0
0.218385 0.416399 0.294162 0.8 0 0
0.698804 0.407063 0.125811 0.8 0 0
0.140849 0.817398 0.034623 0.8 0 0
0.197178 0.919655 0.215616 0.8 0 0
0.242302 0.511894 0.215500 0.8 0 0
0.318217 0.637593 0.205925 0.8 0 0
0.196404 0.539059 0.039857 0.8 0 0
0.172834 0.451263 0.162018 0.8 0 0
0.257432 0.220481 0.154821 0.8 0 0
0.230364 0.413420 0.039179 0.8 0 0
0.138664 0.727533 0.039427 0.8 0 0
0.265840 0.796283 0.035232 0.8 0 0
0.181285 0.916143 0.209358 0.8 0 0
0.280578 0.743730 0.204924 0.8 0 0
0.262046 0.104918 0.199899 0.8 0 0
0.267724 0.495653 0.215462 0.8 0 0
0.235774 0.541749 0.170343 0.8 0 0
0.322598 0.551893 0.213076 0.8 0 0
0.639073 0.529375 0.123545 0.8 0 0
0.170549 0.472571 0.039798 0.8 0 0
0.284498 0.314555 0.201441 0.8 0 0
0.265488 0.725809 0.041033 0.8 0 0
0.208643 0.906398 0.205975 0.8 0 0
0.311728 0.243990 0.204867 0.8 0 0
0.272115 0.390867 0.030169 0.8 0 0
0.181319 0.232355 0.026876 0.8 0 0
0.207428 0.380914 0.040705 0.8 0 0
0.223683 0.812529 0.043962 0.8 0 0
0.282534 0.183206 0.201359 0.8 0 0
0.289764 0.577737 0.203321 0.8 0 0
0.268864 0.871983 0.217407 0.8 0 0
0.320963 0.621493 0.205864 0.8 0 0
0.248661 0.146379 0.028615 0.8 0 0
0.270983 0.831013 0.205640 0.8 0 0
0.157136 0.385873 0.039079 0.8 0 0
0.498065 0.511330 0.088006 0.8 0 0
0.253115 0.715764 0.217237 0.8 0 0
0.200651 0.305601 0.212307 0.8 0 0
0.468306 0.465986 0.157148 0.8 0 0
0.245151 0.798580 0.204439 0.8 0 0
0.221258 0.136807 0.038780 0.8 0 0
0.478785 0.487938 0.172297 0.8 0 0
0.139906 0.592597 0.038642 0.8 0 0
0.207900 0.286082 0.201820 0.8 0 0
0.242858 0.448144 0.141509 0.8 0 0
0.187280 0.892721 0.044818 0.8 0 0
0.034305 0.488509 0.156953 0.8 0 0
0.203537 0.665980 0.029884 0.8 0 0
0.259392 0.145467 0.199875 0.8 0 0
0.134727 0.416706 0.035460 0.8 0 0
0.178995 0.349357 0.206594 0.8 0 0
0.214630 0.413441 0.297672 0.8 0 0
0.267356 0.594730 0.216219 0.8 0 0
0.199214 0.467411 0.038813 0.8 0 0
0.255916 0.536780 0.202420 0.8 0 0
0.249662 0.221308 0.159147 0.8 0 0
0.703815 0.366598 0.118833 0.8 0 0
0.154314 0.078302 0.026997 0.8 0 0
0.225632 0.311408 0.213747 0.8 0 0
0.306268 0.621709 0.215077 0.8 0 0
0.243550 0.612172 0.029519 0.8 0 0
0.211337 0.264796 0.040166 0.8 0 0
0.250699 0.769353 0.068426 0.8 0 0
0.261932 0.162397 0.034269 0.8 0 0
0.072876 0.452665 0.156659 0.8 0 0
0.227901 0.169126 0.199841 0.8 0 0
0.120513 0.445010 0.140879 0.8 0 0
0.178169 0.488806 0.039420 0.8 0 0
0.165495 0.314153 0.039151 0.8 0 0
0.097425 0.452042 0.115279 0.8 0 0
0.264489 0.218065 0.030123 0.8 0 0
0.226493 0.234223 0.039595 0.8 0 0
0.409757 0.463188 0.161880 0.8 0 0
0.221260 0.076926 0.037992 0.8 0 0
0.670372 0.404049 0.124918 0.8 0 0
0.283886 0.201453 0.201435 0.8 0 0
0.304816 0.485059 0.203463 0.8 0 0
0.219655 0.527131 0.185751 0.8 0 0
0.248661 0.457647 0.032608 0.8 0 0
0.190385 0.544927 0.040434 0.8 0 0
0.211148 0.489366 0.214202 0.8 0 0
0.191440 0.712745 0.214354 0.8 0 0
0.317746 0.532397 0.175948 0.8 0 0
0.178766 0.247826 0.205853 0.8 0 0
0.258779 0.344083 0.028728 0.8 0 0
0.143677 0.611710 0.032876 0.8 0 0
0.252069 0.131500 0.035773 0.8 0 0
0.206946 0.867223 0.217357 0.8 0 0
0.568112 0.476319 0.101272 0.8 0 0
0.327442 0.456139 0.159740 0.8 0 0
0.478336 0.509736 0.085770 0.8 0 0
0.227196 0.183472 0.212934 0.8 0 0
0.262292 0.409596 0.214897 0.8 0 0
0.185821 0.769311 0.071070 0.8 0 0
0.711897 0.517234 0.110488 0.8 0 0
0.242403 0.228751 0.186743 0.8 0 0
0.273328 0.526647 0.182928 0.8 0 0
0.205620 0.909404 0.044901 0.8 0 0
0.203330 0.444014 0.213416 0.8 0 0
0.127924 0.531513 0.098978 0.8 0 0
0.623776 0.501399 0.159026 0.8 0 0
0.206903 0.413173 0.259946 0.8 0 0
0.684208 0.611474 0.127254 0.8 0 0
0.237275 0.388794 0.275144 0.8 0 0
0.215075 0.296586 0.027056 0.8 0 0
0.201725 0.712882 0.205448 0.8 0 0
0.665000 0.489407 0.120214 0.8 0 0
0.117209 0.487764 0.089175 0.8 0 0
0.258024 0.706152 0.041896 0.8 0 0
0.248951 0.228912 0.116308 0.8 0 0
0.566410 0.520312 0.157075 0.8 0 0
0.681703 0.525653 0.126721 0.8 0 0
0.187555 0.472239 0.205444 0.8 0 0
0.272815 0.775105 0.037675 0.8 0 0
0.246527 0.223478 0.123949 0.8 0 0
0.144285 0.224779 0.029761 0.8 0 0
0.213839 0.499156 0.025615 0.8 0 0
0.247154 0.644351 0.030272 0.8 0 0
0.196572 0.879113 0.031367 0.8 0 0
0.193004 0.818417 0.206838 0.8 0 0
0.216473 0.599378 0.215339 0.8 0 0
0.188904 0.232497 0.210461 0.8 0 0
0.223544 0.341765 0.213859 0.8 0 0
0.193707 0.215373 0.202299 0.8 0 0
0.156166 0.521565 0.029292 0.8 0 0
0.273696 0.812752 0.217075 0.8 0 0
0.211381 0.935883 0.032240 0.8 0 0
0.192837 0.534729 0.039951 0.8 0 0
0.279746 0.704211 0.204265 0.8 0 0
0.250515 0.562633 0.202704 0.8 0 0
0.764809 0.500020 0.057676 0.8 0 0
0.517117 0.533599 0.115455 0.8 0 0
0.288311 0.576663 0.203231 0.8 0 0
0.241965 0.769128 0.191144 0.8 0 0
0.208970 0.631110 0.042834 0.8 0 0
0.702305 0.418754 0.125822 0.8 0 0
0.210109 0.533965 0.180820 0.8 0 0
0.545855 0.473336 0.155630 0.8 0 0
0.228035 0.040946 0.027047 0.8 0 0
0.230875 0.211428 0.026950 0.8 0 0
0.243802 0.182944 0.037996 0.8 0 0
0.246292 0.592217 0.202998 0.8 0 0
0.229546 0.795861 0.043683 0.8 0 0
0.232658 0.899553 0.033139 0.8 0 0
0.211548 0.482709 0.214173 0.8 0 0
0.211746 0.403115 0.202701 0.8 0 0
0.245126 0.409908 0.038138 0.8 0 0
0.209839 0.719079 0.216062 0.8 0 0
0.166030 0.613340 0.030580 0.8 0 0
0.138045 0.757193 0.034889 0.8 0 0
0.209606 0.463453 0.103237 0.8 0 0
0.249298 0.833041 0.033560 0.8 0 0
0.240961 0.365056 0.201348 0.8 0 0
0.241193 0.789633 0.032031 0.8 0 0
0.547274 0.463429 0.124030 0.8 0 0
0.290963 0.247607 0.201867 0.8 0 0
0.141684 0.541309 0.111580 0.8 0 0
0.160268 0.214814 0.038281 0.8 0 0
0.210910 0.455868 0.113097 0.8 0 0
0.203999 0.118609 0.211460 0.8 0 0
0.258657 0.492037 0.215582 0.8 0 0
0.266658 0.481812 0.202138 0.8 0 0
0.205210 0.270554 0.026772 0.8 0 0
0.136487 0.208902 0.031522 0.8 0 0
0.198667 0.403420 0.314082 0.8 0 0
0.209773 0.537325 0.203829 0.8 0 0
0.230751 0.441637 0.026962 0.8 0 0
0.051231 0.552687 0.191813 0.8 0 0
0.584533 0.480618 0.098645 0.8 0 0
0.258850 0.184941 0.029679 0.8 0 0
0.176846 0.447314 0.145734 0.8 0 0
0.217373 0.245986 0.026792 0.8 0 0
0.139379 0.042115 0.028909 0.8 0 0
0.146179 0.438081 0.031069 0.8 0 0
0.193837 0.094085 0.200990 0.8 0 0
0.292287 0.322414 0.213247 0.8 0 0
0.261626 0.726631 0.041509 0.8 0 0
0.110038 0.455485 0.110502 0.8 0 0
0.194823 0.411518 0.040217 0.8 0 0
0.189209 0.820830 0.215049 0.8 0 0
0.391132 0.536050 0.116359 0.8 0 0
0.201356 0.124515 0.211275 0.8 0 0
0.279890 0.276653 0.213285 0.8 0 0
0.210933 0.493672 0.083529 0.8 0 0
0.785362 0.499759 0.093000 0.8 0 0
0.223894 0.085796 0.026374 0.8 0 0
0.238020 0.592697 0.289431 0.8 0 0
0.588551 0.494834 0.161451 0.8 0 0
0.235849 0.819630 0.032137 0.8 0 0
0.263568 0.260719 0.200608 0.8 0 0
0.263909 0.588139 0.030987 0.8 0 0
0.159844 0.250218 0.028214 0.8 0 0
0.288549 0.501292 0.215153 0.8 0 0
0.184074 0.138582 0.025993 0.8 0 0
0.275670 0.456288 0.166594 0.8 0 0
0.393511 0.534214 0.113949 0.8 0 0
0.201578 0.399864 0.027316 0.8 0 0
0.147402 0.342728 0.037627 0.8 0 0
0.189050 0.211000 0.026543 0.8 0 0
0.260456 0.911772 0.217968 0.8 0 0
0.330157 0.613813 0.212598 0.8 0 0
0.200194 0.582352 0.041506 0.8 0 0
0.187807 0.454199 0.115220 0.8 0 0
0.147385 0.788692 0.041299 0.8 0 0
0.177063 0.371996 0.208142 0.8 0 0
0.178219 0.475278 0.207926 0.8 0 0
0.258626 0.463961 0.215370 0.8 0 0
0.249597 0.544726 0.202583 0.8 0 0
0.305089 0.272431 0.203170 0.8 0 0
0.218863 0.583203 0.203671 0.8 0 0
0.245440 0.448484 0.143468 0.8 0 0
0.272768 0.222412 0.212914 0.8 0 0
0.680058 0.471382 0.126277 0.8 0 0
0.198127 0.084820 0.200568 0.8 0 0
0.194584 0.676254 0.043069 0.8 0 0
0.284802 0.635130 0.216223 0.8 0 0
0.197665 0.496269 0.084344 0.8 0 0
0.334040 0.499195 0.207172 0.8 0 0
0.124026 0.503385 0.088242 0.8 0 0
0.185629 0.240003 0.203728 0.8 0 0
0.228361 0.441274 0.037550 0.8 0 0
0.443435 0.534879 0.115273 0.8 0 0
0.213449 0.655459 0.043201 0.8 0 0
0.172978 0.803389 0.031447 0.8 0 0
0.169029 0.111447 0.038316 0.8 0 0
0.167000 0.132565 0.038247 0.8 0 0
0.235750 0.123701 0.037639 0.8 0 0
0.174609 0.717208 0.042847 0.8 0 0
0.219623 0.774011 0.120697 0.8 0 0
0.199143 0.769615 0.043986 0.8 0 0
0.672369 0.361134 0.124063 0.8 0 0
0.224704 0.868172 0.205171 0.8 0 0
0.624573 0.485167 0.155613 0.8 0 0
0.159119 0.954124 0.044173 0.8 0 0
0.207647 0.270870 0.026753 0.8 0 0
0.269196 0.527711 0.202530 0.8 0 0
0.281353 0.429886 0.214740 0.8 0 0
0.250177 0.229231 0.194088 0.8 0 0
0.281527 0.792560 0.205757 0.8 0 0
0.118344 0.551395 0.127628 0.8 0 0
0.208776 0.038649 0.026706 0.8 0 0
0.144714 0.235369 0.029789 0.8 0 0
0.215965 0.212384 0.026563 0.8 0 0
0.212041 0.695573 0.043476 0.8 0 0
0.254190 0.104868 0.212251 0.8 0 0
0.180945 0.293098 0.209313 0.8 0 0
0.683556 0.584014 0.127091 0.8 0 0
0.409676 0.539747 0.152829 0.8 0 0
0.153300 0.580240 0.030719 0.8 0 0
0.272996 0.626323 0.031819 0.8 0 0
0.214644 0.408631 0.251776 0.8 0 0
0.334445 0.523681 0.210660 0.8 0 0
0.309349 0.555254 0.214402 0.8 0 0
0.247467 0.283599 0.028063 0.8 0 0
0.270080 0.744804 0.204429 0.8 0 0
0.177082 0.230155 0.026937 0.8 0 0
0.209580 0.800599 0.030933 0.8 0 0
0.288804 0.384939 0.214256 0.8 0 0
0.238731 0.226121 0.200151 0.8 0 0
0.291200 0.634694 0.037308 0.8 0 0
0.301519 0.220200 0.210277 0.8 0 0
0.230891 0.591472 0.040824 0.8 0 0
0.251399 0.818526 0.041969 0.8 0 0
0.226138 0.457760 0.172481 0.8 0 0
0.248731 0.656759 0.042400 0.8 0 0
0.163031 0.362901 0.039319 0.8 0 0
0.144119 0.816111 0.034131 0.8 0 0
0.324610 0.306659 0.208333 0.8 0 0
0.188166 0.448206 0.152894 0.8 0 0
0.248173 0.771409 0.210403 0.8 0 0
0.711728 0.570216 0.120900 0.8 0 0
0.720895 0.519526 0.121520 0.8 0 0
0.180145 0.409219 0.209729 0.8 0 0
0.191100 0.414561 0.027447 0.8 0 0
0.213162 0.838344 0.044330 0.8 0 0
0.326789 0.390197 0.204829 0.8 0 0
0.163716 0.209394 0.027577 0.8 0 0
0.139882 0.160569 0.035447 0.8 0 0
0.198403 0.450822 0.160918 0.8 0 0
0.094146 0.544401 0.112609 0.8 0 0
0.217893 0.142912 0.212480 0.8 0 0
0.209644 0.447223 0.291885 0.8 0 0
0.275550 0.110280 0.200950 0.8 0 0
0.192211 0.086762 0.210281 0.8 0 0
0.159210 0.551311 0.144214 0.8 0 0
0.255759 0.150259 0.035698 0.8 0 0
0.562184 0.493309 0.163835 0.8 0 0
0.670318 0.579088 0.121130 0.8 0 0
0.207459 0.581507 0.263883 0.8 0 0
0.286995 0.686734 0.216224 0.8 0 0
0.199401 0.909178 0.031711 0.8 0 0
0.227558 0.925377 0.214630 0.8 0 0
0.672557 0.372952 0.119953 0.8 0 0
0.195536 0.402624 0.306603 0.8 0 0
0.209015 0.504045 0.203619 0.8 0 0
0.181261 0.163514 0.208824 0.8 0 0
0.306769 0.543498 0.124582 0.8 0 0
0.215051 0.355664 0.213428 0.8 0 0
0.228323 0.554890 0.203009 0.8 0 0
0.247952 0.811304 0.217906 0.8 0 0
0.285080 0.651742 0.216298 0.8 0 0
0.726614 0.497879 0.065800 0.8 0 0
0.575060 0.466529 0.115398 0.8 0 0
0.194916 0.273042 0.040063 0.8 0 0
0.046715 0.483143 0.122226 0.8 0 0
0.239236 0.824578 0.032432 0.8 0 0
0.210521 0.049841 0.038176 0.8 0 0
0.735773 0.504303 0.098269 0.8 0 0
0.166157 0.946981 0.044650 0.8 0 0
0.209474 0.252478 0.212572 0.8 0 0
0.360410 0.524487 0.117915 0.8 0 0
0.136261 0.505444 0.037157 0.8 0 0
0.680964 0.529727 0.120043 0.8 0 0
0.160723 0.326238 0.038958 0.8 0 0
0.222754 0.538611 0.175372 0.8 0 0
0.312307 0.464468 0.109658 0.8 0 0
0.275670 0.413428 0.222638 0.8 0 0
0.195523 0.857507 0.044690 0.8 0 0
0.251227 0.281460 0.213973 0.8 0 0
0.196060 0.220777 0.211471 0.8 0 0
0.595485 0.504810 0.094441 0.8 0 0
0.182713 0.680158 0.030331 0.8 0 0
0.490213 0.460121 0.132148 0.8 0 0
0.237183 0.403370 0.306272 0.8 0 0
0.708860 0.650907 0.126867 0.8 0 0
0.397290 0.511068 0.079476 0.8 0 0
0.360176 0.533164 0.112246 0.8 0 0
0.276460 0.411763 0.214682 0.8 0 0
0.144456 0.910831 0.041983 0.8 0 0
0.154317 0.896634 0.033231 0.8 0 0
0.186650 0.698889 0.213549 0.8 0 0
0.130312 0.537062 0.103304 0.8 0 0
0.216399 0.554174 0.203588 0.8 0 0
0.641927 0.506171 0.157013 0.8 0 0
0.202461 0.647937 0.214955 0.8 0 0
0.242619 0.684678 0.216882 0.8 0 0
0.330931 0.592686 0.212342 0.8 0 0
0.114970 0.503213 0.088215 0.8 0 0
0.311081 0.280436 0.210641 0.8 0 0
0.282836 0.356730 0.214136 0.8 0 0
0.246155 0.450647 0.028357 0.8 0 0
0.293277 0.662489 0.204482 0.8 0 0
0.222009 0.550533 0.027219 0.8 0 0
0.327549 0.522248 0.182970 0.8 0 0
0.225345 0.794939 0.204687 0.8 0 0
0.267713 0.748190 0.204414 0.8 0 0
0.186575 0.052443 0.038499 0.8 0 0
0.742895 0.502279 0.069891 0.8 0 0
0.231026 0.541812 0.037160 0.8 0 0
0.262318 0.447132 0.201801 0.8 0 0
0.218864 0.542376 0.170843 0.8 0 0
0.271320 0.508666 0.202422 0.8 0 0
0.333053 0.415847 0.206111 0.8 0 0
0.248316 0.823710 0.204749 0.8 0 0
0.232174 0.803860 0.031660 0.8 0 0
0.631493 0.529455 0.135388 0.8 0 0
0.214346 0.667798 0.204433 0.8 0 0
0.252932 0.478637 0.215429 0.8 0 0
0.178071 0.191914 0.205621 0.8 0 0
0.595020 0.466789 0.136628 0.8 0 0
0.255061 0.220222 0.163125 0.8 0 0
0.656474 0.488963 0.120816 0.8 0 0
0.745945 0.497008 0.081301 0.8 0 0
0.170981 0.964366 0.035034 0.8 0 0
0.149151 0.391929 0.038287 0.8 0 0
0.232441 0.399105 0.201757 0.8 0 0
0.293583 0.301704 0.212858 0.8 0 0
0.243851 0.807399 0.042782 0.8 0 0
0.147482 0.547429 0.122755 0.8 0 0
0.298540 0.770757 0.206991 0.8 0 0
0.235708 0.550108 0.138207 0.8 0 0
0.238650 0.465943 0.180536 0.8 0 0
0.227985 0.904107 0.218564 0.8 0 0
0.207569 0.646578 0.043040 0.8 0 0
0.213961 0.665649 0.215761 0.8 0 0
0.223812 0.524519 0.026649 0.8 0 0
0.458746 0.458531 0.135477 0.8 0 0
0.377321 0.519017 0.180637 0.8 0 0
0.280119 0.725594 0.037460 0.8 0 0
0.243103 0.105882 0.036517 0.8 0 0
0.311146 0.397310 0.213106 0.8 0 0
0.197912 0.392123 0.280648 0.8 0 0
0.167228 0.401923 0.028765 0.8 0 0
0.252484 0.732096 0.042224 0.8 0 0
0.316661 0.468239 0.204152 0.8 0 0
0.204811 0.783428 0.044143 0.8 0 0
0.253533 0.832584 0.034188 0.8 0 0
0.206198 0.091717 0.199999 0.8 0 0
0.306001 0.176761 0.206468 0.8 0 0
0.042518 0.478763 0.128642 0.8 0 0
0.213296 0.326998 0.201900 0.8 0 0
0.272974 0.867981 0.217096 0.8 0 0
0.258262 0.777433 0.210257 0.8 0 0
0.211358 0.566525 0.203962 0.8 0 0
0.179132 0.151573 0.038963 0.8 0 0
0.152395 0.955597 0.043659 0.8 0 0
0.188808 0.403698 0.211505 0.8 0 0
0.299437 0.531864 0.106690 0.8 0 0
0.193641 0.551336 0.140439 0.8 0 0
0.228498 0.153698 0.199691 0.8 0 0
0.245074 0.383221 0.039465 0.8 0 0
0.513508 0.470493 0.156602 0.8 0 0
0.345768 0.454684 0.153806 0.8 0 0
0.112996 0.538739 0.178682 0.8 0 0
0.231193 0.079916 0.199621 0.8 0 0
0.239977 0.820478 0.204568 0.8 0 0
0.263877 0.375984 0.038780 0.8 0 0
0.263617 0.604133 0.038648 0.8 0 0
0.662939 0.602326 0.124891 0.8 0 0
0.313866 0.418238 0.213113 0.8 0 0
0.258944 0.220516 0.189020 0.8 0 0
0.221128 0.227844 0.148647 0.8 0 0
0.185348 0.395907 0.205143 0.8 0 0
0.255397 0.831291 0.217883 0.8 0 0
0.178595 0.479582 0.190083 0.8 0 0
0.246292 0.533648 0.031542 0.8 0 0
0.153337 0.276770 0.028985 0.8 0 0
0.240750 0.223535 0.027592 0.8 0 0
0.039803 0.484543 0.123915 0.8 0 0
0.210926 0.379382 0.027239 0.8 0 0
0.724934 0.425361 0.121427 0.8 0 0
0.315399 0.528866 0.204456 0.8 0 0
0.240475 0.912385 0.042678 0.8 0 0
0.217458 0.904763 0.044604 0.8 0 0
0.201056 0.726586 0.205572 0.8 0 0
0.262209 0.809475 0.040463 0.8 0 0
0.251291 0.768316 0.204977 0.8 0 0
0.215728 0.615036 0.204087 0.8 0 0
0.679726 0.626266 0.127036 0.8 0 0
0.169637 0.498341 0.039581 0.8 0 0
0.248873 0.769342 0.187508 0.8 0 0
0.299431 0.586078 0.203929 0.8 0 0
0.177592 0.241161 0.027021 0.8 0 0
0.332572 0.539796 0.165107 0.8 0 0
0.192131 0.664321 0.030060 0.8 0 0
0.190331 0.647378 0.213577 0.8 0 0
0.720117 0.458289 0.124735 0.8 0 0
0.248986 0.221897 0.202736 0.8 0 0
0.340739 0.540201 0.120759 0.8 0 0
0.286903 0.718046 0.204942 0.8 0 0
0.254115 0.579330 0.202772 0.8 0 0
0.249419 0.228023 0.176189 0.8 0 0
0.230675 0.600778 0.299754 0.8 0 0
0.210387 0.779240 0.216702 0.8 0 0
0.702869 0.437143 0.125933 0.8 0 0
0.554845 0.491248 0.091542 0.8 0 0
0.257567 0.222362 0.055040 0.8 0 0
0.188405 0.617920 0.042167 0.8 0 0
0.187604 0.892836 0.215572 0.8 0 0
0.295217 0.470620 0.202813 0.8 0 0
0.227393 0.958762 0.033849 0.8 0 0
0.268496 0.731456 0.204275 0.8 0 0
0.230029 0.415203 0.026984 0.8 0 0
0.425094 0.536694 0.118106 0.8 0 0
0.231078 0.773836 0.144214 0.8 0 0
0.688037 0.524073 0.118127 0.8 0 0
0.458943 0.465973 0.112455 0.8 0 0
0.669035 0.397093 0.120212 0.8 0 0
0.211030 0.414504 0.213625 0.8 0 0
0.234446 0.861849 0.204927 0.8 0 0
0.217675 0.854703 0.217886 0.8 0 0
0.218995 0.600407 0.290919 0.8 0 0
0.252714 0.715612 0.031662 0.8 0 0
0.213701 0.524642 0.037752 0.8 0 0
0.659289 0.499551 0.089534 0.8 0 0
0.343837 0.544047 0.131146 0.8 0 0
0.219256 0.442851 0.214304 0.8 0 0
0.250347 0.161126 0.212891 0.8 0 0
0.246079 0.462709 0.106708 0.8 0 0
0.700281 0.500110 0.126395 0.8 0 0
0.325850 0.544087 0.128457 0.8 0 0
0.206810 0.413216 0.209521 0.8 0 0
0.235976 0.353526 0.214206 0.8 0 0
0.241224 0.106379 0.027814 0.8 0 0
0.161739 0.474722 0.028235 0.8 0 0
0.277884 0.458791 0.202154 0.8 0 0
0.212999 0.870073 0.031654 0.8 0 0
0.219740 0.035509 0.028345 0.8 0 0
0.334149 0.464425 0.111430 0.8 0 0
0.521288 0.526051 0.104466 0.8 0 0
0.270228 0.137753 0.211867 0.8 0 0
0.217681 0.255584 0.213117 0.8 0 0
0.229691 0.592471 0.313170 0.8 0 0
0.318007 0.541634 0.162537 0.8 0 0
0.283147 0.501622 0.215256 0.8 0 0
0.255464 0.398675 0.028406 0.8 0 0
0.134351 0.521528 0.094806 0.8 0 0
0.202432 0.622087 0.204880 0.8 0 0
0.140938 0.217863 0.035995 0.8 0 0
0.667545 0.495565 0.126170 0.8 0 0
0.148727 0.177653 0.028629 0.8 0 0
0.700522 0.389623 0.118957 0.8 0 0
0.161241 0.277985 0.028376 0.8 0 0
0.711711 0.406617 0.125277 0.8 0 0
0.172612 0.639045 0.041966 0.8 0 0
0.764600 0.500186 0.063499 0.8 0 0
0.218957 0.853735 0.205210 0.8 0 0
0.260873 0.226174 0.104497 0.8 0 0
0.243274 0.077785 0.035676 0.8 0 0
0.393429 0.482214 0.093465 0.8 0 0
0.300259 0.590939 0.204013 0.8 0 0
0.167798 0.517063 0.090034 0.8 0 0
0.165103 0.110993 0.026476 0.8 0 0
0.270246 0.417807 0.225177 0.8 0 0
0.262480 0.503116 0.191608 0.8 0 0
0.173803 0.800129 0.031378 0.8 0 0
0.261327 0.686952 0.041705 0.8 0 0
0.246401 0.120804 0.199451 0.8 0 0
0.261953 0.749221 0.041215 0.8 0 0
0.289185 0.182170 0.201951 0.8 0 0
0.179971 0.446295 0.039769 0.8 0 0
0.290990 0.751936 0.215908 0.8 0 0
0.248001 0.302709 0.028110 0.8 0 0
0.143236 0.092058 0.035490 0.8 0 0
0.176093 0.031224 0.029630 0.8 0 0
0.065379 0.529731 0.166235 0.8 0 0
0.238130 0.273074 0.200576 0.8 0 0
0.225059 0.813603 0.204808 0.8 0 0
0.238075 0.423324 0.037863 0.8 0 0
0.624560 0.468662 0.121483 0.8 0 0
0.153200 0.225637 0.028483 0.8 0 0
0.106281 0.550824 0.157898 0.8 0 0
0.170386 0.453870 0.168162 0.8 0 0
0.313870 0.595547 0.204814 0.8 0 0
0.308164 0.456087 0.122054 0.8 0 0
0.245688 0.364806 0.201269 0.8 0 0
0.182851 0.546777 0.121127 0.8 0 0
0.216402 0.358748 0.213524 0.8 0 0
0.286333 0.764419 0.205623 0.8 0 0
0.183751 0.966414 0.042055 0.8 0 0
0.150689 0.966077 0.037544 0.8 0 0
0.210761 0.176651 0.200532 0.8 0 0
0.384753 0.536246 0.116562 0.8 0 0
0.451732 0.472584 0.105033 0.8 0 0
0.260323 0.270473 0.038177 0.8 0 0
0.159890 0.561724 0.030034 0.8 0 0
0.311213 0.688250 0.206454 0.8 0 0
0.263639 0.751473 0.033487 0.8 0 0
0.305816 0.393377 0.202821 0.8 0 0
0.685536 0.628832 0.127376 0.8 0 0
0.181715 0.816056 0.213921 0.8 0 0
0.208854 0.542455 0.039244 0.8 0 0
0.259526 0.316239 0.214151 0.8 0 0
0.212923 0.657203 0.043221 0.8 0 0
0.183805 0.771419 0.077160 0.8 0 0
0.243488 0.593606 0.291549 0.8 0 0
0.416387 0.504210 0.180470 0.8 0 0
0.194606 0.494461 0.193769 0.8 0 0
0.215181 0.040476 0.026202 0.8 0 0
0.257534 0.776557 0.204815 0.8 0 0
0.135840 0.772765 0.036070 0.8 0 0
0.581415 0.531644 0.114724 0.8 0 0
0.209551 0.855616 0.217432 0.8 0 0
0.312746 0.451578 0.141286 0.8 0 0
0.528395 0.536412 0.135214 0.8 0 0
0.150420 0.043335 0.036554 0.8 0 0
0.135010 0.475487 0.093530 0.8 0 0
0.193169 0.402633 0.212045 0.8 0 0
0.215367 0.692491 0.043403 0.8 0 0
0.244307 0.723343 0.042747 0.8 0 0
0.248789 0.153054 0.212848 0.8 0 0
0.241940 0.247061 0.027683 0.8 0 0
0.692966 0.439681 0.126138 0.8 0 0
0.475756 0.527583 0.162712 0.8 0 0
0.068387 0.454321 0.150831 0.8 0 0
0.695989 0.639194 0.120760 0.8 0 0
0.452189 0.470562 0.106556 0.8 0 0
0.305195 0.183672 0.205596 0.8 0 0
0.209861 0.393614 0.259170 0.8 0 0
0.165622 0.114630 0.038061 0.8 0 0
0.169908 0.797219 0.043360 0.8 0 0
0.251065 0.729076 0.203912 0.8 0 0
0.207760 0.491163 0.025504 0.8 0 0
0.310428 0.468567 0.178231 0.8 0 0
0.179726 0.550882 0.136811 0.8 0 0
0.144639 0.329278 0.030621 0.8 0 0
0.147187 0.641574 0.039871 0.8 0 0
0.136383 0.501619 0.087999 0.8 0 0
0.599761 0.468206 0.116052 0.8 0 0
0.224690 0.398789 0.027302 0.8 0 0
0.452644 0.459083 0.142646 0.8 0 0
0.029654 0.507286 0.152288 0.8 0 0
0.245222 0.924138 0.215067 0.8 0 0
0.286623 0.461670 0.202325 0.8 0 0
0.137094 0.862177 0.039955 0.8 0 0
0.195812 0.289645 0.211735 0.8 0 0
0.206127 0.730335 0.205269 0.8 0 0
0.142697 0.263031 0.030313 0.8 0 0
0.763941 0.499248 0.071664 0.8 0 0
0.360266 0.540201 0.123238 0.8 0 0
0.586056 0.476747 0.101719 0.8 0 0
0.233072 0.401707 0.284562 0.8 0 0
0.186911 0.398584 0.204968 0.8 0 0
0.252157 0.428261 0.028514 0.8 0 0
0.228115 0.197230 0.213044 0.8 0 0
0.263487 0.841956 0.217752 0.8 0 0
0.154683 0.721640 0.032182 0.8 0 0
0.081526 0.489817 0.194068 0.8 0 0
0.289305 0.600174 0.215858 0.8 0 0
0.248206 0.189380 0.028072 0.8 0 0
0.289590 0.534059 0.107833 0.8 0 0
0.144301 0.163568 0.036109 0.8 0 0
0.270911 0.718233 0.033617 0.8 0 0
0.255941 0.095097 0.032164 0.8 0 0
0.204918 0.206177 0.201219 0.8 0 0
0.288741 0.843784 0.207575 0.8 0 0
0.215962 0.915707 0.044697 0.8 0 0
0.102756 0.495676 0.088188 0.8 0 0
0.139397 0.345931 0.031514 0.8 0 0
0.252108 0.448805 0.140003 0.8 0 0
0.134328 0.179034 0.033200 0.8 0 0
0.486882 0.470880 0.160950 0.8 0 0
0.203203 0.268497 0.040197 0.8 0 0
0.608112 0.495351 0.095262 0.8 0 0
0.252267 0.587946 0.249495 0.8 0 0
0.609920 0.474720 0.148781 0.8 0 0
0.178912 0.778714 0.050043 0.8 0 0
0.240925 0.293168 0.027645 0.8 0 0
0.286253 0.457065 0.202284 0.8 0 0
0.327457 0.383650 0.204863 0.8 0 0
0.235146 0.431956 0.214771 0.8 0 0
0.215359 0.529505 0.095042 0.8 0 0
0.255966 0.862628 0.218032 0.8 0 0
0.113528 0.456150 0.109653 0.8 0 0
0.218946 0.514500 0.203146 0.8 0 0
0.275028 0.610913 0.032192 0.8 0 0
0.207769 0.679799 0.215540 0.8 0 0
0.223193 0.732651 0.216949 0.8 0 0
0.235317 0.891687 0.205094 0.8 0 0
0.360427 0.489384 0.101596 0.8 0 0
0.167916 0.774036 0.043023 0.8 0 0
0.252418 0.870986 0.041230 0.8 0 0
0.222169 0.448847 0.155215 0.8 0 0
0.216881 0.492467 0.025811 0.8 0 0
0.676151 0.529570 0.120120 0.8 0 0
0.630063 0.471872 0.113485 0.8 0 0
0.256054 0.777901 0.160473 0.8 0 0
0.195929 0.271963 0.202563 0.8 0 0
0.197647 0.712565 0.205718 0.8 0 0
0.715362 0.489602 0.120629 0.8 0 0
0.335867 0.364537 0.207553 0.8 0 0
0.300935 0.185376 0.203721 0.8 0 0
0.214279 0.547883 0.123841 0.8 0 0
0.161967 0.525530 0.187163 0.8 0 0
0.174402 0.740238 0.043081 0.8 0 0
0.272830 0.478405 0.202218 0.8 0 0
0.785768 0.499909 0.073201 0.8 0 0
0.186588 0.589969 0.212649 0.8 0 0
0.246608 0.772036 0.176833 0.8 0 0
0.591747 0.519210 0.100061 0.8 0 0
0.656992 0.478554 0.147761 0.8 0 0
0.241845 0.818043 0.204542 0.8 0 0
0.134575 0.332173 0.033407 0.8 0 0
0.178555 0.742962 0.030828 0.8 0 0
0.674830 0.420560 0.125486 0.8 0 0
0.221967 0.242167 0.200612 0.8 0 0
0.488270 0.495292 0.085715 0.8 0 0
0.291241 0.654402 0.035962 0.8 0 0
0.215494 0.813019 0.217422 0.8 0 0
0.291071 0.474946 0.184228 0.8 0 0
0.193813 0.607071 0.305671 0.8 0 0
0.263422 0.365575 0.039322 0.8 0 0
0.281666 0.624953 0.038537 0.8 0 0
0.333892 0.494173 0.188059 0.8 0 0
0.258220 0.222594 0.057989 0.8 0 0
0.272728 0.633110 0.216409 0.8 0 0
0.293108 0.358306 0.033624 0.8 0 0
0.664349 0.399558 0.120891 0.8 0 0
0.223947 0.385832 0.027403 0.8 0 0
0.678597 0.493173 0.126449 0.8 0 0
0.328986 0.443148 0.205509 0.8 0 0
0.136508 0.753363 0.038654 0.8 0 0
0.220237 0.602522 0.041537 0.8 0 0
0.684716 0.399246 0.125681 0.8 0 0
0.142403 0.387902 0.037397 0.8 0 0
0.693722 0.607712 0.127438 0.8 0 0
0.238037 0.136235 0.212889 0.8 0 0
0.723034 0.374165 0.120550 0.8 0 0
0.733756 0.498184 0.063652 0.8 0 0
0.693644 0.473821 0.123682 0.8 0 0
0.678723 0.446481 0.119493 0.8 0 0
0.166373 0.618201 0.030644 0.8 0 0
0.255473 0.394980 0.214835 0.8 0 0
0.192783 0.518185 0.039161 0.8 0 0
0.288026 0.758960 0.216105 0.8 0 0
0.228711 0.457894 0.026682 0.8 0 0
0.332270 0.421619 0.205826 0.8 0 0
0.268848 0.664780 0.203648 0.8 0 0
0.270467 0.414048 0.201688 0.8 0 0
0.183095 0.682492 0.042927 0.8 0 0
0.705036 0.506942 0.126245 0.8 0 0
0.211666 0.656280 0.043197 0.8 0 0
0.150578 0.453379 0.116926 0.8 0 0
0.274154 0.524581 0.184439 0.8 0 0
0.102234 0.467825 0.098218 0.8 0 0
0.237338 0.394676 0.269378 0.8 0 0
0.188576 0.819261 0.207480 0.8 0 0
0.158895 0.369658 0.039107 0.8 0 0
0.202924 0.442685 0.039312 0.8 0 0
0.152013 0.805480 0.032942 0.8 0 0
0.249978 0.904575 0.041139 0.8 0 0
0.287739 0.364998 0.031543 0.8 0 0
0.222198 0.544798 0.117051 0.8 0 0
0.279111 0.203314 0.201124 0.8 0 0
0.205397 0.622353 0.204717 0.8 0 0
0.094537 0.463684 0.182500 0.8 0 0
0.222322 0.181668 0.200073 0.8 0 0
0.275371 0.272771 0.213446 0.8 0 0
0.257980 0.697562 0.203756 0.8 0 0
0.214027 0.547398 0.161365 0.8 0 0
0.188181 0.320815 0.210836 0.8 0 0
0.221559 0.471075 0.185572 0.8 0 0
0.255014 0.229336 0.180497 0.8 0 0
0.321497 0.462653 0.171374 0.8 0 0
0.305187 0.584920 0.214858 0.8 0 0
0.360429 0.484547 0.100406 0.8 0 0
0.091916 0.552789 0.137366 0.8 0 0
0.207327 0.615332 0.042425 0.8 0 0
0.234047 0.871743 0.218405 0.8 0 0
0.262184 0.441360 0.215140 0.8 0 0
0.493705 0.525021 0.162506 0.8 0 0
0.441770 0.495736 0.177797 0.8 0 0
0.238916 0.591003 0.216043 0.8 0 0
0.302266 0.534074 0.214636 0.8 0 0
0.211371 0.550836 0.136365 0.8 0 0
0.236659 0.695305 0.030456 0.8 0 0
0.295727 0.244834 0.211754 0.8 0 0
0.308741 0.573409 0.214573 0.8 0 0
0.260991 0.482082 0.188804 0.8 0 0
0.216336 0.546368 0.214928 0.8 0 0
0.252380 0.243159 0.200287 0.8 0 0
0.248304 0.229246 0.082573 0.8 0 0
0.277779 0.565556 0.202964 0.8 0 0
0.211971 0.383011 0.213438 0.8 0 0
0.133620 0.425420 0.034578 0.8 0 0
0.184630 0.432472 0.211200 0.8 0 0
0.687144 0.509495 0.103171 0.8 0 0
0.225031 0.125615 0.212519 0.8 0 0
0.711268 0.460382 0.125591 0.8 0 0
0.144380 0.273180 0.036768 0.8 0 0
0.200776 0.453306 0.167047 0.8 0 0
0.218932 0.088078 0.199339 0.8 0 0
0.694954 0.546765 0.120126 0.8 0 0
0.681535 0.482728 0.148700 0.8 0 0
0.224714 0.573360 0.203271 0.8 0 0
0.173954 0.453455 0.167426 0.8 0 0
0.297085 0.520069 0.214819 0.8 0 0
0.672901 0.645629 0.126138 0.8 0 0
0.509508 0.533161 0.113961 0.8 0 0
0.489996 0.479378 0.167355 0.8 0 0
0.273774 0.744274 0.217011 0.8 0 0
0.242821 0.211226 0.027725 0.8 0 0
0.267397 0.290422 0.213772 0.8 0 0
0.298855 0.550538 0.214951 0.8 0 0
0.628314 0.478488 0.104558 0.8 0 0
0.252659 0.593413 0.216296 0.8 0 0
0.228728 0.524667 0.202773 0.8 0 0
0.219834 0.144216 0.038885 0.8 0 0
0.295328 0.559551 0.203496 0.8 0 0
0.176073 0.820516 0.043967 0.8 0 0
0.290185 0.086432 0.207158 0.8 0 0
0.237630 0.695770 0.203823 0.8 0 0
0.289444 0.373694 0.201749 0.8 0 0
0.384386 0.482290 0.180942 0.8 0 0
0.581478 0.483823 0.158685 0.8 0 0
0.201264 0.337329 0.027431 0.8 0 0
0.204971 0.546236 0.039478 0.8 0 0
0.291043 0.452533 0.214644 0.8 0 0
0.206682 0.178319 0.026184 0.8 0 0
0.248533 0.221639 0.106596 0.8 0 0
0.324744 0.683977 0.211583 0.8 0 0
0.197408 0.402545 0.277372 0.8 0 0
0.269225 0.513277 0.189592 0.8 0 0
0.218018 0.506048 0.193372 0.8 0 0
0.158563 0.390428 0.029270 0.8 0 0
0.241899 0.427694 0.037434 0.8 0 0
0.209666 0.321551 0.212914 0.8 0 0
0.360419 0.516104 0.097438 0.8 0 0
0.314647 0.707186 0.213581 0.8 0 0
0.228203 0.184581 0.039021 0.8 0 0
0.210370 0.588675 0.283272 0.8 0 0
0.376092 0.543820 0.142148 0.8 0 0
0.206290 0.744907 0.205345 0.8 0 0
0.209675 0.082754 0.025683 0.8 0 0
0.255021 0.904542 0.218271 0.8 0 0
0.245671 0.135953 0.212752 0.8 0 0
0.204317 0.054524 0.038365 0.8 0 0
0.257224 0.174973 0.212881 0.8 0 0
0.250718 0.452548 0.215192 0.8 0 0
0.309398 0.659152 0.214886 0.8 0 0
0.202243 0.843114 0.216750 0.8 0 0
0.213913 0.910890 0.044718 0.8 0 0
0.178626 0.964944 0.042510 0.8 0 0
0.246341 0.225577 0.140702 0.8 0 0
0.321564 0.526881 0.104150 0.8 0 0
0.316251 0.548492 0.204714 0.8 0 0
0.150932 0.371486 0.038300 0.8 0 0
0.704576 0.418177 0.125775 0.8 0 0
0.204648 0.241566 0.040061 0.8 0 0
0.166662 0.337390 0.039364 0.8 0 0
0.253076 0.478732 0.187797 0.8 0 0
0.207211 0.537832 0.026673 0.8 0 0
0.208928 0.861017 0.217443 0.8 0 0
0.196339 0.359931 0.203454 0.8 0 0
0.208360 0.618915 0.029145 0.8 0 0
0.693542 0.651033 0.121596 0.8 0 0
0.639864 0.470061 0.120137 0.8 0 0
0.232807 0.804951 0.217759 0.8 0 0
0.275184 0.173860 0.212069 0.8 0 0
0.249805 0.746681 0.204051 0.8 0 0
0.171039 0.847249 0.031785 0.8 0 0
0.186283 0.584462 0.212568 0.8 0 0
0.284339 0.321329 0.035769 0.8 0 0
0.141073 0.598363 0.038856 0.8 0 0
0.204745 0.399723 0.027053 0.8 0 0
0.244303 0.606853 0.293414 0.8 0 0
0.287771 0.143315 0.210264 0.8 0 0
0.707176 0.427381 0.125696 0.8 0 0
0.230619 0.867820 0.218287 0.8 0 0
0.257702 0.124897 0.199726 0.8 0 0
0.311342 0.600564 0.204710 0.8 0 0
0.250911 0.414918 0.037488 0.8 0 0
0.189855 0.600533 0.269845 0.8 0 0
0.187316 0.600980 0.041739 0.8 0 0
0.223299 0.601442 0.028822 0.8 0 0
0.216746 0.543068 0.038852 0.8 0 0
0.187902 0.395267 0.040246 0.8 0 0
0.159377 0.897264 0.032839 0.8 0 0
0.580723 0.506123 0.161806 0.8 0 0
0.158521 0.511343 0.192803 0.8 0 0
0.205222 0.539151 0.108718 0.8 0 0
0.222928 0.783469 0.204662 0.8 0 0
0.239321 0.272896 0.039589 0.8 0 0
0.047682 0.484957 0.130895 0.8 0 0
0.170059 0.706329 0.042434 0.8 0 0
0.621838 0.479823 0.152334 0.8 0 0
0.190635 0.820530 0.044251 0.8 0 0
0.284028 0.515890 0.187776 0.8 0 0
0.223641 0.161679 0.212718 0.8 0 0
0.037302 0.517095 0.128130 0.8 0 0
0.190390 0.749243 0.030645 0.8 0 0
0.149499 0.733051 0.032884 0.8 0 0
0.205433 0.427894 0.026721 0.8 0 0
0.264439 0.890430 0.217709 0.8 0 0
0.224196 0.231235 0.213195 0.8 0 0
0.151751 0.526376 0.039640 0.8 0 0
0.217472 0.527017 0.297014 0.8 0 0
0.148839 0.246049 0.029284 0.8 0 0
0.247166 0.321209 0.200851 0.8 0 0
0.229853 0.079514 0.199825 0.8 0 0
0.172144 0.950884 0.032342 0.8 0 0
0.200688 0.901315 0.044962 0.8 0 0
0.445309 0.534653 0.114991 0.8 0 0
0.364884 0.536727 0.117023 0.8 0 0
0.538984 0.467320 0.111588 0.8 0 0
0.238718 0.216113 0.038775 0.8 0 0
0.250374 0.623905 0.041405 0.8 0 0
0.244449 0.594949 0.290175 0.8 0 0
0.710001 0.351446 0.118901 0.8 0 0
0.135071 0.480232 0.093318 0.8 0 0
0.291158 0.701079 0.204958 0.8 0 0
0.221747 0.379684 0.040418 0.8 0 0
0.233320 0.610889 0.216099 0.8 0 0
0.127169 0.530690 0.185563 0.8 0 0
0.274691 0.397244 0.214601 0.8 0 0
0.165988 0.078949 0.037935 0.8 0 0
0.266803 0.313272 0.200979 0.8 0 0
0.252742 0.562499 0.035710 0.8 0 0
0.283228 0.385406 0.032802 0.8 0 0
0.216536 0.801952 0.217380 0.8 0 0
0.302484 0.536385 0.203723 0.8 0 0
0.207210 0.358745 0.202574 0.8 0 0
0.273243 0.118495 0.200776 0.8 0 0
0.693575 0.616938 0.127492 0.8 0 0
0.195681 0.081707 0.025346 0.8 0 0
0.162051 0.483742 0.027952 0.8 0 0
0.271928 0.274523 0.200848 0.8 0 0
0.216819 0.412037 0.229185 0.8 0 0
0.165774 0.267872 0.038896 0.8 0 0
0.657874 0.482359 0.104540 0.8 0 0
0.216156 0.455105 0.202851 0.8 0 0
0.231014 0.848243 0.204908 0.8 0 0
0.217102 0.581191 0.282840 0.8 0 0
0.172048 0.544005 0.168964 0.8 0 0
0.217608 0.558998 0.215095 0.8 0 0
0.223167 0.092597 0.038089 0.8 0 0
0.720929 0.511124 0.148642 0.8 0 0
0.173889 0.928112 0.032152 0.8 0 0
0.199105 0.345708 0.212437 0.8 0 0
0.196932 0.215175 0.026431 0.8 0 0
0.228704 0.414062 0.026913 0.8 0 0
0.210900 0.519965 0.087546 0.8 0 0
0.050530 0.539467 0.179942 0.8 0 0
0.218696 0.434899 0.039027 0.8 0 0
0.096232 0.455657 0.110271 0.8 0 0
0.235369 0.883682 0.205044 0.8 0 0
0.066705 0.517007 0.103995 0.8 0 0
0.182955 0.039148 0.037247 0.8 0 0
0.215705 0.519495 0.026219 0.8 0 0
0.251735 0.074002 0.202510 0.8 0 0
0.279442 0.536665 0.173500 0.8 0 0
0.269283 0.369311 0.201337 0.8 0 0
0.170495 0.460362 0.107302 0.8 0 0
0.197574 0.188411 0.026181 0.8 0 0
0.165761 0.890357 0.032333 0.8 0 0
0.250443 0.912936 0.205634 0.8 0 0
0.242743 0.580877 0.252406 0.8 0 0
0.319625 0.544216 0.127984 0.8 0 0
0.229561 0.163685 0.199761 0.8 0 0
0.267059 0.129620 0.200282 0.8 0 0
0.219177 0.821012 0.031313 0.8 0 0
0.156242 0.353394 0.029421 0.8 0 0
0.181478 0.725479 0.212993 0.8 0 0
0.322339 0.453259 0.212363 0.8 0 0
0.298485 0.563653 0.215070 0.8 0 0
0.065385 0.538439 0.141394 0.8 0 0
0.277603 0.616786 0.038203 0.8 0 0
0.245900 0.394127 0.285912 0.8 0 0
0.250268 0.255927 0.028229 0.8 0 0
0.684444 0.566485 0.120321 0.8 0 0
0.187455 0.512662 0.212167 0.8 0 0
0.248289 0.406804 0.028034 0.8 0 0
0.179484 0.609416 0.041973 0.8 0 0
0.206854 0.099889 0.025720 0.8 0 0
0.218871 0.511765 0.035894 0.8 0 0
0.270687 0.643793 0.203478 0.8 0 0
0.249607 0.769602 0.152444 0.8 0 0
0.247273 0.486052 0.202176 0.8 0 0
0.246649 0.163524 0.199707 0.8 0 0
0.418289 0.521282 0.101643 0.8 0 0
0.261667 0.217424 0.200323 0.8 0 0
0.028924 0.487217 0.137608 0.8 0 0
0.193342 0.776336 0.096641 0.8 0 0
0.142109 0.662246 0.039406 0.8 0 0
0.068492 0.470354 0.177623 0.8 0 0
0.178515 0.546069 0.119384 0.8 0 0
0.638779 0.529253 0.132744 0.8 0 0
0.164875 0.824052 0.032068 0.8 0 0
0.186131 0.463893 0.039599 0.8 0 0
0.152269 0.478530 0.092540 0.8 0 0
0.204505 0.076887 0.025526 0.8 0 0
0.250834 0.170903 0.028675 0.8 0 0
0.236737 0.128082 0.212811 0.8 0 0
0.290804 0.544512 0.125056 0.8 0 0
0.287395 0.627698 0.216134 0.8 0 0
0.246508 0.597648 0.291094 0.8 0 0
0.188846 0.191710 0.202747 0.8 0 0
0.258229 0.228376 0.033222 0.8 0 0
0.066475 0.535022 0.163355 0.8 0 0
0.198991 0.600353 0.297184 0.8 0 0
0.317940 0.362716 0.212031 0.8 0 0
0.179586 0.752861 0.209201 0.8 0 0
0.144995 0.461047 0.177663 0.8 0 0
0.231352 0.449161 0.130193 0.8 0 0
0.220706 0.586406 0.288925 0.8 0 0
0.527458 0.531307 0.111289 0.8 0 0
0.237608 0.691897 0.043012 0.8 0 0
0.190977 0.374367 0.040486 0.8 0 0
0.228147 0.506960 0.192774 0.8 0 0
0.319873 0.276798 0.206473 0.8 0 0
0.186384 0.418909 0.205187 0.8 0 0
0.209525 0.184247 0.026274 0.8 0 0
0.311296 0.384572 0.203062 0.8 0 0
0.198742 0.950276 0.032073 0.8 0 0
0.245172 0.136203 0.212764 0.8 0 0
0.244229 0.903749 0.205400 0.8 0 0
0.579017 0.521524 0.154643 0.8 0 0
0.216332 0.498452 0.025713 0.8 0 0
0.201279 0.607982 0.204837 0.8 0 0
0.100543 0.451412 0.167342 0.8 0 0
0.159869 0.686345 0.041669 0.8 0 0
0.209026 0.455692 0.203251 0.8 0 0
0.272595 0.114796 0.200727 0.8 0 0
0.444486 0.536583 0.118886 0.8 0 0
0.213017 0.869283 0.205490 0.8 0 0
0.240805 0.703246 0.203817 0.8 0 0
0.200511 0.774320 0.113450 0.8 0 0
0.255866 0.481833 0.215503 0.8 0 0
0.238111 0.942898 0.042629 0.8 0 0
0.580612 0.498767 0.092666 0.8 0 0
0.280619 0.365703 0.037605 0.8 0 0
0.183377 0.507059 0.025948 0.8 0 0
0.533837 0.469574 0.108552 0.8 0 0
0.178901 0.096866 0.207132 0.8 0 0
0.516292 0.509870 0.088910 0.8 0 0
0.191706 0.489165 0.038732 0.8 0 0
0.290995 0.681243 0.204644 0.8 0 0
0.106633 0.552359 0.149942 0.8 0 0
0.285113 0.542931 0.163476 0.8 0 0
0.216546 0.771277 0.204813 0.8 0 0
0.174111 0.528599 0.027747 0.8 0 0
0.301732 0.724727 0.215131 0.8 0 0
0.322457 0.324337 0.204803 0.8 0 0
0.437183 0.539494 0.125671 0.8 0 0
0.179995 0.630110 0.042279 0.8 0 0
0.136197 0.516685 0.090973 0.8 0 0
0.209997 0.613736 0.204396 0.8 0 0
0.220998 0.650718 0.216030 0.8 0 0
0.270590 0.103027 0.211228 0.8 0 0
0.157033 0.082800 0.037246 0.8 0 0
0.269349 0.584883 0.219454 0.8 0 0
0.254449 0.757276 0.204242 0.8 0 0
0.228622 0.550743 0.027561 0.8 0 0
0.172650 0.130450 0.026191 0.8 0 0
0.179850 0.578610 0.210915 0.8 0 0
0.212114 0.757901 0.030586 0.8 0 0
0.242315 0.424903 0.214839 0.8 0 0
0.615294 0.474225 0.107831 0.8 0 0
0.316327 0.452080 0.138939 0.8 0 0
0.573598 0.510547 0.161327 0.8 0 0
0.328388 0.541892 0.160664 0.8 0 0
0.307656 0.334493 0.212514 0.8 0 0
0.218271 0.563495 0.295478 0.8 0 0
0.236001 0.817053 0.217940 0.8 0 0
0.677329 0.461150 0.126124 0.8 0 0
0.231410 0.536701 0.215503 0.8 0 0
0.075484 0.520935 0.096978 0.8 0 0
0.683619 0.498452 0.091729 0.8 0 0
0.087581 0.504362 0.195507 0.8 0 0
0.253645 0.793204 0.041879 0.8 0 0
0.723656 0.504013 0.086029 0.8 0 0
0.300603 0.295477 0.212301 0.8 0 0
0.669640 0.638908 0.125683 0.8 0 0
0.328961 0.361926 0.205127 0.8 0 0
0.288615 0.288422 0.201711 0.8 0 0
0.206842 0.111427 0.025789 0.8 0 0
0.137940 0.446537 0.129961 0.8 0 0
0.202906 0.963243 0.043199 0.8 0 0
0.720246 0.398065 0.124381 0.8 0 0
0.225776 0.678963 0.030118 0.8 0 0
0.219998 0.600259 0.276836 0.8 0 0
0.448156 0.487274 0.087403 0.8 0 0
0.236876 0.665187 0.042879 0.8 0 0
0.267642 0.878402 0.217487 0.8 0 0
0.225744 0.696162 0.204050 0.8 0 0
0.730775 0.500738 0.146679 0.8 0 0
0.721196 0.507398 0.121503 0.8 0 0
0.238824 0.554104 0.215761 0.8 0 0
0.465888 0.516339 0.091520 0.8 0 0
0.235728 0.407783 0.027323 0.8 0 0
0.370053 0.497441 0.186149 0.8 0 0
0.248043 0.087315 0.035129 0.8 0 0
0.180951 0.214294 0.204451 0.8 0 0
0.236321 0.704277 0.030535 0.8 0 0
0.472090 0.510894 0.085651 0.8 0 0
0.181789 0.176893 0.209050 0.8 0 0
0.706172 0.538090 0.126501 0.8 0 0
0.312233 0.536468 0.204272 0.8 0 0
0.172957 0.468515 0.039765 0.8 0 0
0.212766 0.548588 0.039433 0.8 0 0
0.231581 0.559370 0.202989 0.8 0 0
0.246666 0.878097 0.218327 0.8 0 0
0.200934 0.548092 0.124365 0.8 0 0
0.164692 0.101570 0.026405 0.8 0 0
0.290930 0.274808 0.212569 0.8 0 0
0.566728 0.473195 0.104221 0.8 0 0
0.248969 0.117149 0.212494 0.8 0 0
0.692265 0.479153 0.111331 0.8 0 0
0.223596 0.651854 0.203845 0.8 0 0
0.359909 0.477514 0.181750 0.8 0 0
0.257293 0.710339 0.217135 0.8 0 0
0.225668 0.158732 0.038831 0.8 0 0
0.292541 0.452187 0.129870 0.8 0 0
0.150988 0.130625 0.027812 0.8 0 0
0.277372 0.383744 0.214454 0.8 0 0
0.276095 0.411435 0.201764 0.8 0 0
0.053416 0.508648 0.142394 0.8 0 0
0.244667 0.389852 0.027870 0.8 0 0
0.222521 0.221556 0.128006 0.8 0 0
0.263896 0.289601 0.200786 0.8 0 0
0.171050 0.513132 0.088095 0.8 0 0
0.304472 0.680531 0.215171 0.8 0 0
0.221198 0.403775 0.027200 0.8 0 0
0.197931 0.448668 0.128238 0.8 0 0
0.203473 0.258864 0.026696 0.8 0 0
0.563917 0.498718 0.164395 0.8 0 0
0.307685 0.486762 0.213976 0.8 0 0
0.680866 0.586179 0.127043 0.8 0 0
0.210861 0.777458 0.127213 0.8 0 0
0.297980 0.760744 0.215171 0.8 0 0
0.120939 0.532716 0.099915 0.8 0 0
0.224525 0.624889 0.215987 0.8 0 0
0.120440 0.550043 0.159759 0.8 0 0
0.569927 0.464248 0.131771 0.8 0 0
0.661675 0.489338 0.154242 0.8 0 0
0.550600 0.535373 0.124913 0.8 0 0
0.624229 0.508084 0.157965 0.8 0 0
0.132391 0.451531 0.167623 0.8 0 0
0.198198 0.269665 0.202293 0.8 0 0
0.240774 0.764057 0.042942 0.8 0 0
0.179188 0.173770 0.039115 0.8 0 0
0.217238 0.687144 0.043339 0.8 0 0
0.636887 0.498073 0.158112 0.8 0 0
0.135922 0.564770 0.034649 0.8 0 0
0.305357 0.622335 0.204539 0.8 0 0
0.334656 0.539285 0.210688 0.8 0 0
0.220445 0.221168 0.125647 0.8 0 0
0.201659 0.474393 0.038377 0.8 0 0
0.108154 0.548391 0.163649 0.8 0 0
0.634220 0.515703 0.101530 0.8 0 0
0.248971 0.774853 0.217662 0.8 0 0
0.211914 0.533996 0.026361 0.8 0 0
0.225190 0.581671 0.272988 0.8 0 0
0.185739 0.588909 0.041420 0.8 0 0
0.247911 0.930316 0.211956 0.8 0 0
0.458549 0.536194 0.152293 0.8 0 0
0.163867 0.532161 0.101831 0.8 0 0
0.235866 0.228333 0.213404 0.8 0 0
0.214711 0.839650 0.205245 0.8 0 0
0.714759 0.496221 0.091878 0.8 0 0
0.192652 0.197037 0.039536 0.8 0 0
0.333841 0.540997 0.162115 0.8 0 0
0.308433 0.441774 0.203337 0.8 0 0
0.203820 0.169593 0.039441 0.8 0 0
0.076866 0.455692 0.115431 0.8 0 0
0.640044 0.514701 0.153869 0.8 0 0
0.243603 0.665819 0.216729 0.8 0 0
0.395427 0.479433 0.178443 0.8 0 0
0.230983 0.768615 0.164684 0.8 0 0
0.171945 0.756660 0.031263 0.8 0 0
0.245927 0.227044 0.098403 0.8 0 0
0.226180 0.529972 0.026887 0.8 0 0
0.275781 0.283390 0.036414 0.8 0 0
0.167735 0.093568 0.038136 0.8 0 0
0.234028 0.239201 0.039423 0.8 0 0
0.639591 0.484315 0.153983 0.8 0 0
0.603854 0.532527 0.126727 0.8 0 0
0.147248 0.461975 0.178826 0.8 0 0
0.245418 0.569322 0.215989 0.8 0 0
0.238548 0.941153 0.034701 0.8 0 0
0.090571 0.478164 0.092423 0.8 0 0
0.234351 0.769386 0.031283 0.8 0 0
0.170354 0.122059 0.026252 0.8 0 0
0.153986 0.510119 0.192953 0.8 0 0
0.241172 0.190497 0.199784 0.8 0 0
0.277981 0.493962 0.190715 0.8 0 0
0.170434 0.869669 0.031932 0.8 0 0
0.698844 0.518583 0.110586 0.8 0 0
0.341259 0.489256 0.187018 0.8 0 0
0.261704 0.770612 0.185362 0.8 0 0
0.206460 0.369697 0.202731 0.8 0 0
0.245748 0.461275 0.175574 0.8 0 0
0.754227 0.511078 0.115283 0.8 0 0
0.168497 0.402602 0.039749 0.8 0 0
0.186773 0.180942 0.202931 0.8 0 0
0.162080 0.449198 0.156927 0.8 0 0
0.745840 0.498975 0.057600 0.8 0 0
0.223905 0.327598 0.201316 0.8 0 0
0.703877 0.447038 0.119538 0.8 0 0
0.294774 0.522265 0.184641 0.8 0 0
0.161522 0.844708 0.032383 0.8 0 0
0.257656 0.105451 0.212177 0.8 0 0
0.716924 0.501863 0.073575 0.8 0 0
0.734495 0.515421 0.113777 0.8 0 0
0.594974 0.487276 0.159005 0.8 0 0
0.684207 0.611534 0.127254 0.8 0 0
0.224721 0.593281 0.313937 0.8 0 0
0.291271 0.531770 0.215231 0.8 0 0
0.215644 0.642751 0.215649 0.8 0 0
0.298155 0.305935 0.202281 0.8 0 0
0.228252 0.485433 0.215060 0.8 0 0
0.408742 0.518651 0.177144 0.8 0 0
0.264026 0.268847 0.200665 0.8 0 0
0.204037 0.492485 0.025336 0.8 0 0
0.248229 0.910624 0.041352 0.8 0 0
0.253014 0.080285 0.199840 0.8 0 0
0.118051 0.512068 0.194562 0.8 0 0
0.651190 0.472773 0.115608 0.8 0 0
0.737005 0.518320 0.124479 0.8 0 0
0.245983 0.899628 0.034845 0.8 0 0
0.437279 0.478419 0.100743 0.8 0 0
0.199334 0.823155 0.044465 0.8 0 0
0.671766 0.571251 0.120913 0.8 0 0
0.255342 0.813794 0.217783 0.8 0 0
0.135197 0.516238 0.193088 0.8 0 0
0.228195 0.166645 0.199813 0.8 0 0
0.296190 0.540463 0.167334 0.8 0 0
0.269250 0.730328 0.033729 0.8 0 0
0.195232 0.229667 0.074991 0.8 0 0
0.216873 0.411990 0.261942 0.8 0 0
0.272746 0.647821 0.203551 0.8 0 0
0.239638 0.774081 0.193382 0.8 0 0
0.237872 0.900283 0.218644 0.8 0 0
0.187403 0.742509 0.214104 0.8 0 0
0.238404 0.135060 0.027429 0.8 0 0
0.048686 0.432380 0.075394 0.8 0 0
0.301057 0.178863 0.203824 0.8 0 0
0.222320 0.254568 0.026941 0.8 0 0
0.672995 0.381244 0.124723 0.8 0 0
0.688637 0.517566 0.108368 0.8 0 0
0.222258 0.450248 0.125202 0.8 0 0
0.727035 0.353793 0.121888 0.8 0 0
0.663659 0.391251 0.121432 0.8 0 0
0.187291 0.467191 0.182895 0.8 0 0
0.142709 0.497466 0.038445 0.8 0 0
0.083317 0.449780 0.163314 0.8 0 0
0.338544 0.463781 0.171512 0.8 0 0
0.652942 0.526513 0.116877 0.8 0 0
0.410727 0.530545 0.168042 0.8 0 0
0.138276 0.607749 0.033948 0.8 0 0
0.121276 0.458031 0.107244 0.8 0 0
0.210235 0.940937 0.044965 0.8 0 0
0.235648 0.544613 0.202811 0.8 0 0
0.499671 0.484560 0.168427 0.8 0 0
0.148099 0.447247 0.145265 0.8 0 0
0.150242 0.532932 0.039660 0.8 0 0
0.449913 0.537004 0.151957 0.8 0 0
0.248366 0.308083 0.200713 0.8 0 0
0.674929 0.609602 0.126697 0.8 0 0
0.218202 0.491379 0.292231 0.8 0 0
0.715761 0.501277 0.069737 0.8 0 0
0.261507 0.136640 0.212400 0.8 0 0
0.160048 0.331457 0.028937 0.8 0 0
0.186196 0.309990 0.210513 0.8 0 0
0.180749 0.821853 0.044070 0.8 0 0
0.185329 0.682622 0.207201 0.8 0 0
0.458908 0.459433 0.128534 0.8 0 0
0.275817 0.688554 0.216676 0.8 0 0
0.649258 0.523348 0.110482 0.8 0 0
0.183546 0.155588 0.026154 0.8 0 0
0.146992 0.457248 0.111279 0.8 0 0
0.360413 0.519449 0.115211 0.8 0 0
0.241217 0.645530 0.042685 0.8 0 0
