0.331972 0.270153 0.445458 0.8 0 0
0.482144 0.232557 0.260255 0.8 0 0
0.954934 0.264705 0.601777 0.8 0 0
0.223795 0.248981 0.530214 0.8 0 0
0.238329 0.164754 0.530032 0.8 0 0
0.037335 0.272827 0.534439 0.8 0 0
0.956128 0.265920 0.531156 0.8 0 0
0.527891 0.198651 0.456087 0.8 0 0
0.414389 0.197099 0.033651 0.8 0 0
0.359328 0.128602 0.448257 0.8 0 0
0.235651 0.128166 0.473480 0.8 0 0
0.549959 0.135666 0.572187 0.8 0 0
0.421078 0.158653 0.671914 0.8 0 0
0.416651 0.058768 0.537636 0.8 0 0
0.451406 0.185168 0.656403 0.8 0 0
0.906732 0.270504 0.451983 0.8 0 0
0.247883 0.126826 0.551384 0.8 0 0
0.505699 0.147755 0.256173 0.8 0 0
0.409757 0.053306 0.522677 0.8 0 0
0.501887 0.293537 0.034403 0.8 0 0
0.313260 0.128817 0.435682 0.8 0 0
0.411578 0.274359 0.571132 0.8 0 0
0.554340 0.274233 0.553244 0.8 0 0
0.764804 0.211821 0.508001 0.8 0 0
0.899310 0.272217 0.497755 0.8 0 0
0.531250 0.199288 0.419041 0.8 0 0
0.238381 0.127710 0.499970 0.8 0 0
0.451315 0.135917 0.557519 0.8 0 0
0.707413 0.126637 0.562892 0.8 0 0
0.474936 0.182340 0.648392 0.8 0 0
0.532484 0.210773 0.414208 0.8 0 0
0.506230 0.222283 0.650001 0.8 0 0
0.443166 0.175589 0.597109 0.8 0 0
0.552650 0.160379 0.608117 0.8 0 0
0.399998 0.272516 0.508188 0.8 0 0
0.618997 0.273786 0.540976 0.8 0 0
0.432863 0.163241 0.553178 0.8 0 0
0.738758 0.134675 0.447812 0.8 0 0
0.297258 0.266032 0.523957 0.8 0 0
0.572505 0.272701 0.615944 0.8 0 0
0.442155 0.185881 0.617865 0.8 0 0
0.501153 0.225013 0.048878 0.8 0 0
0.677937 0.127190 0.530683 0.8 0 0
0.674301 0.265752 0.540606 0.8 0 0
0.476001 0.181241 0.106204 0.8 0 0
0.598966 0.194712 0.035988 0.8 0 0
0.312772 0.134512 0.471708 0.8 0 0
0.414699 0.058995 0.536192 0.8 0 0
0.523087 0.234632 0.329518 0.8 0 0
0.241097 0.127179 0.530896 0.8 0 0
0.458724 0.201920 0.241816 0.8 0 0
0.415142 0.135257 0.551237 0.8 0 0
0.554341 0.153738 0.640169 0.8 0 0
0.349369 0.273863 0.544379 0.8 0 0
0.638803 0.265033 0.582407 0.8 0 0
0.362554 0.135336 0.551668 0.8 0 0
0.261001 0.274172 0.553052 0.8 0 0
0.378739 0.127684 0.501647 0.8 0 0
0.540736 0.225281 0.450084 0.8 0 0
0.292337 0.127129 0.533844 0.8 0 0
0.524317 0.198855 0.092074 0.8 0 0
0.721057 0.270165 0.443850 0.8 0 0
0.553519 0.166399 0.482042 0.8 0 0
0.672190 0.134717 0.474159 0.8 0 0
0.877302 0.267191 0.457184 0.8 0 0
0.772241 0.128808 0.436713 0.8 0 0
0.417168 0.265901 0.531706 0.8 0 0
0.584247 0.274107 0.586290 0.8 0 0
0.773317 0.229977 0.534711 0.8 0 0
0.521201 0.233858 0.307906 0.8 0 0
0.466043 0.264535 0.611145 0.8 0 0
0.469665 0.127687 0.500949 0.8 0 0
0.487723 0.169868 0.690855 0.8 0 0
0.540279 0.194375 0.668299 0.8 0 0
0.710206 0.272080 0.616704 0.8 0 0
0.460920 0.195390 0.131802 0.8 0 0
0.927152 0.265643 0.547243 0.8 0 0
0.414117 0.032489 0.564519 0.8 0 0
0.637772 0.134574 0.473510 0.8 0 0
0.442944 0.176258 0.598970 0.8 0 0
0.533632 0.210146 0.209233 0.8 0 0
0.292235 0.274213 0.579653 0.8 0 0
0.709346 0.272619 0.509396 0.8 0 0
0.295435 0.134474 0.452334 0.8 0 0
0.493168 0.240774 0.499438 0.8 0 0
0.472748 0.236636 0.375321 0.8 0 0
0.550657 0.266677 0.486719 0.8 0 0
0.456411 0.195635 0.078158 0.8 0 0
0.487181 0.241010 0.485756 0.8 0 0
0.521644 0.193565 0.661482 0.8 0 0
0.395652 0.128183 0.472635 0.8 0 0
0.770118 0.244381 0.533791 0.8 0 0
0.444914 0.197179 0.512196 0.8 0 0
0.430294 0.266997 0.468001 0.8 0 0
0.457023 0.146007 0.473795 0.8 0 0
0.431870 0.088329 0.549826 0.8 0 0
0.505204 0.164718 0.690063 0.8 0 0
0.449235 0.135825 0.562892 0.8 0 0
0.530499 0.209017 0.412183 0.8 0 0
0.074035 0.272335 0.504956 0.8 0 0
0.652349 0.264807 0.595562 0.8 0 0
0.356669 0.271090 0.470348 0.8 0 0
0.480817 0.239558 0.530437 0.8 0 0
0.506563 0.193247 0.648482 0.8 0 0
0.426947 0.274061 0.549269 0.8 0 0
0.537359 0.140709 0.539653 0.8 0 0
0.653753 0.126457 0.573279 0.8 0 0
0.538894 0.194401 0.210309 0.8 0 0
0.534311 0.170595 0.226875 0.8 0 0
0.560634 0.171942 0.521388 0.8 0 0
0.173977 0.265316 0.565420 0.8 0 0
0.245048 0.133696 0.414904 0.8 0 0
0.643692 0.271371 0.476429 0.8 0 0
0.466581 0.229468 0.424992 0.8 0 0
0.292900 0.134876 0.502360 0.8 0 0
0.263692 0.127754 0.497446 0.8 0 0
0.662044 0.134094 0.423644 0.8 0 0
0.387183 0.127160 0.532144 0.8 0 0
0.539129 0.165779 0.274774 0.8 0 0
0.551148 0.189729 0.310703 0.8 0 0
0.942613 0.270734 0.457938 0.8 0 0
0.321235 0.274336 0.557142 0.8 0 0
0.421970 0.136140 0.457542 0.8 0 0
0.513095 0.221849 0.127410 0.8 0 0
0.888130 0.273117 0.521809 0.8 0 0
0.569999 0.195865 0.077139 0.8 0 0
0.877619 0.273830 0.603171 0.8 0 0
0.288376 0.134295 0.434883 0.8 0 0
0.346726 0.134990 0.519426 0.8 0 0
0.964474 0.265481 0.556708 0.8 0 0
0.620280 0.127139 0.533583 0.8 0 0
0.512522 0.240145 0.536077 0.8 0 0
0.447743 0.195899 0.124774 0.8 0 0
0.591579 0.204506 0.668877 0.8 0 0
0.443079 0.190254 0.560090 0.8 0 0
0.769686 0.221677 0.503832 0.8 0 0
0.514351 0.128451 0.456604 0.8 0 0
0.898753 0.264694 0.602378 0.8 0 0
0.508432 0.146654 0.263417 0.8 0 0
0.750595 0.126511 0.570213 0.8 0 0
0.495293 0.275146 0.062925 0.8 0 0
0.474170 0.218152 0.169227 0.8 0 0
0.626686 0.135420 0.554357 0.8 0 0
0.444185 0.198448 0.379845 0.8 0 0
0.690746 0.135382 0.549675 0.8 0 0
0.230587 0.242160 0.551185 0.8 0 0
0.324815 0.126713 0.558046 0.8 0 0
0.553188 0.155779 0.457367 0.8 0 0
0.553729 0.175924 0.654887 0.8 0 0
0.089948 0.264881 0.590653 0.8 0 0
0.366626 0.135109 0.532432 0.8 0 0
0.194153 0.274081 0.587372 0.8 0 0
0.453960 0.273831 0.602568 0.8 0 0
0.575747 0.127784 0.496031 0.8 0 0
0.190856 0.274003 0.592051 0.8 0 0
0.551916 0.163514 0.405003 0.8 0 0
0.251868 0.266991 0.468153 0.8 0 0
0.946376 0.273398 0.530185 0.8 0 0
0.858997 0.273622 0.535445 0.8 0 0
0.444370 0.273272 0.528121 0.8 0 0
0.311551 0.127812 0.494131 0.8 0 0
0.557274 0.174721 0.531074 0.8 0 0
0.540112 0.201938 0.244763 0.8 0 0
0.834999 0.272605 0.508430 0.8 0 0
0.670329 0.126808 0.552935 0.8 0 0
0.475929 0.273728 0.548041 0.8 0 0
0.769460 0.266775 0.481241 0.8 0 0
0.277891 0.127538 0.510027 0.8 0 0
0.480813 0.129007 0.454793 0.8 0 0
0.451942 0.170735 0.322573 0.8 0 0
0.676226 0.273937 0.596544 0.8 0 0
0.666850 0.128612 0.447975 0.8 0 0
0.472946 0.238211 0.458461 0.8 0 0
0.594618 0.044276 0.542272 0.8 0 0
0.459973 0.188276 0.655367 0.8 0 0
0.337756 0.273768 0.606191 0.8 0 0
0.661913 0.273602 0.535855 0.8 0 0
0.529967 0.265989 0.526711 0.8 0 0
0.544580 0.184675 0.269899 0.8 0 0
0.515249 0.199162 0.426348 0.8 0 0
0.325723 0.267120 0.460696 0.8 0 0
0.617886 0.134567 0.479643 0.8 0 0
0.232787 0.133091 0.502134 0.8 0 0
0.235662 0.183198 0.490254 0.8 0 0
0.776778 0.264966 0.584889 0.8 0 0
0.062243 0.265594 0.549149 0.8 0 0
0.811939 0.269595 0.440719 0.8 0 0
0.216580 0.266178 0.515381 0.8 0 0
0.760494 0.127266 0.526368 0.8 0 0
0.739271 0.266354 0.505700 0.8 0 0
0.530493 0.233512 0.397479 0.8 0 0
0.627931 0.248155 0.672838 0.8 0 0
0.506946 0.266150 0.517320 0.8 0 0
0.557531 0.178851 0.478450 0.8 0 0
0.395789 0.126332 0.671466 0.8 0 0
0.395477 0.194787 0.084883 0.8 0 0
0.540724 0.126509 0.569542 0.8 0 0
0.757076 0.266474 0.498742 0.8 0 0
0.646667 0.135428 0.556369 0.8 0 0
0.495343 0.268517 0.034478 0.8 0 0
0.443377 0.136802 0.506100 0.8 0 0
0.249061 0.139258 0.484781 0.8 0 0
0.304879 0.265554 0.551732 0.8 0 0
0.748740 0.128819 0.436071 0.8 0 0
0.664710 0.270105 0.442529 0.8 0 0
0.505541 0.274066 0.588647 0.8 0 0
0.386921 0.265133 0.576330 0.8 0 0
0.490963 0.150185 0.647789 0.8 0 0
0.509513 0.127506 0.511583 0.8 0 0
0.209020 0.266842 0.476765 0.8 0 0
0.233849 0.221235 0.525362 0.8 0 0
0.754927 0.266464 0.499292 0.8 0 0
0.545557 0.149231 0.407507 0.8 0 0
0.371727 0.134219 0.455644 0.8 0 0
0.054788 0.271375 0.479688 0.8 0 0
0.379059 0.272272 0.501768 0.8 0 0
0.354550 0.264985 0.584855 0.8 0 0
0.778686 0.270386 0.619453 0.8 0 0
0.628116 0.273733 0.539521 0.8 0 0
0.208368 0.273927 0.546782 0.8 0 0
0.050575 0.266933 0.471283 0.8 0 0
0.840986 0.266067 0.522477 0.8 0 0
0.898410 0.273539 0.533037 0.8 0 0
0.619958 0.135145 0.529335 0.8 0 0
0.937481 0.265165 0.575051 0.8 0 0
0.479790 0.229683 0.247934 0.8 0 0
0.602628 0.134449 0.474576 0.8 0 0
0.495810 0.144867 0.275220 0.8 0 0
0.361419 0.266354 0.505314 0.8 0 0
0.785450 0.266532 0.495346 0.8 0 0
0.606088 0.196590 0.056724 0.8 0 0
0.458602 0.173473 0.263110 0.8 0 0
0.491215 0.248739 0.462239 0.8 0 0
0.839045 0.264872 0.591947 0.8 0 0
0.557774 0.189982 0.431356 0.8 0 0
0.889236 0.274282 0.552882 0.8 0 0
0.674721 0.135532 0.570100 0.8 0 0
0.939441 0.271549 0.479715 0.8 0 0
0.608529 0.266490 0.497615 0.8 0 0
0.236042 0.133202 0.570831 0.8 0 0
0.226699 0.128349 0.540450 0.8 0 0
0.500998 0.121859 0.622588 0.8 0 0
0.241839 0.172471 0.529379 0.8 0 0
0.451101 0.218855 0.413243 0.8 0 0
0.624411 0.273818 0.603592 0.8 0 0
0.618216 0.197666 0.035024 0.8 0 0
0.865385 0.270160 0.443007 0.8 0 0
0.327268 0.134685 0.490312 0.8 0 0
0.753486 0.265147 0.575895 0.8 0 0
0.702440 0.273053 0.521033 0.8 0 0
0.465935 0.136621 0.516602 0.8 0 0
0.278516 0.274113 0.585584 0.8 0 0
0.452745 0.169368 0.319719 0.8 0 0
0.457136 0.188952 0.235309 0.8 0 0
0.275549 0.135174 0.527027 0.8 0 0
0.591069 0.265568 0.551257 0.8 0 0
0.599499 0.127914 0.488546 0.8 0 0
0.641400 0.265062 0.580717 0.8 0 0
0.399929 0.140111 0.672274 0.8 0 0
0.512447 0.156688 0.647837 0.8 0 0
0.469719 0.132122 0.617207 0.8 0 0
0.873198 0.265187 0.573703 0.8 0 0
0.577280 0.267183 0.457327 0.8 0 0
0.636737 0.127083 0.536876 0.8 0 0
0.934721 0.274439 0.566993 0.8 0 0
0.568567 0.130847 0.583740 0.8 0 0
0.646481 0.231047 0.670826 0.8 0 0
0.510881 0.265138 0.576132 0.8 0 0
0.464981 0.138529 0.587004 0.8 0 0
0.548798 0.149523 0.559573 0.8 0 0
0.240544 0.265463 0.556920 0.8 0 0
0.176344 0.266286 0.509013 0.8 0 0
0.513775 0.199283 0.419295 0.8 0 0
0.587476 0.134726 0.474654 0.8 0 0
0.542093 0.196110 0.070594 0.8 0 0
0.456679 0.209240 0.285865 0.8 0 0
0.236017 0.208521 0.540449 0.8 0 0
0.364615 0.133799 0.417704 0.8 0 0
0.549272 0.215359 0.531453 0.8 0 0
0.892101 0.266526 0.495873 0.8 0 0
0.578356 0.265142 0.575969 0.8 0 0
0.360665 0.271108 0.470798 0.8 0 0
0.758856 0.268268 0.440857 0.8 0 0
0.553845 0.163377 0.478572 0.8 0 0
0.224848 0.242309 0.524053 0.8 0 0
0.548316 0.152269 0.411019 0.8 0 0
0.237463 0.266281 0.618748 0.8 0 0
0.539497 0.213588 0.274657 0.8 0 0
0.725313 0.135199 0.524326 0.8 0 0
0.165169 0.267146 0.459062 0.8 0 0
0.845162 0.270980 0.465008 0.8 0 0
0.421417 0.064114 0.560043 0.8 0 0
0.180382 0.265245 0.569563 0.8 0 0
0.374245 0.272314 0.502916 0.8 0 0
0.030446 0.270858 0.496988 0.8 0 0
0.453384 0.137366 0.473270 0.8 0 0
0.309487 0.126773 0.554523 0.8 0 0
0.496148 0.201022 0.662969 0.8 0 0
0.317429 0.270245 0.447979 0.8 0 0
0.720156 0.271121 0.469375 0.8 0 0
0.696966 0.273934 0.596754 0.8 0 0
0.458609 0.179039 0.248905 0.8 0 0
0.502777 0.233545 0.243697 0.8 0 0
0.655287 0.270460 0.452061 0.8 0 0
0.494052 0.161392 0.668161 0.8 0 0
0.440865 0.186051 0.461793 0.8 0 0
0.542262 0.126899 0.546876 0.8 0 0
0.455423 0.192620 0.025749 0.8 0 0
0.733224 0.264987 0.585191 0.8 0 0
0.742691 0.265215 0.571922 0.8 0 0
0.507834 0.273275 0.543085 0.8 0 0
0.540337 0.136462 0.465210 0.8 0 0
0.388837 0.145896 0.672276 0.8 0 0
0.276756 0.134695 0.473093 0.8 0 0
0.717475 0.264907 0.589772 0.8 0 0
0.079710 0.269369 0.621560 0.8 0 0
0.478285 0.191934 0.062400 0.8 0 0
0.531781 0.264485 0.614115 0.8 0 0
0.608849 0.214673 0.672252 0.8 0 0
0.116299 0.266853 0.476009 0.8 0 0
0.392215 0.200302 0.084859 0.8 0 0
0.762986 0.166679 0.490328 0.8 0 0
0.494461 0.126799 0.552597 0.8 0 0
0.555040 0.197977 0.485206 0.8 0 0
0.466878 0.140052 0.393427 0.8 0 0
0.269804 0.273640 0.538810 0.8 0 0
0.759115 0.272662 0.510309 0.8 0 0
0.517945 0.271400 0.515744 0.8 0 0
0.517013 0.128242 0.468738 0.8 0 0
0.363977 0.134191 0.452189 0.8 0 0
0.541039 0.136216 0.540248 0.8 0 0
0.906760 0.265450 0.558432 0.8 0 0
0.600636 0.264743 0.599222 0.8 0 0
0.599640 0.266198 0.514617 0.8 0 0
0.514184 0.126625 0.562743 0.8 0 0
0.478391 0.127736 0.498114 0.8 0 0
0.659173 0.126937 0.545406 0.8 0 0
0.356180 0.265036 0.581951 0.8 0 0
0.506740 0.149863 0.647736 0.8 0 0
0.176549 0.266929 0.471639 0.8 0 0
0.766074 0.185593 0.524691 0.8 0 0
0.633877 0.271364 0.476276 0.8 0 0
0.971401 0.266236 0.512820 0.8 0 0
0.240897 0.127943 0.486432 0.8 0 0
0.544924 0.205915 0.301987 0.8 0 0
0.721402 0.135494 0.564327 0.8 0 0
0.939025 0.265937 0.530143 0.8 0 0
0.388742 0.198012 0.037027 0.8 0 0
0.094753 0.266057 0.522229 0.8 0 0
0.585335 0.044007 0.557876 0.8 0 0
0.477490 0.181239 0.676529 0.8 0 0
0.332144 0.266780 0.480494 0.8 0 0
0.481917 0.244788 0.466761 0.8 0 0
0.742759 0.126964 0.543918 0.8 0 0
0.725579 0.266902 0.473807 0.8 0 0
0.279285 0.267558 0.620924 0.8 0 0
0.159589 0.264516 0.611919 0.8 0 0
0.537157 0.265952 0.528874 0.8 0 0
0.193951 0.265454 0.557474 0.8 0 0
0.804279 0.267255 0.453347 0.8 0 0
0.515661 0.247058 0.464078 0.8 0 0
0.315773 0.135402 0.557357 0.8 0 0
0.240220 0.134157 0.431650 0.8 0 0
0.709309 0.135288 0.536608 0.8 0 0
0.482317 0.241934 0.362360 0.8 0 0
0.548384 0.181153 0.307042 0.8 0 0
0.703984 0.127563 0.509065 0.8 0 0
0.025050 0.267302 0.469031 0.8 0 0
0.327009 0.134373 0.460558 0.8 0 0
0.877826 0.273317 0.527192 0.8 0 0
0.533073 0.227040 0.650063 0.8 0 0
0.461396 0.201555 0.214105 0.8 0 0
0.577879 0.195711 0.081251 0.8 0 0
0.360560 0.140736 0.668323 0.8 0 0
0.441616 0.195618 0.074453 0.8 0 0
0.755757 0.156393 0.495485 0.8 0 0
0.866621 0.272052 0.493512 0.8 0 0
0.414077 0.034435 0.550857 0.8 0 0
0.600130 0.264652 0.604486 0.8 0 0
0.815803 0.269338 0.619322 0.8 0 0
0.515351 0.165669 0.164742 0.8 0 0
0.077013 0.274156 0.582782 0.8 0 0
0.104916 0.264793 0.595756 0.8 0 0
0.550299 0.272215 0.502622 0.8 0 0
0.495275 0.331175 0.069357 0.8 0 0
0.416386 0.200524 0.078405 0.8 0 0
0.230630 0.128955 0.427581 0.8 0 0
0.596939 0.038132 0.550097 0.8 0 0
0.554460 0.169883 0.460088 0.8 0 0
0.576042 0.267454 0.441574 0.8 0 0
0.495368 0.260729 0.042600 0.8 0 0
0.397467 0.197121 0.033786 0.8 0 0
0.500862 0.262157 0.139931 0.8 0 0
0.390451 0.274418 0.567578 0.8 0 0
0.673066 0.272395 0.503597 0.8 0 0
0.602885 0.128143 0.475213 0.8 0 0
0.441889 0.172920 0.509281 0.8 0 0
0.438550 0.115653 0.503259 0.8 0 0
0.250698 0.265079 0.579318 0.8 0 0
0.664511 0.135230 0.526167 0.8 0 0
0.394226 0.138944 0.667475 0.8 0 0
0.327136 0.266312 0.507708 0.8 0 0
0.514322 0.240292 0.527551 0.8 0 0
0.526844 0.184114 0.676276 0.8 0 0
0.453481 0.144421 0.644761 0.8 0 0
0.505702 0.140956 0.656400 0.8 0 0
0.608300 0.195665 0.071543 0.8 0 0
0.436744 0.170453 0.552984 0.8 0 0
0.552306 0.273671 0.612226 0.8 0 0
0.187319 0.270488 0.455111 0.8 0 0
0.734662 0.264722 0.600544 0.8 0 0
0.641903 0.271086 0.468837 0.8 0 0
0.440681 0.188961 0.618273 0.8 0 0
0.772378 0.128206 0.471738 0.8 0 0
0.519243 0.215166 0.104960 0.8 0 0
0.302851 0.273735 0.608131 0.8 0 0
0.156942 0.270262 0.449225 0.8 0 0
0.503831 0.223205 0.079470 0.8 0 0
0.485489 0.238344 0.311609 0.8 0 0
0.428798 0.098154 0.518493 0.8 0 0
0.156007 0.274155 0.553140 0.8 0 0
0.521098 0.146831 0.292356 0.8 0 0
0.414108 0.032355 0.561325 0.8 0 0
0.229744 0.128266 0.467663 0.8 0 0
0.307416 0.264942 0.587321 0.8 0 0
0.558018 0.149630 0.444568 0.8 0 0
0.536002 0.274513 0.562063 0.8 0 0
0.598295 0.044380 0.536199 0.8 0 0
0.528234 0.136439 0.418003 0.8 0 0
0.544867 0.212913 0.322860 0.8 0 0
0.484969 0.220462 0.657259 0.8 0 0
0.450472 0.192234 0.292357 0.8 0 0
0.556595 0.116711 0.530094 0.8 0 0
0.929676 0.274544 0.560679 0.8 0 0
0.317273 0.272090 0.497217 0.8 0 0
0.298584 0.134567 0.469538 0.8 0 0
0.500711 0.267188 0.028176 0.8 0 0
0.720358 0.134133 0.424437 0.8 0 0
0.228833 0.252757 0.547374 0.8 0 0
0.936673 0.273794 0.605395 0.8 0 0
0.697813 0.272393 0.503446 0.8 0 0
0.720855 0.135262 0.532937 0.8 0 0
0.395108 0.126953 0.544195 0.8 0 0
0.750178 0.137262 0.479231 0.8 0 0
0.553358 0.202152 0.612497 0.8 0 0
0.236381 0.267324 0.448748 0.8 0 0
0.857732 0.265337 0.564973 0.8 0 0
0.578968 0.273648 0.613618 0.8 0 0
0.693646 0.271647 0.483546 0.8 0 0
0.039293 0.272972 0.535550 0.8 0 0
0.491954 0.227307 0.134651 0.8 0 0
0.383697 0.127093 0.536040 0.8 0 0
0.665187 0.272961 0.518742 0.8 0 0
0.545407 0.269937 0.457259 0.8 0 0
0.443467 0.176056 0.419729 0.8 0 0
0.549243 0.213616 0.365973 0.8 0 0
0.676945 0.266166 0.516550 0.8 0 0
0.681195 0.134250 0.580022 0.8 0 0
0.547284 0.194689 0.108580 0.8 0 0
0.605215 0.196261 0.062627 0.8 0 0
0.592065 0.200361 0.044825 0.8 0 0
0.615840 0.273125 0.523354 0.8 0 0
0.482527 0.265789 0.538264 0.8 0 0
0.657943 0.267314 0.449781 0.8 0 0
0.677635 0.264986 0.585160 0.8 0 0
0.608101 0.129040 0.423079 0.8 0 0
0.511263 0.141522 0.297214 0.8 0 0
0.715852 0.134159 0.425168 0.8 0 0
0.503337 0.175099 0.657156 0.8 0 0
0.584268 0.126552 0.567698 0.8 0 0
0.424261 0.273873 0.600057 0.8 0 0
0.368860 0.134108 0.445592 0.8 0 0
0.277191 0.128342 0.463268 0.8 0 0
0.656433 0.266446 0.500280 0.8 0 0
0.570495 0.195057 0.096340 0.8 0 0
0.554785 0.150949 0.446867 0.8 0 0
0.582202 0.058234 0.565996 0.8 0 0
0.709302 0.266413 0.502214 0.8 0 0
0.426018 0.267629 0.441858 0.8 0 0
0.191574 0.266320 0.507101 0.8 0 0
0.664577 0.126835 0.551362 0.8 0 0
0.465595 0.140958 0.395191 0.8 0 0
0.138053 0.265732 0.541203 0.8 0 0
0.299810 0.264780 0.596730 0.8 0 0
0.527910 0.127281 0.524627 0.8 0 0
0.311173 0.128949 0.428035 0.8 0 0
0.420320 0.273507 0.534523 0.8 0 0
0.478213 0.182196 0.667081 0.8 0 0
0.333396 0.134168 0.432930 0.8 0 0
0.500462 0.174360 0.674650 0.8 0 0
0.476596 0.238065 0.465162 0.8 0 0
0.478938 0.264775 0.597212 0.8 0 0
0.747396 0.270358 0.448874 0.8 0 0
0.335617 0.265823 0.536115 0.8 0 0
0.383861 0.264523 0.611789 0.8 0 0
0.324559 0.127719 0.499579 0.8 0 0
0.842493 0.272842 0.514704 0.8 0 0
0.492004 0.239696 0.562138 0.8 0 0
0.646535 0.267211 0.455779 0.8 0 0
0.554183 0.186485 0.337695 0.8 0 0
0.758620 0.130542 0.579110 0.8 0 0
0.412095 0.135062 0.534254 0.8 0 0
0.475644 0.125448 0.633727 0.8 0 0
0.284459 0.127929 0.487308 0.8 0 0
0.577696 0.136524 0.447521 0.8 0 0
0.614053 0.134886 0.508755 0.8 0 0
0.948000 0.271404 0.478458 0.8 0 0
0.459685 0.197736 0.657504 0.8 0 0
0.905772 0.274263 0.577421 0.8 0 0
0.563264 0.136678 0.514025 0.8 0 0
0.594494 0.047766 0.519350 0.8 0 0
0.570209 0.200924 0.057197 0.8 0 0
0.495592 0.121615 0.636796 0.8 0 0
0.666975 0.274118 0.549598 0.8 0 0
0.238931 0.273093 0.524373 0.8 0 0
0.504334 0.238790 0.614809 0.8 0 0
0.566183 0.266876 0.475203 0.8 0 0
0.449423 0.267393 0.444999 0.8 0 0
0.555569 0.201928 0.643721 0.8 0 0
0.383406 0.198471 0.089530 0.8 0 0
0.454911 0.173476 0.292198 0.8 0 0
0.517442 0.273904 0.598327 0.8 0 0
0.454958 0.147071 0.502984 0.8 0 0
0.422232 0.265675 0.544857 0.8 0 0
0.513874 0.242585 0.469172 0.8 0 0
0.936635 0.270738 0.458095 0.8 0 0
0.839318 0.274314 0.574296 0.8 0 0
0.305223 0.265331 0.564692 0.8 0 0
0.753112 0.146094 0.495322 0.8 0 0
0.521068 0.266545 0.494339 0.8 0 0
0.495327 0.249689 0.127037 0.8 0 0
0.209575 0.266217 0.513061 0.8 0 0
0.778651 0.266339 0.506610 0.8 0 0
0.778707 0.263869 0.566889 0.8 0 0
0.447958 0.265929 0.530101 0.8 0 0
0.480154 0.237893 0.591385 0.8 0 0
0.525748 0.212074 0.463235 0.8 0 0
0.503270 0.129051 0.421703 0.8 0 0
0.637795 0.265178 0.573986 0.8 0 0
0.587769 0.026842 0.554385 0.8 0 0
0.556614 0.196894 0.049621 0.8 0 0
0.546222 0.220766 0.485437 0.8 0 0
0.770058 0.210010 0.526291 0.8 0 0
0.218818 0.264608 0.606684 0.8 0 0
0.526829 0.235469 0.408950 0.8 0 0
0.204180 0.266700 0.485022 0.8 0 0
0.711754 0.135003 0.492728 0.8 0 0
0.534755 0.221529 0.282633 0.8 0 0
0.451033 0.135941 0.556125 0.8 0 0
0.501990 0.296898 0.057240 0.8 0 0
0.496805 0.242671 0.372727 0.8 0 0
0.870137 0.266389 0.503792 0.8 0 0
0.160663 0.267099 0.620658 0.8 0 0
0.464109 0.271576 0.511324 0.8 0 0
0.526462 0.126884 0.547718 0.8 0 0
0.462210 0.264695 0.601852 0.8 0 0
0.555929 0.174604 0.452594 0.8 0 0
0.154237 0.274500 0.562350 0.8 0 0
0.428172 0.137394 0.455528 0.8 0 0
0.501390 0.198925 0.035607 0.8 0 0
0.501927 0.232847 0.045869 0.8 0 0
0.406680 0.273936 0.596267 0.8 0 0
0.648482 0.134505 0.463822 0.8 0 0
0.659115 0.127533 0.510761 0.8 0 0
0.199678 0.273997 0.592409 0.8 0 0
0.654563 0.268427 0.441176 0.8 0 0
0.753889 0.148335 0.497023 0.8 0 0
0.541332 0.143072 0.566637 0.8 0 0
0.211944 0.273817 0.543832 0.8 0 0
0.066369 0.271100 0.472043 0.8 0 0
0.303366 0.271711 0.487166 0.8 0 0
0.683930 0.273313 0.528046 0.8 0 0
0.255520 0.264934 0.587749 0.8 0 0
0.127334 0.274488 0.562170 0.8 0 0
0.377763 0.142474 0.668060 0.8 0 0
0.322587 0.134740 0.494456 0.8 0 0
0.033388 0.269811 0.464815 0.8 0 0
0.524455 0.133278 0.439381 0.8 0 0
0.501456 0.271017 0.510234 0.8 0 0
0.331239 0.134204 0.436902 0.8 0 0
0.434190 0.195419 0.040178 0.8 0 0
0.550589 0.197931 0.330581 0.8 0 0
0.321147 0.126614 0.563778 0.8 0 0
0.716254 0.134639 0.452349 0.8 0 0
0.445126 0.136334 0.533295 0.8 0 0
0.709736 0.128832 0.435284 0.8 0 0
0.433534 0.136274 0.537398 0.8 0 0
0.571960 0.137106 0.489113 0.8 0 0
0.403497 0.044498 0.565483 0.8 0 0
0.466903 0.223162 0.277812 0.8 0 0
0.085612 0.266520 0.495320 0.8 0 0
0.757975 0.273722 0.609385 0.8 0 0
0.531099 0.274377 0.570170 0.8 0 0
0.496693 0.199577 0.470686 0.8 0 0
0.123675 0.266423 0.501005 0.8 0 0
0.760769 0.142301 0.488892 0.8 0 0
0.448932 0.156880 0.501695 0.8 0 0
0.577239 0.196668 0.055655 0.8 0 0
0.469045 0.207259 0.156629 0.8 0 0
0.928549 0.266922 0.472845 0.8 0 0
0.036112 0.269531 0.450713 0.8 0 0
0.922846 0.271915 0.489579 0.8 0 0
0.495318 0.260699 0.066135 0.8 0 0
0.296986 0.127139 0.533234 0.8 0 0
0.502441 0.243152 0.128754 0.8 0 0
0.550571 0.158307 0.445053 0.8 0 0
0.893509 0.266123 0.519243 0.8 0 0
0.654906 0.272593 0.508990 0.8 0 0
0.173988 0.272476 0.508238 0.8 0 0
0.045197 0.273167 0.580981 0.8 0 0
0.551076 0.209398 0.584061 0.8 0 0
0.520378 0.227293 0.235628 0.8 0 0
0.357831 0.265226 0.570854 0.8 0 0
0.538662 0.199541 0.126171 0.8 0 0
0.240947 0.271839 0.490888 0.8 0 0
0.346201 0.265701 0.543248 0.8 0 0
0.446520 0.157885 0.567685 0.8 0 0
0.628043 0.264900 0.590114 0.8 0 0
0.558918 0.137282 0.478908 0.8 0 0
0.868397 0.272157 0.616100 0.8 0 0
0.408550 0.194750 0.089084 0.8 0 0
0.698775 0.270196 0.444787 0.8 0 0
0.599096 0.265065 0.580520 0.8 0 0
0.638279 0.265373 0.562632 0.8 0 0
0.393242 0.135161 0.540563 0.8 0 0
0.920725 0.274427 0.567672 0.8 0 0
0.332067 0.127930 0.487292 0.8 0 0
0.788232 0.265347 0.564329 0.8 0 0
0.421890 0.196197 0.060972 0.8 0 0
0.761311 0.156411 0.501168 0.8 0 0
0.701656 0.265686 0.544476 0.8 0 0
0.493765 0.231364 0.176596 0.8 0 0
0.495430 0.228648 0.115563 0.8 0 0
0.727388 0.271329 0.474881 0.8 0 0
0.517968 0.188292 0.061732 0.8 0 0
0.546598 0.127154 0.532002 0.8 0 0
0.532073 0.230240 0.539277 0.8 0 0
0.455549 0.266925 0.619364 0.8 0 0
0.959964 0.266772 0.481652 0.8 0 0
0.585090 0.128642 0.446169 0.8 0 0
0.523214 0.165576 0.196993 0.8 0 0
0.278839 0.127446 0.515367 0.8 0 0
0.485108 0.265145 0.575699 0.8 0 0
0.229381 0.271464 0.480926 0.8 0 0
0.242077 0.170853 0.524981 0.8 0 0
0.232372 0.133056 0.510833 0.8 0 0
0.931982 0.272716 0.510887 0.8 0 0
0.784533 0.265815 0.537057 0.8 0 0
0.517899 0.121661 0.634122 0.8 0 0
0.310738 0.265582 0.550096 0.8 0 0
0.564823 0.157574 0.454238 0.8 0 0
0.618491 0.214985 0.669787 0.8 0 0
0.603962 0.265174 0.574148 0.8 0 0
0.462418 0.195980 0.648743 0.8 0 0
0.852180 0.271788 0.486540 0.8 0 0
0.560156 0.127192 0.530467 0.8 0 0
0.842556 0.273990 0.545342 0.8 0 0
0.860092 0.265721 0.542607 0.8 0 0
0.166304 0.266852 0.476142 0.8 0 0
0.852699 0.274127 0.548936 0.8 0 0
0.496034 0.266385 0.503624 0.8 0 0
0.917555 0.264821 0.595036 0.8 0 0
0.620840 0.126751 0.556192 0.8 0 0
0.455516 0.185400 0.257116 0.8 0 0
0.489553 0.272257 0.528337 0.8 0 0
0.732998 0.127517 0.511756 0.8 0 0
0.500291 0.174325 0.676696 0.8 0 0
0.478543 0.159193 0.218787 0.8 0 0
0.359395 0.271916 0.492379 0.8 0 0
0.183932 0.273897 0.598342 0.8 0 0
0.903772 0.267228 0.455070 0.8 0 0
0.142576 0.266775 0.480547 0.8 0 0
0.495263 0.280927 0.120953 0.8 0 0
0.225137 0.131622 0.517369 0.8 0 0
0.698271 0.135291 0.537181 0.8 0 0
0.349893 0.134373 0.466151 0.8 0 0
0.129503 0.264570 0.608778 0.8 0 0
0.604657 0.134374 0.467377 0.8 0 0
0.791290 0.265095 0.578987 0.8 0 0
0.466600 0.213181 0.431178 0.8 0 0
0.230503 0.208058 0.534166 0.8 0 0
0.319261 0.134301 0.443227 0.8 0 0
0.600051 0.134109 0.445844 0.8 0 0
0.515603 0.274062 0.588890 0.8 0 0
0.568839 0.200441 0.078988 0.8 0 0
0.319541 0.135202 0.534274 0.8 0 0
0.574179 0.225101 0.671391 0.8 0 0
0.555026 0.183829 0.350481 0.8 0 0
0.482509 0.265856 0.534373 0.8 0 0
0.463287 0.227549 0.492802 0.8 0 0
0.505742 0.168178 0.121636 0.8 0 0
0.815886 0.274468 0.565079 0.8 0 0
0.616178 0.271557 0.481516 0.8 0 0
0.495960 0.266659 0.487664 0.8 0 0
0.745955 0.133817 0.415523 0.8 0 0
0.165235 0.265701 0.543065 0.8 0 0
0.400799 0.266658 0.487649 0.8 0 0
0.301164 0.127408 0.517619 0.8 0 0
0.548567 0.148300 0.589519 0.8 0 0
0.495367 0.296710 0.050473 0.8 0 0
0.581293 0.271047 0.468081 0.8 0 0
0.406451 0.266406 0.502306 0.8 0 0
0.502348 0.290953 0.107773 0.8 0 0
0.769942 0.129235 0.412572 0.8 0 0
0.501960 0.242280 0.050737 0.8 0 0
0.480506 0.128268 0.467246 0.8 0 0
0.068482 0.265770 0.538938 0.8 0 0
0.387616 0.141248 0.672729 0.8 0 0
0.483007 0.215359 0.648935 0.8 0 0
0.617697 0.128374 0.461774 0.8 0 0
0.578575 0.136091 0.548153 0.8 0 0
0.586708 0.196715 0.054377 0.8 0 0
0.498537 0.297805 0.117966 0.8 0 0
0.485535 0.199033 0.433853 0.8 0 0
0.297180 0.267200 0.456065 0.8 0 0
0.060339 0.264788 0.596013 0.8 0 0
0.152637 0.274054 0.550460 0.8 0 0
0.477021 0.153641 0.256651 0.8 0 0
0.644009 0.271978 0.492620 0.8 0 0
0.489176 0.193464 0.691481 0.8 0 0
0.502478 0.264659 0.129912 0.8 0 0
0.870783 0.264801 0.596123 0.8 0 0
0.560043 0.196667 0.055702 0.8 0 0
0.922687 0.265973 0.528025 0.8 0 0
0.567876 0.112668 0.514311 0.8 0 0
0.906372 0.273683 0.611922 0.8 0 0
0.564403 0.159210 0.445366 0.8 0 0
0.889666 0.274149 0.549346 0.8 0 0
0.663574 0.271416 0.477524 0.8 0 0
0.545143 0.221426 0.493655 0.8 0 0
0.625118 0.128986 0.426222 0.8 0 0
0.247750 0.134491 0.440032 0.8 0 0
0.398615 0.200096 0.094536 0.8 0 0
0.461649 0.136246 0.538430 0.8 0 0
0.732404 0.127492 0.513192 0.8 0 0
0.502455 0.252761 0.126005 0.8 0 0
0.571266 0.081776 0.531205 0.8 0 0
0.449829 0.206803 0.345996 0.8 0 0
0.501360 0.145698 0.269729 0.8 0 0
0.666089 0.127407 0.518056 0.8 0 0
0.591588 0.264838 0.593681 0.8 0 0
0.726660 0.266228 0.512992 0.8 0 0
0.955425 0.265013 0.583908 0.8 0 0
0.760902 0.264675 0.603336 0.8 0 0
0.461372 0.184620 0.212928 0.8 0 0
0.844447 0.267342 0.448349 0.8 0 0
0.420506 0.137747 0.667814 0.8 0 0
0.431429 0.200487 0.080268 0.8 0 0
0.559939 0.194370 0.112019 0.8 0 0
0.294517 0.266125 0.518524 0.8 0 0
0.397770 0.135340 0.556698 0.8 0 0
0.589167 0.128830 0.435214 0.8 0 0
0.512539 0.165511 0.154265 0.8 0 0
0.534914 0.229664 0.439974 0.8 0 0
0.566264 0.167949 0.495510 0.8 0 0
0.283805 0.274333 0.572510 0.8 0 0
0.554772 0.209790 0.629689 0.8 0 0
0.496013 0.274089 0.587285 0.8 0 0
0.502405 0.341337 0.087303 0.8 0 0
0.250640 0.135433 0.562372 0.8 0 0
0.495342 0.248546 0.070498 0.8 0 0
0.064755 0.267245 0.453153 0.8 0 0
0.382779 0.127662 0.502962 0.8 0 0
0.597581 0.196482 0.030825 0.8 0 0
0.539504 0.201125 0.048655 0.8 0 0
0.579653 0.273830 0.602775 0.8 0 0
0.546598 0.216629 0.350429 0.8 0 0
0.516145 0.127012 0.540259 0.8 0 0
0.557622 0.181538 0.387706 0.8 0 0
0.163664 0.264588 0.607754 0.8 0 0
0.369702 0.135446 0.562360 0.8 0 0
0.356666 0.266505 0.496514 0.8 0 0
0.700026 0.126561 0.567283 0.8 0 0
0.662510 0.127091 0.536417 0.8 0 0
0.780051 0.128104 0.477628 0.8 0 0
0.222601 0.131477 0.460207 0.8 0 0
0.183723 0.273116 0.616298 0.8 0 0
0.646454 0.274193 0.551709 0.8 0 0
0.316447 0.128077 0.478738 0.8 0 0
0.127858 0.270081 0.444521 0.8 0 0
0.533482 0.190132 0.173248 0.8 0 0
0.562251 0.177464 0.622448 0.8 0 0
0.535230 0.193803 0.131110 0.8 0 0
0.434970 0.127198 0.529972 0.8 0 0
0.664215 0.274318 0.573876 0.8 0 0
0.471425 0.205657 0.127792 0.8 0 0
0.763332 0.168798 0.492792 0.8 0 0
0.555870 0.194772 0.568354 0.8 0 0
0.464617 0.227798 0.529748 0.8 0 0
0.384615 0.200624 0.070066 0.8 0 0
0.747400 0.274257 0.552915 0.8 0 0
0.729266 0.265684 0.544635 0.8 0 0
0.617875 0.273237 0.526341 0.8 0 0
0.592829 0.266791 0.480125 0.8 0 0
0.410412 0.266440 0.500319 0.8 0 0
0.521734 0.177850 0.668901 0.8 0 0
0.849723 0.265119 0.577675 0.8 0 0
0.446725 0.164545 0.608693 0.8 0 0
0.422050 0.274124 0.550985 0.8 0 0
0.504333 0.274321 0.558319 0.8 0 0
0.552725 0.135978 0.554093 0.8 0 0
0.590439 0.264954 0.586930 0.8 0 0
0.029016 0.271651 0.521977 0.8 0 0
0.537584 0.194660 0.109375 0.8 0 0
0.757211 0.165299 0.507692 0.8 0 0
0.317856 0.134592 0.480915 0.8 0 0
0.506391 0.161674 0.662261 0.8 0 0
0.553799 0.202104 0.446228 0.8 0 0
0.495411 0.231318 0.115460 0.8 0 0
0.448561 0.153614 0.442876 0.8 0 0
0.665901 0.274327 0.573301 0.8 0 0
0.757372 0.274405 0.556826 0.8 0 0
0.558056 0.181973 0.421843 0.8 0 0
0.518363 0.131869 0.654614 0.8 0 0
0.482275 0.240524 0.513969 0.8 0 0
0.681660 0.265750 0.540753 0.8 0 0
0.942820 0.271133 0.468609 0.8 0 0
0.643062 0.128555 0.451262 0.8 0 0
0.627244 0.134645 0.483304 0.8 0 0
0.082535 0.267056 0.464168 0.8 0 0
0.182703 0.266832 0.477315 0.8 0 0
0.563026 0.156912 0.462258 0.8 0 0
0.436388 0.164382 0.580798 0.8 0 0
0.495383 0.230098 0.046909 0.8 0 0
0.504436 0.240718 0.502714 0.8 0 0
0.340763 0.265705 0.543011 0.8 0 0
0.924577 0.272763 0.512187 0.8 0 0
0.383633 0.132675 0.672239 0.8 0 0
0.404477 0.270720 0.460230 0.8 0 0
0.824468 0.265850 0.535103 0.8 0 0
0.461290 0.271171 0.496617 0.8 0 0
0.376543 0.273861 0.600700 0.8 0 0
0.536056 0.266408 0.502383 0.8 0 0
0.412016 0.157567 0.670150 0.8 0 0
0.502435 0.272399 0.123586 0.8 0 0
0.587129 0.197861 0.104492 0.8 0 0
0.272456 0.266790 0.479843 0.8 0 0
0.367078 0.112328 0.671344 0.8 0 0
0.614781 0.273754 0.607365 0.8 0 0
0.395829 0.128847 0.434049 0.8 0 0
0.858351 0.265692 0.544326 0.8 0 0
0.693260 0.274409 0.557232 0.8 0 0
0.464606 0.127372 0.519257 0.8 0 0
0.558175 0.187864 0.544265 0.8 0 0
0.577580 0.194635 0.100773 0.8 0 0
0.460865 0.143318 0.466920 0.8 0 0
0.490820 0.199361 0.414777 0.8 0 0
0.465116 0.229496 0.460905 0.8 0 0
0.458506 0.218886 0.299010 0.8 0 0
0.507939 0.223363 0.104991 0.8 0 0
0.419924 0.135394 0.563107 0.8 0 0
0.487436 0.198616 0.666804 0.8 0 0
0.639007 0.128547 0.451718 0.8 0 0
0.578828 0.136729 0.511092 0.8 0 0
0.571687 0.266555 0.493845 0.8 0 0
0.495344 0.283185 0.034996 0.8 0 0
0.814474 0.265910 0.531580 0.8 0 0
0.657064 0.271223 0.472398 0.8 0 0
0.622385 0.133883 0.418357 0.8 0 0
0.317026 0.264991 0.584513 0.8 0 0
0.192471 0.272722 0.514715 0.8 0 0
0.062413 0.272154 0.500198 0.8 0 0
0.564426 0.127292 0.524641 0.8 0 0
0.481691 0.179614 0.089695 0.8 0 0
0.661786 0.273668 0.537626 0.8 0 0
0.841185 0.273373 0.528891 0.8 0 0
0.519321 0.239500 0.539656 0.8 0 0
0.487805 0.195686 0.688961 0.8 0 0
0.711916 0.134938 0.482426 0.8 0 0
0.550518 0.157670 0.462921 0.8 0 0
0.315082 0.131303 0.584518 0.8 0 0
0.257886 0.134786 0.473046 0.8 0 0
0.220678 0.265672 0.544784 0.8 0 0
0.861747 0.266665 0.487703 0.8 0 0
0.411610 0.134810 0.512373 0.8 0 0
0.561647 0.265865 0.533958 0.8 0 0
0.495319 0.258668 0.085245 0.8 0 0
0.455575 0.223961 0.629386 0.8 0 0
0.634481 0.273592 0.535728 0.8 0 0
0.727212 0.127641 0.504544 0.8 0 0
0.539063 0.191860 0.211007 0.8 0 0
0.797845 0.272214 0.498163 0.8 0 0
0.487596 0.273992 0.593069 0.8 0 0
0.478175 0.128557 0.612622 0.8 0 0
0.506021 0.141025 0.300508 0.8 0 0
0.585828 0.135018 0.469204 0.8 0 0
0.559932 0.156481 0.534539 0.8 0 0
0.312286 0.264835 0.615570 0.8 0 0
0.954396 0.265224 0.571618 0.8 0 0
0.673047 0.270137 0.443348 0.8 0 0
0.473654 0.218434 0.176157 0.8 0 0
0.351635 0.265204 0.572149 0.8 0 0
0.772533 0.237150 0.561983 0.8 0 0
0.555982 0.195842 0.387566 0.8 0 0
0.138764 0.265023 0.582429 0.8 0 0
0.520594 0.168856 0.168242 0.8 0 0
0.335693 0.127239 0.527504 0.8 0 0
0.526412 0.153173 0.278651 0.8 0 0
0.239106 0.141043 0.477193 0.8 0 0
0.285305 0.265340 0.564161 0.8 0 0
0.628931 0.228228 0.668443 0.8 0 0
0.896640 0.264961 0.586866 0.8 0 0
0.520415 0.134300 0.654824 0.8 0 0
0.827363 0.265322 0.565826 0.8 0 0
0.359480 0.128459 0.456591 0.8 0 0
0.645254 0.273902 0.598596 0.8 0 0
0.351168 0.134855 0.508300 0.8 0 0
0.963724 0.266464 0.499555 0.8 0 0
0.477157 0.211888 0.091063 0.8 0 0
0.636766 0.127008 0.541230 0.8 0 0
0.447410 0.270777 0.461531 0.8 0 0
0.837824 0.271003 0.465659 0.8 0 0
0.450526 0.152815 0.612854 0.8 0 0
0.514471 0.242520 0.397941 0.8 0 0
0.768657 0.202790 0.544237 0.8 0 0
0.104862 0.264783 0.596349 0.8 0 0
0.558295 0.272333 0.616673 0.8 0 0
0.223273 0.128055 0.519532 0.8 0 0
0.836282 0.267302 0.450673 0.8 0 0
0.527225 0.181887 0.667888 0.8 0 0
0.434476 0.136225 0.540241 0.8 0 0
0.347146 0.134162 0.442457 0.8 0 0
0.695116 0.134755 0.469679 0.8 0 0
0.698629 0.270939 0.464630 0.8 0 0
0.776505 0.274285 0.553520 0.8 0 0
0.758006 0.266698 0.485702 0.8 0 0
0.502043 0.283800 0.064848 0.8 0 0
0.535961 0.134114 0.580676 0.8 0 0
0.653552 0.270785 0.460737 0.8 0 0
0.044801 0.266300 0.508069 0.8 0 0
0.718666 0.126774 0.554899 0.8 0 0
0.517835 0.186175 0.065223 0.8 0 0
0.537000 0.200060 0.209893 0.8 0 0
0.763295 0.126677 0.560612 0.8 0 0
0.854220 0.272963 0.517888 0.8 0 0
0.419537 0.147998 0.667596 0.8 0 0
0.501935 0.284119 0.048472 0.8 0 0
0.606447 0.267270 0.452319 0.8 0 0
0.844056 0.265570 0.551367 0.8 0 0
0.544372 0.274036 0.552917 0.8 0 0
0.579487 0.273185 0.525123 0.8 0 0
0.071490 0.272772 0.516650 0.8 0 0
0.297750 0.134918 0.506591 0.8 0 0
0.511165 0.121763 0.628190 0.8 0 0
0.221808 0.262965 0.530948 0.8 0 0
0.539450 0.226949 0.401205 0.8 0 0
0.369275 0.134179 0.451817 0.8 0 0
0.493702 0.129718 0.382932 0.8 0 0
0.411540 0.272975 0.520376 0.8 0 0
0.480129 0.134435 0.352925 0.8 0 0
0.639382 0.266161 0.516825 0.8 0 0
0.317814 0.134444 0.464764 0.8 0 0
0.895896 0.266260 0.511314 0.8 0 0
0.730607 0.272653 0.510208 0.8 0 0
0.546700 0.200107 0.300828 0.8 0 0
0.455392 0.184450 0.260501 0.8 0 0
0.757304 0.272890 0.516405 0.8 0 0
0.714273 0.265703 0.616055 0.8 0 0
0.502191 0.224419 0.081141 0.8 0 0
0.291144 0.273408 0.532502 0.8 0 0
0.449062 0.264485 0.614067 0.8 0 0
0.406746 0.273181 0.525891 0.8 0 0
0.499145 0.242827 0.380103 0.8 0 0
0.773176 0.267203 0.456369 0.8 0 0
0.636367 0.274466 0.559041 0.8 0 0
0.239721 0.126732 0.556810 0.8 0 0
0.575752 0.126482 0.571702 0.8 0 0
0.612287 0.272120 0.496572 0.8 0 0
0.528430 0.128042 0.480390 0.8 0 0
0.808265 0.272046 0.493641 0.8 0 0
0.543654 0.146830 0.459960 0.8 0 0
0.385902 0.270630 0.457914 0.8 0 0
0.864342 0.267225 0.455210 0.8 0 0
0.471757 0.235610 0.372073 0.8 0 0
0.515313 0.242144 0.639123 0.8 0 0
0.584078 0.274441 0.558639 0.8 0 0
0.594665 0.135299 0.551442 0.8 0 0
0.521474 0.135663 0.355777 0.8 0 0
0.641971 0.135415 0.554456 0.8 0 0
0.490671 0.240286 0.644834 0.8 0 0
0.538342 0.270741 0.497699 0.8 0 0
0.712975 0.127663 0.503252 0.8 0 0
0.545733 0.184948 0.277910 0.8 0 0
0.539553 0.141119 0.600649 0.8 0 0
0.032339 0.268427 0.447723 0.8 0 0
0.438399 0.161074 0.668138 0.8 0 0
0.083298 0.273931 0.547511 0.8 0 0
0.548497 0.271776 0.617742 0.8 0 0
0.551772 0.160776 0.491270 0.8 0 0
0.619033 0.274196 0.581039 0.8 0 0
0.773411 0.264328 0.573864 0.8 0 0
0.535834 0.196043 0.072396 0.8 0 0
0.737556 0.127652 0.503913 0.8 0 0
0.866245 0.266599 0.491572 0.8 0 0
0.961021 0.272341 0.514238 0.8 0 0
0.225386 0.253101 0.570756 0.8 0 0
0.592809 0.127314 0.523409 0.8 0 0
0.464629 0.198385 0.171698 0.8 0 0
0.508810 0.147774 0.256039 0.8 0 0
0.540686 0.160761 0.656431 0.8 0 0
0.242049 0.128372 0.461508 0.8 0 0
0.525025 0.274128 0.584962 0.8 0 0
0.569446 0.091167 0.550285 0.8 0 0
0.227341 0.262255 0.524168 0.8 0 0
0.445350 0.267090 0.462594 0.8 0 0
0.277476 0.265240 0.569979 0.8 0 0
0.519691 0.156944 0.230619 0.8 0 0
0.505939 0.143494 0.284240 0.8 0 0
0.433483 0.161741 0.501510 0.8 0 0
0.502620 0.127021 0.539736 0.8 0 0
0.186952 0.266146 0.517198 0.8 0 0
0.482464 0.164429 0.172786 0.8 0 0
0.274978 0.266498 0.496848 0.8 0 0
0.474424 0.196507 0.059205 0.8 0 0
0.535144 0.168576 0.238034 0.8 0 0
0.446565 0.203492 0.465885 0.8 0 0
0.175004 0.266750 0.482093 0.8 0 0
0.447429 0.126180 0.512735 0.8 0 0
0.875814 0.265120 0.577621 0.8 0 0
0.418045 0.266513 0.496112 0.8 0 0
0.622237 0.197882 0.048454 0.8 0 0
0.270402 0.273251 0.528430 0.8 0 0
0.749984 0.273815 0.603876 0.8 0 0
0.447623 0.267244 0.453651 0.8 0 0
0.597620 0.134049 0.441498 0.8 0 0
0.875119 0.264723 0.600672 0.8 0 0
0.586635 0.196752 0.031835 0.8 0 0
0.154550 0.267130 0.459963 0.8 0 0
0.491513 0.221394 0.070808 0.8 0 0
0.561258 0.127659 0.503311 0.8 0 0
0.467788 0.204405 0.159855 0.8 0 0
0.878358 0.272966 0.517842 0.8 0 0
0.483776 0.199544 0.404131 0.8 0 0
0.538126 0.221284 0.304807 0.8 0 0
0.528135 0.224289 0.461016 0.8 0 0
0.164739 0.271644 0.486070 0.8 0 0
0.763433 0.169420 0.492350 0.8 0 0
0.305988 0.134340 0.439145 0.8 0 0
0.131690 0.270668 0.621024 0.8 0 0
0.440534 0.137094 0.489712 0.8 0 0
0.556510 0.193585 0.468097 0.8 0 0
0.743297 0.135011 0.495772 0.8 0 0
0.402979 0.265272 0.568227 0.8 0 0
0.329112 0.134502 0.474587 0.8 0 0
0.663462 0.127283 0.579245 0.8 0 0
0.796381 0.272076 0.494491 0.8 0 0
0.503177 0.179125 0.049529 0.8 0 0
0.238662 0.190911 0.501998 0.8 0 0
0.498374 0.203084 0.670231 0.8 0 0
0.150882 0.273627 0.614417 0.8 0 0
0.412892 0.264657 0.603979 0.8 0 0
0.869553 0.274387 0.555789 0.8 0 0
0.811622 0.267270 0.452483 0.8 0 0
0.563851 0.272873 0.516893 0.8 0 0
0.501599 0.265611 0.548621 0.8 0 0
0.464095 0.135597 0.576162 0.8 0 0
0.137604 0.271073 0.470968 0.8 0 0
0.352101 0.135003 0.521268 0.8 0 0
0.091498 0.272843 0.518422 0.8 0 0
0.339407 0.126465 0.572468 0.8 0 0
0.510851 0.129271 0.408923 0.8 0 0
0.636554 0.127529 0.510956 0.8 0 0
0.495762 0.127080 0.536287 0.8 0 0
0.447237 0.150580 0.637018 0.8 0 0
0.495306 0.265857 0.074762 0.8 0 0
0.499826 0.272484 0.531588 0.8 0 0
0.495714 0.134932 0.340666 0.8 0 0
0.377623 0.267411 0.443863 0.8 0 0
0.606998 0.272446 0.505283 0.8 0 0
0.508567 0.136656 0.329280 0.8 0 0
0.911561 0.265459 0.557955 0.8 0 0
0.525890 0.154973 0.266568 0.8 0 0
0.259190 0.273347 0.531035 0.8 0 0
0.683498 0.266026 0.524728 0.8 0 0
0.358842 0.269471 0.620715 0.8 0 0
0.477182 0.274079 0.587875 0.8 0 0
0.510512 0.199528 0.648579 0.8 0 0
0.934725 0.274488 0.564058 0.8 0 0
0.248391 0.274280 0.555987 0.8 0 0
0.275563 0.134065 0.427175 0.8 0 0
0.551594 0.208910 0.443501 0.8 0 0
0.565434 0.167271 0.464187 0.8 0 0
0.233333 0.127814 0.493912 0.8 0 0
0.945885 0.272948 0.517800 0.8 0 0
0.587623 0.127767 0.497061 0.8 0 0
0.880590 0.267001 0.618165 0.8 0 0
0.549117 0.213195 0.363500 0.8 0 0
0.545723 0.217682 0.345461 0.8 0 0
0.554307 0.201088 0.375285 0.8 0 0
0.459519 0.196371 0.058744 0.8 0 0
0.278554 0.130706 0.584619 0.8 0 0
0.095417 0.270514 0.456250 0.8 0 0
0.859791 0.270248 0.445388 0.8 0 0
0.495289 0.270313 0.107376 0.8 0 0
0.232758 0.132995 0.443853 0.8 0 0
0.466651 0.225599 0.447570 0.8 0 0
0.565183 0.274130 0.584909 0.8 0 0
0.453306 0.266180 0.515506 0.8 0 0
0.275808 0.272341 0.617479 0.8 0 0
0.550511 0.194982 0.100749 0.8 0 0
0.284651 0.127892 0.489411 0.8 0 0
0.339749 0.126950 0.544283 0.8 0 0
0.564126 0.215085 0.667784 0.8 0 0
0.774652 0.238151 0.544287 0.8 0 0
0.438163 0.126751 0.555969 0.8 0 0
0.396702 0.135412 0.562859 0.8 0 0
0.695285 0.265183 0.573738 0.8 0 0
0.650728 0.127077 0.537210 0.8 0 0
0.433691 0.113050 0.507852 0.8 0 0
0.462529 0.173546 0.648278 0.8 0 0
0.310388 0.127891 0.489510 0.8 0 0
0.553000 0.126804 0.552367 0.8 0 0
0.462519 0.168573 0.244705 0.8 0 0
0.511411 0.240810 0.497412 0.8 0 0
0.774780 0.238942 0.529032 0.8 0 0
0.498082 0.273766 0.606501 0.8 0 0
0.451559 0.189937 0.276766 0.8 0 0
0.446222 0.153807 0.623862 0.8 0 0
0.567799 0.271128 0.470298 0.8 0 0
0.462992 0.200200 0.094446 0.8 0 0
0.455982 0.137492 0.465941 0.8 0 0
0.686454 0.128488 0.455236 0.8 0 0
0.119694 0.267286 0.450862 0.8 0 0
0.414252 0.044146 0.549615 0.8 0 0
0.604352 0.223032 0.668279 0.8 0 0
0.502282 0.263976 0.100385 0.8 0 0
0.344838 0.267034 0.465744 0.8 0 0
0.485259 0.217710 0.079588 0.8 0 0
0.617627 0.270550 0.454641 0.8 0 0
0.582135 0.128144 0.475126 0.8 0 0
0.372764 0.273646 0.538455 0.8 0 0
0.406204 0.196485 0.056129 0.8 0 0
0.091773 0.272572 0.511187 0.8 0 0
0.796079 0.273420 0.530370 0.8 0 0
0.457627 0.126684 0.559254 0.8 0 0
0.247467 0.127691 0.501077 0.8 0 0
0.502165 0.279886 0.083211 0.8 0 0
0.563887 0.124911 0.505478 0.8 0 0
0.680455 0.135500 0.565653 0.8 0 0
0.586850 0.134189 0.419243 0.8 0 0
0.443481 0.178302 0.370024 0.8 0 0
0.501921 0.240287 0.043910 0.8 0 0
0.728706 0.271195 0.471299 0.8 0 0
0.738791 0.265219 0.571695 0.8 0 0
0.563704 0.136305 0.535700 0.8 0 0
0.562927 0.165159 0.449504 0.8 0 0
0.159848 0.264801 0.595370 0.8 0 0
0.427782 0.273282 0.528476 0.8 0 0
0.539028 0.274122 0.585355 0.8 0 0
0.345603 0.273498 0.534662 0.8 0 0
0.318236 0.127391 0.518646 0.8 0 0
0.047315 0.267201 0.455749 0.8 0 0
0.500919 0.203842 0.668919 0.8 0 0
0.520194 0.266545 0.494325 0.8 0 0
0.801718 0.270938 0.464085 0.8 0 0
0.381950 0.129593 0.672080 0.8 0 0
0.394640 0.134584 0.490539 0.8 0 0
0.412966 0.061479 0.549151 0.8 0 0
0.252198 0.127345 0.521234 0.8 0 0
0.358854 0.134094 0.440682 0.8 0 0
0.369350 0.128992 0.425583 0.8 0 0
0.759608 0.127162 0.532421 0.8 0 0
0.741361 0.266409 0.502495 0.8 0 0
0.536845 0.205539 0.225209 0.8 0 0
0.737859 0.266193 0.515048 0.8 0 0
0.710845 0.265982 0.527320 0.8 0 0
0.356061 0.129146 0.416620 0.8 0 0
0.682586 0.274387 0.569749 0.8 0 0
0.290196 0.266399 0.502614 0.8 0 0
0.495336 0.251978 0.065487 0.8 0 0
0.477531 0.208044 0.074883 0.8 0 0
0.707636 0.128269 0.581098 0.8 0 0
0.483883 0.125992 0.599522 0.8 0 0
0.495285 0.318293 0.066822 0.8 0 0
0.421832 0.081437 0.544137 0.8 0 0
0.478908 0.183978 0.662872 0.8 0 0
0.443909 0.270667 0.458621 0.8 0 0
0.501884 0.327864 0.034467 0.8 0 0
0.034651 0.264807 0.594856 0.8 0 0
0.080272 0.270382 0.452800 0.8 0 0
0.548080 0.266934 0.619088 0.8 0 0
0.339546 0.134402 0.467328 0.8 0 0
0.305551 0.266506 0.496372 0.8 0 0
0.166692 0.265924 0.530099 0.8 0 0
0.036901 0.272558 0.578771 0.8 0 0
0.621558 0.126594 0.565335 0.8 0 0
0.538346 0.135082 0.628781 0.8 0 0
0.495245 0.295064 0.077836 0.8 0 0
0.464526 0.216289 0.230799 0.8 0 0
0.518476 0.224438 0.192911 0.8 0 0
0.729476 0.265403 0.560968 0.8 0 0
0.450316 0.153650 0.588641 0.8 0 0
0.506288 0.146881 0.261929 0.8 0 0
0.392013 0.127973 0.484848 0.8 0 0
0.927071 0.273127 0.521889 0.8 0 0
0.579026 0.064202 0.552254 0.8 0 0
0.662096 0.127263 0.526409 0.8 0 0
0.487651 0.248563 0.463051 0.8 0 0
0.420189 0.266512 0.496167 0.8 0 0
0.577548 0.127245 0.527412 0.8 0 0
0.466731 0.133413 0.582181 0.8 0 0
0.480571 0.181702 0.677986 0.8 0 0
0.876469 0.264834 0.594218 0.8 0 0
0.596375 0.273171 0.614996 0.8 0 0
0.623060 0.273869 0.600545 0.8 0 0
0.807247 0.269979 0.619359 0.8 0 0
0.696872 0.265172 0.574369 0.8 0 0
0.556127 0.180473 0.366895 0.8 0 0
0.751591 0.128111 0.477229 0.8 0 0
0.223035 0.254308 0.546172 0.8 0 0
0.281150 0.128084 0.478271 0.8 0 0
0.768506 0.273712 0.610030 0.8 0 0
0.808717 0.272491 0.505513 0.8 0 0
0.444059 0.128220 0.469962 0.8 0 0
0.491972 0.242605 0.393026 0.8 0 0
0.141447 0.266006 0.618495 0.8 0 0
0.503353 0.159627 0.177968 0.8 0 0
0.532170 0.266086 0.521031 0.8 0 0
0.558114 0.176937 0.568389 0.8 0 0
0.541809 0.198222 0.249281 0.8 0 0
0.230781 0.126733 0.556755 0.8 0 0
0.293172 0.274450 0.565557 0.8 0 0
0.473644 0.156425 0.254821 0.8 0 0
0.747799 0.128455 0.457207 0.8 0 0
0.155448 0.274408 0.567868 0.8 0 0
0.435072 0.266795 0.479731 0.8 0 0
0.378217 0.128268 0.467719 0.8 0 0
0.555602 0.180236 0.363521 0.8 0 0
0.232175 0.206590 0.549278 0.8 0 0
0.747291 0.274208 0.551619 0.8 0 0
0.900268 0.264822 0.594915 0.8 0 0
0.059024 0.274399 0.568340 0.8 0 0
0.268796 0.267344 0.447654 0.8 0 0
0.526533 0.194946 0.101748 0.8 0 0
0.463744 0.229112 0.364852 0.8 0 0
0.437161 0.136330 0.534159 0.8 0 0
0.094489 0.273081 0.524779 0.8 0 0
0.570550 0.085254 0.551509 0.8 0 0
0.959201 0.272098 0.506148 0.8 0 0
0.351388 0.270927 0.466007 0.8 0 0
0.719784 0.273911 0.598106 0.8 0 0
0.486972 0.241160 0.477046 0.8 0 0
0.556939 0.170069 0.617594 0.8 0 0
0.528297 0.219477 0.214689 0.8 0 0
0.476953 0.221704 0.185411 0.8 0 0
0.034287 0.269676 0.459034 0.8 0 0
0.558425 0.190200 0.617936 0.8 0 0
0.931158 0.266493 0.497821 0.8 0 0
0.879298 0.265873 0.533791 0.8 0 0
0.569501 0.266380 0.504009 0.8 0 0
0.305985 0.270417 0.452636 0.8 0 0
0.541382 0.127942 0.486200 0.8 0 0
0.453865 0.270027 0.456602 0.8 0 0
0.956832 0.273334 0.571321 0.8 0 0
0.549321 0.190310 0.295378 0.8 0 0
0.036521 0.270276 0.469759 0.8 0 0
0.683231 0.127483 0.513673 0.8 0 0
0.403147 0.128471 0.455941 0.8 0 0
0.271479 0.126623 0.563206 0.8 0 0
0.423876 0.084144 0.528372 0.8 0 0
0.681816 0.273990 0.593406 0.8 0 0
0.607194 0.195447 0.039730 0.8 0 0
0.909047 0.274515 0.559001 0.8 0 0
0.304291 0.272758 0.515102 0.8 0 0
0.133211 0.264663 0.603367 0.8 0 0
0.545872 0.146208 0.575064 0.8 0 0
0.573894 0.265561 0.551622 0.8 0 0
0.933458 0.273309 0.613759 0.8 0 0
0.227070 0.229461 0.544511 0.8 0 0
0.468216 0.232763 0.408715 0.8 0 0
0.598945 0.134906 0.515671 0.8 0 0
0.596072 0.266648 0.488456 0.8 0 0
0.471669 0.233441 0.503041 0.8 0 0
0.573040 0.207467 0.673059 0.8 0 0
0.472784 0.188640 0.112733 0.8 0 0
0.381653 0.194826 0.081148 0.8 0 0
0.534957 0.265162 0.574769 0.8 0 0
0.283890 0.273307 0.529851 0.8 0 0
0.548957 0.149953 0.558304 0.8 0 0
0.446726 0.266797 0.619131 0.8 0 0
0.760933 0.128237 0.469924 0.8 0 0
0.487490 0.274116 0.585633 0.8 0 0
0.458080 0.187390 0.231838 0.8 0 0
0.382599 0.134643 0.494083 0.8 0 0
0.769550 0.236871 0.513104 0.8 0 0
0.930750 0.265201 0.572911 0.8 0 0
0.495340 0.248458 0.082627 0.8 0 0
0.566939 0.091713 0.547544 0.8 0 0
0.041035 0.272583 0.523545 0.8 0 0
0.508913 0.155873 0.202687 0.8 0 0
0.282085 0.274028 0.549110 0.8 0 0
0.549000 0.217180 0.406255 0.8 0 0
0.059082 0.266204 0.513682 0.8 0 0
0.492530 0.154732 0.210243 0.8 0 0
0.253845 0.265502 0.554683 0.8 0 0
0.387334 0.194978 0.081681 0.8 0 0
0.495242 0.293991 0.097539 0.8 0 0
0.570410 0.104770 0.535296 0.8 0 0
0.409901 0.274036 0.590316 0.8 0 0
0.693487 0.134917 0.484349 0.8 0 0
0.267740 0.266052 0.522762 0.8 0 0
0.431927 0.165259 0.669704 0.8 0 0
0.231039 0.204781 0.534309 0.8 0 0
0.398504 0.135217 0.546104 0.8 0 0
0.502083 0.237840 0.069294 0.8 0 0
0.269236 0.265266 0.568438 0.8 0 0
0.458475 0.179533 0.650927 0.8 0 0
0.477688 0.240018 0.629951 0.8 0 0
0.545892 0.167710 0.655893 0.8 0 0
0.472971 0.189239 0.109739 0.8 0 0
0.534599 0.265921 0.530660 0.8 0 0
0.664641 0.126791 0.553876 0.8 0 0
0.284589 0.128173 0.473122 0.8 0 0
0.798000 0.264878 0.591591 0.8 0 0
0.611396 0.267710 0.441296 0.8 0 0
0.143826 0.272390 0.506090 0.8 0 0
0.326788 0.274227 0.578875 0.8 0 0
0.511458 0.240048 0.541713 0.8 0 0
0.523264 0.138109 0.349446 0.8 0 0
0.451403 0.168460 0.332610 0.8 0 0
0.526619 0.134735 0.445319 0.8 0 0
0.655191 0.272308 0.616438 0.8 0 0
0.332258 0.134066 0.426904 0.8 0 0
0.968448 0.266091 0.521224 0.8 0 0
0.436173 0.194727 0.097470 0.8 0 0
0.702482 0.266473 0.498758 0.8 0 0
0.555017 0.136936 0.498384 0.8 0 0
0.172782 0.266354 0.505090 0.8 0 0
0.727771 0.127332 0.522471 0.8 0 0
0.318629 0.128927 0.429305 0.8 0 0
0.239766 0.182494 0.491659 0.8 0 0
0.538340 0.204776 0.236868 0.8 0 0
0.336345 0.274322 0.573209 0.8 0 0
0.511698 0.235724 0.274468 0.8 0 0
0.756341 0.159967 0.509747 0.8 0 0
0.138301 0.271705 0.487821 0.8 0 0
0.449912 0.188995 0.292145 0.8 0 0
0.302356 0.134434 0.451346 0.8 0 0
0.823774 0.274477 0.558420 0.8 0 0
0.444849 0.200401 0.383206 0.8 0 0
0.502335 0.265120 0.108440 0.8 0 0
0.378246 0.270301 0.449167 0.8 0 0
0.591433 0.128950 0.428295 0.8 0 0
0.491880 0.129101 0.418759 0.8 0 0
0.401371 0.195963 0.064983 0.8 0 0
0.479293 0.222048 0.171113 0.8 0 0
0.495233 0.271089 0.511315 0.8 0 0
0.622172 0.193575 0.026693 0.8 0 0
0.295728 0.271266 0.475351 0.8 0 0
0.478057 0.131569 0.417526 0.8 0 0
0.107616 0.272181 0.500676 0.8 0 0
0.469823 0.231719 0.345802 0.8 0 0
0.519696 0.269988 0.495187 0.8 0 0
0.527389 0.272145 0.526548 0.8 0 0
0.239087 0.127769 0.496562 0.8 0 0
0.125046 0.272745 0.515646 0.8 0 0
0.487943 0.140372 0.304851 0.8 0 0
0.550020 0.194851 0.104269 0.8 0 0
0.511425 0.156883 0.197593 0.8 0 0
0.513472 0.184472 0.052931 0.8 0 0
0.451493 0.157430 0.359962 0.8 0 0
0.450904 0.201267 0.655364 0.8 0 0
0.571657 0.274279 0.576074 0.8 0 0
0.412243 0.201052 0.052313 0.8 0 0
0.613845 0.270331 0.448804 0.8 0 0
0.333416 0.274074 0.550089 0.8 0 0
0.576043 0.087616 0.530743 0.8 0 0
0.447569 0.149547 0.638594 0.8 0 0
0.768493 0.270838 0.461574 0.8 0 0
0.518100 0.158939 0.213139 0.8 0 0
0.703388 0.135474 0.561955 0.8 0 0
