0.190934 0.520492 0.149957 0.8 0 0
0.133218 0.483337 0.082806 0.8 0 0
0.172978 0.492390 0.069187 0.8 0 0
0.156686 0.616301 0.085242 0.8 0 0
0.234446 0.693739 0.154118 0.8 0 0
0.185599 0.742948 0.070337 0.8 0 0
0.220638 0.248652 0.073185 0.8 0 0
0.217475 0.652845 0.080967 0.8 0 0
0.169841 0.045032 0.079873 0.8 0 0
0.252598 0.082998 0.076313 0.8 0 0
0.166890 0.302296 0.082256 0.8 0 0
0.152942 0.331071 0.084931 0.8 0 0
0.181671 0.055791 0.148645 0.8 0 0
0.215778 0.063372 0.148713 0.8 0 0
0.200634 0.412665 0.150499 0.8 0 0
0.187211 0.959429 0.071715 0.8 0 0
0.219237 0.476766 0.090198 0.8 0 0
0.177127 0.483216 0.112469 0.8 0 0
0.142647 0.306174 0.162854 0.8 0 0
0.152700 0.589727 0.164168 0.8 0 0
0.124424 0.334804 0.159615 0.8 0 0
0.101461 0.458517 0.155182 0.8 0 0
0.224017 0.492250 0.157210 0.8 0 0
0.129923 0.618974 0.083749 0.8 0 0
0.132037 0.502690 0.147500 0.8 0 0
0.169896 0.618358 0.147938 0.8 0 0
0.142262 0.525354 0.085657 0.8 0 0
0.172723 0.474083 0.085148 0.8 0 0
0.138281 0.491576 0.078009 0.8 0 0
0.213584 0.589691 0.080785 0.8 0 0
0.181018 0.699101 0.089110 0.8 0 0
0.025154 0.485007 0.109291 0.8 0 0
0.120747 0.495541 0.164517 0.8 0 0
0.041544 0.527422 0.106125 0.8 0 0
0.072998 0.501863 0.072940 0.8 0 0
0.042749 0.508277 0.125817 0.8 0 0
0.173901 0.953575 0.073390 0.8 0 0
0.230424 0.687730 0.075292 0.8 0 0
0.147129 0.619503 0.147737 0.8 0 0
0.155732 0.261698 0.148204 0.8 0 0
0.170251 0.122385 0.071547 0.8 0 0
0.251770 0.044222 0.156513 0.8 0 0
0.161624 0.298337 0.092312 0.8 0 0
0.206341 0.625574 0.082306 0.8 0 0
0.247121 0.246020 0.077130 0.8 0 0
0.211755 0.316350 0.160410 0.8 0 0
0.169204 0.495669 0.069111 0.8 0 0
0.112736 0.610414 0.157358 0.8 0 0
0.028752 0.509459 0.100450 0.8 0 0
0.261002 0.484482 0.112310 0.8 0 0
0.148049 0.674066 0.084766 0.8 0 0
0.154410 0.558516 0.164325 0.8 0 0
0.163241 0.518329 0.117126 0.8 0 0
0.224412 0.755739 0.081175 0.8 0 0
0.453167 0.430582 0.102314 0.8 0 0
0.192076 0.369051 0.084511 0.8 0 0
0.229242 0.068171 0.150085 0.8 0 0
0.232600 0.877053 0.081419 0.8 0 0
0.389499 0.500815 0.104655 0.8 0 0
0.146665 0.250203 0.149093 0.8 0 0
0.158939 0.395492 0.085227 0.8 0 0
0.092725 0.475802 0.097294 0.8 0 0
0.141387 0.275656 0.082690 0.8 0 0
0.090125 0.525418 0.102184 0.8 0 0
0.203494 0.107514 0.148507 0.8 0 0
0.121893 0.574216 0.148897 0.8 0 0
0.243751 0.145538 0.153318 0.8 0 0
0.051856 0.483062 0.121615 0.8 0 0
0.184705 0.159267 0.070713 0.8 0 0
0.085381 0.522100 0.109979 0.8 0 0
0.093115 0.527390 0.090679 0.8 0 0
0.151445 0.479653 0.096701 0.8 0 0
0.200549 0.171102 0.070929 0.8 0 0
0.226596 0.589578 0.078831 0.8 0 0
0.176703 0.497250 0.079609 0.8 0 0
0.236645 0.692493 0.156745 0.8 0 0
0.188543 0.471564 0.149490 0.8 0 0
0.239637 0.087987 0.151915 0.8 0 0
0.233113 0.482454 0.112254 0.8 0 0
0.180102 0.358089 0.084803 0.8 0 0
0.189274 0.207424 0.148266 0.8 0 0
0.190736 0.277703 0.162745 0.8 0 0
0.149821 0.178663 0.159885 0.8 0 0
0.142959 0.655904 0.148107 0.8 0 0
0.123942 0.517418 0.117963 0.8 0 0
0.191315 0.909708 0.148304 0.8 0 0
0.187638 0.658193 0.070033 0.8 0 0
0.216690 0.725105 0.081962 0.8 0 0
0.177569 0.516422 0.113973 0.8 0 0
0.443645 0.522254 0.104753 0.8 0 0
0.238163 0.289213 0.156659 0.8 0 0
0.223777 0.088050 0.072041 0.8 0 0
0.218997 0.307402 0.073529 0.8 0 0
0.246598 0.895704 0.156824 0.8 0 0
0.196616 0.543643 0.150493 0.8 0 0
0.225077 0.047185 0.083459 0.8 0 0
0.167149 0.952224 0.078280 0.8 0 0
0.064341 0.515813 0.073427 0.8 0 0
0.200790 0.031016 0.161108 0.8 0 0
0.440667 0.497962 0.145255 0.8 0 0
0.138792 0.512921 0.121062 0.8 0 0
0.315299 0.514072 0.080987 0.8 0 0
0.175311 0.346256 0.163410 0.8 0 0
0.247264 0.952267 0.075158 0.8 0 0
0.025080 0.480761 0.141008 0.8 0 0
0.190894 0.903550 0.084123 0.8 0 0
0.171643 0.701273 0.116148 0.8 0 0
0.228585 0.837497 0.081541 0.8 0 0
0.168406 0.340530 0.147914 0.8 0 0
0.121084 0.560182 0.083851 0.8 0 0
0.073306 0.525808 0.097255 0.8 0 0
0.223679 0.526117 0.157403 0.8 0 0
0.229540 0.497722 0.120300 0.8 0 0
0.203607 0.317147 0.149641 0.8 0 0
0.215554 0.667987 0.073260 0.8 0 0
0.163627 0.508482 0.069035 0.8 0 0
0.197576 0.431307 0.150295 0.8 0 0
0.212271 0.245883 0.149967 0.8 0 0
0.171843 0.937646 0.073262 0.8 0 0
0.153953 0.699799 0.163205 0.8 0 0
0.279593 0.484128 0.075568 0.8 0 0
0.174744 0.319945 0.148021 0.8 0 0
0.236716 0.948439 0.081668 0.8 0 0
0.209852 0.500006 0.153075 0.8 0 0
0.235201 0.517373 0.112529 0.8 0 0
0.152244 0.701627 0.099833 0.8 0 0
0.203031 0.086335 0.148500 0.8 0 0
0.207243 0.238968 0.149118 0.8 0 0
0.159987 0.483807 0.069005 0.8 0 0
0.240217 0.079884 0.157970 0.8 0 0
0.225502 0.611896 0.079266 0.8 0 0
0.197544 0.523441 0.089384 0.8 0 0
0.053309 0.475956 0.108489 0.8 0 0
0.157624 0.360227 0.069459 0.8 0 0
0.215600 0.879360 0.071382 0.8 0 0
0.146414 0.500866 0.125761 0.8 0 0
0.156547 0.477832 0.103541 0.8 0 0
0.231573 0.167795 0.074012 0.8 0 0
0.155756 0.187650 0.161390 0.8 0 0
0.200969 0.732112 0.070550 0.8 0 0
0.219413 0.339762 0.152320 0.8 0 0
0.088750 0.490333 0.124143 0.8 0 0
0.193814 0.773441 0.084323 0.8 0 0
0.189000 0.773765 0.070517 0.8 0 0
0.168445 0.044222 0.150779 0.8 0 0
0.214791 0.323303 0.081659 0.8 0 0
0.341023 0.515152 0.091431 0.8 0 0
0.205848 0.307522 0.149845 0.8 0 0
0.201145 0.568738 0.082396 0.8 0 0
0.219134 0.211193 0.150523 0.8 0 0
0.136005 0.401662 0.163894 0.8 0 0
0.161084 0.709642 0.147844 0.8 0 0
0.153917 0.269396 0.148216 0.8 0 0
0.192440 0.525551 0.150114 0.8 0 0
0.377998 0.492623 0.085691 0.8 0 0
0.159354 0.496019 0.164568 0.8 0 0
0.176048 0.025565 0.149806 0.8 0 0
0.182949 0.730874 0.070245 0.8 0 0
0.238811 0.371626 0.077147 0.8 0 0
0.138171 0.334687 0.070769 0.8 0 0
0.252534 0.184925 0.155174 0.8 0 0
0.207673 0.250464 0.149340 0.8 0 0
0.253718 0.167471 0.077711 0.8 0 0
0.454670 0.540199 0.102067 0.8 0 0
0.132301 0.485959 0.147563 0.8 0 0
0.210236 0.497934 0.121960 0.8 0 0
0.215571 0.726934 0.082152 0.8 0 0
0.204799 0.753938 0.084095 0.8 0 0
0.142371 0.441183 0.069028 0.8 0 0
0.225245 0.219270 0.081354 0.8 0 0
0.025074 0.475598 0.130975 0.8 0 0
0.167375 0.853848 0.083769 0.8 0 0
0.156133 0.293518 0.147989 0.8 0 0
0.184007 0.638653 0.148174 0.8 0 0
0.169238 0.097618 0.072588 0.8 0 0
0.222845 0.896415 0.072057 0.8 0 0
0.168541 0.235503 0.162844 0.8 0 0
0.220795 0.470326 0.078975 0.8 0 0
0.266559 0.477809 0.091736 0.8 0 0
0.329982 0.510585 0.110728 0.8 0 0
0.208192 0.942122 0.148587 0.8 0 0
0.351173 0.508835 0.110382 0.8 0 0
0.220940 0.398850 0.153357 0.8 0 0
0.133225 0.495802 0.147470 0.8 0 0
0.085253 0.490558 0.070737 0.8 0 0
0.197893 0.574390 0.150265 0.8 0 0
0.132335 0.708787 0.160357 0.8 0 0
0.423102 0.485337 0.102132 0.8 0 0
0.175349 0.921928 0.083199 0.8 0 0
0.192659 0.311334 0.148320 0.8 0 0
0.181143 0.353389 0.069878 0.8 0 0
0.134133 0.501781 0.074399 0.8 0 0
0.226211 0.097281 0.072498 0.8 0 0
0.219061 0.321825 0.073684 0.8 0 0
0.219788 0.807749 0.082500 0.8 0 0
0.226438 0.651743 0.157961 0.8 0 0
0.217431 0.513019 0.116248 0.8 0 0
0.025021 0.435384 0.091534 0.8 0 0
0.186442 0.539540 0.163092 0.8 0 0
0.092180 0.520325 0.087369 0.8 0 0
0.205960 0.530308 0.081208 0.8 0 0
0.086962 0.524521 0.083300 0.8 0 0
0.355104 0.487363 0.104586 0.8 0 0
0.217546 0.090307 0.161182 0.8 0 0
0.225347 0.787474 0.159174 0.8 0 0
0.247043 0.073418 0.156996 0.8 0 0
0.204799 0.044047 0.083790 0.8 0 0
0.199067 0.603397 0.161693 0.8 0 0
0.170231 0.162940 0.084130 0.8 0 0
0.452819 0.406857 0.103595 0.8 0 0
0.338990 0.483899 0.093436 0.8 0 0
0.172077 0.497733 0.078899 0.8 0 0
0.225111 0.480550 0.108073 0.8 0 0
0.112283 0.527441 0.102764 0.8 0 0
0.197736 0.057588 0.148412 0.8 0 0
0.237575 0.055107 0.081496 0.8 0 0
0.419350 0.462514 0.104737 0.8 0 0
0.249816 0.150829 0.154300 0.8 0 0
0.193094 0.767541 0.162436 0.8 0 0
0.232149 0.173951 0.151966 0.8 0 0
0.215172 0.221197 0.072089 0.8 0 0
0.218233 0.817191 0.160472 0.8 0 0
0.256281 0.138117 0.077419 0.8 0 0
0.238447 0.647540 0.076900 0.8 0 0
0.173124 0.903817 0.071860 0.8 0 0
0.256208 0.129186 0.155190 0.8 0 0
0.241228 0.132657 0.080007 0.8 0 0
0.145285 0.481624 0.130998 0.8 0 0
0.157420 0.736707 0.148138 0.8 0 0
0.243384 0.164713 0.075752 0.8 0 0
0.218926 0.783473 0.150564 0.8 0 0
0.235166 0.875561 0.081016 0.8 0 0
0.332732 0.515776 0.100414 0.8 0 0
0.072398 0.482820 0.120881 0.8 0 0
0.112333 0.588727 0.159422 0.8 0 0
0.144423 0.830412 0.155742 0.8 0 0
0.122693 0.406003 0.083097 0.8 0 0
0.250618 0.494739 0.069937 0.8 0 0
0.314860 0.514184 0.108350 0.8 0 0
0.225282 0.572766 0.157523 0.8 0 0
0.162490 0.335025 0.085052 0.8 0 0
0.155453 0.409226 0.069227 0.8 0 0
0.025080 0.478240 0.066599 0.8 0 0
0.337587 0.487557 0.108613 0.8 0 0
0.217472 0.956155 0.160907 0.8 0 0
0.224543 0.605354 0.153840 0.8 0 0
0.162220 0.546997 0.085283 0.8 0 0
0.161230 0.618679 0.085162 0.8 0 0
0.113620 0.509270 0.070392 0.8 0 0
0.196911 0.714904 0.148391 0.8 0 0
0.249019 0.071679 0.153100 0.8 0 0
0.438601 0.481111 0.104847 0.8 0 0
0.171662 0.479587 0.104940 0.8 0 0
0.200373 0.728510 0.070526 0.8 0 0
0.164617 0.461532 0.164275 0.8 0 0
0.216488 0.174887 0.083206 0.8 0 0
0.187900 0.441672 0.148985 0.8 0 0
0.429542 0.498088 0.107165 0.8 0 0
0.169661 0.291532 0.147937 0.8 0 0
0.207816 0.878787 0.148578 0.8 0 0
0.060656 0.476036 0.091145 0.8 0 0
0.233615 0.284023 0.153689 0.8 0 0
0.208180 0.166247 0.083968 0.8 0 0
0.150746 0.527614 0.097069 0.8 0 0
0.204364 0.140276 0.148520 0.8 0 0
0.025022 0.447480 0.064074 0.8 0 0
0.075341 0.471421 0.102929 0.8 0 0
0.076204 0.523297 0.107842 0.8 0 0
0.242822 0.176604 0.079235 0.8 0 0
0.108061 0.444884 0.075426 0.8 0 0
0.060540 0.502492 0.073486 0.8 0 0
0.166392 0.170342 0.084017 0.8 0 0
0.199583 0.446235 0.072013 0.8 0 0
0.239987 0.675628 0.077867 0.8 0 0
0.164377 0.209903 0.162453 0.8 0 0
0.234737 0.358375 0.156638 0.8 0 0
0.166704 0.049282 0.077286 0.8 0 0
0.245210 0.721826 0.077167 0.8 0 0
0.211675 0.428988 0.152378 0.8 0 0
0.201366 0.951922 0.148473 0.8 0 0
0.262908 0.042218 0.077449 0.8 0 0
0.205311 0.897125 0.161461 0.8 0 0
0.025025 0.456621 0.054787 0.8 0 0
0.199717 0.397096 0.083025 0.8 0 0
0.207869 0.211024 0.084059 0.8 0 0
0.182524 0.934916 0.071615 0.8 0 0
0.107650 0.482636 0.107374 0.8 0 0
0.228095 0.211403 0.081022 0.8 0 0
0.182132 0.489126 0.095901 0.8 0 0
0.223216 0.482552 0.157405 0.8 0 0
0.154019 0.480224 0.125617 0.8 0 0
0.149874 0.797070 0.149838 0.8 0 0
0.197838 0.765845 0.162367 0.8 0 0
0.370376 0.508791 0.109336 0.8 0 0
0.232258 0.859519 0.081258 0.8 0 0
0.053091 0.511134 0.079214 0.8 0 0
0.198488 0.826112 0.070884 0.8 0 0
0.199486 0.439283 0.082548 0.8 0 0
0.198646 0.675720 0.162315 0.8 0 0
0.237691 0.384861 0.155990 0.8 0 0
0.138369 0.257081 0.074521 0.8 0 0
0.163834 0.909235 0.080519 0.8 0 0
0.166635 0.510900 0.120330 0.8 0 0
0.054484 0.471775 0.104396 0.8 0 0
0.195219 0.855535 0.161877 0.8 0 0
0.175575 0.481949 0.069272 0.8 0 0
0.162725 0.146886 0.161347 0.8 0 0
0.165190 0.409925 0.147859 0.8 0 0
0.200244 0.314147 0.149095 0.8 0 0
0.120566 0.492336 0.095237 0.8 0 0
0.230444 0.096395 0.150651 0.8 0 0
0.426006 0.502520 0.104787 0.8 0 0
0.137682 0.477277 0.085615 0.8 0 0
0.174598 0.481529 0.112317 0.8 0 0
0.199712 0.314756 0.162229 0.8 0 0
0.176566 0.196417 0.084541 0.8 0 0
0.230017 0.403344 0.154780 0.8 0 0
0.218811 0.430221 0.079759 0.8 0 0
0.261322 0.065706 0.154864 0.8 0 0
0.185846 0.267468 0.162765 0.8 0 0
0.167198 0.298424 0.131349 0.8 0 0
0.148044 0.178938 0.151157 0.8 0 0
0.053151 0.526394 0.087126 0.8 0 0
0.204437 0.838566 0.084021 0.8 0 0
0.151315 0.521311 0.113148 0.8 0 0
0.085848 0.503475 0.127239 0.8 0 0
0.162254 0.298369 0.151594 0.8 0 0
0.118735 0.585886 0.149871 0.8 0 0
0.204944 0.487097 0.108002 0.8 0 0
0.147196 0.757231 0.072078 0.8 0 0
0.203554 0.519613 0.081439 0.8 0 0
0.224139 0.847591 0.159821 0.8 0 0
0.190767 0.435695 0.070584 0.8 0 0
0.211002 0.885468 0.071330 0.8 0 0
0.230963 0.355781 0.078839 0.8 0 0
0.209987 0.183837 0.083971 0.8 0 0
0.099046 0.527569 0.091606 0.8 0 0
0.163118 0.910825 0.079850 0.8 0 0
0.109520 0.491656 0.149439 0.8 0 0
0.443134 0.489995 0.104903 0.8 0 0
0.177622 0.478124 0.083069 0.8 0 0
0.153026 0.701657 0.085299 0.8 0 0
0.083563 0.497099 0.092029 0.8 0 0
0.440419 0.475273 0.102075 0.8 0 0
0.295222 0.504855 0.072357 0.8 0 0
0.037077 0.499508 0.094971 0.8 0 0
0.232042 0.573171 0.076687 0.8 0 0
0.155773 0.615977 0.085258 0.8 0 0
0.164984 0.062551 0.078332 0.8 0 0
0.178407 0.553034 0.085001 0.8 0 0
0.185466 0.786647 0.148203 0.8 0 0
0.222963 0.193645 0.072980 0.8 0 0
0.214133 0.816966 0.083460 0.8 0 0
0.113402 0.480189 0.085923 0.8 0 0
0.223972 0.197305 0.159499 0.8 0 0
0.244582 0.206788 0.078604 0.8 0 0
0.174876 0.066837 0.148830 0.8 0 0
0.211398 0.954545 0.161017 0.8 0 0
0.326457 0.497770 0.114863 0.8 0 0
0.243447 0.262293 0.156074 0.8 0 0
0.252332 0.197627 0.077426 0.8 0 0
0.175220 0.494163 0.085145 0.8 0 0
0.189277 0.085523 0.161624 0.8 0 0
0.432648 0.501932 0.163923 0.8 0 0
0.135851 0.669211 0.148892 0.8 0 0
0.156363 0.336747 0.163669 0.8 0 0
0.074581 0.482752 0.121961 0.8 0 0
0.155468 0.522399 0.085442 0.8 0 0
0.219274 0.478609 0.158027 0.8 0 0
0.153457 0.352606 0.163780 0.8 0 0
0.146211 0.299328 0.138774 0.8 0 0
0.225492 0.478029 0.155121 0.8 0 0
0.211961 0.803579 0.149245 0.8 0 0
0.186174 0.540355 0.084297 0.8 0 0
0.163457 0.305389 0.084980 0.8 0 0
0.228918 0.516274 0.156541 0.8 0 0
0.126085 0.675543 0.075833 0.8 0 0
0.182800 0.480469 0.077621 0.8 0 0
0.164022 0.630359 0.085093 0.8 0 0
0.201811 0.463346 0.072519 0.8 0 0
0.155876 0.483915 0.164554 0.8 0 0
0.445111 0.501738 0.129421 0.8 0 0
0.203855 0.624223 0.071945 0.8 0 0
0.191394 0.457299 0.162374 0.8 0 0
0.194489 0.597207 0.162331 0.8 0 0
0.133882 0.441759 0.147790 0.8 0 0
0.088023 0.482786 0.079490 0.8 0 0
0.157843 0.531898 0.085384 0.8 0 0
0.230501 0.539990 0.156487 0.8 0 0
0.162359 0.487401 0.121995 0.8 0 0
0.201831 0.063720 0.161285 0.8 0 0
0.099458 0.479073 0.157742 0.8 0 0
0.348934 0.490673 0.110266 0.8 0 0
0.192411 0.868813 0.148321 0.8 0 0
0.159729 0.101516 0.078786 0.8 0 0
0.237953 0.181721 0.157522 0.8 0 0
0.187021 0.750551 0.162638 0.8 0 0
0.205440 0.496429 0.080961 0.8 0 0
0.224715 0.196740 0.159391 0.8 0 0
0.119333 0.558835 0.163043 0.8 0 0
0.222229 0.269700 0.151786 0.8 0 0
0.230126 0.705939 0.079714 0.8 0 0
0.185797 0.820976 0.084365 0.8 0 0
0.189824 0.608758 0.069996 0.8 0 0
0.199706 0.600245 0.071564 0.8 0 0
0.405197 0.495895 0.088135 0.8 0 0
0.162236 0.236297 0.084473 0.8 0 0
0.167791 0.496190 0.123109 0.8 0 0
0.094565 0.493704 0.125348 0.8 0 0
0.213145 0.422145 0.152505 0.8 0 0
0.128068 0.488348 0.134588 0.8 0 0
0.229001 0.595939 0.078548 0.8 0 0
0.449942 0.498391 0.125778 0.8 0 0
0.150883 0.588654 0.147620 0.8 0 0
0.185437 0.057443 0.071598 0.8 0 0
0.348355 0.491912 0.081677 0.8 0 0
0.069197 0.494992 0.126521 0.8 0 0
0.070728 0.481863 0.079623 0.8 0 0
0.056661 0.510241 0.124383 0.8 0 0
0.214555 0.442689 0.080246 0.8 0 0
0.178916 0.488799 0.087672 0.8 0 0
0.163085 0.902532 0.159676 0.8 0 0
0.175411 0.506614 0.081020 0.8 0 0
0.150759 0.643321 0.163758 0.8 0 0
0.400357 0.494601 0.102233 0.8 0 0
0.112559 0.573030 0.080287 0.8 0 0
0.183696 0.878961 0.148176 0.8 0 0
0.237036 0.492920 0.070650 0.8 0 0
0.181212 0.284400 0.162943 0.8 0 0
0.190937 0.337980 0.070103 0.8 0 0
0.129970 0.485005 0.121374 0.8 0 0
0.204301 0.308247 0.149623 0.8 0 0
0.144596 0.586919 0.085320 0.8 0 0
0.142734 0.411674 0.085263 0.8 0 0
0.192766 0.899075 0.071080 0.8 0 0
0.163670 0.857231 0.148844 0.8 0 0
0.116258 0.477453 0.080304 0.8 0 0
0.158471 0.730807 0.162970 0.8 0 0
0.184253 0.724274 0.084576 0.8 0 0
0.095088 0.490812 0.070672 0.8 0 0
0.073671 0.523151 0.092471 0.8 0 0
0.186254 0.316466 0.148213 0.8 0 0
0.203038 0.394098 0.072007 0.8 0 0
0.233166 0.331963 0.154277 0.8 0 0
0.154560 0.270019 0.162881 0.8 0 0
0.236708 0.479798 0.083482 0.8 0 0
0.163108 0.880317 0.073067 0.8 0 0
0.239640 0.359468 0.077493 0.8 0 0
0.318250 0.507220 0.076855 0.8 0 0
0.107514 0.560309 0.076370 0.8 0 0
0.370270 0.511437 0.104892 0.8 0 0
0.225729 0.584695 0.078902 0.8 0 0
0.128523 0.477797 0.164560 0.8 0 0
0.259884 0.959950 0.078332 0.8 0 0
0.125320 0.384701 0.149416 0.8 0 0
0.186483 0.703293 0.148217 0.8 0 0
0.188158 0.772541 0.084419 0.8 0 0
0.230311 0.781574 0.152298 0.8 0 0
0.160091 0.332615 0.147776 0.8 0 0
0.155955 0.168747 0.160763 0.8 0 0
0.122831 0.481838 0.131788 0.8 0 0
0.149789 0.355950 0.085034 0.8 0 0
0.455947 0.556647 0.106487 0.8 0 0
0.025063 0.491402 0.054268 0.8 0 0
0.162281 0.716774 0.070013 0.8 0 0
0.145825 0.319017 0.148171 0.8 0 0
0.145606 0.254548 0.082863 0.8 0 0
0.193699 0.870115 0.070980 0.8 0 0
0.118209 0.458942 0.070551 0.8 0 0
0.193208 0.911346 0.071136 0.8 0 0
0.224463 0.422145 0.154203 0.8 0 0
0.040066 0.526585 0.100227 0.8 0 0
0.147772 0.301811 0.119236 0.8 0 0
0.147288 0.481311 0.075171 0.8 0 0
0.143969 0.503696 0.126791 0.8 0 0
0.165947 0.056834 0.158616 0.8 0 0
0.406004 0.503268 0.115694 0.8 0 0
0.152096 0.677823 0.069946 0.8 0 0
0.233669 0.231076 0.074962 0.8 0 0
0.190150 0.667283 0.084587 0.8 0 0
0.231764 0.313185 0.075502 0.8 0 0
0.390067 0.503720 0.121603 0.8 0 0
0.025033 0.453564 0.146476 0.8 0 0
0.153447 0.537264 0.147661 0.8 0 0
0.234776 0.714121 0.153889 0.8 0 0
0.174141 0.671951 0.148010 0.8 0 0
0.237343 0.310061 0.076308 0.8 0 0
0.215929 0.697393 0.159890 0.8 0 0
0.182550 0.031219 0.148772 0.8 0 0
0.232408 0.294837 0.153656 0.8 0 0
0.443974 0.533447 0.102038 0.8 0 0
0.225374 0.413771 0.075555 0.8 0 0
0.422430 0.502722 0.128927 0.8 0 0
0.237154 0.780562 0.079565 0.8 0 0
0.151551 0.517225 0.118377 0.8 0 0
0.217171 0.500559 0.158182 0.8 0 0
0.165409 0.057781 0.077383 0.8 0 0
0.230088 0.762177 0.158268 0.8 0 0
0.273554 0.518716 0.082899 0.8 0 0
0.204914 0.665609 0.071688 0.8 0 0
0.173875 0.862418 0.071146 0.8 0 0
0.210499 0.524187 0.092292 0.8 0 0
0.208415 0.485263 0.159605 0.8 0 0
0.207623 0.178813 0.071017 0.8 0 0
0.251250 0.875119 0.154161 0.8 0 0
0.192783 0.553470 0.070996 0.8 0 0
0.200359 0.134869 0.148454 0.8 0 0
0.189421 0.714861 0.148267 0.8 0 0
0.088520 0.491151 0.126610 0.8 0 0
0.229746 0.283606 0.074902 0.8 0 0
0.140084 0.200088 0.154568 0.8 0 0
0.175280 0.598824 0.069590 0.8 0 0
0.104462 0.500389 0.077175 0.8 0 0
0.104998 0.563054 0.154912 0.8 0 0
0.155188 0.701694 0.094589 0.8 0 0
0.175214 0.575695 0.163876 0.8 0 0
0.208783 0.233904 0.083645 0.8 0 0
0.205722 0.840893 0.148542 0.8 0 0
0.259513 0.048620 0.078284 0.8 0 0
0.229657 0.286477 0.074918 0.8 0 0
0.156116 0.558367 0.085363 0.8 0 0
0.230003 0.590732 0.076204 0.8 0 0
0.208759 0.413853 0.151734 0.8 0 0
0.172158 0.930916 0.160490 0.8 0 0
0.142661 0.522485 0.098992 0.8 0 0
0.119182 0.519144 0.164225 0.8 0 0
0.215313 0.456971 0.079959 0.8 0 0
0.233137 0.622647 0.076353 0.8 0 0
0.099023 0.507448 0.125668 0.8 0 0
0.214390 0.698860 0.081988 0.8 0 0
0.215162 0.729357 0.160253 0.8 0 0
0.202186 0.574592 0.082311 0.8 0 0
0.251208 0.900524 0.078913 0.8 0 0
0.150541 0.302265 0.088222 0.8 0 0
0.025006 0.488128 0.032293 0.8 0 0
0.202031 0.952534 0.083843 0.8 0 0
0.179869 0.089077 0.071453 0.8 0 0
0.213484 0.341371 0.073044 0.8 0 0
0.200461 0.478248 0.084411 0.8 0 0
0.191410 0.731535 0.070388 0.8 0 0
0.212284 0.115954 0.071345 0.8 0 0
0.025070 0.450353 0.102566 0.8 0 0
0.035805 0.515975 0.086713 0.8 0 0
0.207258 0.752404 0.083708 0.8 0 0
0.209919 0.794041 0.161540 0.8 0 0
0.288424 0.502280 0.116948 0.8 0 0
0.166765 0.185905 0.070879 0.8 0 0
0.168613 0.187636 0.070799 0.8 0 0
0.250100 0.170468 0.076818 0.8 0 0
0.041633 0.524576 0.095896 0.8 0 0
0.451449 0.499698 0.104961 0.8 0 0
0.215552 0.444948 0.153178 0.8 0 0
0.142498 0.209366 0.158699 0.8 0 0
0.104925 0.480215 0.115306 0.8 0 0
0.220251 0.104238 0.149229 0.8 0 0
0.215244 0.857859 0.071304 0.8 0 0
0.025031 0.486237 0.043482 0.8 0 0
0.138580 0.489787 0.085728 0.8 0 0
0.198554 0.579957 0.150288 0.8 0 0
0.306469 0.485814 0.110008 0.8 0 0
0.409202 0.495753 0.121398 0.8 0 0
0.234371 0.658840 0.078506 0.8 0 0
0.142098 0.382433 0.069650 0.8 0 0
0.154750 0.823280 0.160803 0.8 0 0
0.104054 0.512887 0.073664 0.8 0 0
0.217866 0.516071 0.154058 0.8 0 0
0.171264 0.493214 0.125161 0.8 0 0
0.260812 0.510213 0.114863 0.8 0 0
0.406460 0.495616 0.118046 0.8 0 0
0.177783 0.510519 0.119855 0.8 0 0
0.224131 0.720236 0.074021 0.8 0 0
0.209115 0.820888 0.161851 0.8 0 0
0.173367 0.701065 0.139134 0.8 0 0
0.169189 0.139820 0.083831 0.8 0 0
0.179812 0.306464 0.163098 0.8 0 0
0.147531 0.298932 0.128413 0.8 0 0
0.261761 0.482802 0.077547 0.8 0 0
0.135454 0.351243 0.163097 0.8 0 0
0.219951 0.412533 0.079803 0.8 0 0
0.158063 0.484527 0.130545 0.8 0 0
0.039051 0.509134 0.125458 0.8 0 0
0.127708 0.419892 0.084542 0.8 0 0
0.046773 0.477413 0.113116 0.8 0 0
0.228447 0.554849 0.078132 0.8 0 0
0.175769 0.871944 0.084023 0.8 0 0
0.127230 0.477351 0.098457 0.8 0 0
0.106640 0.477840 0.093597 0.8 0 0
0.233498 0.805385 0.074570 0.8 0 0
0.160240 0.491208 0.068979 0.8 0 0
0.423811 0.502681 0.130298 0.8 0 0
0.231423 0.891828 0.081775 0.8 0 0
0.239530 0.682734 0.078022 0.8 0 0
0.217521 0.566289 0.074578 0.8 0 0
0.194422 0.590003 0.162286 0.8 0 0
0.137698 0.521471 0.095176 0.8 0 0
0.190866 0.592554 0.148963 0.8 0 0
0.148346 0.326005 0.163354 0.8 0 0
0.159016 0.554891 0.069143 0.8 0 0
0.194523 0.715479 0.070376 0.8 0 0
0.218481 0.513664 0.158086 0.8 0 0
0.206575 0.712679 0.071464 0.8 0 0
0.033781 0.480308 0.101924 0.8 0 0
0.080625 0.503365 0.126985 0.8 0 0
0.162633 0.253816 0.084611 0.8 0 0
0.172571 0.140087 0.071164 0.8 0 0
0.283106 0.517680 0.105040 0.8 0 0
0.129928 0.468750 0.069155 0.8 0 0
0.025097 0.486549 0.137127 0.8 0 0
0.201442 0.609370 0.150320 0.8 0 0
0.134944 0.377061 0.163501 0.8 0 0
0.141597 0.653690 0.070044 0.8 0 0
0.128746 0.337196 0.150125 0.8 0 0
0.217759 0.574564 0.079975 0.8 0 0
0.247295 0.236268 0.077840 0.8 0 0
0.210913 0.867413 0.071256 0.8 0 0
0.115612 0.615569 0.077639 0.8 0 0
0.141100 0.528088 0.147455 0.8 0 0
0.025057 0.493017 0.148322 0.8 0 0
0.177870 0.313523 0.084755 0.8 0 0
0.237538 0.323936 0.078240 0.8 0 0
0.158759 0.786647 0.162308 0.8 0 0
0.133543 0.473967 0.107754 0.8 0 0
0.172457 0.456995 0.147978 0.8 0 0
0.211507 0.475666 0.159215 0.8 0 0
0.288062 0.514430 0.111232 0.8 0 0
0.196218 0.102150 0.161608 0.8 0 0
0.224765 0.273531 0.074054 0.8 0 0
0.157121 0.813611 0.161618 0.8 0 0
0.144417 0.676822 0.148191 0.8 0 0
0.147739 0.258108 0.071450 0.8 0 0
0.149239 0.298661 0.120200 0.8 0 0
0.025040 0.457163 0.133272 0.8 0 0
0.142892 0.706641 0.148582 0.8 0 0
0.246941 0.792112 0.155971 0.8 0 0
0.223017 0.605398 0.153610 0.8 0 0
0.177996 0.506920 0.085096 0.8 0 0
0.219199 0.518202 0.154228 0.8 0 0
0.158834 0.380477 0.069398 0.8 0 0
0.222953 0.430488 0.079134 0.8 0 0
0.249115 0.226921 0.155235 0.8 0 0
0.132771 0.587059 0.084933 0.8 0 0
0.249340 0.773835 0.077656 0.8 0 0
0.128024 0.432092 0.084901 0.8 0 0
0.145988 0.525700 0.090792 0.8 0 0
0.226946 0.233356 0.073977 0.8 0 0
0.057087 0.512445 0.078393 0.8 0 0
0.248565 0.228661 0.155567 0.8 0 0
0.075893 0.520732 0.084753 0.8 0 0
0.228737 0.076342 0.072667 0.8 0 0
0.233259 0.758891 0.075002 0.8 0 0
0.125218 0.450892 0.148021 0.8 0 0
0.297109 0.484838 0.078697 0.8 0 0
0.204745 0.932772 0.148529 0.8 0 0
0.130000 0.290051 0.077091 0.8 0 0
0.174932 0.299109 0.124252 0.8 0 0
0.062537 0.521271 0.084424 0.8 0 0
0.395409 0.490709 0.105777 0.8 0 0
0.212858 0.176952 0.161323 0.8 0 0
0.025107 0.473770 0.125925 0.8 0 0
0.204301 0.331577 0.071568 0.8 0 0
0.105414 0.555356 0.158188 0.8 0 0
0.180083 0.111182 0.148347 0.8 0 0
0.064491 0.494298 0.074165 0.8 0 0
0.443751 0.448974 0.102221 0.8 0 0
0.219677 0.295374 0.159384 0.8 0 0
0.211493 0.452617 0.152674 0.8 0 0
0.238145 0.916791 0.074147 0.8 0 0
0.068659 0.475704 0.082216 0.8 0 0
0.446646 0.499084 0.177024 0.8 0 0
0.148298 0.390877 0.164080 0.8 0 0
0.175394 0.480411 0.099299 0.8 0 0
0.187768 0.535767 0.084003 0.8 0 0
0.224954 0.461982 0.154821 0.8 0 0
0.167153 0.356161 0.069634 0.8 0 0
0.154455 0.233834 0.070929 0.8 0 0
0.212020 0.416585 0.080943 0.8 0 0
0.175662 0.224457 0.162679 0.8 0 0
0.177558 0.541523 0.085037 0.8 0 0
0.194643 0.207395 0.162261 0.8 0 0
0.159035 0.481532 0.090741 0.8 0 0
0.116813 0.419696 0.150091 0.8 0 0
0.053414 0.470601 0.094363 0.8 0 0
0.197544 0.220731 0.148404 0.8 0 0
0.145752 0.493628 0.147532 0.8 0 0
0.122069 0.554530 0.163743 0.8 0 0
0.050079 0.525128 0.109628 0.8 0 0
0.223349 0.914477 0.160457 0.8 0 0
0.122853 0.484637 0.069225 0.8 0 0
0.025049 0.452769 0.109671 0.8 0 0
0.184560 0.452385 0.163437 0.8 0 0
0.235867 0.727834 0.079118 0.8 0 0
0.185828 0.605423 0.069792 0.8 0 0
0.399121 0.490028 0.102271 0.8 0 0
0.261002 0.517474 0.078472 0.8 0 0
0.225128 0.663610 0.074740 0.8 0 0
0.185629 0.876975 0.161908 0.8 0 0
0.129245 0.660754 0.082285 0.8 0 0
0.259224 0.498016 0.118741 0.8 0 0
0.224823 0.474753 0.157225 0.8 0 0
0.165555 0.672110 0.084988 0.8 0 0
0.252614 0.133448 0.154483 0.8 0 0
0.171837 0.269323 0.070059 0.8 0 0
0.164620 0.892631 0.160332 0.8 0 0
0.371328 0.489255 0.106564 0.8 0 0
0.025104 0.472250 0.082603 0.8 0 0
0.438549 0.498140 0.163775 0.8 0 0
0.199740 0.162702 0.148442 0.8 0 0
0.025118 0.486269 0.128747 0.8 0 0
0.140095 0.284338 0.082708 0.8 0 0
0.204514 0.244897 0.162049 0.8 0 0
0.233955 0.697833 0.079041 0.8 0 0
0.224684 0.503024 0.155258 0.8 0 0
0.129232 0.618314 0.162926 0.8 0 0
0.076991 0.523377 0.091610 0.8 0 0
0.225499 0.110457 0.159941 0.8 0 0
0.229833 0.061792 0.159668 0.8 0 0
0.162060 0.757160 0.084516 0.8 0 0
0.168813 0.906606 0.149264 0.8 0 0
0.187346 0.548282 0.163024 0.8 0 0
0.203800 0.942919 0.161213 0.8 0 0
0.252195 0.895374 0.076470 0.8 0 0
0.172142 0.928452 0.160573 0.8 0 0
0.166324 0.251174 0.162964 0.8 0 0
0.133562 0.309638 0.149970 0.8 0 0
0.085148 0.497723 0.132546 0.8 0 0
0.386439 0.509630 0.102394 0.8 0 0
0.193705 0.176184 0.148341 0.8 0 0
0.184487 0.113791 0.161872 0.8 0 0
0.220702 0.169675 0.150191 0.8 0 0
0.249498 0.090343 0.079280 0.8 0 0
0.238614 0.169254 0.152872 0.8 0 0
0.228305 0.070084 0.159833 0.8 0 0
0.025113 0.467389 0.102312 0.8 0 0
0.111718 0.444977 0.161654 0.8 0 0
0.222460 0.254378 0.159284 0.8 0 0
0.217651 0.970912 0.148745 0.8 0 0
0.043911 0.504836 0.078923 0.8 0 0
0.025027 0.454339 0.061717 0.8 0 0
0.212057 0.356955 0.151452 0.8 0 0
0.125053 0.380716 0.082765 0.8 0 0
0.209067 0.204241 0.083963 0.8 0 0
0.216662 0.877179 0.071391 0.8 0 0
0.238940 0.476203 0.093582 0.8 0 0
0.120757 0.570722 0.083450 0.8 0 0
0.190347 0.548311 0.149489 0.8 0 0
0.235362 0.778587 0.153096 0.8 0 0
0.190734 0.135908 0.070906 0.8 0 0
0.152718 0.804245 0.082416 0.8 0 0
0.452039 0.501348 0.122606 0.8 0 0
0.250374 0.966954 0.156809 0.8 0 0
0.159828 0.839342 0.161253 0.8 0 0
0.087045 0.478853 0.086375 0.8 0 0
0.192408 0.657049 0.163105 0.8 0 0
0.122563 0.353751 0.151121 0.8 0 0
0.249646 0.205162 0.155586 0.8 0 0
0.200198 0.106062 0.071183 0.8 0 0
0.172769 0.935859 0.082240 0.8 0 0
0.138078 0.245825 0.159548 0.8 0 0
0.244704 0.270570 0.155169 0.8 0 0
0.448140 0.421401 0.102906 0.8 0 0
0.248007 0.508706 0.116375 0.8 0 0
0.185806 0.306248 0.084609 0.8 0 0
0.182412 0.749667 0.148151 0.8 0 0
0.173568 0.670473 0.148001 0.8 0 0
0.176775 0.301385 0.098631 0.8 0 0
0.129176 0.489467 0.164708 0.8 0 0
0.222089 0.903437 0.083316 0.8 0 0
0.153408 0.754866 0.084124 0.8 0 0
0.446547 0.520318 0.104781 0.8 0 0
0.196055 0.659542 0.148826 0.8 0 0
0.061181 0.495968 0.127562 0.8 0 0
0.247342 0.801289 0.154583 0.8 0 0
0.120656 0.520509 0.111669 0.8 0 0
0.167670 0.611936 0.147901 0.8 0 0
0.170114 0.875801 0.148597 0.8 0 0
0.162273 0.699060 0.163357 0.8 0 0
0.238294 0.947602 0.158471 0.8 0 0
0.229936 0.187665 0.158678 0.8 0 0
0.449297 0.429275 0.102554 0.8 0 0
0.201352 0.512548 0.073108 0.8 0 0
0.099435 0.473274 0.157099 0.8 0 0
0.144764 0.300090 0.099161 0.8 0 0
0.177728 0.839864 0.162228 0.8 0 0
0.134867 0.409634 0.069607 0.8 0 0
0.206428 0.427234 0.151567 0.8 0 0
0.171867 0.553979 0.164061 0.8 0 0
0.147292 0.690420 0.148182 0.8 0 0
0.047633 0.527915 0.090662 0.8 0 0
0.222001 0.401850 0.153557 0.8 0 0
0.120813 0.614661 0.161371 0.8 0 0
0.157603 0.504129 0.069048 0.8 0 0
0.235610 0.884342 0.081056 0.8 0 0
0.166961 0.496480 0.078972 0.8 0 0
0.161715 0.520729 0.107161 0.8 0 0
0.125538 0.345213 0.080700 0.8 0 0
0.193201 0.394380 0.084035 0.8 0 0
0.054210 0.521255 0.117775 0.8 0 0
0.143551 0.562010 0.147497 0.8 0 0
0.219154 0.511479 0.079000 0.8 0 0
0.230822 0.047143 0.072686 0.8 0 0
0.228542 0.128983 0.150811 0.8 0 0
0.196930 0.762226 0.070603 0.8 0 0
0.261296 0.939250 0.077394 0.8 0 0
0.194228 0.611080 0.070633 0.8 0 0
0.202446 0.513012 0.151786 0.8 0 0
0.185809 0.073795 0.083879 0.8 0 0
0.150829 0.643364 0.163759 0.8 0 0
0.122063 0.527979 0.094500 0.8 0 0
0.134787 0.508184 0.164874 0.8 0 0
0.169669 0.697795 0.097138 0.8 0 0
0.424060 0.520178 0.104663 0.8 0 0
0.207258 0.059990 0.071485 0.8 0 0
0.228070 0.860275 0.159329 0.8 0 0
0.132400 0.747217 0.156327 0.8 0 0
0.200370 0.246521 0.162398 0.8 0 0
0.252597 0.152217 0.078064 0.8 0 0
0.111055 0.489179 0.123472 0.8 0 0
0.168952 0.405862 0.085080 0.8 0 0
0.142101 0.721178 0.082934 0.8 0 0
0.145322 0.323207 0.148161 0.8 0 0
0.201318 0.326208 0.161900 0.8 0 0
0.222547 0.818337 0.159833 0.8 0 0
0.179010 0.295975 0.070072 0.8 0 0
0.206134 0.517868 0.152273 0.8 0 0
0.053476 0.530674 0.097538 0.8 0 0
0.140488 0.499992 0.164906 0.8 0 0
0.281469 0.480285 0.086689 0.8 0 0
0.220313 0.857746 0.072066 0.8 0 0
0.144768 0.729368 0.083207 0.8 0 0
0.181266 0.926611 0.161344 0.8 0 0
0.222828 0.587158 0.075164 0.8 0 0
0.260588 0.056457 0.155095 0.8 0 0
0.158219 0.682509 0.084964 0.8 0 0
0.164460 0.295374 0.147850 0.8 0 0
0.202638 0.448993 0.151296 0.8 0 0
0.247780 0.801205 0.078222 0.8 0 0
0.215184 0.308711 0.151262 0.8 0 0
0.132359 0.499690 0.092879 0.8 0 0
0.185244 0.501314 0.114146 0.8 0 0
0.025066 0.478149 0.061256 0.8 0 0
0.053048 0.487114 0.123034 0.8 0 0
0.224138 0.409403 0.153980 0.8 0 0
0.221219 0.926335 0.148957 0.8 0 0
0.187332 0.344762 0.070016 0.8 0 0
0.187364 0.827069 0.084328 0.8 0 0
0.163310 0.795408 0.084230 0.8 0 0
0.178463 0.290375 0.070085 0.8 0 0
0.204794 0.172821 0.161886 0.8 0 0
0.025030 0.451877 0.144910 0.8 0 0
0.165803 0.298405 0.126242 0.8 0 0
0.207910 0.478256 0.085043 0.8 0 0
0.167538 0.504441 0.123030 0.8 0 0
0.109389 0.409273 0.154668 0.8 0 0
0.239262 0.279239 0.156571 0.8 0 0
0.169113 0.350794 0.147926 0.8 0 0
0.189576 0.130868 0.148274 0.8 0 0
0.120762 0.636621 0.075350 0.8 0 0
0.192871 0.243712 0.070512 0.8 0 0
0.202133 0.311769 0.149346 0.8 0 0
0.115619 0.457850 0.149211 0.8 0 0
0.217667 0.128911 0.160974 0.8 0 0
0.137195 0.292809 0.082398 0.8 0 0
0.190038 0.346958 0.084616 0.8 0 0
0.157115 0.518827 0.091498 0.8 0 0
0.223435 0.640639 0.158325 0.8 0 0
0.178395 0.635326 0.069787 0.8 0 0
0.233915 0.424987 0.155660 0.8 0 0
0.039759 0.513039 0.072180 0.8 0 0
0.417762 0.496302 0.122740 0.8 0 0
0.135954 0.574622 0.164158 0.8 0 0
0.258212 0.516610 0.075868 0.8 0 0
0.223569 0.937998 0.083512 0.8 0 0
0.223635 0.956024 0.071822 0.8 0 0
0.186616 0.798375 0.162360 0.8 0 0
0.256692 0.132781 0.155085 0.8 0 0
0.159771 0.191421 0.071303 0.8 0 0
0.198332 0.936281 0.083936 0.8 0 0
0.220184 0.811464 0.072512 0.8 0 0
0.398424 0.503353 0.130118 0.8 0 0
0.194596 0.585357 0.070947 0.8 0 0
0.189220 0.705902 0.148263 0.8 0 0
0.151265 0.241067 0.083566 0.8 0 0
0.250690 0.075877 0.079277 0.8 0 0
0.176640 0.042700 0.149185 0.8 0 0
0.199283 0.851090 0.084083 0.8 0 0
0.177830 0.480711 0.101649 0.8 0 0
0.224869 0.521654 0.102734 0.8 0 0
0.217929 0.166796 0.071955 0.8 0 0
0.178168 0.488143 0.096651 0.8 0 0
0.195151 0.510664 0.118752 0.8 0 0
0.123666 0.452398 0.084767 0.8 0 0
0.172118 0.513238 0.085182 0.8 0 0
0.213405 0.949341 0.161015 0.8 0 0
0.028718 0.494756 0.093979 0.8 0 0
0.192027 0.479181 0.108678 0.8 0 0
0.158062 0.697617 0.148587 0.8 0 0
0.220105 0.626432 0.158715 0.8 0 0
0.218306 0.947187 0.071698 0.8 0 0
0.126402 0.317858 0.152104 0.8 0 0
0.128734 0.304492 0.151838 0.8 0 0
0.127697 0.613226 0.148880 0.8 0 0
0.156115 0.620790 0.085243 0.8 0 0
0.037817 0.485492 0.122432 0.8 0 0
0.188410 0.314663 0.084581 0.8 0 0
0.185448 0.933569 0.161371 0.8 0 0
0.241237 0.755514 0.076232 0.8 0 0
0.185509 0.486846 0.070310 0.8 0 0
0.193658 0.134599 0.070960 0.8 0 0
0.202840 0.029827 0.161067 0.8 0 0
0.228038 0.370697 0.079097 0.8 0 0
0.219456 0.481289 0.110854 0.8 0 0
0.195554 0.499412 0.071943 0.8 0 0
0.188797 0.896893 0.161737 0.8 0 0
0.161985 0.744187 0.162908 0.8 0 0
0.177528 0.684578 0.163189 0.8 0 0
0.234878 0.609138 0.076750 0.8 0 0
0.452507 0.493635 0.102459 0.8 0 0
0.056092 0.480531 0.121091 0.8 0 0
0.052964 0.474281 0.097458 0.8 0 0
0.446230 0.441397 0.102252 0.8 0 0
0.241919 0.777964 0.154088 0.8 0 0
0.212352 0.493671 0.079958 0.8 0 0
0.191973 0.276809 0.084450 0.8 0 0
0.178494 0.315493 0.084748 0.8 0 0
0.432142 0.499985 0.172219 0.8 0 0
0.156688 0.205264 0.148530 0.8 0 0
0.179911 0.335964 0.148106 0.8 0 0
0.204266 0.382517 0.072075 0.8 0 0
0.237092 0.175731 0.074919 0.8 0 0
0.207979 0.480479 0.079414 0.8 0 0
0.025037 0.473631 0.150186 0.8 0 0
0.036926 0.480745 0.120590 0.8 0 0
0.210264 0.932186 0.071504 0.8 0 0
0.189021 0.510297 0.070866 0.8 0 0
0.421305 0.504061 0.090493 0.8 0 0
0.191544 0.940193 0.071369 0.8 0 0
0.080323 0.483481 0.073733 0.8 0 0
0.091842 0.495102 0.126029 0.8 0 0
0.137447 0.523188 0.164773 0.8 0 0
0.164119 0.271165 0.163133 0.8 0 0
0.149964 0.551891 0.147604 0.8 0 0
0.162249 0.435681 0.085249 0.8 0 0
0.173031 0.162025 0.070919 0.8 0 0
0.160864 0.298347 0.139448 0.8 0 0
0.262411 0.955700 0.077902 0.8 0 0
0.219942 0.830306 0.072286 0.8 0 0
0.122517 0.427069 0.070769 0.8 0 0
0.210459 0.367653 0.151358 0.8 0 0
0.174490 0.380280 0.084939 0.8 0 0
0.204290 0.507793 0.152134 0.8 0 0
0.025082 0.470070 0.135747 0.8 0 0
0.200923 0.973724 0.161077 0.8 0 0
0.195966 0.362232 0.149110 0.8 0 0
0.148446 0.516802 0.086157 0.8 0 0
0.202725 0.887409 0.083956 0.8 0 0
0.249065 0.971332 0.157039 0.8 0 0
0.101462 0.485270 0.078702 0.8 0 0
0.140078 0.516869 0.085709 0.8 0 0
0.037567 0.514811 0.111025 0.8 0 0
0.179814 0.698959 0.080473 0.8 0 0
0.037626 0.502598 0.118797 0.8 0 0
0.249060 0.163224 0.154356 0.8 0 0
0.078612 0.508518 0.125707 0.8 0 0
0.229903 0.489956 0.077370 0.8 0 0
0.175864 0.301487 0.106608 0.8 0 0
0.132666 0.380097 0.084268 0.8 0 0
0.200745 0.652352 0.149628 0.8 0 0
0.230355 0.493770 0.099135 0.8 0 0
0.086696 0.478901 0.113556 0.8 0 0
0.175358 0.219467 0.070317 0.8 0 0
0.219653 0.721333 0.073338 0.8 0 0
0.142167 0.284980 0.148973 0.8 0 0
0.169708 0.653704 0.069716 0.8 0 0
0.196147 0.214063 0.162276 0.8 0 0
0.255549 0.072022 0.078595 0.8 0 0
0.149961 0.698875 0.070237 0.8 0 0
0.224117 0.041511 0.148952 0.8 0 0
0.228354 0.815995 0.081315 0.8 0 0
0.144493 0.388273 0.069509 0.8 0 0
0.153888 0.616618 0.163988 0.8 0 0
0.166846 0.925657 0.080886 0.8 0 0
0.228728 0.321896 0.075134 0.8 0 0
0.206882 0.172719 0.161851 0.8 0 0
0.169929 0.371640 0.069618 0.8 0 0
0.242675 0.829560 0.079332 0.8 0 0
0.383142 0.505290 0.111279 0.8 0 0
0.168084 0.508005 0.121481 0.8 0 0
0.189533 0.421327 0.084259 0.8 0 0
0.195437 0.322473 0.084479 0.8 0 0
0.403230 0.501857 0.138379 0.8 0 0
0.213530 0.504373 0.074601 0.8 0 0
0.204220 0.586755 0.160791 0.8 0 0
0.211405 0.830543 0.148793 0.8 0 0
0.195921 0.429517 0.071295 0.8 0 0
0.105367 0.507603 0.091019 0.8 0 0
0.167696 0.852998 0.148533 0.8 0 0
0.156759 0.557226 0.164294 0.8 0 0
0.173653 0.482462 0.074909 0.8 0 0
0.128845 0.607268 0.148476 0.8 0 0
0.223863 0.477859 0.100859 0.8 0 0
0.140586 0.496792 0.068372 0.8 0 0
0.150033 0.320728 0.070030 0.8 0 0
0.101658 0.491914 0.125204 0.8 0 0
0.224623 0.241476 0.159059 0.8 0 0
0.177815 0.465707 0.164079 0.8 0 0
0.160955 0.649656 0.163674 0.8 0 0
0.185676 0.609504 0.084772 0.8 0 0
0.134819 0.603484 0.148046 0.8 0 0
0.169509 0.561271 0.147930 0.8 0 0
0.181737 0.345593 0.069919 0.8 0 0
0.157814 0.627783 0.085201 0.8 0 0
0.431471 0.504358 0.104804 0.8 0 0
0.025003 0.485189 0.171878 0.8 0 0
0.453857 0.499161 0.110431 0.8 0 0
0.184085 0.300535 0.114276 0.8 0 0
0.191757 0.313396 0.084523 0.8 0 0
0.221755 0.222543 0.159636 0.8 0 0
0.419582 0.507012 0.101899 0.8 0 0
0.152188 0.434989 0.147641 0.8 0 0
0.156905 0.562926 0.069140 0.8 0 0
0.178909 0.819946 0.148095 0.8 0 0
0.205796 0.887006 0.148545 0.8 0 0
0.181829 0.163334 0.070648 0.8 0 0
0.163623 0.185131 0.084037 0.8 0 0
0.055601 0.518454 0.081400 0.8 0 0
0.129180 0.374336 0.162657 0.8 0 0
0.184044 0.097942 0.071221 0.8 0 0
0.151919 0.512600 0.072670 0.8 0 0
0.210539 0.210559 0.083665 0.8 0 0
0.161232 0.371263 0.163794 0.8 0 0
0.132557 0.669169 0.072022 0.8 0 0
0.212676 0.255519 0.072059 0.8 0 0
0.170523 0.411302 0.163877 0.8 0 0
0.127573 0.576492 0.148117 0.8 0 0
0.229667 0.733660 0.080119 0.8 0 0
0.086270 0.522373 0.090289 0.8 0 0
0.182132 0.483418 0.116348 0.8 0 0
0.037746 0.471814 0.097912 0.8 0 0
0.119698 0.343937 0.154131 0.8 0 0
0.187325 0.506466 0.100415 0.8 0 0
0.244147 0.051618 0.074730 0.8 0 0
0.172850 0.493192 0.085182 0.8 0 0
0.187351 0.733308 0.070328 0.8 0 0
0.190489 0.789445 0.148287 0.8 0 0
0.204051 0.166331 0.071007 0.8 0 0
0.227597 0.815336 0.151430 0.8 0 0
0.037770 0.521185 0.116867 0.8 0 0
0.144653 0.480908 0.068761 0.8 0 0
0.154053 0.373539 0.147674 0.8 0 0
0.230336 0.532503 0.077578 0.8 0 0
0.144395 0.503798 0.124628 0.8 0 0
0.129508 0.481735 0.084517 0.8 0 0
0.415514 0.501697 0.110193 0.8 0 0
0.045615 0.474337 0.110879 0.8 0 0
0.215318 0.112900 0.071408 0.8 0 0
0.172896 0.913578 0.148744 0.8 0 0
0.178203 0.296707 0.148079 0.8 0 0
0.151962 0.498877 0.068811 0.8 0 0
0.038983 0.477348 0.118391 0.8 0 0
0.411688 0.496890 0.126745 0.8 0 0
0.193991 0.048644 0.148350 0.8 0 0
0.222454 0.381033 0.158305 0.8 0 0
0.167837 0.875111 0.083186 0.8 0 0
0.208677 0.146335 0.071164 0.8 0 0
0.110052 0.503268 0.073291 0.8 0 0
0.160180 0.261336 0.148058 0.8 0 0
0.025127 0.478521 0.089158 0.8 0 0
0.050536 0.478635 0.087219 0.8 0 0
0.259080 0.912607 0.154823 0.8 0 0
0.204746 0.816403 0.084058 0.8 0 0
0.179903 0.485594 0.111270 0.8 0 0
0.139427 0.764265 0.151382 0.8 0 0
0.218294 0.696537 0.159529 0.8 0 0
0.215021 0.466012 0.153386 0.8 0 0
0.025055 0.453390 0.100652 0.8 0 0
0.161876 0.380561 0.069449 0.8 0 0
0.196654 0.655614 0.148970 0.8 0 0
0.139528 0.523317 0.109627 0.8 0 0
0.200025 0.568625 0.082563 0.8 0 0
0.122727 0.497785 0.092911 0.8 0 0
0.233256 0.382433 0.076422 0.8 0 0
0.111088 0.554718 0.161539 0.8 0 0
0.134835 0.531067 0.085483 0.8 0 0
0.102405 0.498034 0.091129 0.8 0 0
0.169121 0.715001 0.069951 0.8 0 0
0.457651 0.497054 0.095295 0.8 0 0
0.203012 0.584273 0.082305 0.8 0 0
0.238372 0.387629 0.155866 0.8 0 0
0.209866 0.090582 0.161312 0.8 0 0
0.190886 0.818685 0.148294 0.8 0 0
0.232859 0.850386 0.074022 0.8 0 0
0.232424 0.384759 0.156781 0.8 0 0
0.231899 0.491307 0.071357 0.8 0 0
0.169646 0.411201 0.163891 0.8 0 0
0.103727 0.467596 0.076004 0.8 0 0
0.196394 0.905634 0.148389 0.8 0 0
0.065897 0.494065 0.074267 0.8 0 0
0.185066 0.718786 0.070232 0.8 0 0
0.182018 0.131926 0.070934 0.8 0 0
0.025100 0.470795 0.082411 0.8 0 0
0.392340 0.480530 0.103721 0.8 0 0
0.163750 0.648916 0.163631 0.8 0 0
0.237964 0.259023 0.078963 0.8 0 0
0.313301 0.484892 0.083247 0.8 0 0
0.120042 0.667573 0.155109 0.8 0 0
0.241974 0.302265 0.077837 0.8 0 0
0.117300 0.509678 0.164269 0.8 0 0
0.025047 0.451099 0.126886 0.8 0 0
0.166697 0.946442 0.150918 0.8 0 0
0.163530 0.163064 0.148570 0.8 0 0
0.173691 0.807861 0.084438 0.8 0 0
0.194269 0.660163 0.084532 0.8 0 0
0.116943 0.426295 0.082593 0.8 0 0
0.160281 0.448804 0.164271 0.8 0 0
0.110408 0.431699 0.160284 0.8 0 0
0.133296 0.281144 0.079336 0.8 0 0
0.324937 0.506143 0.113105 0.8 0 0
0.118228 0.404709 0.081894 0.8 0 0
0.452016 0.498346 0.149794 0.8 0 0
0.252215 0.925538 0.153617 0.8 0 0
0.165942 0.391500 0.163836 0.8 0 0
0.200359 0.946342 0.071395 0.8 0 0
0.143578 0.201272 0.078062 0.8 0 0
0.247835 0.857086 0.156340 0.8 0 0
0.223219 0.197754 0.081919 0.8 0 0
0.174901 0.501896 0.068088 0.8 0 0
0.222513 0.315986 0.080590 0.8 0 0
0.189801 0.097120 0.148279 0.8 0 0
0.200715 0.365040 0.083264 0.8 0 0
0.153048 0.697682 0.158347 0.8 0 0
0.194654 0.039641 0.148361 0.8 0 0
0.131492 0.623721 0.148430 0.8 0 0
0.171254 0.040178 0.159289 0.8 0 0
0.064264 0.518374 0.079997 0.8 0 0
0.156695 0.302414 0.106109 0.8 0 0
0.127804 0.542592 0.085161 0.8 0 0
0.336117 0.498602 0.076723 0.8 0 0
0.184817 0.761134 0.148191 0.8 0 0
0.241156 0.329776 0.077626 0.8 0 0
0.226434 0.511666 0.116325 0.8 0 0
0.238214 0.099773 0.158117 0.8 0 0
0.289454 0.480579 0.098986 0.8 0 0
0.125112 0.476157 0.084163 0.8 0 0
0.173342 0.481075 0.075561 0.8 0 0
0.159610 0.196783 0.071154 0.8 0 0
0.136566 0.370894 0.069955 0.8 0 0
0.148210 0.680553 0.084704 0.8 0 0
0.170861 0.632920 0.084974 0.8 0 0
0.183584 0.483807 0.105641 0.8 0 0
0.191854 0.110239 0.148312 0.8 0 0
0.207968 0.483639 0.152569 0.8 0 0
0.452389 0.499396 0.106253 0.8 0 0
0.183368 0.941797 0.071659 0.8 0 0
0.178163 0.681974 0.069970 0.8 0 0
0.238231 0.351301 0.155301 0.8 0 0
0.186137 0.735054 0.148212 0.8 0 0
0.211676 0.553631 0.159416 0.8 0 0
0.120745 0.497330 0.085235 0.8 0 0
0.207714 0.851779 0.071140 0.8 0 0
0.033105 0.484872 0.095189 0.8 0 0
0.025130 0.494971 0.127888 0.8 0 0
0.117844 0.412068 0.082320 0.8 0 0
0.150590 0.703452 0.163080 0.8 0 0
0.213594 0.477314 0.100874 0.8 0 0
0.245150 0.243013 0.154859 0.8 0 0
0.224978 0.113907 0.159993 0.8 0 0
0.212662 0.634397 0.081465 0.8 0 0
0.159161 0.800941 0.162120 0.8 0 0
0.455909 0.509867 0.105070 0.8 0 0
0.045119 0.529917 0.100608 0.8 0 0
0.187627 0.827194 0.148240 0.8 0 0
0.219095 0.099856 0.071523 0.8 0 0
0.227145 0.309555 0.074773 0.8 0 0
0.157001 0.420427 0.069208 0.8 0 0
0.139583 0.371683 0.148045 0.8 0 0
0.203193 0.322627 0.161646 0.8 0 0
0.218884 0.293907 0.073376 0.8 0 0
0.176497 0.380497 0.148048 0.8 0 0
0.141586 0.497217 0.068645 0.8 0 0
0.238348 0.521396 0.087444 0.8 0 0
0.127082 0.380730 0.083171 0.8 0 0
0.197014 0.321586 0.070374 0.8 0 0
0.222085 0.495049 0.069559 0.8 0 0
0.217287 0.492751 0.115746 0.8 0 0
0.455795 0.501890 0.120443 0.8 0 0
0.234206 0.087276 0.081611 0.8 0 0
0.213001 0.867976 0.071293 0.8 0 0
0.071740 0.527990 0.104606 0.8 0 0
0.229350 0.189303 0.158754 0.8 0 0
0.219783 0.678892 0.073785 0.8 0 0
0.165651 0.404837 0.147867 0.8 0 0
0.167945 0.506199 0.080047 0.8 0 0
0.184771 0.378294 0.148186 0.8 0 0
0.179933 0.704235 0.163032 0.8 0 0
0.145085 0.313567 0.148230 0.8 0 0
0.424812 0.498679 0.109850 0.8 0 0
0.091702 0.487681 0.108977 0.8 0 0
0.213532 0.910041 0.148675 0.8 0 0
0.178838 0.373191 0.148087 0.8 0 0
0.195275 0.499977 0.150888 0.8 0 0
0.167192 0.377184 0.069551 0.8 0 0
0.143901 0.381918 0.147836 0.8 0 0
0.153866 0.481804 0.088974 0.8 0 0
0.145988 0.301413 0.082920 0.8 0 0
0.190373 0.064944 0.083928 0.8 0 0
0.252700 0.921783 0.156110 0.8 0 0
0.177852 0.475552 0.089684 0.8 0 0
0.114441 0.467331 0.149168 0.8 0 0
0.160949 0.697653 0.145661 0.8 0 0
0.314381 0.485510 0.107594 0.8 0 0
0.066283 0.516017 0.122551 0.8 0 0
0.143787 0.632898 0.163701 0.8 0 0
0.229498 0.155609 0.081488 0.8 0 0
0.442487 0.574285 0.103769 0.8 0 0
0.197093 0.881353 0.148400 0.8 0 0
0.098898 0.491035 0.094937 0.8 0 0
0.025123 0.492433 0.104719 0.8 0 0
0.109110 0.514601 0.121435 0.8 0 0
0.126310 0.396487 0.162864 0.8 0 0
0.221101 0.076738 0.160862 0.8 0 0
0.162097 0.825127 0.083627 0.8 0 0
0.191221 0.882639 0.084157 0.8 0 0
0.134955 0.476505 0.100298 0.8 0 0
0.140356 0.472481 0.094643 0.8 0 0
0.248384 0.873510 0.156384 0.8 0 0
0.201373 0.486860 0.081687 0.8 0 0
0.156324 0.700915 0.147947 0.8 0 0
0.165774 0.288169 0.163223 0.8 0 0
0.118369 0.597860 0.161474 0.8 0 0
0.229704 0.561224 0.076456 0.8 0 0
0.220822 0.601382 0.158414 0.8 0 0
0.115714 0.501345 0.127675 0.8 0 0
0.152361 0.161519 0.079993 0.8 0 0
0.252039 0.107833 0.154046 0.8 0 0
0.240415 0.676358 0.156055 0.8 0 0
0.180601 0.837733 0.162226 0.8 0 0
0.151988 0.697715 0.153458 0.8 0 0
0.052170 0.503375 0.076106 0.8 0 0
0.233514 0.827078 0.158256 0.8 0 0
0.035992 0.487864 0.122303 0.8 0 0
0.227155 0.958909 0.083229 0.8 0 0
0.164444 0.226791 0.162644 0.8 0 0
0.405174 0.487817 0.102243 0.8 0 0
0.226229 0.805826 0.151354 0.8 0 0
0.292934 0.483670 0.106799 0.8 0 0
0.373611 0.489200 0.088895 0.8 0 0
0.457757 0.493780 0.101810 0.8 0 0
0.161799 0.548978 0.164259 0.8 0 0
0.171662 0.119148 0.071413 0.8 0 0
0.132910 0.707937 0.074559 0.8 0 0
0.258593 0.097520 0.077829 0.8 0 0
0.192449 0.102861 0.148323 0.8 0 0
0.105818 0.548572 0.152857 0.8 0 0
0.116719 0.523768 0.163757 0.8 0 0
0.043056 0.485334 0.072852 0.8 0 0
0.210326 0.159900 0.083920 0.8 0 0
0.451537 0.583980 0.102880 0.8 0 0
0.404634 0.474820 0.102624 0.8 0 0
0.025040 0.462310 0.059486 0.8 0 0
0.155644 0.541044 0.069032 0.8 0 0
0.235972 0.352171 0.154974 0.8 0 0
0.436113 0.434310 0.103014 0.8 0 0
0.150540 0.813321 0.150181 0.8 0 0
0.217796 0.083392 0.071567 0.8 0 0
0.180206 0.776935 0.148115 0.8 0 0
0.232101 0.536003 0.156216 0.8 0 0
0.164842 0.112014 0.082177 0.8 0 0
0.238139 0.065703 0.081283 0.8 0 0
0.036970 0.493506 0.087647 0.8 0 0
0.126645 0.591945 0.148467 0.8 0 0
0.126038 0.680229 0.159119 0.8 0 0
0.158320 0.765266 0.084303 0.8 0 0
0.198786 0.454579 0.082467 0.8 0 0
0.128275 0.520780 0.110215 0.8 0 0
0.152419 0.761757 0.148463 0.8 0 0
0.243637 0.769642 0.078460 0.8 0 0
0.193419 0.300723 0.162837 0.8 0 0
0.153038 0.524144 0.085479 0.8 0 0
0.156489 0.316930 0.163456 0.8 0 0
0.189006 0.195165 0.084343 0.8 0 0
0.223571 0.701492 0.074126 0.8 0 0
0.183154 0.765195 0.084516 0.8 0 0
0.025070 0.471778 0.128886 0.8 0 0
0.135769 0.494222 0.164926 0.8 0 0
0.220307 0.443412 0.153870 0.8 0 0
0.397591 0.503492 0.127912 0.8 0 0
0.043694 0.478697 0.118553 0.8 0 0
0.127818 0.455806 0.147904 0.8 0 0
0.248525 0.923900 0.153086 0.8 0 0
0.125040 0.539221 0.164225 0.8 0 0
0.228136 0.102585 0.159607 0.8 0 0
0.158720 0.290184 0.147924 0.8 0 0
0.164954 0.519796 0.085289 0.8 0 0
0.208965 0.830876 0.161794 0.8 0 0
0.167172 0.081647 0.081677 0.8 0 0
0.199097 0.522517 0.087216 0.8 0 0
0.100072 0.477709 0.090943 0.8 0 0
0.237258 0.842227 0.157811 0.8 0 0
0.188569 0.470970 0.162692 0.8 0 0
0.101002 0.475138 0.101945 0.8 0 0
0.160379 0.247934 0.084511 0.8 0 0
0.132423 0.637305 0.162895 0.8 0 0
0.137701 0.657123 0.070585 0.8 0 0
0.193976 0.255479 0.148343 0.8 0 0
0.130807 0.522958 0.082746 0.8 0 0
0.424143 0.511410 0.104720 0.8 0 0
0.204784 0.027740 0.148531 0.8 0 0
0.358589 0.486665 0.101969 0.8 0 0
0.188685 0.458154 0.070498 0.8 0 0
0.150628 0.466824 0.147614 0.8 0 0
0.172219 0.497048 0.085200 0.8 0 0
0.140932 0.516958 0.074424 0.8 0 0
0.171376 0.911458 0.072468 0.8 0 0
0.175738 0.781414 0.162642 0.8 0 0
0.425219 0.501049 0.109962 0.8 0 0
0.148603 0.198494 0.160341 0.8 0 0
0.232168 0.604086 0.078172 0.8 0 0
0.204234 0.194616 0.070897 0.8 0 0
0.185331 0.300384 0.132703 0.8 0 0
0.262780 0.477652 0.091814 0.8 0 0
0.163503 0.356808 0.085077 0.8 0 0
0.182503 0.289053 0.162950 0.8 0 0
0.199574 0.454922 0.150917 0.8 0 0
0.232419 0.841183 0.081011 0.8 0 0
0.145561 0.301032 0.119452 0.8 0 0
0.132943 0.538627 0.147697 0.8 0 0
0.148408 0.681185 0.148086 0.8 0 0
0.109942 0.498860 0.067324 0.8 0 0
0.239350 0.656512 0.155362 0.8 0 0
0.066491 0.516778 0.079023 0.8 0 0
0.140654 0.488264 0.147447 0.8 0 0
0.164027 0.517066 0.085310 0.8 0 0
0.170592 0.697916 0.135120 0.8 0 0
0.225593 0.970782 0.149006 0.8 0 0
0.103179 0.489174 0.132671 0.8 0 0
0.149025 0.612121 0.085247 0.8 0 0
0.122798 0.400386 0.162298 0.8 0 0
0.131204 0.597473 0.069863 0.8 0 0
0.178170 0.954879 0.148830 0.8 0 0
0.245892 0.498434 0.092778 0.8 0 0
0.235902 0.694261 0.156870 0.8 0 0
0.182206 0.575127 0.084896 0.8 0 0
0.191094 0.435596 0.070632 0.8 0 0
0.025064 0.498668 0.154363 0.8 0 0
0.187684 0.873699 0.148242 0.8 0 0
0.036983 0.491184 0.084500 0.8 0 0
0.100740 0.497989 0.072599 0.8 0 0
0.186998 0.938237 0.161357 0.8 0 0
0.128734 0.671096 0.160965 0.8 0 0
0.180404 0.791707 0.162503 0.8 0 0
0.239845 0.360825 0.155673 0.8 0 0
0.145033 0.353592 0.147978 0.8 0 0
0.186950 0.311595 0.084600 0.8 0 0
0.167053 0.263413 0.070060 0.8 0 0
0.233851 0.256103 0.153343 0.8 0 0
0.429306 0.500012 0.110226 0.8 0 0
0.202272 0.647887 0.161556 0.8 0 0
0.138146 0.486198 0.121548 0.8 0 0
0.113156 0.407591 0.152203 0.8 0 0
0.229533 0.667718 0.153736 0.8 0 0
0.169134 0.865162 0.083761 0.8 0 0
0.223778 0.890964 0.160211 0.8 0 0
0.236026 0.079753 0.151261 0.8 0 0
0.220328 0.936309 0.160977 0.8 0 0
0.127204 0.500503 0.085515 0.8 0 0
0.025161 0.493970 0.115575 0.8 0 0
0.423143 0.502709 0.129891 0.8 0 0
0.450599 0.529387 0.104744 0.8 0 0
0.183587 0.300596 0.105006 0.8 0 0
0.154589 0.527367 0.085447 0.8 0 0
0.206723 0.907765 0.148561 0.8 0 0
