0.034218 0.478328 0.123362 0.8 0 0
0.673289 0.423123 0.068460 0.8 0 0
0.202170 0.817674 0.176680 0.8 0 0
0.250920 0.955097 0.177490 0.8 0 0
0.246921 0.554146 0.054476 0.8 0 0
0.236745 0.601489 0.025816 0.8 0 0
0.278142 0.561595 0.030788 0.8 0 0
0.239025 0.150886 0.025331 0.8 0 0
0.274134 0.287404 0.183262 0.8 0 0
0.639017 0.476787 0.071076 0.8 0 0
0.224242 0.184047 0.192474 0.8 0 0
0.202212 0.183469 0.192734 0.8 0 0
0.189386 0.447353 0.107139 0.8 0 0
0.058810 0.454568 0.119727 0.8 0 0
0.212012 0.353586 0.176550 0.8 0 0
0.666986 0.493979 0.037496 0.8 0 0
0.198473 0.568278 0.176256 0.8 0 0
0.634781 0.494430 0.087999 0.8 0 0
0.181925 0.489907 0.144139 0.8 0 0
0.254876 0.711733 0.041851 0.8 0 0
0.239686 0.855594 0.041544 0.8 0 0
0.261682 0.945052 0.177645 0.8 0 0
0.603377 0.494117 0.075118 0.8 0 0
0.123455 0.507212 0.178003 0.8 0 0
0.203221 0.727548 0.026530 0.8 0 0
0.075168 0.543439 0.045601 0.8 0 0
0.339011 0.818455 0.033284 0.8 0 0
0.177925 0.607302 0.040490 0.8 0 0
0.269651 0.969724 0.192630 0.8 0 0
0.549371 0.469918 0.060102 0.8 0 0
0.236745 0.311527 0.178538 0.8 0 0
0.200924 0.689876 0.176428 0.8 0 0
0.203114 0.796138 0.176579 0.8 0 0
0.501642 0.536178 0.049848 0.8 0 0
0.212741 0.292428 0.025531 0.8 0 0
0.322072 0.469264 0.118174 0.8 0 0
0.166400 0.509524 0.041782 0.8 0 0
0.229863 0.483853 0.152383 0.8 0 0
0.184277 0.539841 0.123764 0.8 0 0
0.299103 0.694134 0.030629 0.8 0 0
0.252271 0.518340 0.128308 0.8 0 0
0.361374 0.527061 0.139603 0.8 0 0
0.274966 0.785457 0.182008 0.8 0 0
0.296467 0.844427 0.185717 0.8 0 0
0.643509 0.334228 0.066215 0.8 0 0
0.164537 0.469239 0.027720 0.8 0 0
0.280863 0.960721 0.025232 0.8 0 0
0.339537 0.966418 0.036415 0.8 0 0
0.335428 0.182299 0.034253 0.8 0 0
0.131575 0.514410 0.176747 0.8 0 0
0.562148 0.475018 0.068457 0.8 0 0
0.233062 0.123096 0.041094 0.8 0 0
0.243762 0.211756 0.025268 0.8 0 0
0.261457 0.514656 0.038930 0.8 0 0
0.325553 0.549941 0.055707 0.8 0 0
0.140906 0.517838 0.029166 0.8 0 0
0.189192 0.191707 0.192431 0.8 0 0
0.190625 0.613662 0.191850 0.8 0 0
0.051010 0.515640 0.124830 0.8 0 0
0.670150 0.307489 0.067632 0.8 0 0
0.311202 0.270698 0.035984 0.8 0 0
0.335999 0.076070 0.036124 0.8 0 0
0.346331 0.974551 0.030692 0.8 0 0
0.227670 0.110427 0.039800 0.8 0 0
0.292441 0.495731 0.173097 0.8 0 0
0.223239 0.384040 0.178031 0.8 0 0
0.193110 0.316245 0.027072 0.8 0 0
0.397981 0.483100 0.028766 0.8 0 0
0.142959 0.449194 0.115475 0.8 0 0
0.161465 0.199555 0.184756 0.8 0 0
0.625361 0.474536 0.053627 0.8 0 0
0.129869 0.480155 0.177246 0.8 0 0
0.151502 0.608734 0.191567 0.8 0 0
0.328980 0.742480 0.033649 0.8 0 0
0.266476 0.839412 0.189741 0.8 0 0
0.236975 0.064993 0.192950 0.8 0 0
0.172935 0.842245 0.188302 0.8 0 0
0.269408 0.553017 0.051964 0.8 0 0
0.679644 0.459245 0.067572 0.8 0 0
0.238669 0.520437 0.185445 0.8 0 0
0.479898 0.469649 0.082039 0.8 0 0
0.243409 0.492607 0.041295 0.8 0 0
0.303460 0.619362 0.032959 0.8 0 0
0.238310 0.693171 0.189906 0.8 0 0
0.305948 0.749829 0.037088 0.8 0 0
0.261447 0.241517 0.041693 0.8 0 0
0.192077 0.242314 0.034735 0.8 0 0
0.335057 0.031755 0.029277 0.8 0 0
0.270583 0.070866 0.041345 0.8 0 0
0.628424 0.494080 0.080168 0.8 0 0
0.211949 0.326421 0.025452 0.8 0 0
0.185340 0.214804 0.192354 0.8 0 0
0.182274 0.150500 0.190923 0.8 0 0
0.178555 0.412918 0.175970 0.8 0 0
0.328316 0.972840 0.038086 0.8 0 0
0.151719 0.447782 0.110943 0.8 0 0
0.447015 0.462345 0.039292 0.8 0 0
0.191058 0.366363 0.191956 0.8 0 0
0.208637 0.408423 0.191420 0.8 0 0
0.673915 0.578800 0.061115 0.8 0 0
0.657789 0.519790 0.058895 0.8 0 0
0.659535 0.496301 0.059141 0.8 0 0
0.295173 0.622117 0.031748 0.8 0 0
0.178220 0.502688 0.175872 0.8 0 0
0.238527 0.618013 0.180109 0.8 0 0
0.294524 0.525673 0.033886 0.8 0 0
0.159267 0.473747 0.028556 0.8 0 0
0.220359 0.547946 0.033611 0.8 0 0
0.224966 0.235312 0.041895 0.8 0 0
0.669142 0.504197 0.090549 0.8 0 0
0.088750 0.541011 0.040218 0.8 0 0
0.602166 0.502130 0.058184 0.8 0 0
0.301504 0.530820 0.121730 0.8 0 0
0.183466 0.557267 0.068350 0.8 0 0
0.253559 0.490046 0.128627 0.8 0 0
0.341534 0.966810 0.036145 0.8 0 0
0.189002 0.692946 0.039539 0.8 0 0
0.195839 0.619155 0.176271 0.8 0 0
0.162053 0.339378 0.191827 0.8 0 0
0.343078 0.111441 0.032228 0.8 0 0
0.213427 0.390934 0.176802 0.8 0 0
0.179644 0.503373 0.059061 0.8 0 0
0.180174 0.628916 0.027802 0.8 0 0
0.235710 0.238806 0.042086 0.8 0 0
0.660286 0.412398 0.059867 0.8 0 0
0.247869 0.495985 0.040616 0.8 0 0
0.138219 0.382291 0.189054 0.8 0 0
0.325201 0.514114 0.027410 0.8 0 0
0.296804 0.530538 0.027905 0.8 0 0
0.264741 0.678870 0.026224 0.8 0 0
0.184730 0.351187 0.192139 0.8 0 0
0.055110 0.549832 0.056954 0.8 0 0
0.254865 0.763006 0.025527 0.8 0 0
0.287099 0.464042 0.146331 0.8 0 0
0.183542 0.365547 0.027347 0.8 0 0
0.212005 0.069445 0.177285 0.8 0 0
0.249133 0.887979 0.025209 0.8 0 0
0.404337 0.486630 0.121188 0.8 0 0
0.681329 0.619154 0.067356 0.8 0 0
0.177276 0.392785 0.027680 0.8 0 0
0.359293 0.453015 0.076164 0.8 0 0
0.243705 0.269335 0.025469 0.8 0 0
0.359399 0.477535 0.115443 0.8 0 0
0.193413 0.108672 0.178061 0.8 0 0
0.140593 0.574002 0.177095 0.8 0 0
0.238418 0.146583 0.177186 0.8 0 0
0.382133 0.532955 0.031344 0.8 0 0
0.341026 0.149436 0.034081 0.8 0 0
0.228763 0.445064 0.086936 0.8 0 0
0.394657 0.455762 0.054086 0.8 0 0
0.341397 0.487603 0.027621 0.8 0 0
0.309834 0.161628 0.038176 0.8 0 0
0.247990 0.118501 0.041538 0.8 0 0
0.303752 0.544637 0.107664 0.8 0 0
0.288790 0.092787 0.181633 0.8 0 0
0.131430 0.471642 0.177245 0.8 0 0
0.239291 0.089203 0.177262 0.8 0 0
0.156926 0.550664 0.114927 0.8 0 0
0.180712 0.354254 0.028211 0.8 0 0
0.169489 0.208285 0.179113 0.8 0 0
0.661477 0.320122 0.061548 0.8 0 0
0.212918 0.298880 0.192001 0.8 0 0
0.172835 0.655447 0.176161 0.8 0 0
0.189902 0.495887 0.027048 0.8 0 0
0.223345 0.908499 0.177014 0.8 0 0
0.226271 0.662518 0.042351 0.8 0 0
0.211677 0.731448 0.025687 0.8 0 0
0.451475 0.460439 0.045900 0.8 0 0
0.363148 0.487897 0.150527 0.8 0 0
0.627172 0.399454 0.060812 0.8 0 0
0.299252 0.076070 0.040911 0.8 0 0
0.248029 0.302039 0.041973 0.8 0 0
0.192794 0.537174 0.191386 0.8 0 0
0.216515 0.543519 0.178461 0.8 0 0
0.247143 0.033973 0.025636 0.8 0 0
0.310735 0.965418 0.040384 0.8 0 0
0.267208 0.447417 0.092331 0.8 0 0
0.306770 0.128444 0.184983 0.8 0 0
0.453291 0.533836 0.035358 0.8 0 0
0.225093 0.471204 0.027536 0.8 0 0
0.473401 0.527197 0.032844 0.8 0 0
0.610586 0.426663 0.066336 0.8 0 0
0.229540 0.965461 0.035342 0.8 0 0
0.058040 0.442298 0.099790 0.8 0 0
0.298684 0.915275 0.025666 0.8 0 0
0.631878 0.497725 0.131502 0.8 0 0
0.272971 0.847230 0.025510 0.8 0 0
0.671442 0.656050 0.061238 0.8 0 0
0.290597 0.561551 0.032513 0.8 0 0
0.469872 0.501902 0.104272 0.8 0 0
0.269555 0.102413 0.179151 0.8 0 0
0.155585 0.549915 0.115896 0.8 0 0
0.171123 0.317684 0.176399 0.8 0 0
0.213141 0.672607 0.042323 0.8 0 0
0.208005 0.508292 0.042820 0.8 0 0
0.153965 0.431505 0.175956 0.8 0 0
0.168329 0.246630 0.178032 0.8 0 0
0.336146 0.950400 0.036590 0.8 0 0
0.193648 0.266923 0.192478 0.8 0 0
0.579902 0.471667 0.054508 0.8 0 0
0.669943 0.635216 0.060850 0.8 0 0
0.294923 0.961518 0.025446 0.8 0 0
0.178048 0.500000 0.175866 0.8 0 0
0.297549 0.476230 0.027413 0.8 0 0
0.659223 0.504614 0.106792 0.8 0 0
0.150896 0.340202 0.190257 0.8 0 0
0.198321 0.239736 0.176466 0.8 0 0
0.265618 0.483764 0.038383 0.8 0 0
0.227126 0.331458 0.177581 0.8 0 0
0.167730 0.614825 0.032658 0.8 0 0
0.403493 0.461930 0.035954 0.8 0 0
0.305956 0.506741 0.128106 0.8 0 0
0.311776 0.356458 0.034329 0.8 0 0
0.257531 0.890356 0.041593 0.8 0 0
0.296358 0.489864 0.026836 0.8 0 0
0.259158 0.529170 0.027647 0.8 0 0
0.271712 0.158221 0.041434 0.8 0 0
0.184347 0.470804 0.191471 0.8 0 0
0.231087 0.738667 0.042185 0.8 0 0
0.148346 0.340231 0.178560 0.8 0 0
0.236604 0.445316 0.086256 0.8 0 0
0.227414 0.781243 0.025404 0.8 0 0
0.261282 0.781576 0.041668 0.8 0 0
0.698547 0.717404 0.064995 0.8 0 0
0.161669 0.717135 0.190696 0.8 0 0
0.546959 0.523692 0.035186 0.8 0 0
0.158258 0.308087 0.177816 0.8 0 0
0.197791 0.333003 0.041878 0.8 0 0
0.189537 0.212043 0.176752 0.8 0 0
0.214712 0.438399 0.189813 0.8 0 0
0.274196 0.709027 0.183337 0.8 0 0
0.162380 0.398291 0.191949 0.8 0 0
0.238487 0.525482 0.185599 0.8 0 0
0.242955 0.530497 0.124972 0.8 0 0
0.691830 0.370066 0.063583 0.8 0 0
0.156194 0.479115 0.191856 0.8 0 0
0.254833 0.737391 0.041821 0.8 0 0
0.213177 0.368200 0.042590 0.8 0 0
0.288251 0.330147 0.029687 0.8 0 0
0.243923 0.185853 0.177227 0.8 0 0
0.160316 0.251198 0.179357 0.8 0 0
0.218116 0.962238 0.193010 0.8 0 0
0.347322 0.531834 0.142262 0.8 0 0
0.636485 0.506700 0.071404 0.8 0 0
0.278793 0.500670 0.130859 0.8 0 0
0.223873 0.733332 0.025348 0.8 0 0
0.275160 0.761151 0.025846 0.8 0 0
0.283298 0.439855 0.031535 0.8 0 0
0.206824 0.211248 0.027716 0.8 0 0
0.057572 0.478278 0.124930 0.8 0 0
0.294464 0.864074 0.026062 0.8 0 0
0.655231 0.598493 0.069508 0.8 0 0
0.258246 0.638248 0.182459 0.8 0 0
0.353046 0.085928 0.033019 0.8 0 0
0.223018 0.907926 0.038019 0.8 0 0
0.677031 0.281123 0.067064 0.8 0 0
0.241479 0.868116 0.192503 0.8 0 0
0.169476 0.497052 0.130069 0.8 0 0
0.346989 0.547771 0.047362 0.8 0 0
0.294011 0.940817 0.181724 0.8 0 0
0.362431 0.525751 0.028621 0.8 0 0
0.153199 0.399144 0.176270 0.8 0 0
0.628077 0.502005 0.071616 0.8 0 0
0.095060 0.445599 0.056659 0.8 0 0
0.245844 0.574175 0.185824 0.8 0 0
0.186272 0.708174 0.176240 0.8 0 0
0.338743 0.523713 0.158821 0.8 0 0
0.322993 0.934207 0.028392 0.8 0 0
0.137645 0.360134 0.186080 0.8 0 0
0.279295 0.349413 0.038956 0.8 0 0
0.329076 0.479027 0.027772 0.8 0 0
0.294900 0.085580 0.040989 0.8 0 0
0.244346 0.316897 0.042048 0.8 0 0
0.274099 0.816585 0.025635 0.8 0 0
0.270881 0.156556 0.189234 0.8 0 0
0.077711 0.543863 0.045425 0.8 0 0
0.033520 0.526231 0.044601 0.8 0 0
0.206726 0.435986 0.190980 0.8 0 0
0.198919 0.555983 0.080956 0.8 0 0
0.221003 0.264305 0.042024 0.8 0 0
0.097584 0.480386 0.032925 0.8 0 0
0.519374 0.519588 0.085592 0.8 0 0
0.654423 0.304578 0.066437 0.8 0 0
0.185794 0.551353 0.191573 0.8 0 0
0.215430 0.399216 0.177235 0.8 0 0
0.252525 0.030741 0.025410 0.8 0 0
0.265948 0.365496 0.183596 0.8 0 0
0.249988 0.153220 0.025158 0.8 0 0
0.269367 0.518540 0.164976 0.8 0 0
0.493306 0.469803 0.078607 0.8 0 0
0.314160 0.497823 0.026723 0.8 0 0
0.153923 0.548465 0.117719 0.8 0 0
0.207497 0.456723 0.029783 0.8 0 0
0.192367 0.058894 0.179935 0.8 0 0
0.203672 0.205972 0.038565 0.8 0 0
0.242100 0.496392 0.159968 0.8 0 0
0.244154 0.151859 0.177268 0.8 0 0
0.259433 0.150645 0.190970 0.8 0 0
0.224044 0.174912 0.176933 0.8 0 0
0.272912 0.213234 0.041483 0.8 0 0
0.181420 0.703390 0.192325 0.8 0 0
0.252925 0.127648 0.041686 0.8 0 0
0.194293 0.651544 0.041894 0.8 0 0
0.317742 0.915551 0.038498 0.8 0 0
0.679029 0.323123 0.061800 0.8 0 0
0.227762 0.122024 0.026550 0.8 0 0
0.265186 0.474391 0.140287 0.8 0 0
0.194058 0.736011 0.176373 0.8 0 0
0.259960 0.155046 0.041611 0.8 0 0
0.279657 0.782638 0.186466 0.8 0 0
0.247915 0.886442 0.025233 0.8 0 0
0.368400 0.503752 0.027711 0.8 0 0
0.327914 0.550463 0.071492 0.8 0 0
0.172840 0.189539 0.190236 0.8 0 0
0.191601 0.027342 0.186726 0.8 0 0
0.220368 0.403614 0.025582 0.8 0 0
0.163494 0.451823 0.033320 0.8 0 0
0.426278 0.493166 0.028833 0.8 0 0
0.274116 0.117459 0.180065 0.8 0 0
0.256267 0.330495 0.025877 0.8 0 0
0.298080 0.406934 0.035299 0.8 0 0
0.133174 0.465881 0.125168 0.8 0 0
0.214795 0.546992 0.114066 0.8 0 0
0.142761 0.564925 0.191319 0.8 0 0
0.248114 0.605048 0.181680 0.8 0 0
0.220515 0.547968 0.025755 0.8 0 0
0.242273 0.621812 0.025830 0.8 0 0
0.285156 0.509104 0.035547 0.8 0 0
0.279644 0.714273 0.183993 0.8 0 0
0.250326 0.072943 0.177450 0.8 0 0
0.208671 0.484396 0.143646 0.8 0 0
0.304561 0.469689 0.028016 0.8 0 0
0.230775 0.734956 0.042194 0.8 0 0
0.617605 0.481648 0.071316 0.8 0 0
0.212584 0.224817 0.041016 0.8 0 0
0.150119 0.441839 0.175969 0.8 0 0
0.634402 0.517382 0.070062 0.8 0 0
0.659730 0.683508 0.067801 0.8 0 0
0.295040 0.877670 0.183054 0.8 0 0
0.137660 0.466320 0.030654 0.8 0 0
0.183689 0.284657 0.176352 0.8 0 0
0.206290 0.156626 0.032864 0.8 0 0
0.049899 0.524244 0.040563 0.8 0 0
0.182309 0.141337 0.179007 0.8 0 0
0.111957 0.557138 0.107883 0.8 0 0
0.273203 0.463908 0.120405 0.8 0 0
0.207400 0.448105 0.106665 0.8 0 0
0.216528 0.870819 0.192903 0.8 0 0
0.258025 0.443667 0.028124 0.8 0 0
0.159548 0.498145 0.027941 0.8 0 0
0.269870 0.160845 0.025490 0.8 0 0
0.229267 0.445059 0.042436 0.8 0 0
0.240430 0.055471 0.040234 0.8 0 0
0.246692 0.375772 0.186985 0.8 0 0
0.667722 0.432444 0.060260 0.8 0 0
0.355328 0.036133 0.032185 0.8 0 0
0.192876 0.728070 0.039026 0.8 0 0
0.185468 0.429192 0.176058 0.8 0 0
0.281336 0.950588 0.179786 0.8 0 0
0.269830 0.028856 0.041306 0.8 0 0
0.151443 0.581720 0.191683 0.8 0 0
0.086209 0.505939 0.127699 0.8 0 0
0.176363 0.631122 0.192168 0.8 0 0
0.225511 0.202754 0.025494 0.8 0 0
0.334724 0.947588 0.036735 0.8 0 0
0.252199 0.504532 0.162942 0.8 0 0
0.165955 0.453249 0.040398 0.8 0 0
0.497539 0.467660 0.037775 0.8 0 0
0.661499 0.491675 0.059412 0.8 0 0
0.215358 0.515208 0.148610 0.8 0 0
0.235069 0.796196 0.177071 0.8 0 0
0.275372 0.093366 0.190226 0.8 0 0
0.237644 0.551508 0.100896 0.8 0 0
0.234754 0.869916 0.025558 0.8 0 0
0.106006 0.488715 0.031364 0.8 0 0
0.264677 0.835502 0.041550 0.8 0 0
0.186447 0.656965 0.192159 0.8 0 0
0.187830 0.623288 0.191948 0.8 0 0
0.631991 0.445077 0.058860 0.8 0 0
0.304212 0.250200 0.030051 0.8 0 0
0.340310 0.921132 0.035476 0.8 0 0
0.237039 0.502731 0.026848 0.8 0 0
0.264733 0.459734 0.117128 0.8 0 0
0.150000 0.618013 0.191220 0.8 0 0
0.243166 0.481851 0.041527 0.8 0 0
0.656254 0.668434 0.061358 0.8 0 0
0.694822 0.625183 0.063999 0.8 0 0
0.149799 0.314692 0.179155 0.8 0 0
0.591388 0.521101 0.036908 0.8 0 0
0.208517 0.097586 0.177158 0.8 0 0
0.354531 0.495444 0.156203 0.8 0 0
0.182592 0.477038 0.025696 0.8 0 0
0.235972 0.525165 0.127696 0.8 0 0
0.248062 0.368271 0.181172 0.8 0 0
0.228352 0.187706 0.025472 0.8 0 0
0.201612 0.403624 0.176335 0.8 0 0
0.227007 0.823831 0.192476 0.8 0 0
0.263436 0.066988 0.177659 0.8 0 0
0.653790 0.353215 0.060826 0.8 0 0
0.692630 0.498509 0.134068 0.8 0 0
0.224369 0.227913 0.192225 0.8 0 0
0.238916 0.444959 0.063295 0.8 0 0
0.257633 0.848331 0.025270 0.8 0 0
0.277952 0.454866 0.034087 0.8 0 0
0.362130 0.547542 0.062982 0.8 0 0
0.644671 0.495446 0.114000 0.8 0 0
0.144130 0.585637 0.176835 0.8 0 0
0.206169 0.485667 0.139083 0.8 0 0
0.290286 0.764543 0.039527 0.8 0 0
0.168032 0.519758 0.026742 0.8 0 0
0.215018 0.700167 0.191963 0.8 0 0
0.239266 0.434201 0.042269 0.8 0 0
0.265984 0.896648 0.041456 0.8 0 0
0.235245 0.883278 0.192685 0.8 0 0
0.190234 0.964579 0.186668 0.8 0 0
0.401441 0.459382 0.039946 0.8 0 0
0.329737 0.922770 0.036970 0.8 0 0
0.654313 0.503983 0.071070 0.8 0 0
0.221136 0.516962 0.139519 0.8 0 0
0.393335 0.541900 0.083417 0.8 0 0
0.704501 0.499884 0.084777 0.8 0 0
0.195791 0.507974 0.133637 0.8 0 0
0.312874 0.467699 0.162193 0.8 0 0
0.493245 0.502933 0.030887 0.8 0 0
0.057282 0.550219 0.117087 0.8 0 0
0.206578 0.574931 0.042761 0.8 0 0
0.305051 0.619029 0.033187 0.8 0 0
0.357067 0.049803 0.032741 0.8 0 0
0.204269 0.554187 0.025483 0.8 0 0
0.213068 0.785804 0.176721 0.8 0 0
0.273354 0.184851 0.041441 0.8 0 0
0.282634 0.826080 0.025733 0.8 0 0
0.119715 0.558778 0.089502 0.8 0 0
0.229795 0.398088 0.179203 0.8 0 0
0.208587 0.906534 0.192825 0.8 0 0
0.219271 0.084607 0.193066 0.8 0 0
0.144351 0.657572 0.188946 0.8 0 0
0.487269 0.537380 0.050999 0.8 0 0
0.648615 0.386613 0.060139 0.8 0 0
0.242261 0.188953 0.041925 0.8 0 0
0.154855 0.494433 0.028745 0.8 0 0
0.303742 0.108383 0.185915 0.8 0 0
0.525428 0.508222 0.032290 0.8 0 0
0.163341 0.668716 0.176557 0.8 0 0
0.237988 0.339436 0.189118 0.8 0 0
0.276019 0.463745 0.119979 0.8 0 0
0.188256 0.522629 0.025565 0.8 0 0
0.628411 0.489794 0.058021 0.8 0 0
0.678241 0.286233 0.067135 0.8 0 0
0.666635 0.496666 0.141407 0.8 0 0
0.141883 0.478088 0.175913 0.8 0 0
0.247044 0.802685 0.177817 0.8 0 0
0.155090 0.448480 0.034268 0.8 0 0
0.223060 0.299966 0.025271 0.8 0 0
0.270876 0.050525 0.178358 0.8 0 0
0.274784 0.680392 0.027579 0.8 0 0
0.427435 0.520275 0.105734 0.8 0 0
0.242536 0.633844 0.025792 0.8 0 0
0.223103 0.462687 0.042552 0.8 0 0
0.634797 0.492325 0.071413 0.8 0 0
0.632287 0.485764 0.073482 0.8 0 0
0.218164 0.855377 0.027638 0.8 0 0
0.650126 0.479629 0.058533 0.8 0 0
0.209665 0.401615 0.191451 0.8 0 0
0.623650 0.527783 0.071200 0.8 0 0
0.131404 0.557833 0.066160 0.8 0 0
0.189395 0.532414 0.025566 0.8 0 0
0.273510 0.051465 0.178741 0.8 0 0
0.549236 0.482335 0.080189 0.8 0 0
0.284520 0.244029 0.185112 0.8 0 0
0.647796 0.509985 0.058316 0.8 0 0
0.564265 0.527704 0.061287 0.8 0 0
0.267303 0.867726 0.179400 0.8 0 0
0.343319 0.089943 0.031765 0.8 0 0
0.688025 0.348182 0.063051 0.8 0 0
0.247495 0.201044 0.191336 0.8 0 0
0.214000 0.748037 0.192249 0.8 0 0
0.228487 0.405778 0.179166 0.8 0 0
0.173779 0.310919 0.192158 0.8 0 0
0.172749 0.270377 0.176802 0.8 0 0
0.226845 0.164048 0.041277 0.8 0 0
0.329885 0.830211 0.031748 0.8 0 0
0.251239 0.611592 0.042029 0.8 0 0
0.213168 0.869931 0.031117 0.8 0 0
0.545676 0.472791 0.036632 0.8 0 0
0.270197 0.228789 0.025734 0.8 0 0
0.132414 0.558293 0.093322 0.8 0 0
0.330564 0.462740 0.109786 0.8 0 0
0.187157 0.422370 0.176092 0.8 0 0
0.617749 0.507315 0.035784 0.8 0 0
0.219377 0.101149 0.036512 0.8 0 0
0.622766 0.521830 0.065060 0.8 0 0
0.213329 0.588398 0.177177 0.8 0 0
0.346216 0.044541 0.031117 0.8 0 0
0.509647 0.470186 0.036328 0.8 0 0
0.191090 0.443860 0.090375 0.8 0 0
0.110172 0.557648 0.066556 0.8 0 0
0.126267 0.446209 0.047449 0.8 0 0
0.220705 0.794013 0.192405 0.8 0 0
0.465078 0.467286 0.035732 0.8 0 0
0.210915 0.901345 0.177095 0.8 0 0
0.380183 0.499474 0.027784 0.8 0 0
0.232492 0.129470 0.192655 0.8 0 0
0.305145 0.540826 0.158114 0.8 0 0
0.271948 0.574786 0.029625 0.8 0 0
0.255020 0.877843 0.177509 0.8 0 0
0.158398 0.442500 0.056863 0.8 0 0
0.698394 0.369347 0.064492 0.8 0 0
0.267466 0.333539 0.040885 0.8 0 0
0.202706 0.529797 0.027647 0.8 0 0
0.190207 0.308809 0.176265 0.8 0 0
0.219345 0.589094 0.025592 0.8 0 0
0.226398 0.409456 0.025696 0.8 0 0
0.295581 0.910665 0.040983 0.8 0 0
0.243808 0.856178 0.177272 0.8 0 0
0.412138 0.518437 0.109931 0.8 0 0
0.196266 0.245763 0.192557 0.8 0 0
0.247123 0.730593 0.025522 0.8 0 0
0.381048 0.478316 0.112078 0.8 0 0
0.201503 0.461556 0.028583 0.8 0 0
0.146791 0.317004 0.180750 0.8 0 0
0.293306 0.391350 0.036246 0.8 0 0
0.211134 0.332455 0.176560 0.8 0 0
0.243778 0.350985 0.188021 0.8 0 0
0.158275 0.481755 0.128934 0.8 0 0
0.331794 0.891342 0.036108 0.8 0 0
0.255405 0.963336 0.192826 0.8 0 0
0.527749 0.490189 0.032479 0.8 0 0
0.246983 0.561682 0.026471 0.8 0 0
0.410544 0.524695 0.029867 0.8 0 0
0.247240 0.123038 0.041556 0.8 0 0
0.609258 0.438923 0.068367 0.8 0 0
0.273535 0.973376 0.025075 0.8 0 0
0.696946 0.554999 0.065179 0.8 0 0
0.261001 0.702696 0.181629 0.8 0 0
0.306198 0.780315 0.029621 0.8 0 0
0.266650 0.780745 0.188219 0.8 0 0
0.676023 0.707938 0.067271 0.8 0 0
0.227691 0.212780 0.192259 0.8 0 0
0.239803 0.520890 0.142253 0.8 0 0
0.207571 0.352051 0.025479 0.8 0 0
0.401248 0.497974 0.133248 0.8 0 0
0.126934 0.527623 0.127613 0.8 0 0
0.295157 0.722866 0.038087 0.8 0 0
0.674329 0.586330 0.068318 0.8 0 0
0.239537 0.247591 0.025329 0.8 0 0
0.285529 0.880832 0.041174 0.8 0 0
0.250154 0.458149 0.027368 0.8 0 0
0.298859 0.923306 0.040917 0.8 0 0
0.136579 0.422370 0.177958 0.8 0 0
0.186213 0.444933 0.099892 0.8 0 0
0.668914 0.496516 0.136180 0.8 0 0
0.124721 0.443238 0.104776 0.8 0 0
0.505479 0.491096 0.094891 0.8 0 0
0.686120 0.711388 0.062774 0.8 0 0
0.595180 0.488003 0.075764 0.8 0 0
0.318413 0.682740 0.034130 0.8 0 0
0.253700 0.223411 0.041791 0.8 0 0
0.198146 0.671883 0.025909 0.8 0 0
0.235230 0.307997 0.042178 0.8 0 0
0.449979 0.502367 0.029245 0.8 0 0
0.038421 0.505794 0.040269 0.8 0 0
0.217144 0.537160 0.178668 0.8 0 0
0.267135 0.713493 0.182276 0.8 0 0
0.197599 0.671447 0.176356 0.8 0 0
0.230096 0.304778 0.042253 0.8 0 0
0.280719 0.276766 0.183974 0.8 0 0
0.178324 0.342255 0.192282 0.8 0 0
0.181784 0.295440 0.176317 0.8 0 0
0.380460 0.518126 0.138169 0.8 0 0
0.215944 0.411616 0.042600 0.8 0 0
0.584600 0.494518 0.078238 0.8 0 0
0.197928 0.788578 0.032163 0.8 0 0
0.050235 0.555968 0.076606 0.8 0 0
0.291585 0.143331 0.186705 0.8 0 0
0.347842 0.044889 0.031350 0.8 0 0
0.291938 0.193456 0.183961 0.8 0 0
0.172101 0.557345 0.049990 0.8 0 0
0.181242 0.670157 0.038132 0.8 0 0
0.314381 0.872903 0.038180 0.8 0 0
0.423861 0.483967 0.029163 0.8 0 0
0.612790 0.492968 0.057975 0.8 0 0
0.293708 0.169572 0.040263 0.8 0 0
0.299644 0.874013 0.183760 0.8 0 0
0.215301 0.887834 0.031789 0.8 0 0
0.175430 0.135945 0.182149 0.8 0 0
0.266029 0.714230 0.182109 0.8 0 0
0.629161 0.486834 0.036790 0.8 0 0
0.244750 0.277525 0.041994 0.8 0 0
0.675077 0.643058 0.061261 0.8 0 0
0.222802 0.601358 0.042479 0.8 0 0
0.174348 0.507731 0.063804 0.8 0 0
0.122946 0.562873 0.183399 0.8 0 0
0.649208 0.505014 0.098849 0.8 0 0
0.286913 0.129470 0.187706 0.8 0 0
0.220951 0.226324 0.025545 0.8 0 0
0.292257 0.839889 0.183378 0.8 0 0
0.233971 0.035452 0.028022 0.8 0 0
0.244128 0.280483 0.042007 0.8 0 0
0.183291 0.559681 0.025836 0.8 0 0
0.193614 0.593023 0.042477 0.8 0 0
0.159161 0.414103 0.175964 0.8 0 0
0.205943 0.929645 0.177497 0.8 0 0
0.502367 0.464018 0.050930 0.8 0 0
0.156454 0.407194 0.191818 0.8 0 0
0.225973 0.810245 0.192415 0.8 0 0
0.190555 0.625900 0.042016 0.8 0 0
0.257450 0.518126 0.027397 0.8 0 0
0.218441 0.704412 0.025390 0.8 0 0
0.179647 0.544199 0.191628 0.8 0 0
0.171196 0.576395 0.027871 0.8 0 0
0.247448 0.912159 0.025318 0.8 0 0
0.703592 0.499779 0.087462 0.8 0 0
0.105770 0.540887 0.123341 0.8 0 0
0.299895 0.965737 0.025507 0.8 0 0
0.331502 0.077129 0.029832 0.8 0 0
0.244074 0.337033 0.042077 0.8 0 0
0.384376 0.537451 0.097083 0.8 0 0
0.244413 0.738073 0.041980 0.8 0 0
0.307705 0.104817 0.039514 0.8 0 0
0.129558 0.554851 0.112002 0.8 0 0
0.307258 0.521123 0.125286 0.8 0 0
0.218589 0.759571 0.025559 0.8 0 0
0.218770 0.751809 0.192197 0.8 0 0
0.420283 0.536498 0.035211 0.8 0 0
0.316173 0.176878 0.030014 0.8 0 0
0.331600 0.178661 0.032191 0.8 0 0
0.251404 0.160975 0.041750 0.8 0 0
0.194446 0.446431 0.103376 0.8 0 0
0.434491 0.495801 0.112714 0.8 0 0
0.138817 0.445106 0.176777 0.8 0 0
0.684041 0.638632 0.062503 0.8 0 0
0.141804 0.550973 0.038538 0.8 0 0
0.219580 0.105405 0.176941 0.8 0 0
0.251275 0.868206 0.041715 0.8 0 0
0.115210 0.505687 0.129054 0.8 0 0
0.193313 0.489925 0.025469 0.8 0 0
0.220573 0.579726 0.178343 0.8 0 0
0.193111 0.555030 0.098325 0.8 0 0
0.625357 0.525787 0.049781 0.8 0 0
0.250636 0.094713 0.041419 0.8 0 0
0.299608 0.379333 0.032396 0.8 0 0
0.191335 0.822328 0.176976 0.8 0 0
0.272713 0.512829 0.031162 0.8 0 0
0.210501 0.516029 0.189232 0.8 0 0
0.236111 0.539038 0.120886 0.8 0 0
0.095804 0.557865 0.079425 0.8 0 0
0.614818 0.526645 0.048494 0.8 0 0
0.239293 0.501503 0.026785 0.8 0 0
0.205316 0.764224 0.027253 0.8 0 0
0.242636 0.027862 0.193072 0.8 0 0
0.632645 0.501360 0.134198 0.8 0 0
0.287561 0.129402 0.025652 0.8 0 0
0.650831 0.364528 0.060587 0.8 0 0
0.637472 0.494307 0.083398 0.8 0 0
0.167676 0.472795 0.128536 0.8 0 0
0.637196 0.570958 0.059220 0.8 0 0
0.181673 0.822328 0.191546 0.8 0 0
0.264373 0.501790 0.130841 0.8 0 0
0.248601 0.489475 0.128592 0.8 0 0
0.213207 0.417922 0.025522 0.8 0 0
0.352950 0.539142 0.033353 0.8 0 0
0.163848 0.556057 0.028612 0.8 0 0
0.347947 0.882717 0.033037 0.8 0 0
0.308390 0.475607 0.027562 0.8 0 0
0.369134 0.453241 0.069822 0.8 0 0
0.262979 0.814149 0.041602 0.8 0 0
0.262688 0.491389 0.038648 0.8 0 0
0.654979 0.478941 0.043217 0.8 0 0
0.284934 0.903200 0.025497 0.8 0 0
0.193412 0.687800 0.027139 0.8 0 0
0.174992 0.567843 0.041329 0.8 0 0
0.262926 0.397713 0.183783 0.8 0 0
0.490559 0.463406 0.055145 0.8 0 0
0.257660 0.592286 0.184650 0.8 0 0
0.218477 0.468983 0.188511 0.8 0 0
0.227380 0.556101 0.042464 0.8 0 0
0.234874 0.721532 0.042147 0.8 0 0
0.266385 0.140050 0.179419 0.8 0 0
0.190039 0.718648 0.038314 0.8 0 0
0.140589 0.442333 0.083993 0.8 0 0
0.217690 0.444099 0.073903 0.8 0 0
0.255482 0.246837 0.025571 0.8 0 0
0.320452 0.129678 0.029516 0.8 0 0
0.394331 0.512800 0.028521 0.8 0 0
0.284815 0.468253 0.032401 0.8 0 0
0.064837 0.442178 0.100878 0.8 0 0
0.251471 0.609052 0.185935 0.8 0 0
0.611146 0.558643 0.060588 0.8 0 0
0.304149 0.657879 0.035649 0.8 0 0
0.677342 0.577659 0.067899 0.8 0 0
0.176292 0.576366 0.026929 0.8 0 0
0.241428 0.950299 0.192968 0.8 0 0
0.260332 0.878049 0.041565 0.8 0 0
0.265251 0.618609 0.027686 0.8 0 0
0.159308 0.528011 0.175609 0.8 0 0
0.650651 0.499219 0.077955 0.8 0 0
0.214834 0.308345 0.025437 0.8 0 0
0.241823 0.921031 0.192797 0.8 0 0
0.198709 0.147234 0.192631 0.8 0 0
0.276168 0.523444 0.165026 0.8 0 0
0.698047 0.551604 0.064462 0.8 0 0
0.594273 0.488390 0.060131 0.8 0 0
0.313062 0.550532 0.048846 0.8 0 0
0.275945 0.270103 0.185633 0.8 0 0
0.251747 0.267146 0.041874 0.8 0 0
0.194330 0.126536 0.192381 0.8 0 0
0.174330 0.676304 0.176280 0.8 0 0
0.287422 0.251258 0.027750 0.8 0 0
0.178473 0.497734 0.074517 0.8 0 0
0.667304 0.487228 0.039445 0.8 0 0
0.219510 0.706035 0.176732 0.8 0 0
0.301344 0.064907 0.182847 0.8 0 0
0.228793 0.605091 0.188974 0.8 0 0
0.191437 0.506683 0.025453 0.8 0 0
0.237678 0.518154 0.181869 0.8 0 0
0.302994 0.377318 0.035162 0.8 0 0
0.236256 0.861063 0.192544 0.8 0 0
0.196858 0.227725 0.176468 0.8 0 0
0.280524 0.589239 0.030479 0.8 0 0
0.209014 0.781648 0.027097 0.8 0 0
0.240084 0.430490 0.025980 0.8 0 0
0.403960 0.471917 0.030790 0.8 0 0
0.260041 0.225759 0.041696 0.8 0 0
0.324989 0.486069 0.124548 0.8 0 0
0.699080 0.370571 0.064901 0.8 0 0
0.305040 0.447903 0.070408 0.8 0 0
0.297539 0.064010 0.040922 0.8 0 0
0.251630 0.766253 0.041835 0.8 0 0
0.645281 0.523427 0.070976 0.8 0 0
0.571349 0.471740 0.057555 0.8 0 0
0.287997 0.931495 0.181067 0.8 0 0
0.309738 0.284165 0.031600 0.8 0 0
0.644002 0.497595 0.143777 0.8 0 0
0.441791 0.521832 0.101854 0.8 0 0
0.255088 0.541551 0.116132 0.8 0 0
0.256456 0.218793 0.179524 0.8 0 0
0.069276 0.517851 0.036725 0.8 0 0
0.254192 0.326943 0.041909 0.8 0 0
0.147770 0.333004 0.189485 0.8 0 0
0.139398 0.408278 0.189974 0.8 0 0
0.180133 0.446145 0.035848 0.8 0 0
0.323110 0.509941 0.128979 0.8 0 0
0.678056 0.402393 0.067805 0.8 0 0
0.183318 0.452752 0.175999 0.8 0 0
0.224360 0.928916 0.036276 0.8 0 0
0.265133 0.453098 0.109091 0.8 0 0
0.446798 0.517003 0.029717 0.8 0 0
0.662366 0.291744 0.066993 0.8 0 0
0.407962 0.499466 0.028260 0.8 0 0
0.158407 0.431143 0.034460 0.8 0 0
0.144225 0.462088 0.175983 0.8 0 0
0.299064 0.352268 0.036166 0.8 0 0
0.324567 0.226252 0.032316 0.8 0 0
0.208529 0.754064 0.192367 0.8 0 0
0.255585 0.309821 0.187438 0.8 0 0
0.201896 0.542329 0.025488 0.8 0 0
0.637255 0.360427 0.067574 0.8 0 0
0.181607 0.533504 0.126712 0.8 0 0
0.676609 0.538307 0.067991 0.8 0 0
0.048018 0.442417 0.088809 0.8 0 0
0.162765 0.221554 0.180841 0.8 0 0
0.114627 0.493640 0.182505 0.8 0 0
0.218480 0.078233 0.193044 0.8 0 0
0.318277 0.525065 0.121775 0.8 0 0
0.209562 0.859068 0.192877 0.8 0 0
0.253533 0.484619 0.028448 0.8 0 0
0.657772 0.483065 0.040305 0.8 0 0
0.243616 0.493207 0.182904 0.8 0 0
0.195240 0.734260 0.028207 0.8 0 0
0.256581 0.608157 0.041322 0.8 0 0
0.306915 0.456316 0.148606 0.8 0 0
0.167391 0.506332 0.027537 0.8 0 0
0.192365 0.668099 0.041029 0.8 0 0
0.204863 0.836810 0.192783 0.8 0 0
0.309269 0.665156 0.032706 0.8 0 0
0.166724 0.550375 0.114722 0.8 0 0
0.661122 0.487955 0.059359 0.8 0 0
0.254403 0.676855 0.025823 0.8 0 0
0.248549 0.134529 0.177355 0.8 0 0
0.322100 0.262812 0.034620 0.8 0 0
0.202583 0.891473 0.177227 0.8 0 0
0.238307 0.542957 0.116112 0.8 0 0
0.068004 0.558113 0.095399 0.8 0 0
0.533225 0.527082 0.035729 0.8 0 0
0.171391 0.163696 0.181676 0.8 0 0
0.073784 0.448226 0.055286 0.8 0 0
0.242460 0.278279 0.025481 0.8 0 0
0.255942 0.270074 0.180417 0.8 0 0
0.227360 0.124314 0.040229 0.8 0 0
0.242294 0.503021 0.182792 0.8 0 0
0.185348 0.192618 0.192257 0.8 0 0
0.479481 0.516884 0.096542 0.8 0 0
0.248243 0.222507 0.178457 0.8 0 0
0.251807 0.166009 0.177889 0.8 0 0
0.319007 0.764470 0.031761 0.8 0 0
0.238110 0.905406 0.177238 0.8 0 0
0.256536 0.433528 0.183572 0.8 0 0
0.178664 0.744423 0.192225 0.8 0 0
0.217778 0.906853 0.034289 0.8 0 0
0.205088 0.927188 0.177509 0.8 0 0
0.666070 0.285127 0.067066 0.8 0 0
0.169370 0.498656 0.191544 0.8 0 0
0.604001 0.478778 0.037548 0.8 0 0
0.371083 0.479815 0.142437 0.8 0 0
0.181598 0.177138 0.177929 0.8 0 0
0.299136 0.116939 0.186334 0.8 0 0
0.214345 0.170648 0.176788 0.8 0 0
0.178226 0.435318 0.042036 0.8 0 0
0.231070 0.170229 0.177046 0.8 0 0
0.252738 0.166124 0.178020 0.8 0 0
0.071437 0.553559 0.062986 0.8 0 0
0.648091 0.526248 0.058605 0.8 0 0
0.677966 0.382838 0.067822 0.8 0 0
0.310430 0.969522 0.183458 0.8 0 0
0.206411 0.448585 0.108363 0.8 0 0
0.029638 0.551947 0.114242 0.8 0 0
0.144837 0.357373 0.178629 0.8 0 0
0.233339 0.377564 0.025690 0.8 0 0
0.223056 0.201608 0.041534 0.8 0 0
0.255332 0.888109 0.041630 0.8 0 0
0.159112 0.448622 0.113626 0.8 0 0
0.252034 0.572409 0.026923 0.8 0 0
0.246563 0.548174 0.185060 0.8 0 0
0.258990 0.777767 0.189203 0.8 0 0
0.340158 0.125372 0.034643 0.8 0 0
0.306964 0.812975 0.028973 0.8 0 0
0.671265 0.500455 0.077633 0.8 0 0
0.271198 0.650837 0.184271 0.8 0 0
0.199266 0.838342 0.176899 0.8 0 0
0.232635 0.445285 0.050699 0.8 0 0
0.256842 0.026518 0.192861 0.8 0 0
0.181294 0.401485 0.191909 0.8 0 0
0.698583 0.359363 0.064973 0.8 0 0
0.334068 0.094626 0.036051 0.8 0 0
0.321578 0.948559 0.027865 0.8 0 0
0.675306 0.621242 0.061297 0.8 0 0
0.228354 0.271245 0.176893 0.8 0 0
0.294629 0.460584 0.146086 0.8 0 0
0.090463 0.557885 0.084449 0.8 0 0
0.189851 0.300850 0.028140 0.8 0 0
0.208679 0.748933 0.176612 0.8 0 0
0.196971 0.669973 0.176345 0.8 0 0
0.632820 0.495083 0.104971 0.8 0 0
0.672798 0.403388 0.068533 0.8 0 0
0.298028 0.915159 0.025656 0.8 0 0
0.278616 0.762107 0.026223 0.8 0 0
0.395316 0.497028 0.136109 0.8 0 0
0.270048 0.659075 0.184641 0.8 0 0
0.059494 0.448241 0.115646 0.8 0 0
0.248522 0.800402 0.191231 0.8 0 0
0.450010 0.505477 0.107963 0.8 0 0
0.235600 0.611610 0.179824 0.8 0 0
0.227031 0.874693 0.177034 0.8 0 0
0.143374 0.673919 0.186299 0.8 0 0
0.193246 0.753081 0.192566 0.8 0 0
0.220558 0.448387 0.178869 0.8 0 0
0.289737 0.511049 0.131872 0.8 0 0
0.404328 0.457481 0.075558 0.8 0 0
0.697767 0.512751 0.064432 0.8 0 0
0.196056 0.497734 0.065342 0.8 0 0
0.234597 0.053821 0.193050 0.8 0 0
0.274489 0.407354 0.029565 0.8 0 0
0.181672 0.427444 0.176002 0.8 0 0
0.236833 0.142478 0.192515 0.8 0 0
0.177880 0.689861 0.176298 0.8 0 0
0.259259 0.446145 0.058342 0.8 0 0
0.195545 0.402135 0.176243 0.8 0 0
0.158967 0.303375 0.190751 0.8 0 0
0.128591 0.476968 0.030775 0.8 0 0
0.278432 0.895488 0.025424 0.8 0 0
0.312125 0.495288 0.026795 0.8 0 0
0.369227 0.453800 0.052798 0.8 0 0
0.277916 0.340990 0.028507 0.8 0 0
0.178416 0.391640 0.027505 0.8 0 0
0.395650 0.531356 0.031210 0.8 0 0
0.203727 0.561832 0.176346 0.8 0 0
0.235340 0.133447 0.041318 0.8 0 0
0.355144 0.033930 0.034247 0.8 0 0
0.224326 0.130077 0.176987 0.8 0 0
0.246433 0.769689 0.041911 0.8 0 0
0.266913 0.952052 0.041374 0.8 0 0
0.248154 0.613984 0.042074 0.8 0 0
0.225161 0.512979 0.187124 0.8 0 0
0.291100 0.061386 0.025467 0.8 0 0
0.233044 0.127230 0.192659 0.8 0 0
0.423361 0.458180 0.048568 0.8 0 0
0.253301 0.091674 0.192548 0.8 0 0
0.704053 0.500170 0.102709 0.8 0 0
0.353581 0.472643 0.133947 0.8 0 0
0.337461 0.047165 0.036453 0.8 0 0
0.263841 0.681160 0.186064 0.8 0 0
0.229900 0.746490 0.176936 0.8 0 0
0.668610 0.379090 0.068910 0.8 0 0
0.213818 0.942118 0.192924 0.8 0 0
0.124231 0.543285 0.035474 0.8 0 0
0.155961 0.754165 0.186143 0.8 0 0
0.280350 0.727403 0.027264 0.8 0 0
0.645412 0.584331 0.069907 0.8 0 0
0.242109 0.413192 0.181192 0.8 0 0
0.205041 0.654002 0.191856 0.8 0 0
0.302274 0.290268 0.036860 0.8 0 0
0.222738 0.517821 0.187584 0.8 0 0
0.298794 0.448051 0.057743 0.8 0 0
0.600559 0.499993 0.071302 0.8 0 0
0.493388 0.468538 0.075294 0.8 0 0
0.226191 0.928452 0.028845 0.8 0 0
0.324238 0.735840 0.033146 0.8 0 0
0.193863 0.925352 0.179126 0.8 0 0
0.218299 0.589341 0.042563 0.8 0 0
0.664446 0.288432 0.062386 0.8 0 0
0.231367 0.687568 0.025431 0.8 0 0
0.658508 0.709784 0.063832 0.8 0 0
0.143378 0.449138 0.176166 0.8 0 0
0.236097 0.068880 0.039903 0.8 0 0
0.175181 0.309272 0.176367 0.8 0 0
0.583548 0.528190 0.038946 0.8 0 0
0.387861 0.543778 0.079116 0.8 0 0
0.128294 0.466257 0.125304 0.8 0 0
0.388976 0.530225 0.030606 0.8 0 0
0.138457 0.409666 0.178041 0.8 0 0
0.263479 0.925078 0.177793 0.8 0 0
0.271803 0.340526 0.040157 0.8 0 0
0.277205 0.836488 0.025613 0.8 0 0
0.296483 0.803871 0.027732 0.8 0 0
0.305018 0.284498 0.036587 0.8 0 0
0.670946 0.343936 0.068258 0.8 0 0
0.037306 0.525355 0.043524 0.8 0 0
0.655225 0.495514 0.112019 0.8 0 0
0.147469 0.446440 0.106647 0.8 0 0
0.275228 0.511495 0.027029 0.8 0 0
0.665033 0.543279 0.059893 0.8 0 0
0.674137 0.394697 0.061139 0.8 0 0
0.138884 0.351230 0.182327 0.8 0 0
0.659085 0.685521 0.067732 0.8 0 0
0.273840 0.640295 0.028374 0.8 0 0
0.297986 0.236428 0.038443 0.8 0 0
0.171491 0.312321 0.176430 0.8 0 0
0.692184 0.520108 0.065831 0.8 0 0
0.258942 0.169405 0.178940 0.8 0 0
0.304528 0.287006 0.030945 0.8 0 0
0.181061 0.342788 0.028494 0.8 0 0
0.334702 0.517688 0.027721 0.8 0 0
0.266826 0.175866 0.189303 0.8 0 0
0.230550 0.638961 0.042314 0.8 0 0
0.203687 0.425203 0.176343 0.8 0 0
0.249931 0.445859 0.086503 0.8 0 0
0.626289 0.525563 0.051229 0.8 0 0
0.185193 0.343816 0.192174 0.8 0 0
0.166344 0.556922 0.043732 0.8 0 0
0.265030 0.950762 0.025023 0.8 0 0
0.270709 0.969332 0.041295 0.8 0 0
0.150294 0.583339 0.191623 0.8 0 0
0.252778 0.133864 0.177421 0.8 0 0
0.323748 0.182560 0.031194 0.8 0 0
0.299498 0.948994 0.025560 0.8 0 0
0.218794 0.885862 0.028963 0.8 0 0
0.462727 0.503653 0.029771 0.8 0 0
0.217959 0.901707 0.031568 0.8 0 0
0.265905 0.705298 0.182260 0.8 0 0
0.254664 0.233703 0.025513 0.8 0 0
0.223385 0.063531 0.031923 0.8 0 0
0.199315 0.211364 0.192684 0.8 0 0
0.268672 0.861233 0.025394 0.8 0 0
0.314851 0.551247 0.078809 0.8 0 0
0.080814 0.513964 0.034843 0.8 0 0
0.284307 0.157192 0.041239 0.8 0 0
0.309974 0.534192 0.162055 0.8 0 0
0.068419 0.552766 0.061634 0.8 0 0
0.204106 0.451408 0.025500 0.8 0 0
0.171562 0.513192 0.026063 0.8 0 0
0.149969 0.609615 0.191442 0.8 0 0
0.315424 0.530031 0.119940 0.8 0 0
0.141509 0.547669 0.119364 0.8 0 0
0.700833 0.500550 0.180636 0.8 0 0
0.276489 0.196101 0.181872 0.8 0 0
0.275413 0.960228 0.041233 0.8 0 0
0.694448 0.586883 0.063956 0.8 0 0
0.177706 0.449832 0.191691 0.8 0 0
0.147230 0.612896 0.177183 0.8 0 0
0.306318 0.623987 0.033248 0.8 0 0
0.102551 0.542147 0.122675 0.8 0 0
0.180584 0.309519 0.032661 0.8 0 0
0.192783 0.932290 0.179560 0.8 0 0
0.199986 0.762774 0.039124 0.8 0 0
0.176713 0.486895 0.042674 0.8 0 0
0.336051 0.124024 0.035237 0.8 0 0
0.302210 0.157770 0.184866 0.8 0 0
0.232509 0.866989 0.192635 0.8 0 0
0.151801 0.494721 0.129629 0.8 0 0
0.219240 0.499841 0.042657 0.8 0 0
0.206956 0.846161 0.192825 0.8 0 0
0.210936 0.181994 0.192691 0.8 0 0
0.246237 0.232712 0.190701 0.8 0 0
0.173265 0.611984 0.039466 0.8 0 0
0.294876 0.535046 0.119279 0.8 0 0
0.287966 0.472149 0.123789 0.8 0 0
0.360654 0.490800 0.120118 0.8 0 0
0.326068 0.464316 0.155116 0.8 0 0
0.249888 0.777146 0.190448 0.8 0 0
0.180311 0.808033 0.191681 0.8 0 0
0.180840 0.866555 0.190197 0.8 0 0
0.182256 0.310374 0.031319 0.8 0 0
0.537597 0.507287 0.032705 0.8 0 0
0.670575 0.640589 0.068535 0.8 0 0
0.620578 0.595167 0.067868 0.8 0 0
0.206156 0.379420 0.042557 0.8 0 0
0.263881 0.166397 0.041565 0.8 0 0
0.415585 0.523542 0.105693 0.8 0 0
0.669835 0.497050 0.077281 0.8 0 0
0.168401 0.444107 0.099202 0.8 0 0
0.281979 0.944775 0.041151 0.8 0 0
0.153663 0.510162 0.038601 0.8 0 0
0.557806 0.480059 0.034793 0.8 0 0
0.328281 0.953024 0.037727 0.8 0 0
0.087776 0.441622 0.090410 0.8 0 0
0.334901 0.463596 0.109609 0.8 0 0
0.258660 0.064921 0.192617 0.8 0 0
0.667809 0.279816 0.066967 0.8 0 0
0.212376 0.551744 0.177734 0.8 0 0
0.194655 0.434187 0.025541 0.8 0 0
0.342834 0.152277 0.033137 0.8 0 0
0.631170 0.494155 0.081343 0.8 0 0
0.269685 0.968999 0.025031 0.8 0 0
0.217697 0.839822 0.039699 0.8 0 0
0.252702 0.425315 0.026963 0.8 0 0
0.189778 0.368040 0.176192 0.8 0 0
0.161630 0.788058 0.186337 0.8 0 0
0.221941 0.507776 0.187437 0.8 0 0
0.058942 0.460094 0.045611 0.8 0 0
0.215276 0.883741 0.192993 0.8 0 0
0.148795 0.362634 0.177721 0.8 0 0
0.219152 0.487937 0.128914 0.8 0 0
0.324365 0.898648 0.029404 0.8 0 0
0.221795 0.676376 0.191725 0.8 0 0
0.228184 0.485272 0.025990 0.8 0 0
0.236689 0.516932 0.026113 0.8 0 0
0.638069 0.347296 0.063837 0.8 0 0
0.672832 0.503769 0.077468 0.8 0 0
0.592696 0.473289 0.064038 0.8 0 0
0.242286 0.164217 0.177226 0.8 0 0
0.085247 0.466140 0.124646 0.8 0 0
0.266598 0.962570 0.192650 0.8 0 0
0.633315 0.495727 0.117054 0.8 0 0
0.224286 0.376926 0.025549 0.8 0 0
0.226987 0.651906 0.177874 0.8 0 0
0.228361 0.487408 0.134292 0.8 0 0
0.111834 0.554682 0.053042 0.8 0 0
0.334094 0.211451 0.033902 0.8 0 0
0.211144 0.727563 0.041798 0.8 0 0
0.678270 0.602565 0.067776 0.8 0 0
0.245847 0.657894 0.042056 0.8 0 0
0.633085 0.363608 0.066283 0.8 0 0
0.223281 0.059559 0.032498 0.8 0 0
0.299218 0.704427 0.037186 0.8 0 0
0.227830 0.042865 0.177137 0.8 0 0
0.267290 0.825079 0.025500 0.8 0 0
0.262281 0.385349 0.027366 0.8 0 0
0.123412 0.559303 0.185059 0.8 0 0
0.348746 0.938049 0.034618 0.8 0 0
0.236272 0.316970 0.042172 0.8 0 0
0.655846 0.343888 0.068456 0.8 0 0
0.278443 0.368214 0.029208 0.8 0 0
0.237960 0.133490 0.041421 0.8 0 0
0.590497 0.480539 0.069970 0.8 0 0
0.254157 0.506495 0.026922 0.8 0 0
0.173821 0.419401 0.027513 0.8 0 0
0.199073 0.965244 0.190896 0.8 0 0
0.622347 0.476545 0.061500 0.8 0 0
0.180918 0.504059 0.042861 0.8 0 0
0.266665 0.310124 0.182655 0.8 0 0
0.299559 0.829569 0.184909 0.8 0 0
0.236525 0.427837 0.042303 0.8 0 0
0.199100 0.511329 0.061904 0.8 0 0
0.226593 0.851957 0.177002 0.8 0 0
0.191999 0.322294 0.192191 0.8 0 0
0.134614 0.443246 0.102008 0.8 0 0
0.155032 0.606956 0.176253 0.8 0 0
0.400970 0.544546 0.061272 0.8 0 0
0.419681 0.492488 0.112392 0.8 0 0
0.306245 0.315767 0.031847 0.8 0 0
0.224068 0.552212 0.039163 0.8 0 0
0.691797 0.376684 0.063580 0.8 0 0
0.687320 0.284560 0.062939 0.8 0 0
0.121658 0.545716 0.185364 0.8 0 0
0.212466 0.612361 0.025405 0.8 0 0
0.163087 0.603184 0.176001 0.8 0 0
0.238439 0.561095 0.181167 0.8 0 0
0.281106 0.341382 0.038853 0.8 0 0
0.250005 0.631191 0.025916 0.8 0 0
0.357201 0.504016 0.154924 0.8 0 0
0.702618 0.483050 0.067518 0.8 0 0
0.665751 0.513795 0.072875 0.8 0 0
0.638396 0.496296 0.128668 0.8 0 0
0.194472 0.308214 0.027064 0.8 0 0
0.227886 0.427761 0.179496 0.8 0 0
0.347693 0.468961 0.139741 0.8 0 0
0.602746 0.531012 0.069448 0.8 0 0
0.232194 0.564378 0.042379 0.8 0 0
0.207686 0.819003 0.176675 0.8 0 0
0.291146 0.885865 0.182360 0.8 0 0
0.343884 0.153626 0.033608 0.8 0 0
0.273284 0.176080 0.025596 0.8 0 0
0.267829 0.448132 0.097086 0.8 0 0
0.650537 0.559943 0.059233 0.8 0 0
0.341509 0.086261 0.035174 0.8 0 0
0.394899 0.455383 0.057832 0.8 0 0
0.196285 0.234515 0.036826 0.8 0 0
0.616148 0.430971 0.060453 0.8 0 0
0.294071 0.673825 0.037337 0.8 0 0
0.320192 0.248591 0.035145 0.8 0 0
0.646041 0.457689 0.070633 0.8 0 0
0.153984 0.576271 0.176013 0.8 0 0
0.215309 0.186561 0.040181 0.8 0 0
0.503676 0.517114 0.090742 0.8 0 0
0.298591 0.529633 0.165523 0.8 0 0
0.098172 0.525215 0.127172 0.8 0 0
0.673188 0.574443 0.061015 0.8 0 0
0.549962 0.485722 0.033816 0.8 0 0
0.287372 0.038540 0.041048 0.8 0 0
0.162831 0.493433 0.027303 0.8 0 0
0.300025 0.739899 0.037726 0.8 0 0
0.265953 0.788593 0.180701 0.8 0 0
0.304964 0.156713 0.038941 0.8 0 0
0.279076 0.814407 0.187358 0.8 0 0
0.585378 0.491889 0.064526 0.8 0 0
0.289335 0.480778 0.035154 0.8 0 0
0.678443 0.712806 0.067149 0.8 0 0
0.230448 0.047078 0.037646 0.8 0 0
0.279026 0.516021 0.027202 0.8 0 0
0.201724 0.543407 0.029929 0.8 0 0
0.425430 0.537967 0.037200 0.8 0 0
0.227432 0.458075 0.119041 0.8 0 0
0.303094 0.101671 0.040210 0.8 0 0
0.207280 0.912359 0.177260 0.8 0 0
0.622766 0.596971 0.068135 0.8 0 0
0.272305 0.499290 0.037172 0.8 0 0
0.184222 0.456886 0.121976 0.8 0 0
0.440996 0.523933 0.030640 0.8 0 0
0.661096 0.715295 0.066112 0.8 0 0
0.625608 0.443251 0.059030 0.8 0 0
0.324161 0.885978 0.029668 0.8 0 0
0.303491 0.136114 0.039523 0.8 0 0
0.400326 0.456509 0.047615 0.8 0 0
0.658153 0.613843 0.069194 0.8 0 0
0.077347 0.558331 0.096411 0.8 0 0
0.374556 0.544476 0.042728 0.8 0 0
0.261287 0.911390 0.192298 0.8 0 0
0.250902 0.825500 0.025246 0.8 0 0
0.335266 0.548750 0.082181 0.8 0 0
0.229373 0.763487 0.176947 0.8 0 0
0.281616 0.255577 0.183699 0.8 0 0
0.184831 0.466107 0.176008 0.8 0 0
0.652778 0.507920 0.037180 0.8 0 0
0.298459 0.377405 0.035789 0.8 0 0
0.268415 0.655158 0.184767 0.8 0 0
0.254459 0.461328 0.029495 0.8 0 0
0.204370 0.342976 0.042239 0.8 0 0
0.262327 0.472448 0.152913 0.8 0 0
0.216370 0.379333 0.042554 0.8 0 0
0.144640 0.388694 0.190412 0.8 0 0
0.269874 0.531558 0.030337 0.8 0 0
0.596236 0.498854 0.034668 0.8 0 0
0.265323 0.721039 0.041679 0.8 0 0
0.298460 0.527939 0.123214 0.8 0 0
0.165643 0.586369 0.030628 0.8 0 0
0.699947 0.446397 0.064763 0.8 0 0
0.247785 0.454255 0.184829 0.8 0 0
0.265885 0.817746 0.180143 0.8 0 0
0.219513 0.860508 0.039311 0.8 0 0
0.694602 0.445028 0.065504 0.8 0 0
0.156470 0.442633 0.081370 0.8 0 0
0.605331 0.457641 0.069064 0.8 0 0
0.246559 0.467064 0.027077 0.8 0 0
0.273549 0.904438 0.179575 0.8 0 0
0.183407 0.452075 0.031189 0.8 0 0
0.248770 0.724939 0.041929 0.8 0 0
0.326111 0.121270 0.030105 0.8 0 0
0.066409 0.549086 0.053303 0.8 0 0
0.405720 0.494521 0.116586 0.8 0 0
0.217878 0.350508 0.191619 0.8 0 0
0.226461 0.881891 0.192812 0.8 0 0
0.550292 0.484805 0.081571 0.8 0 0
0.218867 0.667082 0.176679 0.8 0 0
0.246211 0.946368 0.192872 0.8 0 0
0.148505 0.450078 0.191661 0.8 0 0
0.044491 0.490925 0.039983 0.8 0 0
0.264535 0.945125 0.177689 0.8 0 0
0.692114 0.660718 0.065873 0.8 0 0
0.255104 0.816701 0.025342 0.8 0 0
0.217518 0.664547 0.025299 0.8 0 0
0.235669 0.424518 0.025891 0.8 0 0
0.664346 0.391910 0.060288 0.8 0 0
0.666476 0.532582 0.060095 0.8 0 0
0.304859 0.274989 0.030713 0.8 0 0
0.386195 0.542000 0.039114 0.8 0 0
0.209964 0.402281 0.025417 0.8 0 0
0.447081 0.539321 0.041727 0.8 0 0
0.273990 0.924283 0.190868 0.8 0 0
0.643448 0.393155 0.059980 0.8 0 0
0.300511 0.959359 0.040848 0.8 0 0
0.338593 0.192708 0.033484 0.8 0 0
0.307148 0.097571 0.184265 0.8 0 0
0.181889 0.361227 0.040121 0.8 0 0
0.135082 0.471501 0.030421 0.8 0 0
0.187782 0.781366 0.192423 0.8 0 0
0.663318 0.707993 0.067171 0.8 0 0
0.167400 0.473312 0.041367 0.8 0 0
0.655652 0.505710 0.076097 0.8 0 0
0.669193 0.721366 0.062498 0.8 0 0
0.206461 0.623361 0.176439 0.8 0 0
0.227788 0.280451 0.191876 0.8 0 0
0.179605 0.464574 0.027797 0.8 0 0
0.643334 0.495508 0.116297 0.8 0 0
0.263335 0.543431 0.029157 0.8 0 0
0.570167 0.469960 0.047965 0.8 0 0
0.211502 0.760365 0.176668 0.8 0 0
0.204463 0.957251 0.192107 0.8 0 0
0.081466 0.557346 0.080270 0.8 0 0
0.226120 0.351765 0.177823 0.8 0 0
0.540005 0.493742 0.087762 0.8 0 0
0.387696 0.522541 0.111696 0.8 0 0
0.134497 0.441363 0.083295 0.8 0 0
0.329630 0.188083 0.032136 0.8 0 0
0.258615 0.367446 0.026445 0.8 0 0
0.272258 0.685553 0.027110 0.8 0 0
0.195043 0.636483 0.025813 0.8 0 0
0.294778 0.516174 0.132736 0.8 0 0
0.679973 0.687332 0.067560 0.8 0 0
0.178025 0.483682 0.175884 0.8 0 0
0.630187 0.515726 0.072418 0.8 0 0
0.336488 0.954676 0.036621 0.8 0 0
0.245134 0.687017 0.042031 0.8 0 0
0.214606 0.351736 0.176592 0.8 0 0
0.259513 0.734364 0.180828 0.8 0 0
0.266945 0.224372 0.181082 0.8 0 0
0.217815 0.497695 0.025874 0.8 0 0
0.259851 0.861943 0.041592 0.8 0 0
0.109261 0.441988 0.102160 0.8 0 0
0.078616 0.447207 0.055934 0.8 0 0
0.304659 0.409862 0.033800 0.8 0 0
0.157967 0.702855 0.178239 0.8 0 0
0.266832 0.552996 0.048849 0.8 0 0
0.231243 0.243769 0.176968 0.8 0 0
0.205407 0.223938 0.176592 0.8 0 0
0.216172 0.273249 0.041981 0.8 0 0
0.178256 0.800055 0.177776 0.8 0 0
0.671064 0.501297 0.179438 0.8 0 0
0.035763 0.526367 0.123394 0.8 0 0
0.260664 0.826230 0.179261 0.8 0 0
0.300703 0.088233 0.040788 0.8 0 0
0.240697 0.304257 0.042089 0.8 0 0
0.291919 0.418473 0.035940 0.8 0 0
0.669542 0.561209 0.068975 0.8 0 0
0.239341 0.427776 0.181083 0.8 0 0
0.251520 0.288137 0.041903 0.8 0 0
0.135885 0.380845 0.180853 0.8 0 0
0.288249 0.497579 0.034996 0.8 0 0
0.158890 0.523880 0.028338 0.8 0 0
0.219800 0.377579 0.025482 0.8 0 0
0.220381 0.316651 0.042408 0.8 0 0
0.408420 0.473009 0.104174 0.8 0 0
0.216949 0.488730 0.153078 0.8 0 0
0.629722 0.481159 0.038674 0.8 0 0
0.237778 0.075273 0.026115 0.8 0 0
0.257561 0.878629 0.041607 0.8 0 0
0.075094 0.493270 0.126703 0.8 0 0
0.221295 0.444990 0.178907 0.8 0 0
0.188863 0.683842 0.039832 0.8 0 0
0.667096 0.626193 0.060648 0.8 0 0
0.366696 0.495776 0.027709 0.8 0 0
0.158115 0.378649 0.176271 0.8 0 0
0.245257 0.228202 0.190952 0.8 0 0
0.651519 0.588930 0.069733 0.8 0 0
0.275577 0.549588 0.100836 0.8 0 0
0.628947 0.495355 0.035853 0.8 0 0
0.304587 0.908832 0.183790 0.8 0 0
0.137318 0.373561 0.180703 0.8 0 0
0.167087 0.499971 0.175698 0.8 0 0
0.291750 0.373926 0.036781 0.8 0 0
0.628365 0.556327 0.070533 0.8 0 0
0.253462 0.522043 0.027503 0.8 0 0
0.628372 0.494114 0.081174 0.8 0 0
0.278329 0.052268 0.025239 0.8 0 0
0.154859 0.521940 0.191825 0.8 0 0
0.136190 0.456601 0.120367 0.8 0 0
0.691011 0.515586 0.065992 0.8 0 0
0.625967 0.505492 0.091625 0.8 0 0
0.480733 0.521726 0.092966 0.8 0 0
0.067032 0.469795 0.124543 0.8 0 0
0.184399 0.327107 0.192280 0.8 0 0
0.218458 0.145667 0.027552 0.8 0 0
0.326422 0.491983 0.128306 0.8 0 0
0.275474 0.880228 0.180297 0.8 0 0
0.655084 0.505534 0.037190 0.8 0 0
0.027560 0.463315 0.121293 0.8 0 0
0.154212 0.529850 0.028899 0.8 0 0
0.625563 0.549378 0.058831 0.8 0 0
0.265124 0.094233 0.178383 0.8 0 0
0.300757 0.834487 0.027617 0.8 0 0
0.344153 0.893734 0.032257 0.8 0 0
0.207497 0.521095 0.128807 0.8 0 0
0.122120 0.443152 0.103581 0.8 0 0
0.260567 0.103006 0.192030 0.8 0 0
0.178182 0.705326 0.192249 0.8 0 0
0.202811 0.700326 0.176468 0.8 0 0
0.242869 0.343686 0.188333 0.8 0 0
0.158453 0.307595 0.190771 0.8 0 0
0.165060 0.562624 0.039678 0.8 0 0
0.271707 0.174233 0.188668 0.8 0 0
0.109343 0.530513 0.032279 0.8 0 0
0.313939 0.151756 0.029124 0.8 0 0
0.201959 0.108990 0.177250 0.8 0 0
0.288983 0.049817 0.180852 0.8 0 0
0.179315 0.798898 0.191744 0.8 0 0
0.673762 0.503396 0.136929 0.8 0 0
0.131836 0.487549 0.030074 0.8 0 0
0.187593 0.541453 0.191490 0.8 0 0
0.121248 0.451726 0.118427 0.8 0 0
0.307944 0.972304 0.025608 0.8 0 0
0.631287 0.630321 0.062929 0.8 0 0
0.307807 0.462410 0.159851 0.8 0 0
0.261482 0.804926 0.179775 0.8 0 0
0.479264 0.510001 0.100417 0.8 0 0
0.561527 0.479047 0.073843 0.8 0 0
0.298534 0.533699 0.120301 0.8 0 0
0.209685 0.253741 0.192305 0.8 0 0
0.297984 0.108107 0.025907 0.8 0 0
0.296865 0.713762 0.029866 0.8 0 0
0.215570 0.959564 0.192953 0.8 0 0
0.178115 0.104032 0.184140 0.8 0 0
0.123574 0.548434 0.181137 0.8 0 0
0.204539 0.155530 0.192770 0.8 0 0
0.216572 0.445024 0.092743 0.8 0 0
0.207148 0.150089 0.033051 0.8 0 0
0.381053 0.499561 0.119583 0.8 0 0
0.411704 0.498659 0.115117 0.8 0 0
0.077292 0.529099 0.125350 0.8 0 0
0.280631 0.541836 0.036774 0.8 0 0
0.162413 0.352603 0.176363 0.8 0 0
0.293524 0.526072 0.167813 0.8 0 0
0.224274 0.812398 0.176923 0.8 0 0
0.309120 0.071272 0.039934 0.8 0 0
0.207444 0.776120 0.176623 0.8 0 0
0.317362 0.035017 0.185903 0.8 0 0
0.323422 0.100758 0.029259 0.8 0 0
0.205105 0.237632 0.040084 0.8 0 0
0.050729 0.554000 0.111788 0.8 0 0
0.145730 0.591679 0.176743 0.8 0 0
0.176078 0.164101 0.190146 0.8 0 0
0.299258 0.772820 0.028833 0.8 0 0
0.168718 0.660824 0.192058 0.8 0 0
0.468138 0.506465 0.103667 0.8 0 0
0.183190 0.760987 0.176700 0.8 0 0
0.249263 0.085102 0.041314 0.8 0 0
0.632512 0.404944 0.069565 0.8 0 0
0.224132 0.524426 0.025893 0.8 0 0
0.670024 0.310822 0.067692 0.8 0 0
0.236578 0.186416 0.025285 0.8 0 0
0.192644 0.707123 0.039716 0.8 0 0
0.261743 0.772748 0.025599 0.8 0 0
0.638199 0.476137 0.044372 0.8 0 0
0.671414 0.283163 0.067165 0.8 0 0
0.190731 0.443574 0.176123 0.8 0 0
0.474778 0.502641 0.030179 0.8 0 0
0.111817 0.449292 0.045280 0.8 0 0
0.633547 0.521083 0.071197 0.8 0 0
0.278598 0.922649 0.190189 0.8 0 0
0.198271 0.185969 0.192645 0.8 0 0
0.245049 0.236686 0.178281 0.8 0 0
0.647997 0.600083 0.069592 0.8 0 0
