0.242463 0.727374 0.100166 0.8 0 0
0.279659 0.072680 0.055334 0.8 0 0
0.482183 0.554943 0.088154 0.8 0 0
0.372831 0.511706 0.105022 0.8 0 0
0.215129 0.265392 0.108236 0.8 0 0
0.228834 0.129838 0.171258 0.8 0 0
0.220495 0.117686 0.067610 0.8 0 0
0.225782 0.045257 0.060754 0.8 0 0
0.275340 0.518280 0.109864 0.8 0 0
0.131220 0.479620 0.130826 0.8 0 0
0.453075 0.492840 0.085127 0.8 0 0
0.339412 0.929895 0.064631 0.8 0 0
0.270791 0.273674 0.094255 0.8 0 0
0.230586 0.657438 0.176815 0.8 0 0
0.219045 0.265940 0.086111 0.8 0 0
0.444165 0.539073 0.081287 0.8 0 0
0.204640 0.119039 0.164439 0.8 0 0
0.236450 0.481583 0.118945 0.8 0 0
0.294670 0.157438 0.169011 0.8 0 0
0.266899 0.933399 0.071709 0.8 0 0
0.213047 0.840851 0.170614 0.8 0 0
0.308647 0.461763 0.053481 0.8 0 0
0.296773 0.282200 0.053102 0.8 0 0
0.262906 0.272663 0.079977 0.8 0 0
0.203922 0.282014 0.051290 0.8 0 0
0.217918 0.709477 0.158128 0.8 0 0
0.320640 0.342497 0.055921 0.8 0 0
0.462795 0.490558 0.085822 0.8 0 0
0.208528 0.626617 0.064116 0.8 0 0
0.226757 0.677316 0.065647 0.8 0 0
0.287903 0.382150 0.165110 0.8 0 0
0.300011 0.802003 0.054651 0.8 0 0
0.280493 0.791929 0.158110 0.8 0 0
0.189525 0.475342 0.066223 0.8 0 0
0.472531 0.504245 0.039609 0.8 0 0
0.180393 0.410363 0.058566 0.8 0 0
0.210137 0.432694 0.062897 0.8 0 0
0.223797 0.493246 0.135213 0.8 0 0
0.210743 0.521620 0.061896 0.8 0 0
0.276699 0.050344 0.153589 0.8 0 0
0.285344 0.675833 0.172365 0.8 0 0
0.224770 0.326501 0.176529 0.8 0 0
0.477957 0.637104 0.085161 0.8 0 0
0.191309 0.587691 0.046910 0.8 0 0
0.053413 0.471821 0.069821 0.8 0 0
0.245237 0.481065 0.111484 0.8 0 0
0.164816 0.516641 0.167476 0.8 0 0
0.228460 0.480909 0.180155 0.8 0 0
0.486432 0.505230 0.094052 0.8 0 0
0.229052 0.852001 0.053437 0.8 0 0
0.239846 0.438488 0.044871 0.8 0 0
0.177580 0.653364 0.166702 0.8 0 0
0.332547 0.509965 0.042911 0.8 0 0
0.256173 0.734837 0.137192 0.8 0 0
0.160570 0.483779 0.170423 0.8 0 0
0.219571 0.208782 0.173256 0.8 0 0
0.315915 0.078574 0.067815 0.8 0 0
0.326982 0.716370 0.057901 0.8 0 0
0.235762 0.727551 0.100922 0.8 0 0
0.250787 0.529876 0.162519 0.8 0 0
0.284228 0.734584 0.171843 0.8 0 0
0.304961 0.677920 0.165637 0.8 0 0
0.214612 0.291155 0.065929 0.8 0 0
0.265304 0.501305 0.177417 0.8 0 0
0.220774 0.502131 0.180689 0.8 0 0
0.212214 0.728147 0.067406 0.8 0 0
0.322030 0.806738 0.062281 0.8 0 0
0.249599 0.748100 0.050032 0.8 0 0
0.302942 0.284478 0.164062 0.8 0 0
0.243249 0.623909 0.160090 0.8 0 0
0.193802 0.522186 0.058928 0.8 0 0
0.234920 0.042937 0.153488 0.8 0 0
0.103826 0.474323 0.059426 0.8 0 0
0.164832 0.477666 0.123109 0.8 0 0
0.263262 0.497013 0.136726 0.8 0 0
0.160240 0.476466 0.053365 0.8 0 0
0.288033 0.108008 0.169427 0.8 0 0
0.254128 0.503542 0.033011 0.8 0 0
0.315984 0.280097 0.056011 0.8 0 0
0.300689 0.438960 0.055593 0.8 0 0
0.502936 0.451003 0.080021 0.8 0 0
0.227823 0.660707 0.065245 0.8 0 0
0.313748 0.245592 0.061417 0.8 0 0
0.188265 0.631302 0.175630 0.8 0 0
0.319677 0.147255 0.064486 0.8 0 0
0.224106 0.503436 0.032173 0.8 0 0
0.492720 0.491870 0.083821 0.8 0 0
0.271870 0.834634 0.052721 0.8 0 0
0.197256 0.553487 0.062231 0.8 0 0
0.217050 0.089555 0.156341 0.8 0 0
0.304722 0.039646 0.156047 0.8 0 0
0.302871 0.191068 0.168175 0.8 0 0
0.520531 0.503460 0.071167 0.8 0 0
0.266321 0.144682 0.171493 0.8 0 0
0.094880 0.496310 0.028592 0.8 0 0
0.230632 0.467614 0.061851 0.8 0 0
0.252889 0.747141 0.050061 0.8 0 0
0.490997 0.523003 0.077516 0.8 0 0
0.489035 0.597931 0.081331 0.8 0 0
0.226470 0.503359 0.032135 0.8 0 0
0.194332 0.506522 0.043322 0.8 0 0
0.474949 0.503784 0.096024 0.8 0 0
0.029822 0.525969 0.059197 0.8 0 0
0.317326 0.676775 0.167557 0.8 0 0
0.288169 0.730256 0.059494 0.8 0 0
0.299169 0.464167 0.169575 0.8 0 0
0.208282 0.646783 0.177052 0.8 0 0
0.518412 0.540251 0.082102 0.8 0 0
0.312558 0.231134 0.167192 0.8 0 0
0.149317 0.505433 0.030584 0.8 0 0
0.257958 0.273050 0.090322 0.8 0 0
0.263722 0.264745 0.138541 0.8 0 0
0.131010 0.516710 0.039466 0.8 0 0
0.275187 0.515263 0.057576 0.8 0 0
0.128748 0.519630 0.131424 0.8 0 0
0.311929 0.789958 0.063121 0.8 0 0
0.279853 0.601252 0.174063 0.8 0 0
0.269167 0.461427 0.164982 0.8 0 0
0.179077 0.618865 0.163595 0.8 0 0
0.210360 0.525720 0.043421 0.8 0 0
0.305449 0.923593 0.166444 0.8 0 0
0.208519 0.631693 0.159721 0.8 0 0
0.320511 0.147498 0.064351 0.8 0 0
0.269524 0.272677 0.114194 0.8 0 0
0.299367 0.593323 0.167660 0.8 0 0
0.210700 0.525243 0.096037 0.8 0 0
0.203636 0.255066 0.158686 0.8 0 0
0.526742 0.602432 0.087356 0.8 0 0
0.214314 0.160149 0.170914 0.8 0 0
0.257940 0.735511 0.049834 0.8 0 0
0.501300 0.497045 0.105541 0.8 0 0
0.288393 0.198541 0.052902 0.8 0 0
0.234439 0.663468 0.176607 0.8 0 0
0.251214 0.555403 0.178897 0.8 0 0
0.320379 0.513006 0.121266 0.8 0 0
0.533234 0.603601 0.086490 0.8 0 0
0.302570 0.483754 0.058462 0.8 0 0
0.205046 0.196489 0.170791 0.8 0 0
0.303316 0.931597 0.070114 0.8 0 0
0.261322 0.279535 0.174797 0.8 0 0
0.323151 0.727743 0.058933 0.8 0 0
0.226435 0.400363 0.045669 0.8 0 0
0.432023 0.508872 0.095451 0.8 0 0
0.207599 0.805453 0.171209 0.8 0 0
0.483483 0.480344 0.086073 0.8 0 0
0.323040 0.486215 0.114897 0.8 0 0
0.331035 0.176481 0.061606 0.8 0 0
0.250478 0.123308 0.070472 0.8 0 0
0.300257 0.455268 0.051440 0.8 0 0
0.243736 0.563868 0.161399 0.8 0 0
0.258356 0.488400 0.039350 0.8 0 0
0.276339 0.200418 0.172264 0.8 0 0
0.280745 0.518235 0.107191 0.8 0 0
0.307133 0.034413 0.165699 0.8 0 0
0.300808 0.704259 0.164123 0.8 0 0
0.508033 0.423418 0.087795 0.8 0 0
0.244786 0.104653 0.054327 0.8 0 0
0.249717 0.677702 0.065324 0.8 0 0
0.300336 0.441640 0.171494 0.8 0 0
0.246224 0.479400 0.101050 0.8 0 0
0.232537 0.622812 0.046391 0.8 0 0
0.480824 0.470893 0.077015 0.8 0 0
0.213120 0.728843 0.174856 0.8 0 0
0.252326 0.718273 0.049278 0.8 0 0
0.206097 0.345172 0.159421 0.8 0 0
0.203603 0.494207 0.032141 0.8 0 0
0.218566 0.594072 0.063661 0.8 0 0
0.236010 0.673296 0.158900 0.8 0 0
0.224777 0.265751 0.065723 0.8 0 0
0.281307 0.598469 0.173878 0.8 0 0
0.218202 0.519821 0.054292 0.8 0 0
0.224988 0.209742 0.051558 0.8 0 0
0.184207 0.477501 0.054733 0.8 0 0
0.310284 0.063654 0.069260 0.8 0 0
0.239936 0.455629 0.179360 0.8 0 0
0.292491 0.382725 0.051191 0.8 0 0
0.276324 0.334749 0.173842 0.8 0 0
0.504575 0.501715 0.073823 0.8 0 0
0.220331 0.267932 0.062464 0.8 0 0
0.274405 0.880657 0.155046 0.8 0 0
0.237984 0.479224 0.103282 0.8 0 0
0.274384 0.181182 0.172230 0.8 0 0
0.304576 0.112545 0.158491 0.8 0 0
0.330179 0.089690 0.065228 0.8 0 0
0.509884 0.500769 0.061537 0.8 0 0
0.276436 0.467385 0.058087 0.8 0 0
0.218518 0.728655 0.075474 0.8 0 0
0.431391 0.510102 0.078010 0.8 0 0
0.236833 0.727187 0.107535 0.8 0 0
0.243079 0.455726 0.044463 0.8 0 0
0.240107 0.324501 0.047929 0.8 0 0
0.284796 0.725836 0.119206 0.8 0 0
0.272546 0.404212 0.061213 0.8 0 0
0.292321 0.141447 0.054212 0.8 0 0
0.243551 0.597834 0.045906 0.8 0 0
0.271921 0.884063 0.170713 0.8 0 0
0.237442 0.267137 0.095501 0.8 0 0
0.277769 0.480651 0.067815 0.8 0 0
0.237728 0.200099 0.173293 0.8 0 0
0.263767 0.612597 0.063206 0.8 0 0
0.314454 0.237480 0.061638 0.8 0 0
0.182181 0.344577 0.163604 0.8 0 0
0.221833 0.259937 0.157494 0.8 0 0
0.466239 0.610906 0.088056 0.8 0 0
0.286940 0.836837 0.068756 0.8 0 0
0.524494 0.497222 0.060251 0.8 0 0
0.250009 0.310968 0.065615 0.8 0 0
0.237464 0.113951 0.154572 0.8 0 0
0.239753 0.742687 0.174626 0.8 0 0
0.113458 0.474299 0.112701 0.8 0 0
0.218825 0.828568 0.067281 0.8 0 0
0.269266 0.868152 0.069967 0.8 0 0
0.271399 0.708101 0.065756 0.8 0 0
0.073368 0.508684 0.139416 0.8 0 0
0.178884 0.439133 0.177106 0.8 0 0
0.429962 0.499595 0.058322 0.8 0 0
0.260326 0.539353 0.060774 0.8 0 0
0.492896 0.503354 0.084535 0.8 0 0
0.304656 0.819871 0.065416 0.8 0 0
0.240661 0.756008 0.157185 0.8 0 0
0.215315 0.290160 0.158209 0.8 0 0
0.282259 0.736384 0.118631 0.8 0 0
0.266769 0.230971 0.050879 0.8 0 0
0.261917 0.102465 0.070856 0.8 0 0
0.358966 0.505969 0.039685 0.8 0 0
0.286632 0.735059 0.068515 0.8 0 0
0.241604 0.372081 0.064160 0.8 0 0
0.510373 0.584040 0.082098 0.8 0 0
0.248777 0.264554 0.103442 0.8 0 0
0.242781 0.730526 0.164374 0.8 0 0
0.190939 0.737425 0.169955 0.8 0 0
0.503322 0.496991 0.150002 0.8 0 0
0.272542 0.680821 0.049001 0.8 0 0
0.261299 0.272945 0.125425 0.8 0 0
0.290988 0.465979 0.168409 0.8 0 0
0.328279 0.918751 0.163076 0.8 0 0
0.522871 0.500247 0.097467 0.8 0 0
0.273783 0.804670 0.156682 0.8 0 0
0.296705 0.490660 0.054109 0.8 0 0
0.292801 0.054055 0.154746 0.8 0 0
0.298436 0.770069 0.169296 0.8 0 0
0.452589 0.475991 0.086396 0.8 0 0
0.190815 0.296118 0.161166 0.8 0 0
0.506412 0.500963 0.039185 0.8 0 0
0.282713 0.489385 0.126653 0.8 0 0
0.486095 0.495150 0.085095 0.8 0 0
0.276046 0.099441 0.154642 0.8 0 0
0.111329 0.486236 0.036798 0.8 0 0
0.284983 0.917215 0.169589 0.8 0 0
0.217056 0.145189 0.170751 0.8 0 0
0.520585 0.592419 0.087363 0.8 0 0
0.303143 0.153887 0.167698 0.8 0 0
0.222425 0.083138 0.067401 0.8 0 0
0.310459 0.700133 0.059726 0.8 0 0
0.273199 0.204491 0.172783 0.8 0 0
0.166648 0.504045 0.063177 0.8 0 0
0.212945 0.046720 0.159850 0.8 0 0
0.283717 0.273781 0.109540 0.8 0 0
0.339584 0.943728 0.062376 0.8 0 0
0.214406 0.513131 0.043151 0.8 0 0
0.216556 0.612892 0.178113 0.8 0 0
0.335063 0.967297 0.160363 0.8 0 0
0.234257 0.972008 0.168398 0.8 0 0
0.265237 0.451961 0.164072 0.8 0 0
0.177136 0.527672 0.163543 0.8 0 0
0.263211 0.651929 0.175965 0.8 0 0
0.218505 0.292393 0.158139 0.8 0 0
0.234578 0.290059 0.158082 0.8 0 0
0.299822 0.199943 0.065343 0.8 0 0
0.499521 0.618817 0.082774 0.8 0 0
0.266043 0.108399 0.154670 0.8 0 0
0.283136 0.913895 0.169813 0.8 0 0
0.293689 0.940652 0.055924 0.8 0 0
0.263195 0.650654 0.175982 0.8 0 0
0.162024 0.526444 0.068331 0.8 0 0
0.309813 0.936856 0.165634 0.8 0 0
0.196402 0.636974 0.048503 0.8 0 0
0.326873 0.497059 0.033948 0.8 0 0
0.225987 0.756869 0.050435 0.8 0 0
0.208265 0.661612 0.159237 0.8 0 0
0.289647 0.947934 0.056052 0.8 0 0
0.480843 0.504780 0.051940 0.8 0 0
0.221374 0.071029 0.168086 0.8 0 0
0.265931 0.356406 0.175655 0.8 0 0
0.180852 0.464910 0.059716 0.8 0 0
0.264834 0.742136 0.157888 0.8 0 0
0.221865 0.727570 0.070476 0.8 0 0
0.276942 0.200055 0.157306 0.8 0 0
0.271405 0.298737 0.065577 0.8 0 0
0.293724 0.732968 0.149684 0.8 0 0
0.317982 0.364657 0.055243 0.8 0 0
0.291661 0.363598 0.059980 0.8 0 0
0.272550 0.901212 0.054516 0.8 0 0
0.264207 0.308765 0.065436 0.8 0 0
0.284969 0.974400 0.153191 0.8 0 0
0.201432 0.282514 0.063814 0.8 0 0
0.509923 0.500982 0.107701 0.8 0 0
0.222409 0.520168 0.117149 0.8 0 0
0.206406 0.808309 0.170834 0.8 0 0
0.255681 0.727158 0.096003 0.8 0 0
0.286107 0.373569 0.050349 0.8 0 0
0.144213 0.527336 0.105198 0.8 0 0
0.233182 0.602698 0.063643 0.8 0 0
0.473862 0.504975 0.047113 0.8 0 0
0.287316 0.515811 0.118187 0.8 0 0
0.276654 0.948077 0.055839 0.8 0 0
0.187740 0.323829 0.058264 0.8 0 0
0.313460 0.861305 0.160708 0.8 0 0
0.499284 0.503169 0.135783 0.8 0 0
0.276885 0.223203 0.051255 0.8 0 0
0.290468 0.859102 0.169447 0.8 0 0
0.167586 0.527112 0.073303 0.8 0 0
0.312779 0.329444 0.167059 0.8 0 0
0.205224 0.219040 0.063911 0.8 0 0
0.188806 0.494434 0.180552 0.8 0 0
0.315094 0.965964 0.157412 0.8 0 0
0.247241 0.707229 0.066136 0.8 0 0
0.256310 0.716999 0.066239 0.8 0 0
0.277954 0.152019 0.069296 0.8 0 0
0.250131 0.281756 0.049241 0.8 0 0
0.320922 0.776911 0.164682 0.8 0 0
0.323084 0.514125 0.113026 0.8 0 0
0.277876 0.112559 0.170533 0.8 0 0
0.195189 0.215232 0.162220 0.8 0 0
0.283492 0.818998 0.052496 0.8 0 0
0.234455 0.776128 0.156646 0.8 0 0
0.152076 0.469850 0.082238 0.8 0 0
0.238491 0.451222 0.161639 0.8 0 0
0.215987 0.176920 0.172047 0.8 0 0
0.291091 0.207637 0.170136 0.8 0 0
0.365640 0.505737 0.123616 0.8 0 0
0.260781 0.364871 0.160457 0.8 0 0
0.234491 0.666358 0.065282 0.8 0 0
0.036040 0.476197 0.049351 0.8 0 0
0.204970 0.269828 0.158311 0.8 0 0
0.520880 0.498380 0.099614 0.8 0 0
0.245630 0.634331 0.177116 0.8 0 0
0.251774 0.493680 0.179388 0.8 0 0
0.261448 0.874031 0.053603 0.8 0 0
0.235881 0.179790 0.172839 0.8 0 0
0.230513 0.730032 0.162446 0.8 0 0
0.515224 0.496335 0.066143 0.8 0 0
0.303814 0.293515 0.054016 0.8 0 0
0.231876 0.543673 0.062125 0.8 0 0
0.196494 0.562447 0.179138 0.8 0 0
0.259673 0.549764 0.163179 0.8 0 0
0.198846 0.794538 0.160243 0.8 0 0
0.198327 0.739802 0.159737 0.8 0 0
0.241067 0.762850 0.174123 0.8 0 0
0.247983 0.699098 0.175530 0.8 0 0
0.473758 0.496173 0.092369 0.8 0 0
0.183955 0.517989 0.179936 0.8 0 0
0.289554 0.265978 0.142282 0.8 0 0
0.444943 0.463807 0.084569 0.8 0 0
0.314875 0.245406 0.056282 0.8 0 0
0.229398 0.750384 0.157119 0.8 0 0
0.269045 0.189686 0.068462 0.8 0 0
0.294297 0.097977 0.168370 0.8 0 0
0.236028 0.393935 0.177952 0.8 0 0
0.470541 0.503873 0.091813 0.8 0 0
0.464846 0.398068 0.083903 0.8 0 0
0.298186 0.273845 0.085813 0.8 0 0
0.219747 0.597107 0.178437 0.8 0 0
0.204420 0.240127 0.053410 0.8 0 0
0.320599 0.767431 0.164954 0.8 0 0
0.216043 0.701084 0.175712 0.8 0 0
0.050395 0.469726 0.091593 0.8 0 0
0.213649 0.477427 0.062713 0.8 0 0
0.346184 0.508696 0.042217 0.8 0 0
0.290032 0.840113 0.053636 0.8 0 0
0.249611 0.222770 0.156874 0.8 0 0
0.307825 0.063622 0.157323 0.8 0 0
0.242304 0.228969 0.067882 0.8 0 0
0.229479 0.311469 0.176091 0.8 0 0
0.233225 0.377917 0.177616 0.8 0 0
0.288542 0.446041 0.057130 0.8 0 0
0.447706 0.515240 0.085782 0.8 0 0
0.260018 0.043597 0.072402 0.8 0 0
0.292375 0.908430 0.168583 0.8 0 0
0.205592 0.465935 0.180167 0.8 0 0
0.498762 0.504512 0.088613 0.8 0 0
0.298973 0.296640 0.163878 0.8 0 0
0.098447 0.518456 0.040464 0.8 0 0
0.208697 0.341258 0.176724 0.8 0 0
0.173326 0.610631 0.167129 0.8 0 0
0.239130 0.749630 0.067377 0.8 0 0
0.190336 0.566883 0.178742 0.8 0 0
0.259946 0.131662 0.053425 0.8 0 0
0.284481 0.777273 0.159204 0.8 0 0
0.351942 0.486698 0.101833 0.8 0 0
0.278151 0.821058 0.052462 0.8 0 0
0.494386 0.496478 0.097074 0.8 0 0
0.402099 0.490879 0.048580 0.8 0 0
0.271302 0.266186 0.157007 0.8 0 0
0.234691 0.309614 0.158507 0.8 0 0
0.220276 0.264060 0.066706 0.8 0 0
0.211986 0.750036 0.157658 0.8 0 0
0.291974 0.088221 0.168604 0.8 0 0
0.270149 0.799394 0.156736 0.8 0 0
0.220997 0.710521 0.158008 0.8 0 0
0.315062 0.878209 0.057871 0.8 0 0
0.284203 0.735433 0.140657 0.8 0 0
0.038653 0.491762 0.139178 0.8 0 0
0.269518 0.141733 0.069705 0.8 0 0
0.180770 0.480022 0.043721 0.8 0 0
0.518495 0.501898 0.043907 0.8 0 0
0.329238 0.911340 0.060416 0.8 0 0
0.230952 0.694068 0.175934 0.8 0 0
0.226916 0.642611 0.046828 0.8 0 0
0.446792 0.491946 0.082510 0.8 0 0
0.218251 0.189514 0.067168 0.8 0 0
0.297746 0.385962 0.171229 0.8 0 0
0.302675 0.847998 0.167746 0.8 0 0
0.274928 0.518701 0.107090 0.8 0 0
0.228067 0.265385 0.130758 0.8 0 0
0.273021 0.726965 0.117123 0.8 0 0
0.292003 0.186140 0.159094 0.8 0 0
0.427777 0.490020 0.064934 0.8 0 0
0.212691 0.801230 0.066057 0.8 0 0
0.175203 0.473144 0.098085 0.8 0 0
0.294883 0.317499 0.163970 0.8 0 0
0.100407 0.471994 0.070236 0.8 0 0
0.259786 0.496231 0.178216 0.8 0 0
0.221048 0.181546 0.053188 0.8 0 0
0.209881 0.806967 0.054812 0.8 0 0
0.280553 0.405213 0.049116 0.8 0 0
0.280503 0.264451 0.076573 0.8 0 0
0.296661 0.846273 0.168669 0.8 0 0
0.239098 0.954251 0.169141 0.8 0 0
0.229209 0.083281 0.056761 0.8 0 0
0.213245 0.579262 0.160558 0.8 0 0
0.156050 0.489334 0.138345 0.8 0 0
0.167562 0.517938 0.050929 0.8 0 0
0.238929 0.043951 0.153371 0.8 0 0
0.254785 0.264587 0.130742 0.8 0 0
0.241662 0.414655 0.045540 0.8 0 0
0.273090 0.690119 0.064928 0.8 0 0
0.230998 0.890082 0.069709 0.8 0 0
0.266173 0.043798 0.072316 0.8 0 0
0.231298 0.547589 0.161545 0.8 0 0
0.280474 0.489419 0.126887 0.8 0 0
0.360068 0.489338 0.044461 0.8 0 0
0.298411 0.693238 0.061256 0.8 0 0
0.313726 0.827472 0.166329 0.8 0 0
0.210662 0.736841 0.050941 0.8 0 0
0.510171 0.502889 0.154104 0.8 0 0
0.355370 0.484480 0.083960 0.8 0 0
0.285233 0.895375 0.070411 0.8 0 0
0.238570 0.974242 0.071215 0.8 0 0
0.249215 0.318761 0.175936 0.8 0 0
0.284033 0.751399 0.160012 0.8 0 0
0.272496 0.575131 0.164244 0.8 0 0
0.480447 0.634844 0.084385 0.8 0 0
0.226263 0.734668 0.116955 0.8 0 0
0.272886 0.320094 0.160758 0.8 0 0
0.267869 0.284760 0.049456 0.8 0 0
0.517568 0.547928 0.082186 0.8 0 0
0.279152 0.435407 0.174598 0.8 0 0
0.265080 0.171934 0.172165 0.8 0 0
0.246798 0.730085 0.162654 0.8 0 0
0.057117 0.528083 0.069674 0.8 0 0
0.303915 0.513976 0.121830 0.8 0 0
0.305804 0.325231 0.059403 0.8 0 0
0.500513 0.592233 0.090025 0.8 0 0
0.307961 0.325573 0.166205 0.8 0 0
0.290355 0.868595 0.069522 0.8 0 0
0.507850 0.397110 0.082238 0.8 0 0
0.452537 0.531553 0.086688 0.8 0 0
0.218984 0.947482 0.166726 0.8 0 0
0.197642 0.286763 0.052487 0.8 0 0
0.206239 0.355449 0.177064 0.8 0 0
0.287351 0.423187 0.166416 0.8 0 0
0.291901 0.880111 0.069754 0.8 0 0
0.277141 0.202708 0.172171 0.8 0 0
0.253797 0.185545 0.172678 0.8 0 0
0.473770 0.483153 0.076154 0.8 0 0
0.286383 0.899979 0.169581 0.8 0 0
0.283220 0.161632 0.053010 0.8 0 0
0.517371 0.612022 0.089640 0.8 0 0
0.188913 0.432972 0.178666 0.8 0 0
0.458400 0.491890 0.074797 0.8 0 0
0.310056 0.410649 0.053473 0.8 0 0
0.501664 0.498435 0.055927 0.8 0 0
0.219061 0.265518 0.103187 0.8 0 0
0.223466 0.239040 0.050653 0.8 0 0
0.265277 0.888586 0.170716 0.8 0 0
0.245776 0.335774 0.047721 0.8 0 0
0.266456 0.407083 0.162737 0.8 0 0
0.078369 0.530423 0.081026 0.8 0 0
0.213963 0.849172 0.156833 0.8 0 0
0.223228 0.817653 0.052709 0.8 0 0
0.506897 0.381679 0.082867 0.8 0 0
0.204260 0.715583 0.051095 0.8 0 0
0.239280 0.722650 0.066671 0.8 0 0
0.141073 0.471553 0.073466 0.8 0 0
0.243136 0.531760 0.179608 0.8 0 0
0.533701 0.641210 0.087168 0.8 0 0
0.300666 0.109544 0.157803 0.8 0 0
0.204149 0.517380 0.043349 0.8 0 0
0.298102 0.870655 0.055232 0.8 0 0
0.307960 0.329618 0.166342 0.8 0 0
0.242340 0.927246 0.169984 0.8 0 0
0.243299 0.439060 0.178908 0.8 0 0
0.295877 0.725724 0.096073 0.8 0 0
0.199036 0.265720 0.062515 0.8 0 0
0.179883 0.647754 0.171653 0.8 0 0
0.262628 0.384237 0.176477 0.8 0 0
0.184933 0.535703 0.162086 0.8 0 0
0.286837 0.825501 0.170386 0.8 0 0
0.512736 0.502268 0.100535 0.8 0 0
0.326494 0.484295 0.099722 0.8 0 0
0.280989 0.263702 0.091469 0.8 0 0
0.215991 0.524261 0.076008 0.8 0 0
0.114007 0.526016 0.061550 0.8 0 0
0.475319 0.504197 0.041186 0.8 0 0
0.277672 0.446728 0.165760 0.8 0 0
0.209793 0.787029 0.157540 0.8 0 0
0.246705 0.919592 0.153742 0.8 0 0
0.217175 0.192837 0.156545 0.8 0 0
0.209445 0.794349 0.065409 0.8 0 0
0.232109 0.919022 0.056303 0.8 0 0
0.413152 0.511495 0.078472 0.8 0 0
0.300640 0.099246 0.069274 0.8 0 0
0.243454 0.701378 0.048678 0.8 0 0
0.292206 0.933914 0.071300 0.8 0 0
0.217619 0.731929 0.161258 0.8 0 0
0.191037 0.479357 0.122513 0.8 0 0
0.498890 0.493501 0.078246 0.8 0 0
0.265152 0.408117 0.062165 0.8 0 0
0.228986 0.140101 0.171552 0.8 0 0
0.362441 0.486119 0.091420 0.8 0 0
0.231487 0.488418 0.180284 0.8 0 0
0.508703 0.497801 0.109160 0.8 0 0
0.519034 0.499928 0.074757 0.8 0 0
0.217877 0.426058 0.160750 0.8 0 0
0.086548 0.526127 0.061469 0.8 0 0
0.309787 0.767770 0.055685 0.8 0 0
0.302927 0.066434 0.156683 0.8 0 0
0.195324 0.444539 0.044886 0.8 0 0
0.305563 0.242487 0.062770 0.8 0 0
0.248786 0.265128 0.071660 0.8 0 0
0.214746 0.486039 0.061635 0.8 0 0
0.211623 0.271423 0.080564 0.8 0 0
0.216231 0.385789 0.178087 0.8 0 0
0.177080 0.610805 0.164511 0.8 0 0
0.195707 0.510509 0.162141 0.8 0 0
0.511628 0.603334 0.082817 0.8 0 0
0.177890 0.552880 0.163444 0.8 0 0
0.150606 0.499932 0.047552 0.8 0 0
0.221918 0.342113 0.158999 0.8 0 0
0.450015 0.504801 0.043990 0.8 0 0
0.222766 0.488257 0.043253 0.8 0 0
0.436757 0.496248 0.050902 0.8 0 0
0.297652 0.168774 0.168697 0.8 0 0
0.254521 0.080806 0.071475 0.8 0 0
0.334788 0.907406 0.064420 0.8 0 0
0.301923 0.592758 0.170852 0.8 0 0
0.476919 0.600215 0.081586 0.8 0 0
0.252365 0.272336 0.135343 0.8 0 0
0.477533 0.503953 0.041353 0.8 0 0
0.217356 0.911283 0.064203 0.8 0 0
0.514927 0.549154 0.084248 0.8 0 0
0.310537 0.145899 0.166496 0.8 0 0
0.487280 0.503432 0.063561 0.8 0 0
0.435768 0.503834 0.048046 0.8 0 0
0.125551 0.529679 0.094281 0.8 0 0
0.288242 0.268835 0.166595 0.8 0 0
0.249739 0.876764 0.070455 0.8 0 0
0.448711 0.495630 0.050150 0.8 0 0
0.211816 0.092294 0.157920 0.8 0 0
0.132627 0.511387 0.138098 0.8 0 0
0.223909 0.373960 0.177677 0.8 0 0
0.222087 0.615864 0.177950 0.8 0 0
0.458487 0.514534 0.086143 0.8 0 0
0.230433 0.463594 0.061959 0.8 0 0
0.274626 0.575775 0.060095 0.8 0 0
0.480486 0.496382 0.108517 0.8 0 0
0.301165 0.572728 0.055992 0.8 0 0
0.175709 0.566834 0.056722 0.8 0 0
0.257380 0.264141 0.116564 0.8 0 0
0.195530 0.222132 0.168912 0.8 0 0
0.491422 0.479348 0.077515 0.8 0 0
0.117902 0.472036 0.102115 0.8 0 0
0.455574 0.504011 0.073550 0.8 0 0
0.319594 0.081611 0.159697 0.8 0 0
0.236369 0.110269 0.170894 0.8 0 0
0.291129 0.520799 0.055407 0.8 0 0
0.218109 0.921340 0.064097 0.8 0 0
0.176688 0.371220 0.171414 0.8 0 0
0.072636 0.473328 0.108078 0.8 0 0
0.198006 0.647231 0.063136 0.8 0 0
0.302660 0.274847 0.112884 0.8 0 0
0.220090 0.927391 0.061571 0.8 0 0
0.294423 0.050292 0.071675 0.8 0 0
0.178238 0.475420 0.107618 0.8 0 0
0.319679 0.807946 0.163446 0.8 0 0
0.212980 0.407402 0.063505 0.8 0 0
0.290826 0.184241 0.169902 0.8 0 0
0.289649 0.645798 0.164427 0.8 0 0
0.260134 0.902038 0.170480 0.8 0 0
0.249217 0.889839 0.070719 0.8 0 0
0.260508 0.610080 0.063380 0.8 0 0
0.104478 0.474657 0.057905 0.8 0 0
0.160457 0.496835 0.143964 0.8 0 0
0.496966 0.503239 0.130427 0.8 0 0
0.336200 0.968934 0.066684 0.8 0 0
0.210609 0.103195 0.166949 0.8 0 0
0.334293 0.147942 0.062266 0.8 0 0
0.227532 0.676343 0.047757 0.8 0 0
0.247358 0.074697 0.153629 0.8 0 0
0.252464 0.586336 0.161058 0.8 0 0
0.275777 0.265425 0.153477 0.8 0 0
0.259986 0.759139 0.157439 0.8 0 0
0.255023 0.265422 0.073644 0.8 0 0
0.189883 0.329594 0.060127 0.8 0 0
0.234340 0.272665 0.102583 0.8 0 0
0.229431 0.505740 0.180458 0.8 0 0
0.220859 0.118101 0.056587 0.8 0 0
0.453401 0.431853 0.082728 0.8 0 0
0.434243 0.496345 0.047370 0.8 0 0
0.259642 0.881903 0.170969 0.8 0 0
0.222693 0.765724 0.067369 0.8 0 0
0.300914 0.150335 0.167991 0.8 0 0
0.228489 0.707400 0.048738 0.8 0 0
0.262827 0.939871 0.153571 0.8 0 0
0.206311 0.391923 0.063667 0.8 0 0
0.299332 0.805680 0.065643 0.8 0 0
0.257327 0.535427 0.163312 0.8 0 0
0.199378 0.803786 0.168878 0.8 0 0
0.285668 0.504350 0.034742 0.8 0 0
0.169001 0.588612 0.170041 0.8 0 0
0.220376 0.480156 0.115652 0.8 0 0
0.249819 0.310739 0.048459 0.8 0 0
0.126245 0.478221 0.043426 0.8 0 0
0.277454 0.479630 0.057441 0.8 0 0
0.214627 0.844823 0.156691 0.8 0 0
0.251059 0.819035 0.172614 0.8 0 0
0.263115 0.735018 0.107932 0.8 0 0
0.185123 0.516545 0.041400 0.8 0 0
0.432983 0.499447 0.081644 0.8 0 0
0.312839 0.124152 0.066442 0.8 0 0
0.316771 0.224934 0.056825 0.8 0 0
0.174988 0.470346 0.047100 0.8 0 0
0.250390 0.727011 0.125448 0.8 0 0
0.306356 0.736197 0.054772 0.8 0 0
0.270719 0.122373 0.170887 0.8 0 0
0.246573 0.965816 0.072207 0.8 0 0
0.162382 0.525031 0.061830 0.8 0 0
0.218725 0.791517 0.052225 0.8 0 0
0.170828 0.472597 0.097143 0.8 0 0
0.458838 0.432726 0.080413 0.8 0 0
0.242237 0.818601 0.172771 0.8 0 0
0.265116 0.956426 0.169098 0.8 0 0
0.440299 0.499297 0.116077 0.8 0 0
0.232649 0.606403 0.063748 0.8 0 0
0.182576 0.567034 0.060058 0.8 0 0
0.321765 0.149229 0.064093 0.8 0 0
0.260011 0.286783 0.158434 0.8 0 0
0.518580 0.419784 0.083224 0.8 0 0
0.290946 0.581031 0.172636 0.8 0 0
0.291191 0.100253 0.168862 0.8 0 0
0.350979 0.503312 0.035930 0.8 0 0
0.078758 0.527819 0.103130 0.8 0 0
0.183628 0.353159 0.173963 0.8 0 0
0.231142 0.489142 0.131234 0.8 0 0
0.197126 0.568478 0.178984 0.8 0 0
0.487325 0.496908 0.051243 0.8 0 0
0.533451 0.500472 0.150699 0.8 0 0
0.290311 0.715197 0.052100 0.8 0 0
0.324618 0.857165 0.059039 0.8 0 0
0.252517 0.946351 0.169548 0.8 0 0
0.463040 0.495629 0.039056 0.8 0 0
0.224519 0.507233 0.180504 0.8 0 0
0.300893 0.730804 0.062395 0.8 0 0
0.104768 0.475290 0.117308 0.8 0 0
0.245900 0.820514 0.069113 0.8 0 0
0.271167 0.612140 0.047927 0.8 0 0
0.232705 0.971095 0.153333 0.8 0 0
0.290399 0.730755 0.165271 0.8 0 0
0.203977 0.310976 0.158929 0.8 0 0
0.216057 0.690430 0.176014 0.8 0 0
0.219675 0.797002 0.173086 0.8 0 0
0.068168 0.473762 0.110080 0.8 0 0
0.318298 0.288909 0.058991 0.8 0 0
0.215050 0.268917 0.165914 0.8 0 0
0.277865 0.515649 0.047714 0.8 0 0
0.224796 0.734286 0.071616 0.8 0 0
0.343046 0.483932 0.075914 0.8 0 0
0.198792 0.697830 0.063288 0.8 0 0
0.258877 0.482298 0.114435 0.8 0 0
0.263407 0.735898 0.081029 0.8 0 0
0.196712 0.786290 0.161245 0.8 0 0
0.243724 0.845432 0.155299 0.8 0 0
0.485881 0.614320 0.091503 0.8 0 0
0.265460 0.463394 0.059894 0.8 0 0
0.286041 0.960909 0.072107 0.8 0 0
0.238963 0.966531 0.057449 0.8 0 0
0.225637 0.180230 0.052499 0.8 0 0
0.224238 0.514452 0.180337 0.8 0 0
0.297255 0.737137 0.112711 0.8 0 0
0.334989 0.121806 0.060860 0.8 0 0
0.275687 0.209298 0.067839 0.8 0 0
0.194364 0.520713 0.043784 0.8 0 0
0.285654 0.264217 0.125517 0.8 0 0
0.243649 0.521583 0.103880 0.8 0 0
0.301911 0.050112 0.166666 0.8 0 0
0.286989 0.613994 0.165104 0.8 0 0
0.208770 0.477922 0.108014 0.8 0 0
0.502967 0.572501 0.080671 0.8 0 0
0.202433 0.267465 0.052359 0.8 0 0
0.241135 0.075398 0.055403 0.8 0 0
0.232939 0.974557 0.070089 0.8 0 0
0.340960 0.109303 0.061913 0.8 0 0
0.300974 0.725632 0.096520 0.8 0 0
0.223232 0.383701 0.159922 0.8 0 0
0.317488 0.312413 0.058167 0.8 0 0
0.074715 0.506839 0.140891 0.8 0 0
0.094529 0.522292 0.043683 0.8 0 0
0.304502 0.790943 0.168141 0.8 0 0
0.235715 0.727598 0.130856 0.8 0 0
0.202256 0.480097 0.180483 0.8 0 0
0.302654 0.609051 0.167621 0.8 0 0
0.208898 0.745539 0.065304 0.8 0 0
0.234705 0.840402 0.155415 0.8 0 0
0.319986 0.063723 0.159151 0.8 0 0
0.293194 0.487699 0.054755 0.8 0 0
0.475211 0.499605 0.112292 0.8 0 0
0.475337 0.411458 0.090032 0.8 0 0
0.196129 0.520497 0.161963 0.8 0 0
0.297623 0.732569 0.161340 0.8 0 0
0.196597 0.486454 0.043476 0.8 0 0
0.226983 0.624042 0.064303 0.8 0 0
0.254311 0.693735 0.158762 0.8 0 0
0.254750 0.752792 0.050243 0.8 0 0
0.296339 0.238668 0.053587 0.8 0 0
0.296546 0.661193 0.060245 0.8 0 0
0.255771 0.031666 0.072549 0.8 0 0
0.336157 0.070263 0.061686 0.8 0 0
0.483101 0.496622 0.043834 0.8 0 0
0.295920 0.322455 0.060998 0.8 0 0
0.303230 0.055809 0.166535 0.8 0 0
0.294953 0.063390 0.167866 0.8 0 0
0.178017 0.412664 0.163488 0.8 0 0
0.249613 0.972869 0.056695 0.8 0 0
0.110009 0.524489 0.054308 0.8 0 0
0.249405 0.727502 0.093150 0.8 0 0
0.292815 0.365973 0.165300 0.8 0 0
0.310933 0.408155 0.169445 0.8 0 0
0.527008 0.624144 0.085695 0.8 0 0
0.304890 0.458513 0.171008 0.8 0 0
0.484864 0.497449 0.076034 0.8 0 0
0.203019 0.626760 0.063854 0.8 0 0
0.219531 0.502696 0.180696 0.8 0 0
0.182993 0.618357 0.162556 0.8 0 0
0.212612 0.531585 0.062130 0.8 0 0
0.300196 0.467843 0.054504 0.8 0 0
0.255036 0.265145 0.142986 0.8 0 0
0.314135 0.232545 0.056334 0.8 0 0
0.428092 0.500675 0.053656 0.8 0 0
0.294043 0.497969 0.031247 0.8 0 0
0.500865 0.612065 0.091176 0.8 0 0
0.215691 0.271485 0.077649 0.8 0 0
0.341787 0.487328 0.112399 0.8 0 0
0.260676 0.479837 0.064808 0.8 0 0
0.238784 0.966917 0.057506 0.8 0 0
0.307796 0.696657 0.054489 0.8 0 0
0.231633 0.619502 0.177704 0.8 0 0
0.275929 0.261705 0.173045 0.8 0 0
0.214643 0.110304 0.063662 0.8 0 0
0.215514 0.390616 0.159943 0.8 0 0
0.450180 0.495772 0.058245 0.8 0 0
0.284093 0.633469 0.060998 0.8 0 0
0.329600 0.235993 0.058610 0.8 0 0
0.486625 0.439588 0.079013 0.8 0 0
0.195280 0.489787 0.043411 0.8 0 0
0.268699 0.610414 0.175629 0.8 0 0
0.285917 0.270828 0.140126 0.8 0 0
0.517742 0.503613 0.072887 0.8 0 0
0.228083 0.682766 0.065796 0.8 0 0
0.305836 0.350752 0.166738 0.8 0 0
0.072876 0.477156 0.125925 0.8 0 0
0.258147 0.765796 0.067482 0.8 0 0
0.422438 0.502743 0.035444 0.8 0 0
0.266297 0.361066 0.063887 0.8 0 0
0.244896 0.068188 0.169919 0.8 0 0
0.312171 0.889124 0.067076 0.8 0 0
0.450779 0.495633 0.052174 0.8 0 0
0.299445 0.250210 0.169383 0.8 0 0
0.275605 0.387946 0.061409 0.8 0 0
0.242930 0.264830 0.127083 0.8 0 0
0.260359 0.266120 0.066612 0.8 0 0
0.243009 0.269774 0.158767 0.8 0 0
0.259935 0.107529 0.170712 0.8 0 0
0.234424 0.574218 0.178739 0.8 0 0
0.202152 0.145552 0.165488 0.8 0 0
0.243273 0.269278 0.100690 0.8 0 0
0.251703 0.147799 0.052855 0.8 0 0
0.412110 0.501695 0.037801 0.8 0 0
0.026373 0.525446 0.113837 0.8 0 0
0.229525 0.272303 0.093668 0.8 0 0
0.224627 0.159830 0.053622 0.8 0 0
0.312225 0.117271 0.057502 0.8 0 0
0.287194 0.268374 0.058767 0.8 0 0
0.266274 0.091599 0.154310 0.8 0 0
0.202788 0.471559 0.180256 0.8 0 0
0.222995 0.088004 0.169217 0.8 0 0
0.119211 0.479134 0.042604 0.8 0 0
0.304044 0.349922 0.058673 0.8 0 0
0.254544 0.207434 0.173188 0.8 0 0
0.456290 0.573125 0.086867 0.8 0 0
0.283333 0.298293 0.161588 0.8 0 0
0.233776 0.655901 0.176799 0.8 0 0
0.291605 0.273234 0.140232 0.8 0 0
0.243653 0.909691 0.170512 0.8 0 0
0.259573 0.666630 0.048016 0.8 0 0
0.295895 0.734652 0.063300 0.8 0 0
0.269711 0.726476 0.125732 0.8 0 0
0.271684 0.736235 0.087021 0.8 0 0
0.473661 0.430661 0.089090 0.8 0 0
0.259221 0.075398 0.054920 0.8 0 0
0.248105 0.298393 0.048761 0.8 0 0
0.259205 0.537283 0.163531 0.8 0 0
0.173042 0.543646 0.164394 0.8 0 0
0.350842 0.033855 0.064376 0.8 0 0
0.229440 0.965544 0.059444 0.8 0 0
0.279748 0.487728 0.041794 0.8 0 0
0.280795 0.127360 0.155425 0.8 0 0
0.283507 0.736513 0.098677 0.8 0 0
0.220902 0.519103 0.050218 0.8 0 0
0.184814 0.527283 0.095041 0.8 0 0
0.466238 0.550575 0.088025 0.8 0 0
0.328954 0.965587 0.061058 0.8 0 0
0.224653 0.479628 0.055259 0.8 0 0
0.257364 0.916061 0.071415 0.8 0 0
0.472237 0.503847 0.092402 0.8 0 0
0.263451 0.848911 0.069562 0.8 0 0
0.246999 0.340533 0.176493 0.8 0 0
0.195208 0.566991 0.062375 0.8 0 0
0.282154 0.274114 0.092727 0.8 0 0
0.206957 0.101253 0.160786 0.8 0 0
0.116842 0.481021 0.041057 0.8 0 0
0.192705 0.317151 0.174065 0.8 0 0
0.291355 0.676586 0.051769 0.8 0 0
0.235871 0.514433 0.043544 0.8 0 0
0.186166 0.431305 0.178190 0.8 0 0
0.226189 0.245891 0.174469 0.8 0 0
0.237132 0.950724 0.056978 0.8 0 0
0.289491 0.699794 0.171462 0.8 0 0
0.025034 0.521937 0.042285 0.8 0 0
0.244855 0.319949 0.176037 0.8 0 0
0.273096 0.961696 0.072344 0.8 0 0
0.163101 0.500000 0.167683 0.8 0 0
0.322140 0.514041 0.053514 0.8 0 0
0.496426 0.496766 0.132073 0.8 0 0
0.310467 0.086351 0.165808 0.8 0 0
0.195421 0.238976 0.170609 0.8 0 0
0.193835 0.477728 0.043853 0.8 0 0
0.225023 0.330966 0.158809 0.8 0 0
0.304719 0.619564 0.057344 0.8 0 0
0.095624 0.524691 0.117585 0.8 0 0
0.202979 0.271226 0.135323 0.8 0 0
0.226563 0.352096 0.046964 0.8 0 0
0.289616 0.891470 0.054539 0.8 0 0
0.320476 0.516554 0.070788 0.8 0 0
0.296629 0.267606 0.162553 0.8 0 0
0.308708 0.156468 0.056480 0.8 0 0
0.268709 0.470719 0.165228 0.8 0 0
0.328652 0.741777 0.058187 0.8 0 0
0.211880 0.339765 0.176762 0.8 0 0
0.424283 0.508234 0.059813 0.8 0 0
0.316146 0.783792 0.062240 0.8 0 0
0.257790 0.784121 0.051133 0.8 0 0
0.335723 0.044241 0.161525 0.8 0 0
0.316624 0.717769 0.166038 0.8 0 0
0.209859 0.521227 0.115932 0.8 0 0
0.219782 0.307526 0.176049 0.8 0 0
0.313410 0.328950 0.055008 0.8 0 0
0.210723 0.211203 0.172626 0.8 0 0
0.297949 0.438219 0.168514 0.8 0 0
0.212232 0.709637 0.175376 0.8 0 0
0.280636 0.269403 0.172429 0.8 0 0
0.215905 0.525556 0.161766 0.8 0 0
0.245861 0.480314 0.105858 0.8 0 0
0.466384 0.501311 0.075087 0.8 0 0
0.337068 0.025585 0.161105 0.8 0 0
0.252130 0.740518 0.049871 0.8 0 0
0.319138 0.363684 0.055428 0.8 0 0
0.196678 0.326132 0.062867 0.8 0 0
0.208882 0.184936 0.171008 0.8 0 0
0.226820 0.250471 0.174614 0.8 0 0
0.325758 0.963586 0.159092 0.8 0 0
0.491027 0.496403 0.085559 0.8 0 0
0.276795 0.485954 0.175544 0.8 0 0
0.246995 0.727413 0.096438 0.8 0 0
0.294358 0.736512 0.063605 0.8 0 0
0.279265 0.763965 0.066974 0.8 0 0
0.174657 0.434396 0.056063 0.8 0 0
0.305465 0.208798 0.064141 0.8 0 0
0.223596 0.475862 0.092871 0.8 0 0
0.236541 0.865534 0.069879 0.8 0 0
0.300066 0.293524 0.169797 0.8 0 0
0.197221 0.638651 0.176864 0.8 0 0
0.223597 0.085126 0.068227 0.8 0 0
0.297801 0.908808 0.055668 0.8 0 0
0.502802 0.587006 0.081044 0.8 0 0
0.295902 0.869191 0.157807 0.8 0 0
0.141390 0.502142 0.027861 0.8 0 0
0.059558 0.474683 0.114333 0.8 0 0
0.232361 0.942104 0.169228 0.8 0 0
0.074078 0.473701 0.109784 0.8 0 0
0.194142 0.398849 0.177871 0.8 0 0
0.263314 0.495796 0.177682 0.8 0 0
0.136396 0.509683 0.139517 0.8 0 0
0.202217 0.574392 0.160873 0.8 0 0
0.225358 0.708781 0.175676 0.8 0 0
0.500203 0.501806 0.058602 0.8 0 0
0.229961 0.934744 0.069498 0.8 0 0
0.225837 0.311339 0.176149 0.8 0 0
0.251958 0.345144 0.047573 0.8 0 0
0.283015 0.274058 0.102566 0.8 0 0
0.301415 0.084783 0.056291 0.8 0 0
0.247682 0.313057 0.048362 0.8 0 0
0.254302 0.818669 0.068925 0.8 0 0
0.262273 0.155554 0.155629 0.8 0 0
0.108811 0.475118 0.116515 0.8 0 0
0.169250 0.484686 0.038983 0.8 0 0
0.249978 0.435799 0.161496 0.8 0 0
0.365778 0.487283 0.097722 0.8 0 0
0.308053 0.261156 0.055060 0.8 0 0
0.140410 0.492605 0.141381 0.8 0 0
0.076771 0.473596 0.062176 0.8 0 0
0.492669 0.634768 0.092631 0.8 0 0
0.273791 0.551503 0.165238 0.8 0 0
0.217336 0.398922 0.160153 0.8 0 0
0.314926 0.030665 0.069891 0.8 0 0
0.195009 0.365103 0.160187 0.8 0 0
0.285240 0.151533 0.069187 0.8 0 0
0.497070 0.496906 0.149377 0.8 0 0
0.065731 0.508222 0.031990 0.8 0 0
0.209124 0.271951 0.106580 0.8 0 0
0.113904 0.484743 0.038029 0.8 0 0
0.196318 0.520418 0.050033 0.8 0 0
0.278980 0.057606 0.169202 0.8 0 0
0.316623 0.041909 0.069184 0.8 0 0
0.512263 0.498515 0.097997 0.8 0 0
0.199616 0.150843 0.163142 0.8 0 0
0.321484 0.149625 0.162281 0.8 0 0
0.230073 0.173963 0.172535 0.8 0 0
0.290226 0.210758 0.053022 0.8 0 0
0.284049 0.703983 0.161618 0.8 0 0
0.289240 0.126298 0.054057 0.8 0 0
0.318575 0.655800 0.055590 0.8 0 0
0.243116 0.916333 0.055067 0.8 0 0
0.510872 0.378021 0.083215 0.8 0 0
0.323886 0.120747 0.064921 0.8 0 0
0.266139 0.727822 0.116837 0.8 0 0
0.226026 0.736700 0.174956 0.8 0 0
0.324315 0.153335 0.058861 0.8 0 0
0.242821 0.783463 0.156626 0.8 0 0
0.315612 0.887607 0.066499 0.8 0 0
0.061443 0.489299 0.137536 0.8 0 0
0.283885 0.264662 0.071405 0.8 0 0
0.290837 0.588728 0.172562 0.8 0 0
0.328616 0.830400 0.164062 0.8 0 0
0.247293 0.398632 0.063373 0.8 0 0
0.300375 0.516181 0.110953 0.8 0 0
0.049197 0.502277 0.144080 0.8 0 0
0.212479 0.116343 0.157200 0.8 0 0
0.275042 0.326475 0.063967 0.8 0 0
0.184654 0.401908 0.048792 0.8 0 0
0.224231 0.522037 0.068322 0.8 0 0
0.206515 0.479856 0.119448 0.8 0 0
0.254322 0.565115 0.161857 0.8 0 0
0.210283 0.605355 0.160095 0.8 0 0
0.234214 0.553587 0.062344 0.8 0 0
0.232676 0.626460 0.064271 0.8 0 0
0.174288 0.515234 0.046476 0.8 0 0
0.204605 0.714898 0.174873 0.8 0 0
0.229885 0.071696 0.169532 0.8 0 0
0.511168 0.502414 0.127550 0.8 0 0
0.201934 0.270722 0.070597 0.8 0 0
0.274210 0.738114 0.050174 0.8 0 0
0.502719 0.512656 0.082736 0.8 0 0
0.296938 0.222188 0.053885 0.8 0 0
0.186174 0.441669 0.178685 0.8 0 0
0.243384 0.734571 0.136205 0.8 0 0
0.256769 0.291538 0.175160 0.8 0 0
0.207995 0.878772 0.158867 0.8 0 0
0.422627 0.507932 0.106886 0.8 0 0
0.215144 0.284029 0.175270 0.8 0 0
0.333393 0.154894 0.062121 0.8 0 0
0.064590 0.477395 0.127010 0.8 0 0
0.251134 0.140290 0.171641 0.8 0 0
0.170947 0.516997 0.041004 0.8 0 0
0.288123 0.479491 0.081427 0.8 0 0
0.378945 0.502089 0.036195 0.8 0 0
0.327662 0.871901 0.162480 0.8 0 0
0.210837 0.438159 0.062799 0.8 0 0
0.483704 0.504718 0.099081 0.8 0 0
0.264220 0.159057 0.069341 0.8 0 0
0.227720 0.439532 0.044641 0.8 0 0
0.320697 0.055070 0.059559 0.8 0 0
0.280134 0.375410 0.163717 0.8 0 0
0.495144 0.453412 0.078785 0.8 0 0
0.243134 0.035987 0.072003 0.8 0 0
0.327208 0.731319 0.057838 0.8 0 0
0.170710 0.428986 0.166596 0.8 0 0
0.228808 0.951903 0.168480 0.8 0 0
0.299132 0.028805 0.056833 0.8 0 0
0.263106 0.581959 0.162605 0.8 0 0
0.288302 0.480931 0.092619 0.8 0 0
0.311347 0.631505 0.168165 0.8 0 0
0.335582 0.200415 0.059960 0.8 0 0
0.254419 0.947948 0.055722 0.8 0 0
0.296934 0.733776 0.149953 0.8 0 0
0.277550 0.447615 0.048130 0.8 0 0
0.280506 0.726401 0.095244 0.8 0 0
0.486555 0.494259 0.076375 0.8 0 0
0.232348 0.734874 0.094779 0.8 0 0
0.239309 0.797060 0.173335 0.8 0 0
0.319492 0.092178 0.160039 0.8 0 0
0.238439 0.496323 0.137437 0.8 0 0
0.312269 0.871299 0.066344 0.8 0 0
0.334300 0.514258 0.106203 0.8 0 0
0.268655 0.837338 0.052740 0.8 0 0
0.305954 0.657423 0.166479 0.8 0 0
0.294091 0.623648 0.165842 0.8 0 0
0.466549 0.462124 0.077310 0.8 0 0
0.219571 0.247237 0.066977 0.8 0 0
0.219667 0.921841 0.061225 0.8 0 0
0.424958 0.510544 0.079541 0.8 0 0
0.276289 0.480312 0.069472 0.8 0 0
0.303458 0.855521 0.167541 0.8 0 0
0.198232 0.475839 0.043768 0.8 0 0
0.484089 0.626785 0.092042 0.8 0 0
0.234711 0.409924 0.178356 0.8 0 0
0.220414 0.314151 0.176252 0.8 0 0
0.206898 0.732519 0.064674 0.8 0 0
0.240805 0.096411 0.170614 0.8 0 0
0.300644 0.736686 0.093332 0.8 0 0
0.297812 0.471090 0.054731 0.8 0 0
0.423301 0.492232 0.046910 0.8 0 0
0.242797 0.367886 0.159905 0.8 0 0
0.335749 0.185566 0.060533 0.8 0 0
0.171122 0.403343 0.170899 0.8 0 0
0.301653 0.824776 0.160173 0.8 0 0
0.235025 0.065724 0.169603 0.8 0 0
0.456701 0.576492 0.086640 0.8 0 0
0.511975 0.501432 0.094829 0.8 0 0
0.280421 0.178950 0.171400 0.8 0 0
0.240217 0.502789 0.031762 0.8 0 0
0.278182 0.849998 0.069345 0.8 0 0
0.294759 0.517021 0.064110 0.8 0 0
0.258256 0.264177 0.092615 0.8 0 0
0.516523 0.500392 0.075843 0.8 0 0
0.224986 0.585887 0.178618 0.8 0 0
0.259111 0.735661 0.088505 0.8 0 0
0.216643 0.767312 0.051359 0.8 0 0
0.279657 0.525748 0.057327 0.8 0 0
0.280022 0.700751 0.161124 0.8 0 0
0.265104 0.428817 0.046501 0.8 0 0
0.283344 0.897679 0.054601 0.8 0 0
0.307841 0.884396 0.159084 0.8 0 0
0.337046 0.172776 0.060853 0.8 0 0
0.030306 0.524984 0.115976 0.8 0 0
0.221137 0.923457 0.060383 0.8 0 0
0.248462 0.491650 0.179861 0.8 0 0
0.530295 0.499604 0.134508 0.8 0 0
0.458128 0.494059 0.099429 0.8 0 0
0.442790 0.504297 0.048195 0.8 0 0
0.273522 0.736250 0.095344 0.8 0 0
0.481547 0.503854 0.075694 0.8 0 0
0.035743 0.525801 0.058590 0.8 0 0
0.506315 0.439340 0.086594 0.8 0 0
0.310418 0.580195 0.053412 0.8 0 0
0.209091 0.623713 0.064068 0.8 0 0
0.247848 0.049477 0.071973 0.8 0 0
0.251754 0.559724 0.062212 0.8 0 0
0.209806 0.786638 0.172545 0.8 0 0
0.298509 0.182747 0.054618 0.8 0 0
0.289633 0.828039 0.067998 0.8 0 0
0.372554 0.490452 0.116140 0.8 0 0
0.228861 0.397791 0.160321 0.8 0 0
0.323259 0.907720 0.160608 0.8 0 0
0.287316 0.066855 0.169052 0.8 0 0
0.318732 0.954527 0.164089 0.8 0 0
0.057144 0.474661 0.114238 0.8 0 0
0.479021 0.421806 0.079966 0.8 0 0
0.283264 0.186796 0.052337 0.8 0 0
0.304995 0.488257 0.052963 0.8 0 0
0.248889 0.107239 0.154359 0.8 0 0
0.272722 0.731691 0.057664 0.8 0 0
0.239988 0.669208 0.176377 0.8 0 0
0.247840 0.338967 0.159363 0.8 0 0
0.292059 0.479977 0.079985 0.8 0 0
0.275419 0.528581 0.058077 0.8 0 0
0.452956 0.492962 0.075442 0.8 0 0
0.493929 0.548486 0.078655 0.8 0 0
0.505042 0.497580 0.101773 0.8 0 0
0.183828 0.478025 0.179806 0.8 0 0
0.201490 0.803569 0.159235 0.8 0 0
0.261059 0.546835 0.060966 0.8 0 0
0.273211 0.296348 0.065455 0.8 0 0
0.252884 0.049213 0.153169 0.8 0 0
0.192943 0.684268 0.061397 0.8 0 0
0.506574 0.495877 0.061402 0.8 0 0
0.235634 0.638333 0.064532 0.8 0 0
0.277277 0.456928 0.047972 0.8 0 0
0.495997 0.505293 0.083070 0.8 0 0
0.241590 0.727065 0.114868 0.8 0 0
0.312738 0.856951 0.065696 0.8 0 0
0.452242 0.485952 0.075988 0.8 0 0
0.254953 0.401328 0.160832 0.8 0 0
0.304473 0.441756 0.170874 0.8 0 0
0.405171 0.498073 0.119278 0.8 0 0
0.278298 0.538237 0.058034 0.8 0 0
0.224969 0.050156 0.154837 0.8 0 0
0.288144 0.736839 0.112837 0.8 0 0
0.232685 0.243281 0.157037 0.8 0 0
0.484915 0.533513 0.077351 0.8 0 0
0.072544 0.476510 0.048702 0.8 0 0
0.203798 0.868799 0.161210 0.8 0 0
0.244891 0.089089 0.071058 0.8 0 0
0.509304 0.387730 0.090873 0.8 0 0
0.321292 0.200171 0.163962 0.8 0 0
0.249376 0.748760 0.157487 0.8 0 0
0.228005 0.405503 0.160474 0.8 0 0
0.273688 0.558838 0.175485 0.8 0 0
0.209794 0.269707 0.174657 0.8 0 0
0.325805 0.162219 0.058972 0.8 0 0
0.254895 0.832116 0.069266 0.8 0 0
0.263794 0.616374 0.046875 0.8 0 0
0.318469 0.871313 0.065415 0.8 0 0
0.111093 0.528962 0.075241 0.8 0 0
0.245969 0.226107 0.067896 0.8 0 0
0.075893 0.470716 0.075523 0.8 0 0
0.221411 0.267053 0.156856 0.8 0 0
0.185856 0.422144 0.161901 0.8 0 0
0.229258 0.730869 0.058744 0.8 0 0
0.308307 0.603342 0.056153 0.8 0 0
0.233514 0.734118 0.146903 0.8 0 0
0.169736 0.588656 0.168330 0.8 0 0
0.226728 0.044284 0.060204 0.8 0 0
0.072147 0.526746 0.063963 0.8 0 0
0.353623 0.512066 0.053820 0.8 0 0
0.345925 0.498946 0.131588 0.8 0 0
0.390835 0.510485 0.104670 0.8 0 0
0.301245 0.794871 0.161123 0.8 0 0
0.223532 0.727629 0.107214 0.8 0 0
0.264653 0.902516 0.170393 0.8 0 0
0.258577 0.273583 0.108666 0.8 0 0
0.302256 0.643319 0.170209 0.8 0 0
0.436370 0.504225 0.042708 0.8 0 0
0.192258 0.580052 0.061993 0.8 0 0
0.215992 0.878946 0.169390 0.8 0 0
0.121812 0.527956 0.070807 0.8 0 0
0.485524 0.570922 0.079633 0.8 0 0
0.263815 0.329479 0.048191 0.8 0 0
0.290935 0.265891 0.155854 0.8 0 0
0.195979 0.308251 0.160109 0.8 0 0
0.246345 0.594172 0.063201 0.8 0 0
0.239838 0.404398 0.063347 0.8 0 0
0.259217 0.911512 0.054569 0.8 0 0
0.246482 0.857217 0.171778 0.8 0 0
0.484842 0.494470 0.056628 0.8 0 0
0.294381 0.730800 0.170365 0.8 0 0
0.256999 0.733808 0.066666 0.8 0 0
0.440673 0.501218 0.038850 0.8 0 0
0.263407 0.273008 0.125534 0.8 0 0
0.232773 0.316470 0.176156 0.8 0 0
0.232251 0.386530 0.046136 0.8 0 0
0.186739 0.331966 0.173577 0.8 0 0
0.289783 0.350550 0.164323 0.8 0 0
0.121595 0.513257 0.036599 0.8 0 0
0.229426 0.892443 0.055432 0.8 0 0
0.304906 0.964688 0.155927 0.8 0 0
0.051521 0.527995 0.069113 0.8 0 0
0.179315 0.567120 0.059228 0.8 0 0
0.087162 0.482567 0.132569 0.8 0 0
0.311760 0.121748 0.057376 0.8 0 0
0.505561 0.507305 0.079269 0.8 0 0
0.345655 0.973398 0.065446 0.8 0 0
0.308995 0.384701 0.169527 0.8 0 0
0.198429 0.703287 0.174237 0.8 0 0
0.233623 0.782876 0.068059 0.8 0 0
0.252408 0.781564 0.156827 0.8 0 0
0.257738 0.332618 0.176125 0.8 0 0
0.289991 0.211942 0.159665 0.8 0 0
0.238001 0.734295 0.089417 0.8 0 0
0.245440 0.347748 0.064731 0.8 0 0
0.444629 0.495547 0.042432 0.8 0 0
0.208558 0.525417 0.078957 0.8 0 0
0.256592 0.726184 0.049561 0.8 0 0
0.285780 0.319021 0.172239 0.8 0 0
0.270242 0.244662 0.067007 0.8 0 0
0.260941 0.882071 0.053810 0.8 0 0
0.183198 0.452450 0.060184 0.8 0 0
0.259436 0.923986 0.054907 0.8 0 0
0.199651 0.422144 0.178782 0.8 0 0
0.346051 0.509566 0.043273 0.8 0 0
0.508512 0.498114 0.096827 0.8 0 0
0.062297 0.522944 0.046029 0.8 0 0
0.283590 0.736201 0.123529 0.8 0 0
0.543721 0.647061 0.088831 0.8 0 0
0.210115 0.730252 0.160953 0.8 0 0
0.208790 0.686586 0.048716 0.8 0 0
0.263595 0.220800 0.051098 0.8 0 0
0.317097 0.675871 0.057754 0.8 0 0
0.258864 0.304273 0.048783 0.8 0 0
0.215456 0.731601 0.057338 0.8 0 0
0.180325 0.482280 0.041177 0.8 0 0
0.167825 0.537268 0.174841 0.8 0 0
0.195641 0.714116 0.160222 0.8 0 0
0.214244 0.671948 0.176490 0.8 0 0
0.264505 0.301097 0.048962 0.8 0 0
0.225170 0.276114 0.157649 0.8 0 0
0.321511 0.031239 0.163505 0.8 0 0
0.235886 0.294843 0.175587 0.8 0 0
0.494358 0.496929 0.080334 0.8 0 0
0.249796 0.406529 0.045893 0.8 0 0
0.201140 0.730016 0.157300 0.8 0 0
0.319615 0.791031 0.062011 0.8 0 0
0.065124 0.469877 0.079143 0.8 0 0
0.250502 0.142290 0.155146 0.8 0 0
0.242801 0.044627 0.071829 0.8 0 0
0.200735 0.192561 0.159691 0.8 0 0
0.321989 0.507550 0.127758 0.8 0 0
0.279815 0.674169 0.050008 0.8 0 0
0.247295 0.874246 0.053555 0.8 0 0
0.104215 0.502667 0.144647 0.8 0 0
0.438494 0.495150 0.076819 0.8 0 0
0.218796 0.167669 0.054373 0.8 0 0
0.221113 0.875105 0.155456 0.8 0 0
0.327424 0.888981 0.064782 0.8 0 0
0.257495 0.134883 0.171406 0.8 0 0
0.185728 0.714855 0.168683 0.8 0 0
0.238938 0.727796 0.092573 0.8 0 0
0.257886 0.274203 0.049572 0.8 0 0
0.324529 0.200099 0.165032 0.8 0 0
0.246606 0.606274 0.046183 0.8 0 0
0.461374 0.499842 0.122601 0.8 0 0
0.247921 0.563056 0.178781 0.8 0 0
0.491063 0.496523 0.109262 0.8 0 0
0.300622 0.128389 0.158434 0.8 0 0
0.284153 0.223676 0.066739 0.8 0 0
0.204007 0.840880 0.159398 0.8 0 0
0.345433 0.035314 0.065128 0.8 0 0
0.306673 0.277121 0.054651 0.8 0 0
0.274237 0.565146 0.059726 0.8 0 0
0.307647 0.598049 0.053221 0.8 0 0
0.186840 0.413852 0.177494 0.8 0 0
0.310894 0.930899 0.165541 0.8 0 0
0.290681 0.726295 0.132056 0.8 0 0
0.258908 0.519149 0.178168 0.8 0 0
0.299182 0.811150 0.160263 0.8 0 0
0.311658 0.630494 0.054233 0.8 0 0
0.456647 0.507692 0.090683 0.8 0 0
0.293677 0.707973 0.062559 0.8 0 0
0.280271 0.544328 0.166453 0.8 0 0
0.278902 0.581640 0.059690 0.8 0 0
0.336045 0.912985 0.064455 0.8 0 0
0.454905 0.504386 0.050735 0.8 0 0
0.155410 0.528855 0.077426 0.8 0 0
0.269559 0.965859 0.072511 0.8 0 0
0.220911 0.076443 0.065920 0.8 0 0
0.242496 0.332927 0.047743 0.8 0 0
0.445401 0.490920 0.075502 0.8 0 0
0.311850 0.741190 0.055659 0.8 0 0
0.232778 0.103766 0.054962 0.8 0 0
0.215150 0.504706 0.033493 0.8 0 0
0.284603 0.274194 0.100903 0.8 0 0
0.282565 0.762405 0.066416 0.8 0 0
0.291321 0.752544 0.161066 0.8 0 0
0.031085 0.469693 0.091493 0.8 0 0
0.205459 0.174879 0.060563 0.8 0 0
0.206357 0.176639 0.062036 0.8 0 0
0.333222 0.159186 0.060123 0.8 0 0
0.358833 0.505959 0.039664 0.8 0 0
0.492430 0.503170 0.147273 0.8 0 0
0.199038 0.444945 0.179411 0.8 0 0
0.506673 0.619175 0.082915 0.8 0 0
0.434192 0.502714 0.117011 0.8 0 0
0.211961 0.104253 0.157328 0.8 0 0
0.289794 0.869611 0.053972 0.8 0 0
0.179117 0.526760 0.075479 0.8 0 0
0.250677 0.483808 0.061094 0.8 0 0
0.176988 0.579958 0.163679 0.8 0 0
0.176216 0.499014 0.144627 0.8 0 0
0.235711 0.734628 0.125538 0.8 0 0
0.319482 0.093795 0.058887 0.8 0 0
0.181356 0.374671 0.056995 0.8 0 0
0.279344 0.823268 0.171536 0.8 0 0
0.169165 0.518910 0.055156 0.8 0 0
0.236209 0.516076 0.162309 0.8 0 0
0.423518 0.489721 0.080559 0.8 0 0
0.137579 0.474326 0.112917 0.8 0 0
0.226772 0.734458 0.124100 0.8 0 0
0.428457 0.510320 0.078271 0.8 0 0
0.282826 0.766997 0.066562 0.8 0 0
0.323210 0.026484 0.158374 0.8 0 0
0.510225 0.502463 0.125340 0.8 0 0
0.255971 0.128029 0.070288 0.8 0 0
0.452672 0.563664 0.085780 0.8 0 0
0.491038 0.497455 0.046890 0.8 0 0
0.138208 0.519768 0.041994 0.8 0 0
0.481613 0.648043 0.092073 0.8 0 0
0.303618 0.823268 0.160518 0.8 0 0
0.227969 0.728779 0.082997 0.8 0 0
0.253748 0.479478 0.063801 0.8 0 0
0.250470 0.412752 0.062952 0.8 0 0
0.265132 0.267855 0.125568 0.8 0 0
0.307160 0.561570 0.054644 0.8 0 0
0.239605 0.883931 0.070353 0.8 0 0
0.204802 0.271157 0.078513 0.8 0 0
0.250301 0.264371 0.116744 0.8 0 0
0.311366 0.816266 0.056534 0.8 0 0
0.193244 0.485253 0.043627 0.8 0 0
0.260838 0.727428 0.087273 0.8 0 0
0.267040 0.904145 0.070943 0.8 0 0
0.320895 0.691578 0.057816 0.8 0 0
0.294147 0.573200 0.050883 0.8 0 0
0.212786 0.397414 0.160057 0.8 0 0
0.272122 0.726891 0.135929 0.8 0 0
0.202379 0.592555 0.160569 0.8 0 0
0.285863 0.468892 0.167739 0.8 0 0
0.229878 0.561613 0.044708 0.8 0 0
0.266881 0.724867 0.049697 0.8 0 0
0.209437 0.139000 0.157762 0.8 0 0
0.281316 0.722021 0.050837 0.8 0 0
0.242852 0.520912 0.069230 0.8 0 0
0.394919 0.506649 0.042781 0.8 0 0
0.254970 0.243918 0.067281 0.8 0 0
0.211393 0.128300 0.061868 0.8 0 0
0.027441 0.485038 0.133733 0.8 0 0
0.170399 0.462421 0.054846 0.8 0 0
0.240011 0.480233 0.056409 0.8 0 0
0.224970 0.609370 0.160101 0.8 0 0
0.503926 0.573254 0.088106 0.8 0 0
0.207727 0.662052 0.047950 0.8 0 0
0.288187 0.337199 0.172091 0.8 0 0
0.295814 0.581612 0.057152 0.8 0 0
0.318676 0.951613 0.158435 0.8 0 0
0.283792 0.879324 0.054117 0.8 0 0
0.192228 0.623298 0.061982 0.8 0 0
0.204568 0.528093 0.180310 0.8 0 0
0.225515 0.522184 0.106778 0.8 0 0
0.298185 0.304616 0.061376 0.8 0 0
0.265531 0.922259 0.153997 0.8 0 0
0.310628 0.786638 0.167273 0.8 0 0
0.301215 0.726010 0.129336 0.8 0 0
0.216214 0.456991 0.179788 0.8 0 0
0.454727 0.491994 0.085743 0.8 0 0
0.030837 0.476851 0.124367 0.8 0 0
0.276571 0.269432 0.159597 0.8 0 0
0.300981 0.263960 0.053964 0.8 0 0
0.315163 0.813600 0.166276 0.8 0 0
0.241830 0.676818 0.176165 0.8 0 0
0.214709 0.248281 0.066466 0.8 0 0
0.454322 0.497431 0.098208 0.8 0 0
0.241882 0.489654 0.130651 0.8 0 0
0.230787 0.706636 0.175637 0.8 0 0
0.274481 0.063637 0.153841 0.8 0 0
0.242287 0.605398 0.160475 0.8 0 0
0.251605 0.512845 0.060991 0.8 0 0
0.190754 0.518207 0.162180 0.8 0 0
0.228306 0.372682 0.046441 0.8 0 0
0.256129 0.862117 0.155144 0.8 0 0
0.217721 0.226930 0.173722 0.8 0 0
0.210411 0.594315 0.063477 0.8 0 0
0.332759 0.784193 0.059764 0.8 0 0
0.220873 0.425155 0.063121 0.8 0 0
