0.487421 0.822459 0.093215 0.8 0 0
0.567693 0.437326 0.389595 0.8 0 0
0.579533 0.708912 0.478965 0.8 0 0
0.034368 0.492303 0.248316 0.8 0 0
0.025000 0.532763 0.475417 0.8 0 0
0.045996 0.688021 0.358799 0.8 0 0
0.478814 0.794219 0.090383 0.8 0 0
0.383706 0.437326 0.368301 0.8 0 0
0.534086 0.681316 0.119249 0.8 0 0
0.269043 0.848328 0.137153 0.8 0 0
0.087674 0.865325 0.164127 0.8 0 0
0.143040 0.481059 0.587669 0.8 0 0
0.220750 0.552454 0.137153 0.8 0 0
0.307830 0.471412 0.140964 0.8 0 0
0.398358 0.527488 0.542347 0.8 0 0
0.087674 0.736696 0.111698 0.8 0 0
0.107481 0.453606 0.373773 0.8 0 0
0.325118 0.481047 0.611053 0.8 0 0
0.580051 0.688021 0.480004 0.8 0 0
0.203388 0.471412 0.383967 0.8 0 0
0.527635 0.073986 0.346240 0.8 0 0
0.046858 0.458218 0.316191 0.8 0 0
0.107958 0.932536 0.126519 0.8 0 0
0.037887 0.437326 0.348781 0.8 0 0
0.047493 0.611995 0.517796 0.8 0 0
0.364078 0.943042 0.081076 0.8 0 0
0.315276 0.446915 0.433472 0.8 0 0
0.264440 0.931925 0.137153 0.8 0 0
0.304781 0.521111 0.063484 0.8 0 0
0.296916 0.037663 0.122980 0.8 0 0
0.596759 0.633846 0.509253 0.8 0 0
0.075557 0.059191 0.329735 0.8 0 0
0.381031 0.527488 0.234231 0.8 0 0
0.114306 0.650901 0.155880 0.8 0 0
0.587937 0.068122 0.304645 0.8 0 0
0.128325 0.486093 0.290975 0.8 0 0
0.314286 0.357445 0.373773 0.8 0 0
0.061767 0.626921 0.525312 0.8 0 0
0.582031 0.081074 0.326383 0.8 0 0
0.451229 0.458218 0.350023 0.8 0 0
0.472912 0.479072 0.570292 0.8 0 0
0.088209 0.729748 0.108389 0.8 0 0
0.314107 0.147334 0.329662 0.8 0 0
0.137337 0.539086 0.495407 0.8 0 0
0.333556 0.846142 0.081076 0.8 0 0
0.290631 0.390095 0.356487 0.8 0 0
0.572913 0.573059 0.498192 0.8 0 0
0.393781 0.527488 0.357899 0.8 0 0
0.287408 0.098908 0.457931 0.8 0 0
0.095722 0.374044 0.420837 0.8 0 0
0.572586 0.437326 0.318277 0.8 0 0
0.060789 0.458218 0.285993 0.8 0 0
0.452219 0.471993 0.372533 0.8 0 0
0.215474 0.836787 0.081076 0.8 0 0
0.257149 0.371628 0.417517 0.8 0 0
0.028662 0.688021 0.530474 0.8 0 0
0.252412 0.105275 0.505907 0.8 0 0
0.151933 0.915907 0.087427 0.8 0 0
0.486207 0.789224 0.092815 0.8 0 0
0.399501 0.565510 0.081076 0.8 0 0
0.035123 0.708912 0.504315 0.8 0 0
0.473384 0.535310 0.365589 0.8 0 0
0.119588 0.722145 0.154143 0.8 0 0
0.319944 0.471412 0.094629 0.8 0 0
0.290538 0.469288 0.159629 0.8 0 0
0.582773 0.499365 0.431362 0.8 0 0
0.332175 0.747836 0.081076 0.8 0 0
0.308524 0.464375 0.052488 0.8 0 0
0.356996 0.806771 0.065713 0.8 0 0
0.511475 0.492265 0.265423 0.8 0 0
0.126445 0.527240 0.222247 0.8 0 0
0.302999 0.139898 0.306247 0.8 0 0
0.445927 0.471412 0.250097 0.8 0 0
0.118701 0.439765 0.339116 0.8 0 0
0.064573 0.627740 0.525724 0.8 0 0
0.334375 0.385945 0.383457 0.8 0 0
0.491052 0.058551 0.626103 0.8 0 0
0.215482 0.894339 0.137153 0.8 0 0
0.557658 0.078062 0.307257 0.8 0 0
0.077016 0.059900 0.336035 0.8 0 0
0.579897 0.670179 0.547093 0.8 0 0
0.201768 0.527488 0.497689 0.8 0 0
0.087674 0.509028 0.251923 0.8 0 0
0.322861 0.105046 0.409993 0.8 0 0
0.048920 0.618471 0.496216 0.8 0 0
0.204487 0.471412 0.562330 0.8 0 0
0.594751 0.708912 0.292695 0.8 0 0
0.323276 0.394510 0.322541 0.8 0 0
0.223673 0.814512 0.137153 0.8 0 0
0.271481 0.527488 0.554812 0.8 0 0
0.343163 0.444220 0.413202 0.8 0 0
0.585030 0.437326 0.272992 0.8 0 0
0.328553 0.527488 0.087913 0.8 0 0
0.051888 0.629538 0.269317 0.8 0 0
0.290538 0.456814 0.129419 0.8 0 0
0.294491 0.249403 0.424703 0.8 0 0
0.400063 0.887470 0.081076 0.8 0 0
0.179676 0.527488 0.561537 0.8 0 0
0.516573 0.618426 0.158880 0.8 0 0
0.331221 0.460807 0.251483 0.8 0 0
0.025000 0.454618 0.389805 0.8 0 0
0.314634 0.912804 0.081076 0.8 0 0
0.057392 0.688021 0.463827 0.8 0 0
0.281709 0.458218 0.365319 0.8 0 0
0.534086 0.662249 0.112613 0.8 0 0
0.432554 0.471412 0.379327 0.8 0 0
0.254485 0.593863 0.137153 0.8 0 0
0.553419 0.057841 0.331199 0.8 0 0
0.384747 0.590954 0.137153 0.8 0 0
0.323745 0.527488 0.133458 0.8 0 0
0.221031 0.527488 0.499326 0.8 0 0
0.534086 0.889755 0.146169 0.8 0 0
0.506915 0.651688 0.099627 0.8 0 0
0.273824 0.860087 0.081076 0.8 0 0
0.310048 0.343714 0.436060 0.8 0 0
0.477829 0.073297 0.336670 0.8 0 0
0.589260 0.437326 0.339202 0.8 0 0
0.359228 0.541378 0.137153 0.8 0 0
0.562334 0.458218 0.285302 0.8 0 0
0.534086 0.860412 0.152392 0.8 0 0
0.316927 0.471412 0.232875 0.8 0 0
0.062972 0.708912 0.463514 0.8 0 0
0.173991 0.527488 0.574360 0.8 0 0
0.554977 0.455351 0.264632 0.8 0 0
0.186307 0.544300 0.081076 0.8 0 0
0.310134 0.471412 0.336114 0.8 0 0
0.087674 0.546023 0.402088 0.8 0 0
0.399074 0.471412 0.463413 0.8 0 0
0.025000 0.528031 0.465494 0.8 0 0
0.324844 0.117132 0.292366 0.8 0 0
0.101144 0.449366 0.373773 0.8 0 0
0.066782 0.689558 0.304229 0.8 0 0
0.090782 0.846727 0.163618 0.8 0 0
0.265710 0.471412 0.202984 0.8 0 0
0.403515 0.471412 0.237977 0.8 0 0
0.316152 0.177935 0.373773 0.8 0 0
0.585060 0.708912 0.252298 0.8 0 0
0.534086 0.911002 0.141028 0.8 0 0
0.244487 0.471412 0.566357 0.8 0 0
0.348581 0.802202 0.072280 0.8 0 0
0.558730 0.684318 0.554211 0.8 0 0
0.410777 0.527488 0.534906 0.8 0 0
0.229179 0.527488 0.585611 0.8 0 0
0.510154 0.547889 0.372078 0.8 0 0
0.077360 0.458218 0.359205 0.8 0 0
0.352716 0.471412 0.450040 0.8 0 0
0.107085 0.437326 0.355969 0.8 0 0
0.291030 0.471412 0.252032 0.8 0 0
0.517489 0.918701 0.103105 0.8 0 0
0.397412 0.807765 0.081076 0.8 0 0
0.331221 0.446839 0.151579 0.8 0 0
0.356015 0.527488 0.274222 0.8 0 0
0.496778 0.690282 0.152369 0.8 0 0
0.047599 0.627392 0.501073 0.8 0 0
0.396526 0.791128 0.072280 0.8 0 0
0.508764 0.547413 0.254039 0.8 0 0
0.389852 0.608080 0.081076 0.8 0 0
0.025000 0.541227 0.254943 0.8 0 0
0.269619 0.108628 0.374032 0.8 0 0
0.322670 0.237093 0.373773 0.8 0 0
0.087674 0.518055 0.483370 0.8 0 0
0.341956 0.403063 0.406798 0.8 0 0
0.534086 0.510890 0.469413 0.8 0 0
0.087674 0.513056 0.368473 0.8 0 0
0.445791 0.889955 0.081076 0.8 0 0
0.442109 0.471412 0.374775 0.8 0 0
0.430261 0.527488 0.306926 0.8 0 0
0.377911 0.527488 0.329670 0.8 0 0
0.454911 0.121155 0.344520 0.8 0 0
0.157286 0.514798 0.601874 0.8 0 0
0.343733 0.700186 0.081076 0.8 0 0
0.230313 0.682445 0.081076 0.8 0 0
0.331399 0.638400 0.137153 0.8 0 0
0.091846 0.498573 0.246591 0.8 0 0
0.146721 0.060284 0.645442 0.8 0 0
0.311264 0.439448 0.052488 0.8 0 0
0.034486 0.688021 0.323585 0.8 0 0
0.066782 0.695159 0.254346 0.8 0 0
0.141798 0.537560 0.349551 0.8 0 0
0.057807 0.458218 0.323977 0.8 0 0
0.471380 0.524265 0.597330 0.8 0 0
0.330274 0.975000 0.106057 0.8 0 0
0.177127 0.451340 0.339116 0.8 0 0
0.165969 0.458218 0.340470 0.8 0 0
0.477110 0.480508 0.413779 0.8 0 0
0.144009 0.885075 0.146110 0.8 0 0
0.087674 0.875437 0.153077 0.8 0 0
0.245254 0.556565 0.081076 0.8 0 0
0.423032 0.770742 0.087290 0.8 0 0
0.087674 0.781114 0.123242 0.8 0 0
0.271484 0.095517 0.464053 0.8 0 0
0.025000 0.648207 0.265991 0.8 0 0
0.350270 0.527488 0.510231 0.8 0 0
0.338499 0.719948 0.081076 0.8 0 0
0.037917 0.437326 0.406138 0.8 0 0
0.258900 0.471412 0.288196 0.8 0 0
0.305833 0.418593 0.432984 0.8 0 0
0.360284 0.092172 0.476315 0.8 0 0
0.288621 0.115556 0.379661 0.8 0 0
0.584381 0.585586 0.478310 0.8 0 0
0.300765 0.630985 0.063484 0.8 0 0
0.214954 0.527488 0.217380 0.8 0 0
0.447014 0.081036 0.360824 0.8 0 0
0.331221 0.430915 0.368880 0.8 0 0
0.312725 0.741868 0.137153 0.8 0 0
0.374084 0.813064 0.081076 0.8 0 0
0.038770 0.688021 0.365134 0.8 0 0
0.590339 0.688021 0.329128 0.8 0 0
0.174085 0.527488 0.195556 0.8 0 0
0.253894 0.152318 0.394380 0.8 0 0
0.098743 0.359782 0.398121 0.8 0 0
0.291796 0.324528 0.422755 0.8 0 0
0.289896 0.242326 0.375748 0.8 0 0
0.330428 0.471412 0.227595 0.8 0 0
0.328476 0.471412 0.544393 0.8 0 0
0.190722 0.527488 0.283453 0.8 0 0
0.578025 0.688021 0.274626 0.8 0 0
0.351335 0.155835 0.379443 0.8 0 0
0.517499 0.550402 0.516552 0.8 0 0
0.087674 0.781861 0.153019 0.8 0 0
0.120019 0.852539 0.097925 0.8 0 0
0.336381 0.180115 0.389610 0.8 0 0
0.379607 0.527488 0.358551 0.8 0 0
0.469383 0.087415 0.609130 0.8 0 0
0.534086 0.882785 0.113156 0.8 0 0
0.432435 0.471412 0.276498 0.8 0 0
0.026256 0.608950 0.516263 0.8 0 0
0.049632 0.458218 0.271840 0.8 0 0
0.526660 0.497459 0.449166 0.8 0 0
0.331221 0.433345 0.363997 0.8 0 0
0.296916 0.151447 0.357383 0.8 0 0
0.392844 0.813570 0.137153 0.8 0 0
0.281044 0.471412 0.556564 0.8 0 0
0.163627 0.031892 0.626542 0.8 0 0
0.471401 0.437326 0.346055 0.8 0 0
0.127182 0.776575 0.095569 0.8 0 0
0.025000 0.456758 0.430330 0.8 0 0
0.214134 0.121198 0.522647 0.8 0 0
0.316603 0.471412 0.254405 0.8 0 0
0.278947 0.907724 0.137153 0.8 0 0
0.128014 0.486199 0.306043 0.8 0 0
0.087674 0.619622 0.116049 0.8 0 0
0.583037 0.437326 0.248488 0.8 0 0
0.400293 0.867899 0.137153 0.8 0 0
0.502216 0.087828 0.325271 0.8 0 0
0.578155 0.504274 0.434036 0.8 0 0
0.342480 0.471412 0.554262 0.8 0 0
0.256522 0.471412 0.316514 0.8 0 0
0.448603 0.776408 0.081076 0.8 0 0
0.331221 0.443993 0.176974 0.8 0 0
0.345793 0.151010 0.451528 0.8 0 0
0.521766 0.655328 0.160588 0.8 0 0
0.087674 0.534052 0.545557 0.8 0 0
0.045772 0.708912 0.398970 0.8 0 0
0.344133 0.527488 0.310825 0.8 0 0
0.288011 0.105046 0.391744 0.8 0 0
0.534086 0.527857 0.333674 0.8 0 0
0.465458 0.476522 0.495546 0.8 0 0
0.482843 0.743100 0.091709 0.8 0 0
0.487774 0.058057 0.621597 0.8 0 0
0.112491 0.105382 0.350503 0.8 0 0
0.461939 0.475318 0.204597 0.8 0 0
0.056283 0.688021 0.504084 0.8 0 0
0.406831 0.527488 0.440183 0.8 0 0
0.229778 0.371818 0.407790 0.8 0 0
0.125764 0.699358 0.096035 0.8 0 0
0.322748 0.675411 0.137153 0.8 0 0
0.175210 0.737074 0.081076 0.8 0 0
0.423553 0.831311 0.137153 0.8 0 0
0.172304 0.059482 0.603593 0.8 0 0
0.348463 0.471412 0.403861 0.8 0 0
0.052869 0.673125 0.525975 0.8 0 0
0.059209 0.457578 0.440047 0.8 0 0
0.481598 0.034063 0.613341 0.8 0 0
0.066782 0.450888 0.249141 0.8 0 0
0.380459 0.831829 0.081076 0.8 0 0
0.148073 0.093091 0.363753 0.8 0 0
0.579709 0.708912 0.517332 0.8 0 0
0.345135 0.806521 0.052366 0.8 0 0
0.296002 0.883045 0.137153 0.8 0 0
0.413888 0.955388 0.137153 0.8 0 0
0.521850 0.633575 0.104540 0.8 0 0
0.472005 0.857459 0.144220 0.8 0 0
0.298093 0.469332 0.427374 0.8 0 0
0.337854 0.380120 0.394163 0.8 0 0
0.064524 0.688021 0.531525 0.8 0 0
0.435085 0.471412 0.532554 0.8 0 0
0.301806 0.527488 0.539598 0.8 0 0
0.326865 0.614117 0.137153 0.8 0 0
0.319446 0.424065 0.095278 0.8 0 0
0.087674 0.530266 0.276606 0.8 0 0
0.368919 0.848451 0.137153 0.8 0 0
0.407402 0.527488 0.546451 0.8 0 0
0.517267 0.550322 0.512869 0.8 0 0
0.534086 0.517127 0.392743 0.8 0 0
0.051084 0.458218 0.271725 0.8 0 0
0.361588 0.783992 0.041323 0.8 0 0
0.329987 0.379236 0.422783 0.8 0 0
0.059991 0.573509 0.471734 0.8 0 0
0.518879 0.705287 0.103563 0.8 0 0
0.566290 0.467518 0.269317 0.8 0 0
0.306405 0.105046 0.398328 0.8 0 0
0.274660 0.648943 0.137153 0.8 0 0
0.324811 0.749639 0.137153 0.8 0 0
0.452679 0.791868 0.081786 0.8 0 0
0.468993 0.477731 0.207151 0.8 0 0
0.290538 0.451315 0.127174 0.8 0 0
0.435673 0.458218 0.361212 0.8 0 0
0.455667 0.473173 0.592261 0.8 0 0
0.481989 0.563983 0.147504 0.8 0 0
0.061066 0.056071 0.326328 0.8 0 0
0.433338 0.698888 0.081076 0.8 0 0
0.025000 0.680454 0.539780 0.8 0 0
0.279167 0.117982 0.413517 0.8 0 0
0.371467 0.644313 0.081076 0.8 0 0
0.028797 0.708912 0.305102 0.8 0 0
0.059128 0.553682 0.269317 0.8 0 0
0.331221 0.466804 0.292136 0.8 0 0
0.191839 0.795842 0.137153 0.8 0 0
0.387483 0.471412 0.299792 0.8 0 0
0.293428 0.527488 0.549749 0.8 0 0
0.314898 0.471412 0.466290 0.8 0 0
0.306724 0.527488 0.570013 0.8 0 0
0.025000 0.691650 0.419417 0.8 0 0
0.296895 0.471412 0.243140 0.8 0 0
0.056180 0.437326 0.374249 0.8 0 0
0.356897 0.458218 0.363213 0.8 0 0
0.428923 0.492511 0.611053 0.8 0 0
0.314481 0.527488 0.586301 0.8 0 0
0.143721 0.480826 0.316578 0.8 0 0
0.196978 0.443479 0.339116 0.8 0 0
0.363234 0.975000 0.088983 0.8 0 0
0.395546 0.614008 0.137153 0.8 0 0
0.215500 0.527488 0.265375 0.8 0 0
0.391591 0.695718 0.081876 0.8 0 0
0.519708 0.670997 0.159911 0.8 0 0
0.596759 0.447454 0.269618 0.8 0 0
0.434037 0.864771 0.081076 0.8 0 0
0.364828 0.471412 0.481478 0.8 0 0
0.042619 0.688021 0.371000 0.8 0 0
0.262258 0.882772 0.137153 0.8 0 0
0.568493 0.708912 0.478570 0.8 0 0
0.330874 0.351161 0.422138 0.8 0 0
0.203661 0.527488 0.292018 0.8 0 0
0.289298 0.155405 0.377590 0.8 0 0
0.396520 0.805665 0.072280 0.8 0 0
0.063301 0.576579 0.248316 0.8 0 0
0.118418 0.087977 0.324905 0.8 0 0
0.312278 0.162963 0.373773 0.8 0 0
0.333223 0.914033 0.081076 0.8 0 0
0.201266 0.473001 0.192130 0.8 0 0
0.534086 0.511456 0.371967 0.8 0 0
0.047032 0.058236 0.330952 0.8 0 0
0.562566 0.062482 0.305662 0.8 0 0
0.176514 0.471412 0.610388 0.8 0 0
0.596759 0.437747 0.259673 0.8 0 0
0.151828 0.498678 0.205181 0.8 0 0
0.563450 0.684846 0.554477 0.8 0 0
0.189370 0.101072 0.583182 0.8 0 0
0.462709 0.475581 0.351325 0.8 0 0
0.385812 0.471412 0.207088 0.8 0 0
0.534086 0.830374 0.120351 0.8 0 0
0.305413 0.750694 0.071331 0.8 0 0
0.534086 0.549099 0.452769 0.8 0 0
0.030254 0.478947 0.450806 0.8 0 0
0.290538 0.458885 0.207243 0.8 0 0
0.036239 0.606379 0.514969 0.8 0 0
0.141739 0.686575 0.146856 0.8 0 0
0.461349 0.888795 0.140715 0.8 0 0
0.296916 0.112536 0.334284 0.8 0 0
0.066782 0.454865 0.286286 0.8 0 0
0.410112 0.856290 0.081076 0.8 0 0
0.322731 0.527488 0.113067 0.8 0 0
0.580643 0.528425 0.475718 0.8 0 0
0.581093 0.684009 0.269317 0.8 0 0
0.284922 0.527488 0.116067 0.8 0 0
0.518851 0.834344 0.159629 0.8 0 0
0.041389 0.437326 0.257718 0.8 0 0
0.417893 0.072685 0.548773 0.8 0 0
0.176949 0.471412 0.602372 0.8 0 0
0.153044 0.720139 0.143138 0.8 0 0
0.025000 0.536640 0.452283 0.8 0 0
0.277677 0.975000 0.119460 0.8 0 0
0.228302 0.499116 0.611053 0.8 0 0
0.290538 0.427160 0.314295 0.8 0 0
0.044493 0.469697 0.446149 0.8 0 0
0.534086 0.793519 0.139256 0.8 0 0
0.491606 0.485467 0.230274 0.8 0 0
0.574674 0.484770 0.269317 0.8 0 0
0.381065 0.635668 0.137153 0.8 0 0
0.245442 0.471412 0.263061 0.8 0 0
0.271617 0.527488 0.356199 0.8 0 0
0.145985 0.506943 0.594439 0.8 0 0
0.369056 0.695718 0.075415 0.8 0 0
0.357233 0.498848 0.611053 0.8 0 0
0.190177 0.527488 0.500003 0.8 0 0
0.372192 0.577392 0.137153 0.8 0 0
0.569284 0.708912 0.372671 0.8 0 0
0.198727 0.784197 0.081033 0.8 0 0
0.492991 0.889197 0.151123 0.8 0 0
0.301261 0.527488 0.592310 0.8 0 0
0.363115 0.792455 0.137153 0.8 0 0
0.571991 0.546741 0.248316 0.8 0 0
0.171792 0.957778 0.137153 0.8 0 0
0.087674 0.540595 0.438427 0.8 0 0
0.241555 0.471412 0.364407 0.8 0 0
0.518996 0.790145 0.159677 0.8 0 0
0.269426 0.593781 0.137153 0.8 0 0
0.158805 0.535831 0.119771 0.8 0 0
0.558193 0.688021 0.324134 0.8 0 0
0.364964 0.527488 0.426158 0.8 0 0
0.055471 0.569785 0.469706 0.8 0 0
0.324528 0.116081 0.444464 0.8 0 0
0.126142 0.774034 0.095911 0.8 0 0
0.329055 0.784124 0.137153 0.8 0 0
0.025000 0.468626 0.269292 0.8 0 0
0.571260 0.573172 0.269317 0.8 0 0
0.248732 0.639137 0.137153 0.8 0 0
0.350653 0.471412 0.419024 0.8 0 0
0.596759 0.457977 0.302401 0.8 0 0
0.525211 0.801316 0.161722 0.8 0 0
0.372388 0.500659 0.611053 0.8 0 0
0.330573 0.471412 0.237203 0.8 0 0
0.305165 0.755321 0.137153 0.8 0 0
0.433715 0.124608 0.347527 0.8 0 0
0.045525 0.486110 0.269317 0.8 0 0
0.025000 0.561677 0.259528 0.8 0 0
0.098255 0.496380 0.447665 0.8 0 0
0.280745 0.587417 0.081076 0.8 0 0
0.534086 0.551101 0.429382 0.8 0 0
0.514571 0.587828 0.158222 0.8 0 0
0.235563 0.825096 0.137153 0.8 0 0
0.430747 0.527488 0.488765 0.8 0 0
0.523367 0.646342 0.105039 0.8 0 0
0.596759 0.705962 0.269515 0.8 0 0
0.285518 0.959799 0.137153 0.8 0 0
0.106285 0.549709 0.255319 0.8 0 0
0.423451 0.944175 0.081076 0.8 0 0
0.359032 0.471412 0.213545 0.8 0 0
0.318350 0.527488 0.221126 0.8 0 0
0.327990 0.471412 0.211448 0.8 0 0
0.087674 0.795453 0.160374 0.8 0 0
0.249865 0.657438 0.137153 0.8 0 0
0.293215 0.926298 0.081076 0.8 0 0
0.528123 0.098805 0.341501 0.8 0 0
0.157727 0.446509 0.339116 0.8 0 0
0.331356 0.260003 0.421766 0.8 0 0
0.566197 0.437326 0.263906 0.8 0 0
0.062526 0.588445 0.505939 0.8 0 0
0.277992 0.480475 0.611053 0.8 0 0
0.225065 0.437326 0.342373 0.8 0 0
0.098331 0.630073 0.105059 0.8 0 0
0.534086 0.510596 0.381171 0.8 0 0
0.025000 0.594184 0.490325 0.8 0 0
0.314715 0.662459 0.052488 0.8 0 0
0.368527 0.827541 0.081076 0.8 0 0
0.087674 0.533166 0.461598 0.8 0 0
0.198727 0.840257 0.088959 0.8 0 0
0.487916 0.540281 0.435960 0.8 0 0
0.309818 0.556483 0.137153 0.8 0 0
0.357054 0.940665 0.081076 0.8 0 0
0.295653 0.471412 0.250928 0.8 0 0
0.534086 0.879521 0.109136 0.8 0 0
0.261075 0.121215 0.371256 0.8 0 0
0.568127 0.481642 0.269317 0.8 0 0
0.174613 0.840666 0.081076 0.8 0 0
0.359328 0.851764 0.072280 0.8 0 0
0.246627 0.471412 0.589766 0.8 0 0
0.288164 0.119626 0.381066 0.8 0 0
0.346775 0.471412 0.211243 0.8 0 0
0.083212 0.437326 0.368065 0.8 0 0
0.362978 0.845774 0.081076 0.8 0 0
0.212593 0.478866 0.611053 0.8 0 0
0.032811 0.688021 0.287482 0.8 0 0
0.181313 0.804501 0.081076 0.8 0 0
0.284495 0.277725 0.392375 0.8 0 0
0.036068 0.458218 0.389065 0.8 0 0
0.324125 0.544678 0.063484 0.8 0 0
0.583657 0.437326 0.330050 0.8 0 0
0.120789 0.632047 0.097672 0.8 0 0
0.180031 0.099761 0.344924 0.8 0 0
0.390168 0.868076 0.137153 0.8 0 0
0.318241 0.682346 0.063484 0.8 0 0
0.025000 0.439941 0.349136 0.8 0 0
0.467687 0.545235 0.086723 0.8 0 0
0.228284 0.591705 0.081076 0.8 0 0
0.583047 0.064377 0.328251 0.8 0 0
0.280165 0.288838 0.414292 0.8 0 0
0.374058 0.715127 0.137153 0.8 0 0
0.409450 0.085755 0.560886 0.8 0 0
0.058993 0.536668 0.269317 0.8 0 0
0.315989 0.471412 0.271793 0.8 0 0
0.346463 0.437326 0.364818 0.8 0 0
0.290538 0.436217 0.112506 0.8 0 0
0.331221 0.417077 0.150285 0.8 0 0
0.393850 0.471412 0.476083 0.8 0 0
0.248894 0.906331 0.081076 0.8 0 0
0.199638 0.471412 0.487359 0.8 0 0
0.241853 0.753456 0.072280 0.8 0 0
0.350858 0.632732 0.081076 0.8 0 0
0.104046 0.494399 0.284110 0.8 0 0
0.155883 0.532741 0.434069 0.8 0 0
0.144652 0.890511 0.089822 0.8 0 0
0.324844 0.099622 0.337416 0.8 0 0
0.418189 0.135258 0.375282 0.8 0 0
0.130107 0.913533 0.150683 0.8 0 0
0.148084 0.873461 0.144769 0.8 0 0
0.176591 0.975000 0.132634 0.8 0 0
0.337869 0.527488 0.421517 0.8 0 0
0.592653 0.437326 0.374255 0.8 0 0
0.281220 0.186790 0.402401 0.8 0 0
0.272558 0.456076 0.339116 0.8 0 0
0.320905 0.780178 0.072280 0.8 0 0
0.489395 0.553575 0.104847 0.8 0 0
0.122826 0.692370 0.097001 0.8 0 0
0.087674 0.618312 0.143377 0.8 0 0
0.252832 0.119289 0.505332 0.8 0 0
0.518203 0.805149 0.159416 0.8 0 0
0.297579 0.527488 0.276983 0.8 0 0
0.132553 0.540722 0.562244 0.8 0 0
0.047784 0.708912 0.459776 0.8 0 0
0.473678 0.532231 0.595818 0.8 0 0
0.441222 0.669225 0.081076 0.8 0 0
0.054227 0.688021 0.333572 0.8 0 0
0.400106 0.508204 0.611053 0.8 0 0
0.233356 0.497922 0.192130 0.8 0 0
0.344542 0.527488 0.561000 0.8 0 0
0.105809 0.549872 0.451687 0.8 0 0
0.417399 0.471412 0.505667 0.8 0 0
0.158813 0.531739 0.577513 0.8 0 0
0.251110 0.645693 0.081076 0.8 0 0
0.087674 0.508558 0.283913 0.8 0 0
0.432605 0.697523 0.137153 0.8 0 0
0.554977 0.696153 0.448843 0.8 0 0
0.500106 0.609301 0.097387 0.8 0 0
0.177784 0.905170 0.081076 0.8 0 0
0.317713 0.779846 0.039290 0.8 0 0
0.305846 0.975000 0.118070 0.8 0 0
0.386750 0.527488 0.212484 0.8 0 0
0.448254 0.955729 0.137153 0.8 0 0
0.296916 0.063407 0.154327 0.8 0 0
0.226435 0.471412 0.202089 0.8 0 0
0.148102 0.535403 0.276081 0.8 0 0
0.275751 0.471412 0.610951 0.8 0 0
0.332357 0.705363 0.072280 0.8 0 0
0.448325 0.115911 0.371986 0.8 0 0
0.275981 0.571533 0.081076 0.8 0 0
0.223589 0.121411 0.388268 0.8 0 0
0.517843 0.643206 0.103222 0.8 0 0
0.399156 0.111900 0.499794 0.8 0 0
0.320396 0.527488 0.349052 0.8 0 0
0.319060 0.510900 0.063484 0.8 0 0
0.129633 0.849821 0.094762 0.8 0 0
0.052649 0.497409 0.248316 0.8 0 0
0.121283 0.544578 0.423849 0.8 0 0
0.368022 0.744800 0.072280 0.8 0 0
0.143542 0.536963 0.250989 0.8 0 0
0.222730 0.125976 0.358797 0.8 0 0
0.512228 0.577474 0.101375 0.8 0 0
0.303647 0.546567 0.081076 0.8 0 0
0.596759 0.439695 0.396905 0.8 0 0
0.458218 0.474045 0.393645 0.8 0 0
0.251962 0.488620 0.192130 0.8 0 0
0.324844 0.105286 0.307688 0.8 0 0
0.459307 0.474418 0.209796 0.8 0 0
0.190236 0.890611 0.137153 0.8 0 0
0.140915 0.748095 0.147127 0.8 0 0
0.526583 0.749929 0.162173 0.8 0 0
0.409258 0.096322 0.513679 0.8 0 0
0.031280 0.708912 0.330255 0.8 0 0
0.314348 0.246284 0.373773 0.8 0 0
0.437020 0.471412 0.517365 0.8 0 0
0.453138 0.528383 0.406589 0.8 0 0
0.592086 0.598399 0.269317 0.8 0 0
0.266904 0.471412 0.602206 0.8 0 0
0.033503 0.437326 0.395717 0.8 0 0
0.114099 0.547036 0.276834 0.8 0 0
0.593178 0.437326 0.429080 0.8 0 0
0.215448 0.817407 0.137153 0.8 0 0
0.387223 0.086314 0.491078 0.8 0 0
0.066782 0.613547 0.267187 0.8 0 0
0.087674 0.521440 0.404624 0.8 0 0
0.105911 0.685233 0.158642 0.8 0 0
0.103138 0.508321 0.566250 0.8 0 0
0.367331 0.437326 0.353050 0.8 0 0
0.340173 0.099924 0.445466 0.8 0 0
0.331221 0.450646 0.315678 0.8 0 0
0.350136 0.157225 0.389935 0.8 0 0
0.054222 0.458218 0.331187 0.8 0 0
0.301295 0.546103 0.137153 0.8 0 0
0.181749 0.096539 0.345482 0.8 0 0
0.159662 0.590691 0.084884 0.8 0 0
0.290477 0.723286 0.072280 0.8 0 0
0.103610 0.550624 0.333572 0.8 0 0
0.259284 0.500523 0.192130 0.8 0 0
0.147801 0.479430 0.311988 0.8 0 0
0.596759 0.439623 0.360185 0.8 0 0
0.174843 0.541132 0.137153 0.8 0 0
0.279656 0.165378 0.407196 0.8 0 0
0.467391 0.477183 0.458016 0.8 0 0
0.290538 0.462246 0.087954 0.8 0 0
0.424150 0.132925 0.379834 0.8 0 0
0.328726 0.178203 0.423661 0.8 0 0
0.346895 0.471412 0.311567 0.8 0 0
0.444265 0.711248 0.081076 0.8 0 0
0.324803 0.448874 0.052488 0.8 0 0
0.025000 0.705929 0.478955 0.8 0 0
0.185821 0.923443 0.081076 0.8 0 0
0.097382 0.887182 0.161447 0.8 0 0
0.286288 0.250320 0.386855 0.8 0 0
0.115795 0.676712 0.099314 0.8 0 0
0.025000 0.530265 0.260929 0.8 0 0
0.455443 0.529172 0.308917 0.8 0 0
0.572612 0.541577 0.454347 0.8 0 0
0.348574 0.503892 0.611053 0.8 0 0
0.025000 0.680019 0.267467 0.8 0 0
0.315552 0.080745 0.119985 0.8 0 0
0.358614 0.471412 0.222264 0.8 0 0
0.331723 0.941799 0.081076 0.8 0 0
0.354122 0.815591 0.137153 0.8 0 0
0.447248 0.471412 0.581213 0.8 0 0
0.556886 0.656079 0.539993 0.8 0 0
0.282472 0.152465 0.450654 0.8 0 0
0.305031 0.471412 0.221152 0.8 0 0
0.596759 0.523490 0.473131 0.8 0 0
0.467256 0.502385 0.203382 0.8 0 0
0.279441 0.548807 0.137153 0.8 0 0
0.249593 0.869606 0.081076 0.8 0 0
0.348071 0.949706 0.137153 0.8 0 0
0.169871 0.062931 0.581318 0.8 0 0
0.087674 0.873881 0.162221 0.8 0 0
0.424416 0.087205 0.350549 0.8 0 0
0.201530 0.566234 0.137153 0.8 0 0
0.332908 0.705744 0.081076 0.8 0 0
0.411607 0.695718 0.073779 0.8 0 0
0.467315 0.538758 0.131820 0.8 0 0
0.163437 0.474081 0.430026 0.8 0 0
0.144797 0.862760 0.145851 0.8 0 0
0.534086 0.502159 0.367571 0.8 0 0
0.332243 0.527488 0.095992 0.8 0 0
0.407280 0.122579 0.517412 0.8 0 0
0.585542 0.708912 0.325822 0.8 0 0
0.413538 0.626982 0.081076 0.8 0 0
0.331096 0.496328 0.052488 0.8 0 0
0.396125 0.942714 0.137153 0.8 0 0
0.494276 0.542457 0.547274 0.8 0 0
0.289107 0.558026 0.137153 0.8 0 0
0.210597 0.718635 0.072280 0.8 0 0
0.296916 0.143898 0.334162 0.8 0 0
0.570771 0.667586 0.545787 0.8 0 0
0.218832 0.623472 0.137153 0.8 0 0
0.207615 0.471412 0.397149 0.8 0 0
0.439603 0.527488 0.285779 0.8 0 0
0.209422 0.821942 0.081076 0.8 0 0
0.454571 0.656168 0.082409 0.8 0 0
0.327000 0.574399 0.063484 0.8 0 0
0.533517 0.555881 0.394511 0.8 0 0
0.554977 0.541304 0.260087 0.8 0 0
0.326181 0.412948 0.180759 0.8 0 0
0.087674 0.721416 0.161780 0.8 0 0
0.368766 0.726941 0.137153 0.8 0 0
0.037736 0.688021 0.411588 0.8 0 0
0.596759 0.511838 0.438722 0.8 0 0
0.587715 0.708912 0.316392 0.8 0 0
0.244070 0.471412 0.213276 0.8 0 0
0.291059 0.703873 0.081076 0.8 0 0
0.382931 0.709691 0.081076 0.8 0 0
0.284018 0.527488 0.449004 0.8 0 0
0.033319 0.040694 0.312921 0.8 0 0
0.365624 0.116235 0.453706 0.8 0 0
0.405748 0.620181 0.137153 0.8 0 0
0.294067 0.121312 0.448802 0.8 0 0
0.342600 0.403029 0.408779 0.8 0 0
0.530648 0.692568 0.107434 0.8 0 0
0.314728 0.471412 0.237810 0.8 0 0
0.379343 0.527488 0.559453 0.8 0 0
0.520740 0.551510 0.536780 0.8 0 0
0.132892 0.540606 0.493288 0.8 0 0
0.119361 0.545236 0.264975 0.8 0 0
0.085249 0.093288 0.343359 0.8 0 0
0.135144 0.455031 0.339116 0.8 0 0
0.070750 0.437326 0.353525 0.8 0 0
0.430106 0.066044 0.579053 0.8 0 0
0.303640 0.367440 0.431382 0.8 0 0
0.087674 0.866123 0.149202 0.8 0 0
0.330971 0.179120 0.373773 0.8 0 0
0.273790 0.874085 0.081076 0.8 0 0
0.205519 0.785545 0.137153 0.8 0 0
0.352648 0.527488 0.102329 0.8 0 0
0.205459 0.527488 0.336906 0.8 0 0
0.158546 0.028711 0.635715 0.8 0 0
0.466195 0.684099 0.142309 0.8 0 0
0.397284 0.471412 0.409614 0.8 0 0
0.596759 0.479117 0.251160 0.8 0 0
0.291689 0.527488 0.295995 0.8 0 0
0.154235 0.477229 0.322217 0.8 0 0
0.406701 0.076331 0.535514 0.8 0 0
0.123046 0.779858 0.153006 0.8 0 0
0.135534 0.483626 0.356617 0.8 0 0
0.279339 0.527488 0.443763 0.8 0 0
0.054199 0.688021 0.431781 0.8 0 0
0.087674 0.507501 0.318712 0.8 0 0
0.039781 0.437326 0.386753 0.8 0 0
0.596759 0.698136 0.503901 0.8 0 0
0.282961 0.873307 0.081076 0.8 0 0
0.059463 0.458218 0.293911 0.8 0 0
0.508695 0.547390 0.237913 0.8 0 0
0.279228 0.471412 0.360188 0.8 0 0
0.454650 0.530259 0.134799 0.8 0 0
0.231268 0.471412 0.312679 0.8 0 0
0.392878 0.609268 0.137153 0.8 0 0
0.233467 0.648124 0.137153 0.8 0 0
0.025143 0.484188 0.423099 0.8 0 0
0.364103 0.945159 0.137153 0.8 0 0
0.432136 0.527488 0.431757 0.8 0 0
0.025000 0.707671 0.374456 0.8 0 0
0.527657 0.553877 0.369316 0.8 0 0
0.527213 0.733939 0.162380 0.8 0 0
0.567621 0.708912 0.528096 0.8 0 0
0.586671 0.070320 0.327075 0.8 0 0
0.363532 0.471412 0.405587 0.8 0 0
0.331221 0.455106 0.228471 0.8 0 0
0.128376 0.542151 0.516909 0.8 0 0
0.422724 0.784431 0.072280 0.8 0 0
0.191140 0.729891 0.137153 0.8 0 0
0.302113 0.471412 0.540161 0.8 0 0
0.423032 0.698059 0.075768 0.8 0 0
0.425914 0.471412 0.545313 0.8 0 0
0.557577 0.483227 0.269317 0.8 0 0
0.472173 0.928549 0.144275 0.8 0 0
0.218261 0.527488 0.301761 0.8 0 0
0.189409 0.070699 0.549906 0.8 0 0
0.431071 0.661016 0.081076 0.8 0 0
0.296916 0.125378 0.322556 0.8 0 0
0.173531 0.948682 0.137153 0.8 0 0
0.205255 0.092794 0.570557 0.8 0 0
0.153254 0.049190 0.624881 0.8 0 0
0.333863 0.594805 0.137153 0.8 0 0
0.416002 0.689424 0.137153 0.8 0 0
0.284129 0.563598 0.137153 0.8 0 0
0.273312 0.154192 0.437241 0.8 0 0
0.087674 0.528271 0.495110 0.8 0 0
0.339786 0.442666 0.400130 0.8 0 0
0.402825 0.527488 0.422207 0.8 0 0
0.291535 0.338784 0.422569 0.8 0 0
0.286021 0.628840 0.137153 0.8 0 0
0.317304 0.853523 0.072280 0.8 0 0
0.039464 0.685012 0.532448 0.8 0 0
0.048735 0.708912 0.456367 0.8 0 0
0.324962 0.471412 0.208027 0.8 0 0
0.534086 0.505115 0.474174 0.8 0 0
0.238456 0.093867 0.525040 0.8 0 0
0.376726 0.799366 0.137153 0.8 0 0
0.407410 0.671136 0.081076 0.8 0 0
0.300631 0.671425 0.052488 0.8 0 0
0.182932 0.846102 0.081076 0.8 0 0
0.066782 0.450849 0.401017 0.8 0 0
0.090328 0.777154 0.107692 0.8 0 0
0.554977 0.701428 0.306633 0.8 0 0
0.332720 0.731641 0.072280 0.8 0 0
0.204496 0.471412 0.295688 0.8 0 0
0.299164 0.783906 0.081076 0.8 0 0
0.291570 0.975000 0.089443 0.8 0 0
0.272708 0.527488 0.280218 0.8 0 0
0.591953 0.708912 0.304792 0.8 0 0
0.047768 0.688021 0.330558 0.8 0 0
0.408765 0.527488 0.421555 0.8 0 0
0.386081 0.121720 0.528849 0.8 0 0
0.302045 0.543385 0.137153 0.8 0 0
0.264815 0.959991 0.137153 0.8 0 0
0.581100 0.638984 0.269317 0.8 0 0
0.267688 0.101955 0.396476 0.8 0 0
0.331221 0.400843 0.331121 0.8 0 0
0.290538 0.437896 0.252739 0.8 0 0
0.305875 0.532191 0.063484 0.8 0 0
0.289610 0.746771 0.081076 0.8 0 0
0.302846 0.527488 0.310403 0.8 0 0
0.177383 0.563557 0.081076 0.8 0 0
0.300306 0.542033 0.137153 0.8 0 0
0.257349 0.583715 0.137153 0.8 0 0
0.323254 0.433246 0.052488 0.8 0 0
0.139230 0.548968 0.131968 0.8 0 0
0.201786 0.437326 0.370557 0.8 0 0
0.067545 0.075358 0.308376 0.8 0 0
0.298042 0.094100 0.321803 0.8 0 0
0.526366 0.553435 0.349278 0.8 0 0
0.320438 0.722601 0.063484 0.8 0 0
0.501608 0.488889 0.432360 0.8 0 0
0.042981 0.461507 0.269317 0.8 0 0
0.264889 0.128946 0.372495 0.8 0 0
0.272631 0.599463 0.137153 0.8 0 0
0.061255 0.468997 0.269317 0.8 0 0
0.325299 0.429051 0.056940 0.8 0 0
0.389818 0.506812 0.611053 0.8 0 0
0.025815 0.494218 0.458495 0.8 0 0
0.524915 0.780084 0.105548 0.8 0 0
0.354702 0.481854 0.192130 0.8 0 0
0.137536 0.482942 0.582079 0.8 0 0
0.310830 0.474634 0.052488 0.8 0 0
0.272478 0.975000 0.085695 0.8 0 0
0.274378 0.527418 0.611053 0.8 0 0
0.222455 0.527488 0.286380 0.8 0 0
0.047460 0.560500 0.248316 0.8 0 0
0.154221 0.096795 0.336538 0.8 0 0
0.211690 0.471412 0.529984 0.8 0 0
0.507367 0.864720 0.099776 0.8 0 0
0.507053 0.769400 0.099673 0.8 0 0
0.370572 0.792619 0.137153 0.8 0 0
0.282791 0.527488 0.425685 0.8 0 0
0.290709 0.126100 0.373773 0.8 0 0
0.482297 0.865024 0.147606 0.8 0 0
0.213369 0.868814 0.137153 0.8 0 0
0.468414 0.533609 0.496235 0.8 0 0
0.457715 0.035720 0.624001 0.8 0 0
0.596759 0.636312 0.505996 0.8 0 0
0.122426 0.544187 0.473387 0.8 0 0
0.444597 0.471412 0.596836 0.8 0 0
0.543266 0.065830 0.311933 0.8 0 0
0.158905 0.940646 0.085133 0.8 0 0
0.211717 0.107796 0.561697 0.8 0 0
0.409532 0.681229 0.137153 0.8 0 0
0.471750 0.946795 0.088059 0.8 0 0
0.155214 0.437326 0.362703 0.8 0 0
0.344082 0.527488 0.136381 0.8 0 0
0.321406 0.144603 0.440185 0.8 0 0
0.457792 0.529975 0.427319 0.8 0 0
0.342275 0.930532 0.081076 0.8 0 0
0.206176 0.101970 0.569294 0.8 0 0
0.454757 0.472861 0.403350 0.8 0 0
0.576842 0.708912 0.384881 0.8 0 0
0.286537 0.105046 0.386440 0.8 0 0
0.290538 0.450084 0.296126 0.8 0 0
0.232623 0.814553 0.081076 0.8 0 0
0.224432 0.795064 0.137153 0.8 0 0
0.196708 0.069896 0.560141 0.8 0 0
0.200677 0.932785 0.081076 0.8 0 0
0.348386 0.951496 0.137153 0.8 0 0
0.087674 0.546945 0.497984 0.8 0 0
0.353242 0.143804 0.373674 0.8 0 0
0.534086 0.516055 0.383360 0.8 0 0
0.402262 0.471412 0.521508 0.8 0 0
0.466750 0.458218 0.372948 0.8 0 0
0.418857 0.580301 0.137153 0.8 0 0
0.066782 0.703915 0.308108 0.8 0 0
0.250870 0.437326 0.343536 0.8 0 0
0.222267 0.527488 0.472682 0.8 0 0
0.304315 0.479376 0.052488 0.8 0 0
0.489066 0.484598 0.223625 0.8 0 0
0.408209 0.111730 0.559184 0.8 0 0
0.025000 0.568866 0.472530 0.8 0 0
0.427423 0.704420 0.137153 0.8 0 0
0.570636 0.688021 0.307133 0.8 0 0
0.374587 0.858420 0.072280 0.8 0 0
0.112570 0.093044 0.323005 0.8 0 0
0.464121 0.062686 0.589086 0.8 0 0
0.596759 0.695674 0.463495 0.8 0 0
0.554977 0.660880 0.255840 0.8 0 0
0.259706 0.695718 0.081668 0.8 0 0
0.066782 0.453205 0.296501 0.8 0 0
0.554977 0.699296 0.287463 0.8 0 0
0.162164 0.530592 0.450629 0.8 0 0
0.225429 0.527488 0.416237 0.8 0 0
0.301670 0.556906 0.081076 0.8 0 0
0.515670 0.843018 0.102507 0.8 0 0
0.263861 0.471412 0.463937 0.8 0 0
0.431855 0.471412 0.287045 0.8 0 0
0.534086 0.548444 0.486432 0.8 0 0
0.352126 0.106635 0.482298 0.8 0 0
0.229887 0.737293 0.137153 0.8 0 0
0.564014 0.042523 0.311385 0.8 0 0
0.219770 0.758640 0.137153 0.8 0 0
0.354787 0.599435 0.137153 0.8 0 0
0.091785 0.554670 0.421293 0.8 0 0
0.285165 0.729830 0.072280 0.8 0 0
0.228770 0.527488 0.130015 0.8 0 0
0.279461 0.449743 0.413829 0.8 0 0
0.296087 0.471412 0.245686 0.8 0 0
0.337834 0.471412 0.408399 0.8 0 0
0.502256 0.545187 0.261075 0.8 0 0
0.306670 0.398507 0.291802 0.8 0 0
0.465651 0.091742 0.337151 0.8 0 0
0.159772 0.880769 0.140925 0.8 0 0
0.292405 0.803777 0.081076 0.8 0 0
0.427235 0.471412 0.207497 0.8 0 0
0.569691 0.688021 0.491082 0.8 0 0
0.130273 0.753365 0.094552 0.8 0 0
0.304361 0.396681 0.305843 0.8 0 0
0.326239 0.335027 0.425506 0.8 0 0
0.304270 0.471412 0.514297 0.8 0 0
0.331464 0.105046 0.414351 0.8 0 0
0.258176 0.471412 0.263956 0.8 0 0
0.380374 0.527488 0.428804 0.8 0 0
0.404796 0.695718 0.084529 0.8 0 0
0.350818 0.129924 0.480506 0.8 0 0
0.088023 0.914440 0.164526 0.8 0 0
0.351572 0.145509 0.403395 0.8 0 0
0.522061 0.495886 0.319719 0.8 0 0
0.521567 0.551793 0.313028 0.8 0 0
0.065850 0.696902 0.556076 0.8 0 0
0.466220 0.781931 0.142317 0.8 0 0
0.443626 0.792838 0.137153 0.8 0 0
0.409652 0.535505 0.081076 0.8 0 0
0.244504 0.471412 0.379045 0.8 0 0
0.289277 0.482977 0.192130 0.8 0 0
0.228003 0.527488 0.348170 0.8 0 0
0.484340 0.560945 0.092201 0.8 0 0
0.239377 0.452906 0.373773 0.8 0 0
0.427585 0.554475 0.137153 0.8 0 0
0.308417 0.473713 0.052488 0.8 0 0
0.334988 0.836145 0.137153 0.8 0 0
0.193722 0.471412 0.536990 0.8 0 0
0.347398 0.527488 0.229372 0.8 0 0
0.323618 0.601893 0.081076 0.8 0 0
0.506763 0.068451 0.350794 0.8 0 0
0.296916 0.083574 0.164663 0.8 0 0
0.118167 0.780719 0.098534 0.8 0 0
0.568343 0.685464 0.248316 0.8 0 0
0.087674 0.528319 0.373808 0.8 0 0
0.348770 0.476338 0.192130 0.8 0 0
0.290538 0.451809 0.089934 0.8 0 0
0.040673 0.482810 0.452752 0.8 0 0
0.248638 0.527488 0.327292 0.8 0 0
0.339412 0.162460 0.415855 0.8 0 0
0.458891 0.743005 0.083830 0.8 0 0
0.534086 0.804623 0.152530 0.8 0 0
0.255023 0.789770 0.046075 0.8 0 0
0.251084 0.496146 0.192130 0.8 0 0
0.171890 0.090723 0.610792 0.8 0 0
0.363779 0.938822 0.137153 0.8 0 0
0.070811 0.437326 0.346585 0.8 0 0
0.211724 0.561782 0.137153 0.8 0 0
0.087674 0.860361 0.162041 0.8 0 0
0.511151 0.492154 0.328613 0.8 0 0
0.498680 0.808056 0.096918 0.8 0 0
0.126410 0.542824 0.277658 0.8 0 0
0.562436 0.582753 0.503073 0.8 0 0
0.096617 0.895041 0.161699 0.8 0 0
0.534086 0.886572 0.116784 0.8 0 0
0.474866 0.535817 0.322079 0.8 0 0
0.264321 0.752302 0.137153 0.8 0 0
0.404529 0.658517 0.081076 0.8 0 0
0.066782 0.584719 0.498529 0.8 0 0
0.514926 0.677819 0.158338 0.8 0 0
0.326550 0.392420 0.338612 0.8 0 0
0.308898 0.527488 0.449273 0.8 0 0
0.061493 0.087850 0.328584 0.8 0 0
0.090379 0.499074 0.334503 0.8 0 0
0.279876 0.471412 0.417707 0.8 0 0
0.592570 0.685580 0.248316 0.8 0 0
0.390508 0.748192 0.137153 0.8 0 0
0.393042 0.824792 0.072280 0.8 0 0
0.339244 0.373277 0.416041 0.8 0 0
0.095893 0.864495 0.105861 0.8 0 0
0.572724 0.688021 0.363017 0.8 0 0
0.081838 0.094499 0.333819 0.8 0 0
0.588801 0.458218 0.360405 0.8 0 0
0.415328 0.926762 0.081076 0.8 0 0
0.518091 0.634699 0.103303 0.8 0 0
0.066782 0.485613 0.444128 0.8 0 0
0.587220 0.437326 0.411180 0.8 0 0
0.524849 0.496840 0.395783 0.8 0 0
0.123939 0.437326 0.367763 0.8 0 0
0.129197 0.799553 0.094906 0.8 0 0
0.427934 0.517259 0.611053 0.8 0 0
0.161759 0.092211 0.583423 0.8 0 0
0.050939 0.688021 0.346072 0.8 0 0
0.213837 0.521250 0.192130 0.8 0 0
0.320157 0.471412 0.464001 0.8 0 0
0.574319 0.694905 0.248316 0.8 0 0
0.392128 0.719074 0.137153 0.8 0 0
0.584154 0.074309 0.298648 0.8 0 0
0.321087 0.402511 0.261014 0.8 0 0
0.296916 0.108492 0.259805 0.8 0 0
0.152011 0.366362 0.419426 0.8 0 0
0.148252 0.363913 0.406471 0.8 0 0
0.054030 0.708912 0.384721 0.8 0 0
0.357498 0.527488 0.252449 0.8 0 0
0.391550 0.856380 0.072280 0.8 0 0
0.324844 0.080021 0.236900 0.8 0 0
0.255023 0.769586 0.037100 0.8 0 0
0.218106 0.437326 0.370377 0.8 0 0
0.289797 0.951892 0.137153 0.8 0 0
0.041627 0.550316 0.269317 0.8 0 0
0.369328 0.128006 0.505881 0.8 0 0
0.294783 0.471412 0.075586 0.8 0 0
0.025000 0.694670 0.390845 0.8 0 0
0.555154 0.688021 0.484594 0.8 0 0
0.592003 0.038341 0.319800 0.8 0 0
0.159859 0.585465 0.084820 0.8 0 0
0.584070 0.437326 0.358343 0.8 0 0
0.558943 0.654565 0.248316 0.8 0 0
0.138062 0.538500 0.589226 0.8 0 0
0.228719 0.671437 0.137153 0.8 0 0
0.302957 0.975000 0.108255 0.8 0 0
0.239851 0.527488 0.195735 0.8 0 0
0.375201 0.527488 0.603727 0.8 0 0
0.230483 0.471412 0.497472 0.8 0 0
0.501606 0.836705 0.153957 0.8 0 0
0.378533 0.471412 0.394016 0.8 0 0
0.118743 0.723599 0.098345 0.8 0 0
0.243722 0.862847 0.075498 0.8 0 0
0.441060 0.878606 0.081076 0.8 0 0
0.463260 0.583591 0.141343 0.8 0 0
0.332022 0.108805 0.454737 0.8 0 0
0.393406 0.527488 0.365353 0.8 0 0
0.521273 0.495617 0.482428 0.8 0 0
0.594573 0.458218 0.316949 0.8 0 0
0.298305 0.144325 0.442992 0.8 0 0
0.233514 0.088210 0.484798 0.8 0 0
0.275092 0.437326 0.363875 0.8 0 0
0.257366 0.527488 0.513389 0.8 0 0
0.416783 0.086578 0.353036 0.8 0 0
0.066782 0.528975 0.267219 0.8 0 0
0.479291 0.562459 0.090540 0.8 0 0
0.462770 0.535708 0.107149 0.8 0 0
0.587014 0.458218 0.277090 0.8 0 0
0.271711 0.927950 0.137153 0.8 0 0
0.045182 0.437326 0.419806 0.8 0 0
0.296539 0.141731 0.426198 0.8 0 0
0.308582 0.900130 0.081076 0.8 0 0
0.333428 0.471412 0.484035 0.8 0 0
0.290288 0.278843 0.421646 0.8 0 0
0.285429 0.339924 0.389500 0.8 0 0
0.456536 0.079333 0.363779 0.8 0 0
0.284129 0.718309 0.137153 0.8 0 0
0.030264 0.482925 0.452809 0.8 0 0
0.496633 0.578631 0.152321 0.8 0 0
0.314874 0.149255 0.373773 0.8 0 0
0.470147 0.082369 0.628430 0.8 0 0
0.398154 0.723840 0.081076 0.8 0 0
0.306486 0.527488 0.345332 0.8 0 0
0.296916 0.096870 0.260080 0.8 0 0
0.313294 0.385073 0.373773 0.8 0 0
0.418056 0.527488 0.279617 0.8 0 0
0.314588 0.126046 0.262630 0.8 0 0
0.045856 0.081976 0.316958 0.8 0 0
0.222153 0.362904 0.417696 0.8 0 0
0.286151 0.136263 0.418615 0.8 0 0
0.149538 0.478836 0.531791 0.8 0 0
0.179633 0.566125 0.137153 0.8 0 0
0.233410 0.093787 0.376251 0.8 0 0
0.361881 0.089155 0.492971 0.8 0 0
0.103972 0.494424 0.370691 0.8 0 0
0.534086 0.775107 0.148642 0.8 0 0
0.282363 0.098698 0.453281 0.8 0 0
0.329480 0.324539 0.423151 0.8 0 0
0.087674 0.514191 0.453868 0.8 0 0
0.157600 0.035352 0.619718 0.8 0 0
0.290538 0.443979 0.130047 0.8 0 0
0.377263 0.685504 0.081076 0.8 0 0
0.059788 0.543920 0.269317 0.8 0 0
0.102339 0.437326 0.365610 0.8 0 0
0.121951 0.458218 0.364562 0.8 0 0
0.357029 0.471412 0.480340 0.8 0 0
0.386809 0.575603 0.081076 0.8 0 0
0.367557 0.458218 0.368236 0.8 0 0
0.343834 0.423580 0.412584 0.8 0 0
0.386758 0.538209 0.137153 0.8 0 0
0.534086 0.589870 0.133674 0.8 0 0
0.025000 0.443113 0.388897 0.8 0 0
0.358890 0.862847 0.079884 0.8 0 0
0.292503 0.721955 0.052488 0.8 0 0
0.596759 0.511354 0.440994 0.8 0 0
0.320399 0.129280 0.438804 0.8 0 0
0.192631 0.798738 0.081076 0.8 0 0
0.429988 0.066049 0.579112 0.8 0 0
0.160986 0.474919 0.305717 0.8 0 0
0.472846 0.050153 0.641368 0.8 0 0
0.291708 0.399614 0.283291 0.8 0 0
0.303338 0.255474 0.373773 0.8 0 0
0.344304 0.975000 0.082359 0.8 0 0
0.223531 0.097277 0.498519 0.8 0 0
0.193816 0.458218 0.355735 0.8 0 0
0.087674 0.778597 0.135783 0.8 0 0
0.381627 0.501827 0.611053 0.8 0 0
0.459034 0.530400 0.351301 0.8 0 0
0.517104 0.535148 0.236898 0.8 0 0
0.490527 0.629723 0.150313 0.8 0 0
0.191566 0.726627 0.137153 0.8 0 0
0.140504 0.362263 0.416990 0.8 0 0
0.206357 0.105450 0.353478 0.8 0 0
0.345045 0.484035 0.611053 0.8 0 0
0.321998 0.132020 0.440996 0.8 0 0
0.087674 0.508661 0.549576 0.8 0 0
0.534086 0.878825 0.133734 0.8 0 0
0.346613 0.471412 0.343567 0.8 0 0
0.564381 0.708912 0.278475 0.8 0 0
0.572524 0.437326 0.339717 0.8 0 0
0.486273 0.456090 0.339116 0.8 0 0
0.568182 0.644798 0.510551 0.8 0 0
0.440063 0.962121 0.081076 0.8 0 0
0.483519 0.651748 0.148007 0.8 0 0
0.129865 0.588412 0.150762 0.8 0 0
0.087674 0.714108 0.150805 0.8 0 0
0.424721 0.819401 0.137153 0.8 0 0
0.150991 0.541075 0.125640 0.8 0 0
0.340667 0.105010 0.419403 0.8 0 0
0.202527 0.527488 0.499543 0.8 0 0
0.150257 0.534666 0.429665 0.8 0 0
0.401434 0.458218 0.371818 0.8 0 0
0.474690 0.925754 0.145103 0.8 0 0
0.359174 0.099917 0.371746 0.8 0 0
0.087674 0.806333 0.111765 0.8 0 0
0.066782 0.555256 0.471204 0.8 0 0
0.503980 0.668934 0.154738 0.8 0 0
0.505196 0.490117 0.368519 0.8 0 0
0.087674 0.856554 0.133573 0.8 0 0
0.087674 0.529477 0.486488 0.8 0 0
0.394250 0.082880 0.506113 0.8 0 0
0.295653 0.804938 0.081076 0.8 0 0
0.482920 0.482496 0.503235 0.8 0 0
0.362075 0.918759 0.137153 0.8 0 0
0.484460 0.608034 0.092241 0.8 0 0
0.503962 0.830017 0.154732 0.8 0 0
0.518945 0.915104 0.159660 0.8 0 0
0.534086 0.681940 0.156522 0.8 0 0
0.407478 0.975000 0.093312 0.8 0 0
0.315461 0.527488 0.111999 0.8 0 0
0.379232 0.900485 0.137153 0.8 0 0
0.318735 0.025013 0.128267 0.8 0 0
0.325288 0.559842 0.081076 0.8 0 0
0.358086 0.471412 0.573926 0.8 0 0
0.429104 0.451461 0.373773 0.8 0 0
0.315423 0.649369 0.052488 0.8 0 0
0.554977 0.620792 0.260606 0.8 0 0
0.060184 0.458218 0.402020 0.8 0 0
0.124578 0.503757 0.223502 0.8 0 0
0.229020 0.111313 0.537977 0.8 0 0
0.266011 0.096270 0.455634 0.8 0 0
0.097130 0.914186 0.105454 0.8 0 0
0.087694 0.600691 0.164634 0.8 0 0
0.215731 0.697712 0.072280 0.8 0 0
0.324844 0.116150 0.327104 0.8 0 0
0.587278 0.437326 0.429784 0.8 0 0
0.506367 0.817442 0.099447 0.8 0 0
0.027288 0.489122 0.455930 0.8 0 0
0.554977 0.694820 0.306070 0.8 0 0
0.272847 0.152634 0.442976 0.8 0 0
0.589064 0.708912 0.295804 0.8 0 0
0.407231 0.527488 0.429456 0.8 0 0
0.293948 0.537376 0.081076 0.8 0 0
0.193893 0.606332 0.081076 0.8 0 0
0.052021 0.679458 0.529423 0.8 0 0
0.066782 0.498050 0.438375 0.8 0 0
0.401836 0.527488 0.578349 0.8 0 0
0.323208 0.845200 0.081076 0.8 0 0
0.248962 0.474323 0.192130 0.8 0 0
0.332510 0.384435 0.377728 0.8 0 0
0.314660 0.774646 0.081076 0.8 0 0
0.421951 0.471412 0.555106 0.8 0 0
0.403327 0.539916 0.137153 0.8 0 0
0.324844 0.095159 0.312390 0.8 0 0
0.403694 0.527488 0.582862 0.8 0 0
0.347670 0.767230 0.081076 0.8 0 0
0.294329 0.428179 0.063647 0.8 0 0
0.279099 0.862847 0.083267 0.8 0 0
0.367536 0.695718 0.072827 0.8 0 0
0.171264 0.699134 0.137153 0.8 0 0
0.066782 0.552806 0.262898 0.8 0 0
0.300236 0.471412 0.230802 0.8 0 0
0.055876 0.688021 0.490961 0.8 0 0
0.266000 0.968936 0.081076 0.8 0 0
0.534086 0.538952 0.314579 0.8 0 0
0.415603 0.456396 0.339116 0.8 0 0
0.328323 0.775749 0.037282 0.8 0 0
0.168933 0.585577 0.081835 0.8 0 0
0.445049 0.975000 0.086807 0.8 0 0
0.596759 0.685473 0.548917 0.8 0 0
0.106484 0.549641 0.321684 0.8 0 0
0.402040 0.832348 0.081076 0.8 0 0
0.171210 0.680142 0.081086 0.8 0 0
0.296916 0.094608 0.302410 0.8 0 0
0.311273 0.067540 0.195694 0.8 0 0
0.303688 0.796913 0.047656 0.8 0 0
0.350814 0.750694 0.036147 0.8 0 0
0.092014 0.636914 0.107137 0.8 0 0
0.534086 0.524566 0.386628 0.8 0 0
0.275597 0.527488 0.527107 0.8 0 0
0.341856 0.150754 0.414068 0.8 0 0
0.346895 0.527488 0.365902 0.8 0 0
0.087674 0.546082 0.552141 0.8 0 0
0.130867 0.519493 0.219274 0.8 0 0
0.534086 0.538901 0.390751 0.8 0 0
0.296712 0.160212 0.430825 0.8 0 0
0.256957 0.942523 0.137153 0.8 0 0
0.485620 0.926402 0.148699 0.8 0 0
0.150025 0.663902 0.088054 0.8 0 0
0.367385 0.640721 0.137153 0.8 0 0
0.156309 0.476519 0.517030 0.8 0 0
0.252414 0.471412 0.394362 0.8 0 0
0.170963 0.527582 0.577030 0.8 0 0
0.198727 0.779933 0.073400 0.8 0 0
0.596759 0.688468 0.309366 0.8 0 0
0.220281 0.471412 0.211972 0.8 0 0
0.299643 0.703450 0.072280 0.8 0 0
0.384576 0.884834 0.081076 0.8 0 0
0.297945 0.527488 0.482974 0.8 0 0
0.466664 0.051917 0.635527 0.8 0 0
0.308097 0.962381 0.137153 0.8 0 0
0.341443 0.431384 0.405227 0.8 0 0
0.411825 0.471412 0.379378 0.8 0 0
0.511695 0.702739 0.101199 0.8 0 0
0.360418 0.091758 0.478649 0.8 0 0
0.025528 0.464298 0.412269 0.8 0 0
0.590675 0.688021 0.458737 0.8 0 0
0.406609 0.471412 0.564363 0.8 0 0
0.466951 0.045017 0.622331 0.8 0 0
0.534086 0.534884 0.368886 0.8 0 0
0.280611 0.132364 0.420064 0.8 0 0
0.181662 0.512894 0.192130 0.8 0 0
0.296916 0.094523 0.323454 0.8 0 0
0.525568 0.720735 0.161839 0.8 0 0
0.302011 0.527488 0.535929 0.8 0 0
0.031716 0.688021 0.450204 0.8 0 0
0.136651 0.077768 0.635333 0.8 0 0
0.441861 0.471412 0.273084 0.8 0 0
0.065293 0.680737 0.552409 0.8 0 0
0.417715 0.881665 0.081076 0.8 0 0
0.316502 0.416699 0.151922 0.8 0 0
0.249482 0.902384 0.081076 0.8 0 0
0.584601 0.437326 0.404576 0.8 0 0
0.280481 0.870439 0.081076 0.8 0 0
0.089619 0.555410 0.253423 0.8 0 0
0.444438 0.082297 0.372066 0.8 0 0
0.378158 0.471412 0.480979 0.8 0 0
0.504789 0.071643 0.324434 0.8 0 0
0.496999 0.107300 0.332755 0.8 0 0
0.496306 0.543151 0.440208 0.8 0 0
0.530964 0.498932 0.433172 0.8 0 0
0.554977 0.577927 0.481990 0.8 0 0
0.194319 0.767052 0.137153 0.8 0 0
0.554977 0.611633 0.254759 0.8 0 0
0.464252 0.965786 0.092017 0.8 0 0
0.191558 0.558272 0.081076 0.8 0 0
0.291434 0.975000 0.125257 0.8 0 0
0.139251 0.048514 0.614507 0.8 0 0
0.038187 0.510186 0.437255 0.8 0 0
0.107844 0.493100 0.285905 0.8 0 0
0.321347 0.140664 0.308659 0.8 0 0
0.592648 0.458218 0.280180 0.8 0 0
0.342906 0.488976 0.192130 0.8 0 0
0.384372 0.527488 0.083114 0.8 0 0
0.110858 0.492068 0.354171 0.8 0 0
0.386733 0.846921 0.137153 0.8 0 0
0.365620 0.138633 0.485267 0.8 0 0
0.468827 0.477675 0.443072 0.8 0 0
0.403131 0.559091 0.081076 0.8 0 0
0.343255 0.500485 0.192130 0.8 0 0
0.367246 0.140620 0.476344 0.8 0 0
0.568637 0.439468 0.430929 0.8 0 0
0.333103 0.826368 0.072280 0.8 0 0
0.386004 0.088663 0.481717 0.8 0 0
0.534086 0.504176 0.312616 0.8 0 0
0.258309 0.100041 0.395878 0.8 0 0
0.408978 0.527488 0.299728 0.8 0 0
0.272760 0.098316 0.448526 0.8 0 0
0.424951 0.723608 0.081076 0.8 0 0
0.299726 0.471412 0.139562 0.8 0 0
0.451485 0.471742 0.491506 0.8 0 0
0.158772 0.475677 0.356525 0.8 0 0
0.482932 0.912169 0.091738 0.8 0 0
0.478498 0.480983 0.337563 0.8 0 0
0.451108 0.728686 0.081269 0.8 0 0
0.416632 0.953012 0.137153 0.8 0 0
0.533378 0.437326 0.350035 0.8 0 0
0.427355 0.633346 0.137153 0.8 0 0
0.327926 0.391591 0.424280 0.8 0 0
0.305058 0.424150 0.373773 0.8 0 0
0.280882 0.480958 0.611053 0.8 0 0
0.055242 0.650310 0.537088 0.8 0 0
0.339175 0.220467 0.398189 0.8 0 0
0.177784 0.471412 0.305724 0.8 0 0
0.301980 0.142451 0.437953 0.8 0 0
0.566083 0.054623 0.320786 0.8 0 0
0.337758 0.471412 0.554761 0.8 0 0
0.578726 0.553787 0.269317 0.8 0 0
0.312168 0.471412 0.093786 0.8 0 0
0.116290 0.656358 0.155228 0.8 0 0
0.554977 0.656875 0.254176 0.8 0 0
0.289634 0.224637 0.376557 0.8 0 0
0.319859 0.527488 0.269734 0.8 0 0
0.532574 0.499483 0.471721 0.8 0 0
0.260068 0.695392 0.081076 0.8 0 0
0.180341 0.527488 0.513824 0.8 0 0
0.234702 0.747577 0.137153 0.8 0 0
0.523309 0.889537 0.105020 0.8 0 0
0.143866 0.480776 0.446632 0.8 0 0
0.275469 0.777610 0.081076 0.8 0 0
0.453331 0.973114 0.101115 0.8 0 0
0.534086 0.726338 0.154582 0.8 0 0
0.087674 0.504924 0.411208 0.8 0 0
0.325552 0.527488 0.091132 0.8 0 0
0.316501 0.412410 0.432582 0.8 0 0
0.355529 0.753846 0.137153 0.8 0 0
0.296916 0.116235 0.242509 0.8 0 0
0.407011 0.107370 0.356204 0.8 0 0
0.212721 0.944011 0.081076 0.8 0 0
0.301960 0.883987 0.137153 0.8 0 0
0.233413 0.143221 0.391457 0.8 0 0
0.442560 0.736460 0.137153 0.8 0 0
0.446660 0.471412 0.555132 0.8 0 0
0.575657 0.571126 0.248316 0.8 0 0
0.427312 0.527488 0.355777 0.8 0 0
0.331314 0.975000 0.088699 0.8 0 0
0.445552 0.527488 0.332943 0.8 0 0
0.195265 0.952520 0.081076 0.8 0 0
0.524660 0.496775 0.254433 0.8 0 0
0.529008 0.696637 0.162971 0.8 0 0
0.437540 0.558613 0.137153 0.8 0 0
0.495676 0.486860 0.507359 0.8 0 0
0.215934 0.527488 0.349384 0.8 0 0
0.201342 0.471412 0.253677 0.8 0 0
0.333905 0.492243 0.192130 0.8 0 0
0.464009 0.536539 0.092890 0.8 0 0
0.325960 0.471412 0.356955 0.8 0 0
0.158214 0.722460 0.141437 0.8 0 0
0.351327 0.471455 0.611053 0.8 0 0
0.428829 0.498396 0.192130 0.8 0 0
0.226024 0.125344 0.515257 0.8 0 0
0.169971 0.543826 0.137570 0.8 0 0
0.326422 0.838426 0.081076 0.8 0 0
0.568400 0.437326 0.282338 0.8 0 0
0.087674 0.662014 0.124504 0.8 0 0
0.252891 0.439838 0.373773 0.8 0 0
0.222241 0.834069 0.137153 0.8 0 0
0.428369 0.520483 0.611053 0.8 0 0
0.499494 0.442048 0.339116 0.8 0 0
0.214051 0.527488 0.247156 0.8 0 0
0.100346 0.697619 0.160473 0.8 0 0
0.296045 0.527488 0.481222 0.8 0 0
0.342514 0.527488 0.377984 0.8 0 0
0.066782 0.448108 0.402629 0.8 0 0
0.479783 0.955364 0.126234 0.8 0 0
0.291246 0.471412 0.193217 0.8 0 0
0.515637 0.493689 0.315343 0.8 0 0
0.367352 0.091298 0.503172 0.8 0 0
0.275393 0.489427 0.611053 0.8 0 0
0.263562 0.593672 0.137153 0.8 0 0
0.553382 0.084988 0.337882 0.8 0 0
0.242186 0.573322 0.137153 0.8 0 0
0.290538 0.456779 0.089503 0.8 0 0
0.456073 0.763908 0.138979 0.8 0 0
0.355956 0.108094 0.440416 0.8 0 0
0.596759 0.479594 0.259544 0.8 0 0
0.089658 0.795004 0.107912 0.8 0 0
0.273211 0.608859 0.137153 0.8 0 0
0.514069 0.571457 0.101980 0.8 0 0
0.586955 0.489946 0.426234 0.8 0 0
0.434787 0.527488 0.329990 0.8 0 0
0.350044 0.764211 0.031626 0.8 0 0
0.504082 0.615534 0.098695 0.8 0 0
0.299624 0.861889 0.081076 0.8 0 0
0.534086 0.776253 0.119646 0.8 0 0
0.431156 0.471412 0.560808 0.8 0 0
0.416036 0.527488 0.253306 0.8 0 0
0.252013 0.527488 0.343145 0.8 0 0
0.554977 0.579197 0.258444 0.8 0 0
0.517150 0.808947 0.102994 0.8 0 0
0.087674 0.538213 0.278513 0.8 0 0
0.331221 0.447927 0.135214 0.8 0 0
0.331473 0.806651 0.052430 0.8 0 0
0.490492 0.541162 0.278599 0.8 0 0
0.235018 0.471412 0.437869 0.8 0 0
0.211598 0.451752 0.373773 0.8 0 0
0.092478 0.554432 0.376776 0.8 0 0
0.297485 0.099158 0.345817 0.8 0 0
0.124420 0.534576 0.223609 0.8 0 0
0.195180 0.527488 0.217316 0.8 0 0
0.204104 0.897590 0.137153 0.8 0 0
0.506237 0.690183 0.155480 0.8 0 0
0.087755 0.802805 0.164614 0.8 0 0
