0.407413 0.614196 0.187921 0.8 0 0
0.322182 0.627790 0.186366 0.8 0 0
0.222221 0.681692 0.191863 0.8 0 0
0.070830 0.718692 0.340798 0.8 0 0
0.196062 0.051148 0.633986 0.8 0 0
0.586858 0.864837 0.150911 0.8 0 0
0.436962 0.782727 0.160010 0.8 0 0
0.184031 0.480008 0.487773 0.8 0 0
0.152436 0.480354 0.294018 0.8 0 0
0.273524 0.556928 0.175258 0.8 0 0
0.408310 0.914971 0.140671 0.8 0 0
0.548808 0.480070 0.270396 0.8 0 0
0.601821 0.482328 0.565402 0.8 0 0
0.452944 0.629069 0.199425 0.8 0 0
0.155271 0.576870 0.202027 0.8 0 0
0.254494 0.148841 0.504343 0.8 0 0
0.345355 0.492486 0.236189 0.8 0 0
0.329510 0.262383 0.383905 0.8 0 0
0.426253 0.247956 0.375763 0.8 0 0
0.120678 0.483476 0.529413 0.8 0 0
0.365250 0.197407 0.418577 0.8 0 0
0.511242 0.110210 0.596647 0.8 0 0
0.302446 0.217706 0.381193 0.8 0 0
0.171638 0.672995 0.204730 0.8 0 0
0.111881 0.493984 0.392603 0.8 0 0
0.550643 0.480101 0.331829 0.8 0 0
0.627118 0.688023 0.204721 0.8 0 0
0.623802 0.495279 0.455518 0.8 0 0
0.188706 0.785032 0.161069 0.8 0 0
0.379674 0.294055 0.346152 0.8 0 0
0.395218 0.777167 0.174345 0.8 0 0
0.372213 0.492275 0.248599 0.8 0 0
0.380848 0.563016 0.182544 0.8 0 0
0.275005 0.491810 0.559440 0.8 0 0
0.279552 0.479135 0.572470 0.8 0 0
0.658082 0.596822 0.374969 0.8 0 0
0.331523 0.186088 0.343469 0.8 0 0
0.343556 0.900845 0.148596 0.8 0 0
0.133680 0.773755 0.172450 0.8 0 0
0.680415 0.718692 0.386579 0.8 0 0
0.557839 0.752561 0.180658 0.8 0 0
0.403232 0.474164 0.391013 0.8 0 0
0.208739 0.457996 0.669102 0.8 0 0
0.140974 0.883781 0.146616 0.8 0 0
0.184926 0.758892 0.179119 0.8 0 0
0.359813 0.251299 0.414561 0.8 0 0
0.245389 0.597612 0.187443 0.8 0 0
0.149677 0.623428 0.214945 0.8 0 0
0.650079 0.585496 0.361601 0.8 0 0
0.315329 0.491875 0.410972 0.8 0 0
0.654471 0.622817 0.380136 0.8 0 0
0.163000 0.826243 0.155768 0.8 0 0
0.549949 0.480172 0.262671 0.8 0 0
0.321849 0.921534 0.122781 0.8 0 0
0.084615 0.518420 0.335901 0.8 0 0
0.502035 0.491903 0.345411 0.8 0 0
0.255210 0.169334 0.521012 0.8 0 0
0.341964 0.236715 0.342991 0.8 0 0
0.073820 0.587055 0.365674 0.8 0 0
0.544530 0.492066 0.469265 0.8 0 0
0.274990 0.492486 0.236161 0.8 0 0
0.362293 0.249384 0.422182 0.8 0 0
0.343572 0.789889 0.158710 0.8 0 0
0.462063 0.823959 0.152166 0.8 0 0
0.229789 0.942676 0.112113 0.8 0 0
0.681701 0.718692 0.407549 0.8 0 0
0.145508 0.584063 0.203500 0.8 0 0
0.226391 0.856317 0.145840 0.8 0 0
0.132789 0.482144 0.252864 0.8 0 0
0.589708 0.822623 0.161524 0.8 0 0
0.560991 0.480210 0.443906 0.8 0 0
0.309174 0.233649 0.419067 0.8 0 0
0.614451 0.480398 0.261101 0.8 0 0
0.166649 0.492287 0.509652 0.8 0 0
0.209261 0.706045 0.187887 0.8 0 0
0.198698 0.070530 0.630367 0.8 0 0
0.045267 0.067261 0.260401 0.8 0 0
0.640490 0.707264 0.219826 0.8 0 0
0.509086 0.491923 0.300084 0.8 0 0
0.397053 0.491862 0.439657 0.8 0 0
0.179226 0.478510 0.599806 0.8 0 0
0.634678 0.490418 0.579828 0.8 0 0
0.204011 0.491811 0.556349 0.8 0 0
0.255612 0.818408 0.166792 0.8 0 0
0.193503 0.150511 0.338558 0.8 0 0
0.571972 0.702895 0.178984 0.8 0 0
0.566163 0.056842 0.669062 0.8 0 0
0.174222 0.132633 0.302295 0.8 0 0
0.443512 0.167025 0.331881 0.8 0 0
0.116114 0.609813 0.201631 0.8 0 0
0.130620 0.494310 0.530379 0.8 0 0
0.604629 0.123942 0.306297 0.8 0 0
0.550411 0.703661 0.189128 0.8 0 0
0.339860 0.334170 0.400066 0.8 0 0
0.534409 0.774128 0.176255 0.8 0 0
0.615577 0.524629 0.200216 0.8 0 0
0.430848 0.910307 0.143300 0.8 0 0
0.636033 0.694533 0.496003 0.8 0 0
0.425404 0.949604 0.107018 0.8 0 0
0.673328 0.718692 0.404639 0.8 0 0
0.340838 0.883174 0.139507 0.8 0 0
0.584563 0.858071 0.165698 0.8 0 0
0.629555 0.667951 0.217057 0.8 0 0
0.295557 0.873904 0.141469 0.8 0 0
0.352458 0.824864 0.151937 0.8 0 0
0.526674 0.666627 0.210044 0.8 0 0
0.381538 0.480214 0.237516 0.8 0 0
0.342138 0.261305 0.340268 0.8 0 0
0.608217 0.523466 0.200857 0.8 0 0
0.507749 0.801731 0.170704 0.8 0 0
0.338017 0.674122 0.179217 0.8 0 0
0.333157 0.198138 0.343896 0.8 0 0
0.331387 0.427177 0.378130 0.8 0 0
0.336613 0.612308 0.187851 0.8 0 0
0.448151 0.642924 0.184068 0.8 0 0
0.362549 0.491813 0.551924 0.8 0 0
0.221830 0.699383 0.175416 0.8 0 0
0.307545 0.781064 0.173625 0.8 0 0
0.376536 0.102199 0.134837 0.8 0 0
0.359391 0.230337 0.425718 0.8 0 0
0.511589 0.491848 0.473326 0.8 0 0
0.157474 0.492407 0.472675 0.8 0 0
0.330544 0.234089 0.343212 0.8 0 0
0.316687 0.199064 0.407351 0.8 0 0
0.205560 0.490022 0.602211 0.8 0 0
0.612139 0.892135 0.153688 0.8 0 0
0.175398 0.492225 0.394815 0.8 0 0
0.389682 0.852196 0.146123 0.8 0 0
0.261519 0.178175 0.508758 0.8 0 0
0.408414 0.759235 0.177525 0.8 0 0
0.592092 0.693659 0.198648 0.8 0 0
0.201328 0.479886 0.268874 0.8 0 0
0.126928 0.556211 0.204825 0.8 0 0
0.482842 0.182035 0.321614 0.8 0 0
0.382366 0.824711 0.151979 0.8 0 0
0.162368 0.796437 0.174682 0.8 0 0
0.377979 0.875602 0.141131 0.8 0 0
0.547946 0.925135 0.125629 0.8 0 0
0.302644 0.479788 0.426364 0.8 0 0
0.467475 0.561391 0.177699 0.8 0 0
0.237543 0.472902 0.626088 0.8 0 0
0.067003 0.068050 0.289051 0.8 0 0
0.169587 0.518248 0.203598 0.8 0 0
0.480928 0.617405 0.188090 0.8 0 0
0.519192 0.624446 0.200510 0.8 0 0
0.288701 0.492107 0.258452 0.8 0 0
0.351838 0.491891 0.373413 0.8 0 0
0.236390 0.959147 0.093634 0.8 0 0
0.356708 0.818142 0.153371 0.8 0 0
0.582842 0.543776 0.207258 0.8 0 0
0.381435 0.176602 0.406822 0.8 0 0
0.213735 0.643185 0.185669 0.8 0 0
0.040839 0.069096 0.287017 0.8 0 0
0.209578 0.710939 0.187012 0.8 0 0
0.523167 0.754803 0.179396 0.8 0 0
0.309983 0.491825 0.524774 0.8 0 0
0.210793 0.487086 0.622934 0.8 0 0
0.450087 0.199462 0.372670 0.8 0 0
0.318272 0.951102 0.120325 0.8 0 0
0.197085 0.686053 0.178372 0.8 0 0
0.226431 0.479769 0.471293 0.8 0 0
0.615650 0.492625 0.335038 0.8 0 0
0.478595 0.945558 0.123538 0.8 0 0
0.146232 0.480428 0.422671 0.8 0 0
0.506504 0.479760 0.492212 0.8 0 0
0.038428 0.718692 0.302274 0.8 0 0
0.377573 0.117413 0.152648 0.8 0 0
0.356688 0.479852 0.279164 0.8 0 0
0.379436 0.128874 0.184634 0.8 0 0
0.414570 0.864565 0.143495 0.8 0 0
0.237904 0.667261 0.181178 0.8 0 0
0.316126 0.526689 0.187105 0.8 0 0
0.266964 0.454836 0.659769 0.8 0 0
0.335026 0.479788 0.426916 0.8 0 0
0.372814 0.304259 0.413074 0.8 0 0
0.453507 0.835956 0.163116 0.8 0 0
0.401533 0.601838 0.187598 0.8 0 0
0.327176 0.491850 0.468900 0.8 0 0
0.653499 0.557877 0.336649 0.8 0 0
0.488272 0.491921 0.305952 0.8 0 0
0.387376 0.491858 0.448834 0.8 0 0
0.527791 0.771187 0.176611 0.8 0 0
0.323830 0.771760 0.161915 0.8 0 0
0.688577 0.718692 0.281255 0.8 0 0
0.551331 0.054572 0.639121 0.8 0 0
0.269473 0.692321 0.175970 0.8 0 0
0.447058 0.166079 0.518324 0.8 0 0
0.365225 0.492574 0.231043 0.8 0 0
0.636036 0.709301 0.480372 0.8 0 0
0.368827 0.181925 0.217943 0.8 0 0
0.159242 0.619964 0.205461 0.8 0 0
0.335242 0.481535 0.214336 0.8 0 0
0.233282 0.693649 0.176149 0.8 0 0
0.225605 0.477632 0.644089 0.8 0 0
0.403577 0.957520 0.095146 0.8 0 0
0.219961 0.491844 0.482677 0.8 0 0
0.401209 0.184087 0.384297 0.8 0 0
0.367776 0.147738 0.165261 0.8 0 0
0.082910 0.509072 0.328369 0.8 0 0
0.657940 0.718692 0.401029 0.8 0 0
0.135627 0.118041 0.292192 0.8 0 0
0.187261 0.852417 0.148112 0.8 0 0
0.132952 0.490137 0.619859 0.8 0 0
0.403261 0.319429 0.390627 0.8 0 0
0.323818 0.930020 0.118007 0.8 0 0
0.350819 0.709443 0.172964 0.8 0 0
0.171603 0.903084 0.135771 0.8 0 0
0.395031 0.505590 0.199671 0.8 0 0
0.413357 0.485697 0.201727 0.8 0 0
0.435895 0.489849 0.605892 0.8 0 0
0.138350 0.492496 0.458597 0.8 0 0
0.235573 0.659066 0.195403 0.8 0 0
0.279480 0.974987 0.070351 0.8 0 0
0.280596 0.486915 0.623324 0.8 0 0
0.378736 0.069565 0.076273 0.8 0 0
0.579208 0.480388 0.406516 0.8 0 0
0.430691 0.492223 0.251710 0.8 0 0
0.337521 0.444822 0.669236 0.8 0 0
0.235387 0.731263 0.182788 0.8 0 0
0.380156 0.144990 0.196999 0.8 0 0
0.025157 0.716153 0.302153 0.8 0 0
0.412069 0.479252 0.569901 0.8 0 0
0.513346 0.477947 0.599159 0.8 0 0
0.307796 0.491911 0.328003 0.8 0 0
0.035091 0.718692 0.421578 0.8 0 0
0.387138 0.230638 0.316889 0.8 0 0
0.419785 0.944145 0.110088 0.8 0 0
0.406182 0.467963 0.659742 0.8 0 0
0.477816 0.491834 0.504500 0.8 0 0
0.468315 0.155193 0.492370 0.8 0 0
0.090837 0.085803 0.298379 0.8 0 0
0.497092 0.513005 0.178202 0.8 0 0
0.285618 0.446046 0.668067 0.8 0 0
0.363580 0.694724 0.188935 0.8 0 0
0.314076 0.715146 0.185302 0.8 0 0
0.118653 0.821112 0.180403 0.8 0 0
0.334031 0.479790 0.423041 0.8 0 0
0.209210 0.956259 0.097669 0.8 0 0
0.396300 0.415260 0.369155 0.8 0 0
0.060582 0.698119 0.409137 0.8 0 0
0.103403 0.698104 0.215651 0.8 0 0
0.539346 0.480714 0.221443 0.8 0 0
0.342647 0.498804 0.209658 0.8 0 0
0.295938 0.887931 0.138480 0.8 0 0
0.544232 0.089112 0.632339 0.8 0 0
0.625288 0.609125 0.201530 0.8 0 0
0.349861 0.479758 0.498217 0.8 0 0
0.537833 0.071960 0.629096 0.8 0 0
0.162995 0.871339 0.146130 0.8 0 0
0.099107 0.610878 0.210193 0.8 0 0
0.667100 0.718692 0.281513 0.8 0 0
0.224556 0.847033 0.147946 0.8 0 0
0.540470 0.072228 0.605058 0.8 0 0
0.138004 0.115675 0.316838 0.8 0 0
0.241919 0.149231 0.549645 0.8 0 0
0.300429 0.479759 0.493846 0.8 0 0
0.284961 0.491922 0.303246 0.8 0 0
0.536957 0.080856 0.628027 0.8 0 0
0.595067 0.491311 0.609310 0.8 0 0
0.426284 0.491824 0.528035 0.8 0 0
0.100343 0.717971 0.215051 0.8 0 0
0.551879 0.875351 0.143216 0.8 0 0
0.434606 0.974987 0.069214 0.8 0 0
0.583912 0.492505 0.497871 0.8 0 0
0.126545 0.492658 0.410369 0.8 0 0
0.357235 0.665634 0.180533 0.8 0 0
0.453134 0.479737 0.544575 0.8 0 0
0.495822 0.489329 0.617566 0.8 0 0
0.461531 0.512042 0.178678 0.8 0 0
0.456430 0.165894 0.370193 0.8 0 0
0.578237 0.650302 0.222360 0.8 0 0
0.203614 0.491857 0.452066 0.8 0 0
0.109182 0.684227 0.216351 0.8 0 0
0.352061 0.066167 0.069730 0.8 0 0
0.168667 0.492176 0.563319 0.8 0 0
0.202079 0.052080 0.625722 0.8 0 0
0.254499 0.566594 0.186816 0.8 0 0
0.362437 0.088638 0.046929 0.8 0 0
0.354288 0.479812 0.371017 0.8 0 0
0.351641 0.693159 0.175849 0.8 0 0
0.047634 0.715376 0.457493 0.8 0 0
0.634593 0.801301 0.204476 0.8 0 0
0.480698 0.101730 0.559374 0.8 0 0
0.187067 0.492047 0.482081 0.8 0 0
0.630025 0.612249 0.210875 0.8 0 0
0.402563 0.482903 0.210207 0.8 0 0
0.280383 0.564487 0.184270 0.8 0 0
0.600807 0.492462 0.305466 0.8 0 0
0.292547 0.884469 0.152723 0.8 0 0
0.200426 0.138360 0.309154 0.8 0 0
0.243235 0.183550 0.358021 0.8 0 0
0.284184 0.479828 0.333972 0.8 0 0
0.237511 0.491814 0.550693 0.8 0 0
0.106612 0.483615 0.468563 0.8 0 0
0.596268 0.482004 0.253445 0.8 0 0
0.387997 0.816692 0.153691 0.8 0 0
0.701532 0.050792 0.283424 0.8 0 0
0.186579 0.875667 0.142925 0.8 0 0
0.035807 0.051922 0.257321 0.8 0 0
0.275935 0.491931 0.282624 0.8 0 0
0.389769 0.259276 0.411909 0.8 0 0
0.228052 0.763838 0.163844 0.8 0 0
0.210363 0.491853 0.461365 0.8 0 0
0.417783 0.897942 0.136082 0.8 0 0
0.478376 0.479772 0.464071 0.8 0 0
0.184362 0.929553 0.123592 0.8 0 0
0.129390 0.639926 0.210440 0.8 0 0
0.365407 0.380056 0.346152 0.8 0 0
0.593922 0.660915 0.200833 0.8 0 0
0.200145 0.125009 0.309080 0.8 0 0
0.430213 0.777788 0.174246 0.8 0 0
0.290170 0.204968 0.332644 0.8 0 0
0.025117 0.711175 0.420357 0.8 0 0
0.357902 0.456475 0.346153 0.8 0 0
0.407945 0.477631 0.606215 0.8 0 0
0.364805 0.027554 0.048831 0.8 0 0
0.536403 0.671330 0.206425 0.8 0 0
0.373272 0.807354 0.168991 0.8 0 0
0.299027 0.484365 0.205730 0.8 0 0
0.261916 0.504686 0.200091 0.8 0 0
0.094607 0.698311 0.223932 0.8 0 0
0.426137 0.479756 0.501810 0.8 0 0
0.091731 0.506241 0.236029 0.8 0 0
0.376783 0.090228 0.139088 0.8 0 0
0.286530 0.867006 0.156443 0.8 0 0
0.148455 0.480440 0.523761 0.8 0 0
0.393255 0.223254 0.359763 0.8 0 0
0.242957 0.201846 0.334748 0.8 0 0
0.327265 0.450618 0.390915 0.8 0 0
0.352064 0.057755 0.069049 0.8 0 0
0.390361 0.422611 0.400348 0.8 0 0
0.412814 0.198731 0.339894 0.8 0 0
0.640517 0.582565 0.199348 0.8 0 0
0.194752 0.492023 0.287010 0.8 0 0
0.270309 0.886679 0.152252 0.8 0 0
0.526147 0.519394 0.190029 0.8 0 0
0.453698 0.696444 0.188661 0.8 0 0
0.605617 0.480416 0.368484 0.8 0 0
0.412132 0.508037 0.198444 0.8 0 0
0.528504 0.738621 0.182395 0.8 0 0
0.376047 0.235906 0.431670 0.8 0 0
0.634754 0.797644 0.192770 0.8 0 0
0.589667 0.515743 0.224438 0.8 0 0
0.503698 0.621060 0.187583 0.8 0 0
0.311227 0.479854 0.271283 0.8 0 0
0.377598 0.119239 0.153078 0.8 0 0
0.549185 0.618356 0.203103 0.8 0 0
0.399928 0.490172 0.598649 0.8 0 0
0.095909 0.603548 0.207484 0.8 0 0
0.569712 0.712071 0.176807 0.8 0 0
0.570052 0.079110 0.637823 0.8 0 0
0.554592 0.480132 0.438603 0.8 0 0
0.578566 0.729914 0.175816 0.8 0 0
0.141838 0.120116 0.318338 0.8 0 0
0.339471 0.687717 0.190168 0.8 0 0
0.543601 0.602879 0.194604 0.8 0 0
0.115070 0.563509 0.190174 0.8 0 0
0.368152 0.408081 0.346152 0.8 0 0
0.446690 0.885220 0.139102 0.8 0 0
0.608217 0.481460 0.597932 0.8 0 0
0.455475 0.801445 0.170065 0.8 0 0
0.342651 0.479270 0.640454 0.8 0 0
0.258202 0.801904 0.156553 0.8 0 0
0.156595 0.880483 0.158200 0.8 0 0
0.350484 0.119108 0.198444 0.8 0 0
0.269477 0.916142 0.139984 0.8 0 0
0.401648 0.491819 0.538917 0.8 0 0
0.213744 0.490592 0.189450 0.8 0 0
0.693378 0.082310 0.282242 0.8 0 0
0.620542 0.768983 0.196907 0.8 0 0
0.456152 0.564693 0.184571 0.8 0 0
0.297410 0.702092 0.174249 0.8 0 0
0.180087 0.672684 0.183114 0.8 0 0
0.460967 0.135888 0.535296 0.8 0 0
0.347435 0.690423 0.189692 0.8 0 0
0.286351 0.954540 0.101334 0.8 0 0
0.661929 0.708497 0.259309 0.8 0 0
0.584995 0.709001 0.181093 0.8 0 0
0.201108 0.479866 0.321607 0.8 0 0
0.386659 0.210354 0.308668 0.8 0 0
0.514373 0.479760 0.491967 0.8 0 0
0.588158 0.492495 0.453216 0.8 0 0
0.106401 0.888417 0.171419 0.8 0 0
0.359050 0.723771 0.170428 0.8 0 0
0.524844 0.479793 0.415946 0.8 0 0
0.234391 0.728227 0.169996 0.8 0 0
0.246501 0.480138 0.241926 0.8 0 0
0.351729 0.860778 0.144282 0.8 0 0
0.140688 0.795775 0.179963 0.8 0 0
0.350623 0.642958 0.197237 0.8 0 0
0.629088 0.859821 0.187115 0.8 0 0
0.572278 0.770303 0.180401 0.8 0 0
0.475665 0.150518 0.323488 0.8 0 0
0.519610 0.482163 0.634049 0.8 0 0
0.692931 0.718692 0.382879 0.8 0 0
0.659932 0.669219 0.403579 0.8 0 0
0.366667 0.626657 0.186553 0.8 0 0
0.656311 0.072394 0.298104 0.8 0 0
0.287206 0.785610 0.172813 0.8 0 0
0.529574 0.079001 0.624132 0.8 0 0
0.577057 0.480261 0.561993 0.8 0 0
0.639290 0.492460 0.277050 0.8 0 0
0.562574 0.115705 0.300801 0.8 0 0
0.224015 0.125959 0.580962 0.8 0 0
0.518838 0.100769 0.605916 0.8 0 0
0.453135 0.187636 0.468662 0.8 0 0
0.570326 0.586132 0.204064 0.8 0 0
0.186936 0.039560 0.611604 0.8 0 0
0.302419 0.479840 0.304217 0.8 0 0
0.671644 0.712060 0.431566 0.8 0 0
0.425423 0.480013 0.249437 0.8 0 0
0.400909 0.260612 0.392698 0.8 0 0
0.243805 0.964857 0.095701 0.8 0 0
0.612902 0.480398 0.287276 0.8 0 0
0.093849 0.718692 0.326319 0.8 0 0
0.133928 0.518163 0.203633 0.8 0 0
0.441465 0.490185 0.598369 0.8 0 0
0.308172 0.224386 0.420630 0.8 0 0
0.293326 0.640269 0.184430 0.8 0 0
0.420616 0.967876 0.088531 0.8 0 0
0.359121 0.491913 0.324414 0.8 0 0
0.629651 0.660536 0.221494 0.8 0 0
0.387552 0.479829 0.332931 0.8 0 0
0.356473 0.074953 0.096848 0.8 0 0
0.361254 0.480183 0.239342 0.8 0 0
0.264042 0.930258 0.132051 0.8 0 0
0.342142 0.226919 0.339978 0.8 0 0
0.267012 0.175738 0.484822 0.8 0 0
0.219619 0.810846 0.155677 0.8 0 0
0.438742 0.491838 0.494856 0.8 0 0
0.391221 0.903549 0.132919 0.8 0 0
0.548638 0.911368 0.130929 0.8 0 0
0.639929 0.718692 0.410463 0.8 0 0
0.184354 0.677631 0.198197 0.8 0 0
0.428706 0.479734 0.552663 0.8 0 0
0.448024 0.194550 0.330703 0.8 0 0
0.141835 0.883582 0.160057 0.8 0 0
0.385240 0.185176 0.284297 0.8 0 0
0.277921 0.492494 0.235738 0.8 0 0
0.120256 0.480400 0.297106 0.8 0 0
0.489479 0.684915 0.190937 0.8 0 0
0.244332 0.559349 0.176903 0.8 0 0
0.505760 0.479806 0.387139 0.8 0 0
0.261250 0.893871 0.150744 0.8 0 0
0.502149 0.479784 0.436713 0.8 0 0
0.633916 0.611363 0.202375 0.8 0 0
0.619151 0.835621 0.171815 0.8 0 0
0.377894 0.068876 0.088897 0.8 0 0
0.362218 0.491897 0.359884 0.8 0 0
0.362926 0.313447 0.416823 0.8 0 0
0.454601 0.190956 0.470951 0.8 0 0
0.217801 0.616411 0.200730 0.8 0 0
0.228417 0.608178 0.187696 0.8 0 0
0.258284 0.491869 0.424384 0.8 0 0
0.192390 0.491950 0.552493 0.8 0 0
0.254351 0.491926 0.294286 0.8 0 0
0.631781 0.659864 0.222388 0.8 0 0
0.422946 0.874198 0.141444 0.8 0 0
0.330944 0.233679 0.453480 0.8 0 0
0.366197 0.364464 0.346152 0.8 0 0
0.086857 0.718692 0.399360 0.8 0 0
0.643240 0.696055 0.505766 0.8 0 0
0.151228 0.480410 0.515888 0.8 0 0
0.670257 0.091251 0.275581 0.8 0 0
0.251213 0.579900 0.194411 0.8 0 0
0.257400 0.490353 0.594545 0.8 0 0
0.451991 0.728992 0.182896 0.8 0 0
0.234125 0.490798 0.584558 0.8 0 0
0.564850 0.063124 0.630671 0.8 0 0
0.615006 0.115358 0.295404 0.8 0 0
0.617472 0.482994 0.452485 0.8 0 0
0.471805 0.479803 0.393983 0.8 0 0
0.170636 0.480134 0.549192 0.8 0 0
0.275968 0.490782 0.584948 0.8 0 0
0.360337 0.965709 0.078039 0.8 0 0
0.613137 0.694618 0.190506 0.8 0 0
0.152170 0.843175 0.154671 0.8 0 0
0.379764 0.219856 0.408034 0.8 0 0
0.289600 0.491833 0.507318 0.8 0 0
0.684890 0.087298 0.272824 0.8 0 0
0.311119 0.733013 0.182137 0.8 0 0
0.692807 0.718692 0.396096 0.8 0 0
0.250589 0.775520 0.161224 0.8 0 0
0.584611 0.492498 0.466177 0.8 0 0
0.391407 0.921983 0.122548 0.8 0 0
0.098854 0.711862 0.470631 0.8 0 0
0.475387 0.961016 0.102937 0.8 0 0
0.122444 0.664829 0.225405 0.8 0 0
0.374079 0.084474 0.092646 0.8 0 0
0.538380 0.965487 0.085043 0.8 0 0
0.558908 0.492249 0.457511 0.8 0 0
0.321053 0.479759 0.495883 0.8 0 0
0.604026 0.718905 0.197063 0.8 0 0
0.268622 0.587333 0.187202 0.8 0 0
0.478686 0.479803 0.394454 0.8 0 0
0.650028 0.082621 0.287582 0.8 0 0
0.222397 0.490638 0.588150 0.8 0 0
0.182934 0.480061 0.276622 0.8 0 0
0.514014 0.632254 0.199406 0.8 0 0
0.354235 0.188959 0.346153 0.8 0 0
0.245180 0.477507 0.608917 0.8 0 0
0.330469 0.367086 0.380954 0.8 0 0
0.443760 0.703423 0.174061 0.8 0 0
0.343428 0.481133 0.636283 0.8 0 0
0.355970 0.479768 0.474222 0.8 0 0
0.109704 0.496790 0.559718 0.8 0 0
0.526477 0.492296 0.250041 0.8 0 0
0.409482 0.796313 0.170958 0.8 0 0
0.151313 0.492460 0.289864 0.8 0 0
0.297432 0.858611 0.144728 0.8 0 0
0.331905 0.479848 0.286252 0.8 0 0
0.174940 0.069296 0.617681 0.8 0 0
0.499040 0.480421 0.225401 0.8 0 0
0.497147 0.479776 0.455449 0.8 0 0
0.143730 0.492499 0.471565 0.8 0 0
0.245200 0.197055 0.320873 0.8 0 0
0.215869 0.800529 0.170995 0.8 0 0
0.370251 0.481399 0.214762 0.8 0 0
0.396890 0.791691 0.171773 0.8 0 0
0.180861 0.786618 0.174310 0.8 0 0
0.339863 0.439582 0.352046 0.8 0 0
0.408091 0.242039 0.398316 0.8 0 0
0.302016 0.680379 0.191432 0.8 0 0
0.637038 0.498653 0.431547 0.8 0 0
0.408865 0.491853 0.461283 0.8 0 0
0.348895 0.139876 0.225409 0.8 0 0
0.175493 0.492207 0.315439 0.8 0 0
0.562728 0.492279 0.495696 0.8 0 0
0.460369 0.146143 0.479961 0.8 0 0
0.357677 0.242677 0.427806 0.8 0 0
0.206575 0.800852 0.171158 0.8 0 0
0.331286 0.485347 0.202760 0.8 0 0
0.386415 0.234177 0.304470 0.8 0 0
0.584517 0.492460 0.274283 0.8 0 0
0.633051 0.496036 0.415315 0.8 0 0
0.208945 0.492224 0.252109 0.8 0 0
0.286229 0.190526 0.503185 0.8 0 0
0.402462 0.467215 0.388161 0.8 0 0
0.437226 0.863497 0.143730 0.8 0 0
0.169238 0.480203 0.470986 0.8 0 0
0.404411 0.181920 0.466283 0.8 0 0
0.265593 0.664652 0.180655 0.8 0 0
0.634488 0.818737 0.201239 0.8 0 0
0.428837 0.214344 0.430714 0.8 0 0
0.214574 0.491934 0.274637 0.8 0 0
0.624205 0.484571 0.607873 0.8 0 0
0.077523 0.083738 0.293168 0.8 0 0
0.536892 0.064133 0.610303 0.8 0 0
0.257854 0.492384 0.242165 0.8 0 0
0.625126 0.498269 0.525370 0.8 0 0
0.399214 0.479820 0.354434 0.8 0 0
0.199319 0.880530 0.154839 0.8 0 0
0.231832 0.464576 0.644725 0.8 0 0
0.537359 0.094611 0.618316 0.8 0 0
0.665109 0.718692 0.307164 0.8 0 0
0.532814 0.070676 0.615429 0.8 0 0
0.205371 0.136937 0.310448 0.8 0 0
0.590156 0.746846 0.188818 0.8 0 0
0.117069 0.758190 0.179255 0.8 0 0
0.346379 0.247403 0.404802 0.8 0 0
0.583839 0.491201 0.600983 0.8 0 0
0.137635 0.483804 0.247735 0.8 0 0
0.346458 0.368972 0.346153 0.8 0 0
0.626978 0.718692 0.430848 0.8 0 0
0.092443 0.488760 0.454637 0.8 0 0
0.144695 0.550234 0.205812 0.8 0 0
0.378746 0.055125 0.066594 0.8 0 0
0.321101 0.227563 0.388494 0.8 0 0
0.272724 0.491915 0.319149 0.8 0 0
0.076912 0.581663 0.370390 0.8 0 0
0.276405 0.797316 0.170736 0.8 0 0
0.415427 0.878371 0.154058 0.8 0 0
0.063139 0.678585 0.421938 0.8 0 0
0.077979 0.607639 0.363238 0.8 0 0
0.093956 0.492460 0.286028 0.8 0 0
0.352714 0.491811 0.556632 0.8 0 0
0.649545 0.048524 0.272244 0.8 0 0
0.518973 0.788417 0.173341 0.8 0 0
0.269347 0.760883 0.177187 0.8 0 0
0.539502 0.915972 0.142468 0.8 0 0
0.315196 0.970756 0.067488 0.8 0 0
0.191192 0.080046 0.640681 0.8 0 0
0.452518 0.441655 0.672249 0.8 0 0
0.554787 0.924323 0.127131 0.8 0 0
0.483314 0.575042 0.191986 0.8 0 0
0.177435 0.492195 0.346131 0.8 0 0
0.411356 0.951061 0.106195 0.8 0 0
0.477039 0.923951 0.135696 0.8 0 0
0.484611 0.137988 0.517819 0.8 0 0
0.316831 0.228885 0.452357 0.8 0 0
0.617923 0.496371 0.547825 0.8 0 0
0.579641 0.492460 0.275564 0.8 0 0
0.383284 0.201622 0.250713 0.8 0 0
0.276796 0.491818 0.542307 0.8 0 0
0.598119 0.128222 0.307603 0.8 0 0
0.288036 0.472777 0.626386 0.8 0 0
0.129975 0.481335 0.468028 0.8 0 0
0.197459 0.817818 0.168270 0.8 0 0
0.166720 0.480240 0.395249 0.8 0 0
0.329196 0.791699 0.171749 0.8 0 0
0.594784 0.627883 0.216746 0.8 0 0
0.192123 0.492031 0.376059 0.8 0 0
0.200677 0.963424 0.101524 0.8 0 0
0.580436 0.480376 0.299003 0.8 0 0
0.507427 0.149946 0.315197 0.8 0 0
0.360037 0.491885 0.386887 0.8 0 0
0.403786 0.479746 0.525781 0.8 0 0
0.390192 0.480380 0.227793 0.8 0 0
0.378753 0.035672 0.036574 0.8 0 0
0.578679 0.488102 0.234600 0.8 0 0
0.640490 0.669430 0.225928 0.8 0 0
0.373480 0.090195 0.082371 0.8 0 0
0.499347 0.954144 0.101733 0.8 0 0
0.362561 0.513152 0.195856 0.8 0 0
0.407251 0.480410 0.226005 0.8 0 0
0.553123 0.480115 0.434501 0.8 0 0
0.278256 0.491870 0.422126 0.8 0 0
0.363877 0.271284 0.346153 0.8 0 0
0.588301 0.107008 0.318687 0.8 0 0
0.284793 0.479787 0.428258 0.8 0 0
0.391833 0.797816 0.157322 0.8 0 0
0.285643 0.465844 0.641905 0.8 0 0
0.479472 0.683307 0.190996 0.8 0 0
0.548913 0.445584 0.670371 0.8 0 0
0.480466 0.491842 0.486202 0.8 0 0
0.478556 0.479762 0.487720 0.8 0 0
0.163559 0.935001 0.124205 0.8 0 0
0.310202 0.928535 0.133014 0.8 0 0
0.255997 0.734929 0.181779 0.8 0 0
0.603933 0.485516 0.639594 0.8 0 0
0.376480 0.094454 0.133871 0.8 0 0
0.396167 0.491883 0.392526 0.8 0 0
0.334339 0.217250 0.456250 0.8 0 0
0.090232 0.537625 0.200439 0.8 0 0
0.090838 0.498260 0.305010 0.8 0 0
0.499382 0.491978 0.266111 0.8 0 0
0.107454 0.492460 0.280108 0.8 0 0
0.123822 0.668326 0.198356 0.8 0 0
0.347675 0.250088 0.322983 0.8 0 0
0.407555 0.479743 0.532429 0.8 0 0
0.603469 0.492469 0.335154 0.8 0 0
0.361582 0.279755 0.346153 0.8 0 0
0.696944 0.718562 0.269613 0.8 0 0
0.102258 0.083022 0.302848 0.8 0 0
0.202789 0.733385 0.169863 0.8 0 0
0.510758 0.188970 0.341675 0.8 0 0
0.471283 0.491856 0.455074 0.8 0 0
0.315386 0.479432 0.565828 0.8 0 0
0.311207 0.610265 0.187791 0.8 0 0
0.214763 0.089865 0.566306 0.8 0 0
0.376391 0.436088 0.410480 0.8 0 0
0.090232 0.553126 0.197662 0.8 0 0
0.477770 0.649114 0.183147 0.8 0 0
0.200363 0.492226 0.256283 0.8 0 0
0.171718 0.134048 0.330032 0.8 0 0
0.545586 0.091501 0.644227 0.8 0 0
0.144506 0.480410 0.342162 0.8 0 0
0.084390 0.496534 0.303516 0.8 0 0
0.120975 0.777464 0.187923 0.8 0 0
0.269124 0.824185 0.152054 0.8 0 0
0.438235 0.491849 0.470708 0.8 0 0
0.628337 0.494156 0.391638 0.8 0 0
0.626085 0.644835 0.221036 0.8 0 0
0.592408 0.736648 0.178014 0.8 0 0
0.292748 0.955536 0.114266 0.8 0 0
0.120940 0.602045 0.198702 0.8 0 0
0.446468 0.210714 0.463223 0.8 0 0
0.156983 0.480334 0.403480 0.8 0 0
0.471769 0.524633 0.184923 0.8 0 0
0.268023 0.565638 0.179973 0.8 0 0
0.471226 0.829013 0.151092 0.8 0 0
0.253083 0.480482 0.221764 0.8 0 0
0.343173 0.203089 0.445484 0.8 0 0
0.258753 0.510160 0.179570 0.8 0 0
0.434492 0.491813 0.552481 0.8 0 0
0.567436 0.105508 0.326836 0.8 0 0
0.488457 0.804938 0.156293 0.8 0 0
0.299763 0.748034 0.179472 0.8 0 0
0.158097 0.705046 0.191888 0.8 0 0
0.398493 0.255616 0.394450 0.8 0 0
0.082975 0.718692 0.430044 0.8 0 0
0.533370 0.951369 0.121651 0.8 0 0
0.281344 0.508883 0.180220 0.8 0 0
0.387213 0.882571 0.153155 0.8 0 0
0.687419 0.718692 0.428803 0.8 0 0
0.095384 0.858366 0.181368 0.8 0 0
0.423106 0.646697 0.196686 0.8 0 0
0.204695 0.952863 0.104186 0.8 0 0
0.491275 0.491873 0.415457 0.8 0 0
0.444446 0.479839 0.310532 0.8 0 0
0.075975 0.073484 0.292562 0.8 0 0
0.473771 0.126811 0.500890 0.8 0 0
0.573905 0.037425 0.653168 0.8 0 0
0.201616 0.832403 0.151854 0.8 0 0
0.440397 0.236637 0.362827 0.8 0 0
0.317098 0.491877 0.405446 0.8 0 0
0.523421 0.755264 0.165967 0.8 0 0
0.101628 0.729186 0.211854 0.8 0 0
0.638505 0.492758 0.562582 0.8 0 0
0.286997 0.480313 0.231688 0.8 0 0
0.706150 0.715031 0.379419 0.8 0 0
0.494833 0.757917 0.164780 0.8 0 0
0.486633 0.771185 0.162224 0.8 0 0
0.370297 0.839117 0.162414 0.8 0 0
0.311335 0.479842 0.301640 0.8 0 0
0.273253 0.902733 0.133354 0.8 0 0
0.489109 0.502710 0.183388 0.8 0 0
0.178036 0.492573 0.255192 0.8 0 0
0.308309 0.479847 0.287805 0.8 0 0
0.145574 0.480426 0.414550 0.8 0 0
0.527073 0.601511 0.191106 0.8 0 0
0.655625 0.055557 0.270281 0.8 0 0
0.362798 0.204331 0.416730 0.8 0 0
0.156194 0.834167 0.155806 0.8 0 0
0.513973 0.967706 0.078445 0.8 0 0
0.292634 0.656831 0.181871 0.8 0 0
0.469456 0.500415 0.204800 0.8 0 0
0.197181 0.896310 0.135598 0.8 0 0
0.552878 0.727749 0.171583 0.8 0 0
0.466982 0.141072 0.490288 0.8 0 0
0.197075 0.479903 0.351883 0.8 0 0
0.090193 0.490631 0.251143 0.8 0 0
0.282973 0.479732 0.556534 0.8 0 0
0.222142 0.128729 0.574325 0.8 0 0
0.460323 0.220783 0.368672 0.8 0 0
0.400761 0.843091 0.148068 0.8 0 0
0.371158 0.491904 0.344123 0.8 0 0
0.402030 0.495776 0.218869 0.8 0 0
0.193329 0.492040 0.322400 0.8 0 0
0.045101 0.718692 0.324754 0.8 0 0
0.426807 0.947443 0.122413 0.8 0 0
0.251253 0.474299 0.622965 0.8 0 0
0.460882 0.479785 0.434805 0.8 0 0
0.477455 0.491910 0.330534 0.8 0 0
0.335892 0.894475 0.150603 0.8 0 0
0.547484 0.062220 0.652141 0.8 0 0
0.209419 0.459735 0.655145 0.8 0 0
0.225902 0.479823 0.344208 0.8 0 0
0.219625 0.105053 0.558723 0.8 0 0
0.116898 0.757698 0.179389 0.8 0 0
0.594246 0.655479 0.206514 0.8 0 0
0.198933 0.517432 0.188977 0.8 0 0
0.458276 0.491443 0.570204 0.8 0 0
0.280612 0.878887 0.153909 0.8 0 0
0.173525 0.480130 0.512833 0.8 0 0
0.368376 0.920852 0.123178 0.8 0 0
0.385649 0.453834 0.403765 0.8 0 0
0.680199 0.718692 0.317591 0.8 0 0
0.114483 0.591895 0.205098 0.8 0 0
0.562019 0.480224 0.404839 0.8 0 0
0.607059 0.480398 0.274712 0.8 0 0
0.354525 0.315984 0.346153 0.8 0 0
0.168498 0.551798 0.192122 0.8 0 0
0.494993 0.798171 0.171015 0.8 0 0
0.356216 0.950758 0.120529 0.8 0 0
0.392923 0.447392 0.358738 0.8 0 0
0.412182 0.461131 0.652502 0.8 0 0
0.619551 0.485910 0.623108 0.8 0 0
0.360194 0.479779 0.449142 0.8 0 0
0.631096 0.710952 0.470849 0.8 0 0
0.591871 0.480421 0.394209 0.8 0 0
0.241183 0.479833 0.321125 0.8 0 0
0.322338 0.479786 0.433071 0.8 0 0
0.238793 0.504081 0.182620 0.8 0 0
0.507844 0.698134 0.175696 0.8 0 0
0.397071 0.458514 0.395481 0.8 0 0
0.351705 0.135046 0.177733 0.8 0 0
0.200437 0.479891 0.282727 0.8 0 0
0.375794 0.234826 0.346152 0.8 0 0
0.294551 0.479900 0.255949 0.8 0 0
0.386858 0.491834 0.504723 0.8 0 0
0.380164 0.665425 0.180573 0.8 0 0
0.096745 0.716141 0.206266 0.8 0 0
0.558632 0.480190 0.423202 0.8 0 0
0.155525 0.100897 0.297400 0.8 0 0
0.387602 0.629082 0.186185 0.8 0 0
0.522478 0.478670 0.583058 0.8 0 0
0.032409 0.718692 0.345875 0.8 0 0
0.183662 0.761831 0.178630 0.8 0 0
0.667929 0.680497 0.401075 0.8 0 0
0.078648 0.602783 0.375328 0.8 0 0
0.304495 0.491894 0.366695 0.8 0 0
0.217886 0.487520 0.621958 0.8 0 0
0.650073 0.528764 0.323875 0.8 0 0
0.510886 0.515828 0.176367 0.8 0 0
0.118171 0.794999 0.185467 0.8 0 0
0.487273 0.491762 0.563058 0.8 0 0
0.415078 0.949432 0.107112 0.8 0 0
0.179308 0.492150 0.466436 0.8 0 0
0.150182 0.492483 0.512430 0.8 0 0
0.607610 0.823969 0.178850 0.8 0 0
0.229989 0.469340 0.634059 0.8 0 0
0.519615 0.473915 0.652515 0.8 0 0
0.425481 0.480009 0.249631 0.8 0 0
0.344570 0.224571 0.298793 0.8 0 0
0.518947 0.479958 0.252741 0.8 0 0
0.330915 0.476222 0.379582 0.8 0 0
0.392831 0.356462 0.358454 0.8 0 0
0.548309 0.492083 0.538179 0.8 0 0
0.188841 0.467940 0.638187 0.8 0 0
0.343387 0.479799 0.402583 0.8 0 0
0.235857 0.445843 0.673981 0.8 0 0
0.580194 0.542664 0.207872 0.8 0 0
0.383900 0.222770 0.441252 0.8 0 0
0.133150 0.494140 0.263208 0.8 0 0
0.369130 0.944070 0.124293 0.8 0 0
0.139290 0.661319 0.199704 0.8 0 0
0.531189 0.716093 0.173098 0.8 0 0
0.414047 0.486636 0.198875 0.8 0 0
0.404855 0.491866 0.432387 0.8 0 0
0.232915 0.468334 0.636312 0.8 0 0
0.068802 0.062341 0.274701 0.8 0 0
0.170248 0.591101 0.195200 0.8 0 0
0.352928 0.147846 0.165428 0.8 0 0
0.565704 0.726018 0.186671 0.8 0 0
0.353365 0.849004 0.160300 0.8 0 0
0.427759 0.479848 0.289009 0.8 0 0
0.489449 0.838056 0.162890 0.8 0 0
0.640333 0.817257 0.195406 0.8 0 0
0.346798 0.958175 0.108769 0.8 0 0
0.566391 0.547278 0.192978 0.8 0 0
0.285592 0.862702 0.143853 0.8 0 0
0.099483 0.784591 0.204093 0.8 0 0
0.338708 0.865729 0.143223 0.8 0 0
0.689883 0.086897 0.287217 0.8 0 0
0.296122 0.137617 0.502827 0.8 0 0
0.457589 0.167945 0.475619 0.8 0 0
0.079035 0.563450 0.360457 0.8 0 0
0.417577 0.871538 0.142009 0.8 0 0
0.637074 0.492244 0.559771 0.8 0 0
0.576779 0.492437 0.451736 0.8 0 0
0.369375 0.665309 0.193787 0.8 0 0
0.390072 0.911774 0.142464 0.8 0 0
0.415192 0.491867 0.428827 0.8 0 0
0.257975 0.443818 0.673987 0.8 0 0
0.606985 0.120590 0.296809 0.8 0 0
0.357161 0.360779 0.346153 0.8 0 0
0.099943 0.718692 0.350026 0.8 0 0
0.284196 0.194079 0.331081 0.8 0 0
0.192807 0.479885 0.516065 0.8 0 0
0.253784 0.974997 0.065661 0.8 0 0
0.398529 0.840600 0.148598 0.8 0 0
0.626008 0.600373 0.198237 0.8 0 0
0.154651 0.885637 0.156992 0.8 0 0
0.535665 0.491974 0.427276 0.8 0 0
0.343836 0.886473 0.138805 0.8 0 0
0.114518 0.681559 0.195097 0.8 0 0
0.542965 0.790234 0.160281 0.8 0 0
0.549152 0.491820 0.573605 0.8 0 0
0.205277 0.483793 0.208210 0.8 0 0
0.663602 0.643722 0.385112 0.8 0 0
0.318451 0.766271 0.162886 0.8 0 0
0.487648 0.580610 0.195327 0.8 0 0
0.425837 0.903098 0.133183 0.8 0 0
0.317529 0.225916 0.387096 0.8 0 0
0.534524 0.064260 0.612063 0.8 0 0
0.134510 0.806359 0.166403 0.8 0 0
0.100233 0.718165 0.447106 0.8 0 0
0.444733 0.953210 0.119166 0.8 0 0
0.202923 0.491936 0.290338 0.8 0 0
0.402043 0.511949 0.178709 0.8 0 0
0.185897 0.920662 0.126669 0.8 0 0
0.626622 0.493973 0.381224 0.8 0 0
0.556093 0.702617 0.189447 0.8 0 0
0.458767 0.960296 0.104390 0.8 0 0
0.565729 0.066326 0.631879 0.8 0 0
0.568709 0.772702 0.179124 0.8 0 0
0.476911 0.479805 0.388780 0.8 0 0
0.617163 0.494274 0.613364 0.8 0 0
0.185814 0.488617 0.617967 0.8 0 0
0.454722 0.602099 0.187623 0.8 0 0
0.429140 0.668194 0.193360 0.8 0 0
0.347682 0.181059 0.439988 0.8 0 0
0.689169 0.711419 0.472484 0.8 0 0
0.494116 0.491901 0.350200 0.8 0 0
0.062058 0.053148 0.293918 0.8 0 0
0.700887 0.718692 0.360615 0.8 0 0
0.246788 0.491924 0.298448 0.8 0 0
0.289201 0.809170 0.168641 0.8 0 0
0.278468 0.479853 0.274568 0.8 0 0
0.346929 0.179757 0.440906 0.8 0 0
0.639513 0.718692 0.374098 0.8 0 0
0.329098 0.200828 0.385173 0.8 0 0
0.311568 0.760518 0.163902 0.8 0 0
0.149229 0.492484 0.474973 0.8 0 0
0.168992 0.480225 0.426864 0.8 0 0
0.589180 0.653034 0.209782 0.8 0 0
0.550483 0.480151 0.264917 0.8 0 0
0.423217 0.640532 0.197641 0.8 0 0
0.545158 0.484719 0.222929 0.8 0 0
0.153024 0.640869 0.219942 0.8 0 0
0.325587 0.479849 0.284570 0.8 0 0
0.122992 0.493363 0.427911 0.8 0 0
0.230168 0.493728 0.225045 0.8 0 0
0.528110 0.491849 0.500315 0.8 0 0
0.599035 0.782969 0.171444 0.8 0 0
0.436605 0.479760 0.491468 0.8 0 0
0.666735 0.718692 0.396430 0.8 0 0
0.222379 0.510442 0.197183 0.8 0 0
0.269345 0.509420 0.179946 0.8 0 0
0.354657 0.480089 0.244865 0.8 0 0
0.391011 0.732774 0.168844 0.8 0 0
0.115496 0.492861 0.351677 0.8 0 0
0.085208 0.066200 0.296176 0.8 0 0
0.235124 0.192534 0.354846 0.8 0 0
0.287394 0.155664 0.513465 0.8 0 0
0.372354 0.446109 0.413408 0.8 0 0
0.407006 0.479785 0.434389 0.8 0 0
0.142275 0.544799 0.206703 0.8 0 0
0.152156 0.530870 0.214246 0.8 0 0
0.133214 0.640816 0.219923 0.8 0 0
0.560736 0.090282 0.638820 0.8 0 0
0.201793 0.624038 0.189955 0.8 0 0
0.594080 0.584485 0.193973 0.8 0 0
0.294921 0.508639 0.198110 0.8 0 0
0.439575 0.491065 0.578659 0.8 0 0
0.348218 0.139203 0.236889 0.8 0 0
0.452050 0.199539 0.329652 0.8 0 0
0.545731 0.087598 0.613274 0.8 0 0
0.151072 0.492453 0.412519 0.8 0 0
0.475140 0.900151 0.149087 0.8 0 0
0.451037 0.160024 0.329917 0.8 0 0
0.188298 0.620993 0.205854 0.8 0 0
0.347515 0.518981 0.178738 0.8 0 0
0.659110 0.662240 0.401057 0.8 0 0
0.509784 0.479918 0.255056 0.8 0 0
0.146453 0.480424 0.404193 0.8 0 0
0.554175 0.478512 0.601770 0.8 0 0
0.382474 0.491919 0.309143 0.8 0 0
0.592153 0.492460 0.286937 0.8 0 0
0.345689 0.410628 0.346153 0.8 0 0
0.482552 0.683823 0.190958 0.8 0 0
0.516973 0.897736 0.148606 0.8 0 0
0.239635 0.491917 0.314567 0.8 0 0
0.336616 0.633169 0.185539 0.8 0 0
0.121557 0.498588 0.249465 0.8 0 0
0.110728 0.484614 0.545435 0.8 0 0
0.405520 0.258153 0.362763 0.8 0 0
0.223064 0.511575 0.178845 0.8 0 0
0.410968 0.817765 0.153470 0.8 0 0
0.462725 0.177673 0.514327 0.8 0 0
0.403236 0.672557 0.192676 0.8 0 0
0.142869 0.480077 0.594818 0.8 0 0
0.464560 0.491933 0.277612 0.8 0 0
0.447993 0.628050 0.199581 0.8 0 0
0.560449 0.533486 0.209259 0.8 0 0
0.327999 0.285077 0.388556 0.8 0 0
0.560449 0.532222 0.198863 0.8 0 0
0.182711 0.913538 0.129903 0.8 0 0
0.639119 0.491613 0.330850 0.8 0 0
0.638822 0.603217 0.207593 0.8 0 0
0.359044 0.299339 0.346153 0.8 0 0
0.304009 0.491904 0.344491 0.8 0 0
0.608322 0.482076 0.589795 0.8 0 0
0.352072 0.034485 0.047651 0.8 0 0
0.465406 0.153497 0.540714 0.8 0 0
0.514958 0.491887 0.383733 0.8 0 0
0.548056 0.910414 0.145015 0.8 0 0
0.102284 0.693524 0.204876 0.8 0 0
0.499106 0.617555 0.199758 0.8 0 0
0.122064 0.627496 0.207384 0.8 0 0
0.157776 0.481024 0.644554 0.8 0 0
0.235556 0.858961 0.158469 0.8 0 0
0.253680 0.672149 0.179494 0.8 0 0
0.498535 0.728936 0.183365 0.8 0 0
0.473248 0.491840 0.491161 0.8 0 0
0.244029 0.479763 0.485252 0.8 0 0
0.288120 0.890504 0.151435 0.8 0 0
0.328267 0.491858 0.448855 0.8 0 0
0.196923 0.480677 0.220630 0.8 0 0
0.399363 0.491845 0.480545 0.8 0 0
0.274300 0.492132 0.256979 0.8 0 0
0.699901 0.057306 0.265230 0.8 0 0
0.237975 0.162891 0.318982 0.8 0 0
0.106945 0.498085 0.537071 0.8 0 0
0.091634 0.534347 0.212306 0.8 0 0
0.682365 0.052977 0.261599 0.8 0 0
0.564676 0.866255 0.160880 0.8 0 0
0.347886 0.970909 0.067179 0.8 0 0
0.421273 0.459626 0.655306 0.8 0 0
0.459419 0.491828 0.517408 0.8 0 0
0.351901 0.199708 0.346153 0.8 0 0
0.251692 0.479827 0.335569 0.8 0 0
0.106875 0.715014 0.196646 0.8 0 0
0.077423 0.718692 0.377900 0.8 0 0
0.570372 0.480287 0.538577 0.8 0 0
0.261280 0.212111 0.329547 0.8 0 0
0.346237 0.204098 0.270511 0.8 0 0
0.627631 0.498366 0.505951 0.8 0 0
0.232482 0.192082 0.318319 0.8 0 0
0.227497 0.972924 0.074143 0.8 0 0
0.095986 0.505920 0.210990 0.8 0 0
0.234756 0.479772 0.464328 0.8 0 0
0.461346 0.712532 0.185814 0.8 0 0
0.555973 0.480132 0.479547 0.8 0 0
0.587871 0.480432 0.444029 0.8 0 0
0.330524 0.491852 0.463939 0.8 0 0
0.426487 0.641372 0.197512 0.8 0 0
0.054998 0.029675 0.263570 0.8 0 0
0.585610 0.131504 0.294788 0.8 0 0
0.539958 0.090254 0.640711 0.8 0 0
0.363387 0.454733 0.346153 0.8 0 0
0.247023 0.491885 0.386923 0.8 0 0
0.182482 0.752637 0.166959 0.8 0 0
0.381808 0.318491 0.406551 0.8 0 0
0.497883 0.634368 0.185879 0.8 0 0
0.507209 0.578832 0.194915 0.8 0 0
0.626487 0.486582 0.514291 0.8 0 0
0.375666 0.479755 0.503433 0.8 0 0
0.521197 0.491902 0.348007 0.8 0 0
0.607424 0.491960 0.618947 0.8 0 0
0.331348 0.259037 0.405476 0.8 0 0
0.100679 0.481543 0.350708 0.8 0 0
0.533125 0.491902 0.521257 0.8 0 0
0.347256 0.178592 0.253208 0.8 0 0
0.139755 0.492400 0.589308 0.8 0 0
0.111900 0.629626 0.207907 0.8 0 0
0.160681 0.858329 0.162769 0.8 0 0
0.469084 0.491877 0.406662 0.8 0 0
0.093846 0.493456 0.578304 0.8 0 0
0.536561 0.479875 0.506113 0.8 0 0
0.103701 0.739179 0.208128 0.8 0 0
0.706153 0.712765 0.369414 0.8 0 0
0.030859 0.044779 0.275579 0.8 0 0
0.640515 0.572149 0.201444 0.8 0 0
0.165945 0.480233 0.326697 0.8 0 0
0.177748 0.028437 0.622154 0.8 0 0
0.355236 0.489380 0.616386 0.8 0 0
0.246777 0.491935 0.272483 0.8 0 0
0.366672 0.577572 0.193105 0.8 0 0
0.500153 0.479782 0.441697 0.8 0 0
0.550932 0.492145 0.469252 0.8 0 0
0.521275 0.479775 0.458102 0.8 0 0
0.560450 0.575812 0.201451 0.8 0 0
0.490510 0.491814 0.550130 0.8 0 0
0.565314 0.601495 0.198640 0.8 0 0
0.261011 0.803682 0.169604 0.8 0 0
0.292527 0.209486 0.333261 0.8 0 0
0.302336 0.217999 0.429731 0.8 0 0
0.387036 0.185339 0.315132 0.8 0 0
0.287985 0.191197 0.375534 0.8 0 0
0.285195 0.491405 0.570966 0.8 0 0
0.530123 0.479884 0.295814 0.8 0 0
0.498280 0.649855 0.183602 0.8 0 0
0.412098 0.491809 0.561537 0.8 0 0
0.321446 0.187270 0.388629 0.8 0 0
0.568912 0.041745 0.662067 0.8 0 0
0.480862 0.671365 0.179700 0.8 0 0
0.583525 0.941645 0.130579 0.8 0 0
0.428735 0.840500 0.162139 0.8 0 0
0.551845 0.492181 0.336512 0.8 0 0
0.083903 0.557277 0.333867 0.8 0 0
0.145737 0.658041 0.202951 0.8 0 0
0.455298 0.142623 0.472041 0.8 0 0
0.081817 0.547896 0.325661 0.8 0 0
0.253100 0.479748 0.519597 0.8 0 0
0.445537 0.771474 0.175370 0.8 0 0
0.320811 0.183934 0.472737 0.8 0 0
0.328661 0.479803 0.391782 0.8 0 0
0.368222 0.929663 0.118220 0.8 0 0
0.328984 0.670059 0.179841 0.8 0 0
0.518748 0.139432 0.345853 0.8 0 0
0.455597 0.491842 0.486246 0.8 0 0
0.315894 0.475784 0.619663 0.8 0 0
0.238639 0.175462 0.319156 0.8 0 0
0.411066 0.492517 0.234379 0.8 0 0
0.378747 0.069842 0.061873 0.8 0 0
0.237541 0.491174 0.576141 0.8 0 0
0.277372 0.479436 0.565736 0.8 0 0
0.442021 0.963661 0.097340 0.8 0 0
0.658916 0.087722 0.294126 0.8 0 0
0.551763 0.823523 0.167728 0.8 0 0
0.220598 0.132725 0.349162 0.8 0 0
0.396412 0.788933 0.172261 0.8 0 0
0.173922 0.492517 0.259232 0.8 0 0
0.616411 0.773682 0.179209 0.8 0 0
0.508805 0.479774 0.460218 0.8 0 0
0.115714 0.495043 0.477313 0.8 0 0
0.189883 0.502912 0.199499 0.8 0 0
0.088625 0.718692 0.330499 0.8 0 0
0.105170 0.610451 0.201872 0.8 0 0
0.242388 0.491928 0.288773 0.8 0 0
0.487067 0.479750 0.515275 0.8 0 0
0.216643 0.092165 0.563374 0.8 0 0
0.487171 0.607087 0.199419 0.8 0 0
0.547285 0.492090 0.492886 0.8 0 0
0.476926 0.124564 0.505817 0.8 0 0
0.358420 0.404483 0.413549 0.8 0 0
0.408287 0.766262 0.162917 0.8 0 0
0.358252 0.479756 0.500902 0.8 0 0
0.354360 0.222473 0.280427 0.8 0 0
0.303662 0.479777 0.453004 0.8 0 0
0.606240 0.656726 0.223918 0.8 0 0
0.503796 0.480485 0.221687 0.8 0 0
0.515103 0.182997 0.325232 0.8 0 0
0.499360 0.479854 0.276473 0.8 0 0
0.230042 0.593709 0.187939 0.8 0 0
0.394853 0.959304 0.106426 0.8 0 0
0.480209 0.726964 0.183265 0.8 0 0
0.445435 0.491917 0.315142 0.8 0 0
0.161620 0.498246 0.220499 0.8 0 0
0.195458 0.479859 0.498299 0.8 0 0
0.518265 0.522760 0.189435 0.8 0 0
0.382302 0.172332 0.233859 0.8 0 0
0.229896 0.491911 0.328796 0.8 0 0
0.580047 0.041891 0.651567 0.8 0 0
0.308346 0.479745 0.527808 0.8 0 0
0.151964 0.484874 0.244433 0.8 0 0
0.201665 0.491849 0.522330 0.8 0 0
0.596241 0.492494 0.448341 0.8 0 0
0.427217 0.958202 0.093729 0.8 0 0
0.123945 0.494839 0.568939 0.8 0 0
0.051106 0.718692 0.359960 0.8 0 0
0.592317 0.528848 0.215506 0.8 0 0
0.567017 0.590156 0.195132 0.8 0 0
0.492345 0.495181 0.220701 0.8 0 0
0.327840 0.481964 0.389043 0.8 0 0
0.562288 0.532812 0.195676 0.8 0 0
0.230870 0.479765 0.480750 0.8 0 0
0.588954 0.811499 0.163800 0.8 0 0
0.323871 0.257773 0.396147 0.8 0 0
0.358761 0.478375 0.346153 0.8 0 0
0.293156 0.919409 0.138142 0.8 0 0
0.357879 0.248538 0.320593 0.8 0 0
0.628819 0.483430 0.433618 0.8 0 0
0.167484 0.527862 0.215911 0.8 0 0
0.677655 0.718692 0.335147 0.8 0 0
0.225262 0.703852 0.174540 0.8 0 0
0.349434 0.208982 0.259637 0.8 0 0
0.355676 0.085913 0.110365 0.8 0 0
0.059761 0.718692 0.358694 0.8 0 0
0.632678 0.496248 0.422548 0.8 0 0
0.221517 0.491901 0.350315 0.8 0 0
0.346043 0.906794 0.145251 0.8 0 0
0.369557 0.775074 0.174707 0.8 0 0
0.073663 0.028554 0.282938 0.8 0 0
0.626628 0.625867 0.207131 0.8 0 0
0.465675 0.894043 0.137258 0.8 0 0
0.532504 0.069104 0.631523 0.8 0 0
0.202873 0.682775 0.192127 0.8 0 0
0.542977 0.642293 0.211748 0.8 0 0
0.398417 0.910393 0.129071 0.8 0 0
0.523682 0.479797 0.407261 0.8 0 0
0.379891 0.972466 0.063938 0.8 0 0
0.403673 0.491936 0.269912 0.8 0 0
0.190215 0.492044 0.400896 0.8 0 0
0.415762 0.215747 0.410296 0.8 0 0
0.469254 0.217913 0.358278 0.8 0 0
0.572824 0.492160 0.573759 0.8 0 0
0.300885 0.479787 0.430283 0.8 0 0
0.263527 0.214225 0.333174 0.8 0 0
0.194264 0.954865 0.102376 0.8 0 0
0.545494 0.793344 0.159781 0.8 0 0
0.366398 0.492420 0.240073 0.8 0 0
0.253498 0.479813 0.368534 0.8 0 0
0.364216 0.442137 0.417760 0.8 0 0
0.639059 0.503119 0.530182 0.8 0 0
0.594668 0.480641 0.467049 0.8 0 0
0.574614 0.492424 0.500281 0.8 0 0
0.345882 0.491862 0.441007 0.8 0 0
0.453438 0.491831 0.511619 0.8 0 0
0.232556 0.567678 0.182058 0.8 0 0
0.530586 0.711741 0.173854 0.8 0 0
0.406435 0.491866 0.431071 0.8 0 0
0.589737 0.587232 0.194537 0.8 0 0
0.498366 0.491810 0.560514 0.8 0 0
0.095198 0.718692 0.288688 0.8 0 0
0.271916 0.491904 0.344075 0.8 0 0
0.397980 0.527513 0.188653 0.8 0 0
0.353571 0.116862 0.146078 0.8 0 0
0.352072 0.051607 0.038993 0.8 0 0
0.640728 0.048051 0.289092 0.8 0 0
0.252432 0.480153 0.638452 0.8 0 0
0.192199 0.492040 0.355097 0.8 0 0
0.639088 0.493138 0.449711 0.8 0 0
0.179570 0.799747 0.158657 0.8 0 0
0.502321 0.959474 0.107575 0.8 0 0
0.605029 0.528262 0.198205 0.8 0 0
0.668362 0.684175 0.413584 0.8 0 0
0.102550 0.868595 0.171761 0.8 0 0
0.381488 0.731492 0.169068 0.8 0 0
0.102734 0.662511 0.215272 0.8 0 0
0.189440 0.122045 0.336968 0.8 0 0
0.655010 0.072088 0.270483 0.8 0 0
0.301073 0.479749 0.517991 0.8 0 0
0.401146 0.867856 0.142788 0.8 0 0
0.338836 0.617354 0.187982 0.8 0 0
0.415840 0.491843 0.484081 0.8 0 0
0.190165 0.667658 0.189543 0.8 0 0
0.284249 0.163715 0.457939 0.8 0 0
0.345626 0.432680 0.346153 0.8 0 0
0.544932 0.485825 0.625784 0.8 0 0
0.254333 0.490823 0.189293 0.8 0 0
0.095462 0.718692 0.374488 0.8 0 0
0.092041 0.702588 0.213213 0.8 0 0
0.333508 0.222766 0.395451 0.8 0 0
0.381549 0.212236 0.264654 0.8 0 0
0.513305 0.445835 0.674053 0.8 0 0
0.424727 0.480303 0.232315 0.8 0 0
0.119603 0.495597 0.544152 0.8 0 0
0.065950 0.089502 0.290327 0.8 0 0
0.468610 0.479757 0.499890 0.8 0 0
0.670969 0.071214 0.293350 0.8 0 0
0.528984 0.175146 0.341855 0.8 0 0
0.390408 0.182192 0.449194 0.8 0 0
0.101196 0.481341 0.339231 0.8 0 0
0.238851 0.796155 0.157852 0.8 0 0
0.329282 0.940963 0.126030 0.8 0 0
0.393292 0.635551 0.198399 0.8 0 0
0.501254 0.135575 0.566516 0.8 0 0
0.093580 0.718692 0.405004 0.8 0 0
0.431266 0.786984 0.159254 0.8 0 0
0.562655 0.533052 0.213174 0.8 0 0
0.559212 0.480192 0.378203 0.8 0 0
0.622633 0.741110 0.191025 0.8 0 0
0.331069 0.479203 0.570973 0.8 0 0
0.516314 0.968870 0.091216 0.8 0 0
0.299433 0.766735 0.162797 0.8 0 0
0.368312 0.255548 0.422231 0.8 0 0
0.593057 0.492468 0.333095 0.8 0 0
0.124180 0.882405 0.154269 0.8 0 0
0.335755 0.802105 0.156543 0.8 0 0
0.425741 0.499585 0.184945 0.8 0 0
0.334869 0.463511 0.367415 0.8 0 0
0.473743 0.116550 0.550888 0.8 0 0
0.152961 0.480241 0.563720 0.8 0 0
0.442105 0.205256 0.451437 0.8 0 0
0.483744 0.811298 0.168411 0.8 0 0
0.131911 0.480428 0.427175 0.8 0 0
0.397275 0.280090 0.395333 0.8 0 0
0.584922 0.470862 0.641778 0.8 0 0
0.357567 0.129322 0.136882 0.8 0 0
0.368580 0.237207 0.303132 0.8 0 0
0.064889 0.055336 0.288224 0.8 0 0
0.142516 0.710882 0.181422 0.8 0 0
0.211086 0.491831 0.510547 0.8 0 0
0.190233 0.902825 0.146753 0.8 0 0
0.630241 0.501244 0.242384 0.8 0 0
0.276953 0.584698 0.187117 0.8 0 0
0.371911 0.477429 0.610714 0.8 0 0
0.231504 0.480367 0.228454 0.8 0 0
0.300897 0.193343 0.380587 0.8 0 0
0.096132 0.636837 0.218947 0.8 0 0
0.350057 0.467569 0.407474 0.8 0 0
0.352389 0.400577 0.409168 0.8 0 0
0.488113 0.152938 0.357818 0.8 0 0
0.333259 0.586120 0.197818 0.8 0 0
0.104858 0.869773 0.170011 0.8 0 0
0.397589 0.251644 0.373133 0.8 0 0
0.257459 0.479816 0.360695 0.8 0 0
0.577567 0.492434 0.541204 0.8 0 0
0.569791 0.480302 0.422765 0.8 0 0
0.267760 0.806313 0.155775 0.8 0 0
0.544461 0.490647 0.596913 0.8 0 0
0.190259 0.491183 0.583092 0.8 0 0
0.543743 0.484228 0.210503 0.8 0 0
0.539788 0.479995 0.263692 0.8 0 0
0.425843 0.478758 0.580969 0.8 0 0
0.378517 0.918884 0.138461 0.8 0 0
0.632681 0.506667 0.235678 0.8 0 0
0.626112 0.707949 0.367679 0.8 0 0
0.532669 0.479875 0.390704 0.8 0 0
0.475254 0.492335 0.245139 0.8 0 0
0.136691 0.567701 0.190385 0.8 0 0
0.324322 0.688214 0.190075 0.8 0 0
0.141349 0.480418 0.380475 0.8 0 0
0.411055 0.476700 0.646225 0.8 0 0
0.520563 0.918907 0.138812 0.8 0 0
0.426700 0.657877 0.194957 0.8 0 0
0.524591 0.135485 0.343571 0.8 0 0
0.145937 0.480399 0.288614 0.8 0 0
0.398323 0.624115 0.186955 0.8 0 0
0.170903 0.084286 0.657294 0.8 0 0
0.409737 0.155724 0.472782 0.8 0 0
0.188463 0.617811 0.195165 0.8 0 0
0.338853 0.479745 0.526783 0.8 0 0
0.239613 0.480322 0.231095 0.8 0 0
0.515973 0.678669 0.179334 0.8 0 0
0.244846 0.649230 0.183149 0.8 0 0
0.396033 0.686975 0.190319 0.8 0 0
0.320137 0.678428 0.178448 0.8 0 0
0.538454 0.509822 0.193342 0.8 0 0
0.378148 0.115255 0.162528 0.8 0 0
0.420651 0.189838 0.486100 0.8 0 0
0.168173 0.479724 0.578892 0.8 0 0
0.519361 0.971453 0.083411 0.8 0 0
0.322330 0.248999 0.418041 0.8 0 0
0.597834 0.494122 0.549911 0.8 0 0
0.300011 0.480372 0.228234 0.8 0 0
0.103331 0.830311 0.192830 0.8 0 0
0.323492 0.598401 0.187486 0.8 0 0
0.382874 0.143204 0.243669 0.8 0 0
0.391058 0.356797 0.352988 0.8 0 0
0.202873 0.839106 0.150437 0.8 0 0
0.371176 0.132668 0.142045 0.8 0 0
0.482724 0.524480 0.190207 0.8 0 0
0.457261 0.832255 0.150396 0.8 0 0
0.248604 0.491936 0.270029 0.8 0 0
0.346268 0.204447 0.269984 0.8 0 0
0.093315 0.823293 0.203127 0.8 0 0
0.338903 0.501421 0.183993 0.8 0 0
0.387725 0.188764 0.326971 0.8 0 0
0.560940 0.824383 0.154817 0.8 0 0
0.250090 0.492465 0.237413 0.8 0 0
0.556455 0.492229 0.363854 0.8 0 0
0.373825 0.479418 0.346152 0.8 0 0
0.040120 0.718692 0.305351 0.8 0 0
0.419701 0.488383 0.620073 0.8 0 0
0.330835 0.447012 0.674006 0.8 0 0
0.398744 0.668734 0.180069 0.8 0 0
0.229418 0.720466 0.184845 0.8 0 0
0.366319 0.341779 0.346152 0.8 0 0
0.540151 0.479911 0.528337 0.8 0 0
0.284028 0.479781 0.444378 0.8 0 0
0.343479 0.242157 0.317300 0.8 0 0
0.439642 0.479819 0.357486 0.8 0 0
0.706135 0.717596 0.424061 0.8 0 0
0.633504 0.488660 0.232894 0.8 0 0
0.283380 0.961545 0.101714 0.8 0 0
0.337562 0.458868 0.359128 0.8 0 0
0.523049 0.479732 0.556547 0.8 0 0
0.638465 0.073080 0.278269 0.8 0 0
0.410957 0.969819 0.084470 0.8 0 0
0.603655 0.880141 0.153683 0.8 0 0
0.246835 0.670629 0.193002 0.8 0 0
0.527794 0.479865 0.270799 0.8 0 0
0.352068 0.026218 0.062897 0.8 0 0
0.344428 0.787732 0.159092 0.8 0 0
0.462224 0.702738 0.187549 0.8 0 0
0.484999 0.491827 0.521287 0.8 0 0
0.575191 0.143646 0.313945 0.8 0 0
0.624373 0.484992 0.502235 0.8 0 0
0.640490 0.532386 0.201884 0.8 0 0
0.184918 0.081987 0.612851 0.8 0 0
0.298359 0.479850 0.281606 0.8 0 0
0.326932 0.478807 0.579825 0.8 0 0
0.332701 0.498909 0.185254 0.8 0 0
0.221046 0.966070 0.081210 0.8 0 0
0.155206 0.651061 0.212283 0.8 0 0
0.111033 0.618835 0.213200 0.8 0 0
0.167177 0.492252 0.548878 0.8 0 0
0.231525 0.954002 0.101906 0.8 0 0
0.388830 0.199283 0.345941 0.8 0 0
0.419331 0.490566 0.189481 0.8 0 0
0.669876 0.710149 0.259222 0.8 0 0
0.158400 0.480328 0.438876 0.8 0 0
0.519333 0.479816 0.364615 0.8 0 0
0.313935 0.952477 0.119550 0.8 0 0
0.193827 0.458264 0.656899 0.8 0 0
0.115908 0.891305 0.155356 0.8 0 0
0.090707 0.782171 0.200453 0.8 0 0
0.277021 0.942298 0.125264 0.8 0 0
0.647725 0.092753 0.283377 0.8 0 0
0.639895 0.048685 0.287067 0.8 0 0
0.394768 0.463778 0.364429 0.8 0 0
0.358136 0.444741 0.346153 0.8 0 0
0.275445 0.960876 0.103115 0.8 0 0
0.374744 0.479750 0.516579 0.8 0 0
0.348058 0.194968 0.239612 0.8 0 0
0.389985 0.962331 0.100103 0.8 0 0
0.203126 0.057274 0.615567 0.8 0 0
0.447246 0.478883 0.578191 0.8 0 0
0.520304 0.786136 0.173778 0.8 0 0
0.363140 0.491914 0.322248 0.8 0 0
0.344942 0.491872 0.417827 0.8 0 0
0.203896 0.952931 0.104193 0.8 0 0
0.504307 0.190596 0.351493 0.8 0 0
0.517097 0.477274 0.614434 0.8 0 0
0.397894 0.484683 0.374071 0.8 0 0
0.296540 0.716709 0.185019 0.8 0 0
0.578819 0.480368 0.332222 0.8 0 0
