0.201359 0.025000 0.244249 0.8 0 0
0.294751 0.074209 0.385922 0.8 0 0
0.360705 0.950667 0.541469 0.8 0 0
0.265953 0.457444 0.475564 0.8 0 0
0.213429 0.391793 0.063227 0.8 0 0
0.234938 0.313147 0.187482 0.8 0 0
0.054850 0.604729 0.341506 0.8 0 0
0.186291 0.380223 0.448676 0.8 0 0
0.231628 0.391613 0.057031 0.8 0 0
0.190158 0.341393 0.250625 0.8 0 0
0.111385 0.611773 0.466366 0.8 0 0
0.232280 0.929233 0.521113 0.8 0 0
0.246283 0.082747 0.287911 0.8 0 0
0.182231 0.261957 0.232652 0.8 0 0
0.176160 0.025000 0.256588 0.8 0 0
0.287542 0.825026 0.456960 0.8 0 0
0.322087 0.315381 0.349663 0.8 0 0
0.362077 0.673018 0.456497 0.8 0 0
0.227416 0.171279 0.302217 0.8 0 0
0.289943 0.313840 0.275405 0.8 0 0
0.139242 0.314830 0.112769 0.8 0 0
0.341301 0.391703 0.028958 0.8 0 0
0.124707 0.589266 0.487245 0.8 0 0
0.290268 0.030027 0.322009 0.8 0 0
0.205803 0.364397 0.443185 0.8 0 0
0.144544 0.699888 0.431495 0.8 0 0
0.267671 0.299878 0.198754 0.8 0 0
0.255683 0.049291 0.251351 0.8 0 0
0.345038 0.341798 0.227576 0.8 0 0
0.281561 0.915849 0.527653 0.8 0 0
0.362356 0.582586 0.162962 0.8 0 0
0.168678 0.344006 0.452589 0.8 0 0
0.227295 0.826116 0.449005 0.8 0 0
0.146171 0.925935 0.528672 0.8 0 0
0.050097 0.410725 0.100726 0.8 0 0
0.189393 0.378144 0.389795 0.8 0 0
0.264946 0.632234 0.475622 0.8 0 0
0.087506 0.342068 0.192423 0.8 0 0
0.370454 0.601712 0.470335 0.8 0 0
0.110844 0.390842 0.081009 0.8 0 0
0.254985 0.916874 0.474495 0.8 0 0
0.121950 0.025000 0.340288 0.8 0 0
0.255826 0.804696 0.493236 0.8 0 0
0.232838 0.375240 0.431124 0.8 0 0
0.054979 0.433567 0.465165 0.8 0 0
0.052764 0.515075 0.445087 0.8 0 0
0.176954 0.882870 0.465721 0.8 0 0
0.160443 0.341588 0.309153 0.8 0 0
0.230638 0.299835 0.359710 0.8 0 0
0.234961 0.313153 0.246783 0.8 0 0
0.141366 0.341714 0.441635 0.8 0 0
0.213099 0.921204 0.520318 0.8 0 0
0.233760 0.478417 0.415592 0.8 0 0
0.189756 0.874789 0.491340 0.8 0 0
0.364023 0.347000 0.257226 0.8 0 0
0.289326 0.484749 0.475092 0.8 0 0
0.317647 0.965616 0.510360 0.8 0 0
0.189256 0.385003 0.097111 0.8 0 0
0.365827 0.849641 0.463901 0.8 0 0
0.224737 0.025000 0.316559 0.8 0 0
0.227133 0.342620 0.443132 0.8 0 0
0.067203 0.025000 0.128935 0.8 0 0
0.217677 0.044761 0.220039 0.8 0 0
0.059547 0.350387 0.037409 0.8 0 0
0.151313 0.341648 0.088683 0.8 0 0
0.062893 0.343336 0.389373 0.8 0 0
0.339896 0.391704 0.395679 0.8 0 0
0.071642 0.415757 0.454442 0.8 0 0
0.335371 0.397141 0.471672 0.8 0 0
0.052633 0.832255 0.496784 0.8 0 0
0.265485 0.081575 0.358483 0.8 0 0
0.339848 0.635501 0.471552 0.8 0 0
0.249802 0.174835 0.261842 0.8 0 0
0.232853 0.951565 0.493179 0.8 0 0
0.306571 0.618204 0.420089 0.8 0 0
0.139874 0.341724 0.205514 0.8 0 0
0.232658 0.712030 0.449183 0.8 0 0
0.199907 0.601441 0.466730 0.8 0 0
0.206485 0.391734 0.263113 0.8 0 0
0.229468 0.274304 0.222562 0.8 0 0
0.205141 0.492630 0.415044 0.8 0 0
0.348604 0.953989 0.527088 0.8 0 0
0.033922 0.562117 0.131482 0.8 0 0
0.330156 0.903550 0.522617 0.8 0 0
0.302326 0.588913 0.466207 0.8 0 0
0.318196 0.301711 0.321581 0.8 0 0
0.232733 0.369057 0.196867 0.8 0 0
0.233521 0.717260 0.424534 0.8 0 0
0.367122 0.355457 0.081069 0.8 0 0
0.258142 0.581141 0.466244 0.8 0 0
0.154346 0.324286 0.067910 0.8 0 0
0.221716 0.313354 0.099458 0.8 0 0
0.285404 0.628308 0.467077 0.8 0 0
0.303392 0.417593 0.417012 0.8 0 0
0.220164 0.027325 0.240311 0.8 0 0
0.047050 0.035643 0.438233 0.8 0 0
0.232257 0.379987 0.412819 0.8 0 0
0.300501 0.599585 0.466430 0.8 0 0
0.294512 0.885892 0.521404 0.8 0 0
0.299421 0.587204 0.421846 0.8 0 0
0.233074 0.821200 0.450370 0.8 0 0
0.039074 0.566165 0.264583 0.8 0 0
0.245450 0.801177 0.447484 0.8 0 0
0.254382 0.667234 0.418657 0.8 0 0
0.141482 0.528563 0.487837 0.8 0 0
0.237108 0.487618 0.464448 0.8 0 0
0.297983 0.313999 0.222641 0.8 0 0
0.124937 0.955388 0.481482 0.8 0 0
0.091642 0.392016 0.380211 0.8 0 0
0.049065 0.427371 0.459582 0.8 0 0
0.231613 0.313324 0.294845 0.8 0 0
0.203018 0.696787 0.439606 0.8 0 0
0.063739 0.391239 0.430109 0.8 0 0
0.163033 0.313933 0.246355 0.8 0 0
0.189862 0.407860 0.449870 0.8 0 0
0.215563 0.313324 0.286123 0.8 0 0
0.287262 0.419729 0.419559 0.8 0 0
0.056449 0.422913 0.445034 0.8 0 0
0.364729 0.343358 0.265654 0.8 0 0
0.039733 0.338230 0.243940 0.8 0 0
0.357759 0.378735 0.441382 0.8 0 0
0.244658 0.553704 0.475846 0.8 0 0
0.221658 0.590168 0.466643 0.8 0 0
0.297773 0.427818 0.418794 0.8 0 0
0.238599 0.313114 0.148884 0.8 0 0
0.267898 0.696101 0.459197 0.8 0 0
0.189393 0.687315 0.432412 0.8 0 0
0.240222 0.708898 0.478579 0.8 0 0
0.348539 0.856046 0.455940 0.8 0 0
0.350210 0.831875 0.500414 0.8 0 0
0.086544 0.824039 0.497036 0.8 0 0
0.208092 0.341178 0.236383 0.8 0 0
0.274403 0.760626 0.482979 0.8 0 0
0.045298 0.366829 0.086227 0.8 0 0
0.154499 0.314245 0.106625 0.8 0 0
0.234560 0.597507 0.489152 0.8 0 0
0.189125 0.725746 0.425969 0.8 0 0
0.319942 0.646077 0.418242 0.8 0 0
0.152850 0.420968 0.474570 0.8 0 0
0.052227 0.624208 0.423396 0.8 0 0
0.189747 0.360347 0.128087 0.8 0 0
0.087607 0.392024 0.229732 0.8 0 0
0.077042 0.922850 0.513805 0.8 0 0
0.142154 0.916311 0.526595 0.8 0 0
0.196308 0.564961 0.489183 0.8 0 0
0.116515 0.340804 0.446329 0.8 0 0
0.165926 0.696437 0.436527 0.8 0 0
0.267972 0.299899 0.293749 0.8 0 0
0.203230 0.391735 0.085641 0.8 0 0
0.377330 0.726636 0.428477 0.8 0 0
0.260924 0.313256 0.343000 0.8 0 0
0.112249 0.344547 0.036554 0.8 0 0
0.215010 0.341210 0.189110 0.8 0 0
0.074411 0.466571 0.457766 0.8 0 0
0.194232 0.700570 0.469228 0.8 0 0
0.057172 0.738575 0.436533 0.8 0 0
0.356617 0.709108 0.460904 0.8 0 0
0.081199 0.835944 0.450973 0.8 0 0
0.266691 0.509638 0.425983 0.8 0 0
0.189876 0.353869 0.100824 0.8 0 0
0.302266 0.361179 0.026375 0.8 0 0
0.204263 0.872559 0.519042 0.8 0 0
0.040991 0.785827 0.474533 0.8 0 0
0.362619 0.598222 0.320152 0.8 0 0
0.030670 0.936653 0.491495 0.8 0 0
0.340856 0.750240 0.431513 0.8 0 0
0.040881 0.569438 0.451617 0.8 0 0
0.194107 0.341367 0.213762 0.8 0 0
0.335848 0.385006 0.485147 0.8 0 0
0.201190 0.397473 0.475080 0.8 0 0
0.277164 0.937061 0.531978 0.8 0 0
0.088510 0.062310 0.395206 0.8 0 0
0.342704 0.341787 0.203518 0.8 0 0
0.232860 0.483211 0.429780 0.8 0 0
0.227732 0.706341 0.421355 0.8 0 0
0.156179 0.645512 0.467337 0.8 0 0
0.245322 0.313066 0.203803 0.8 0 0
0.360366 0.343523 0.175043 0.8 0 0
0.213501 0.390748 0.462561 0.8 0 0
0.189964 0.391738 0.247980 0.8 0 0
0.057466 0.756328 0.455355 0.8 0 0
0.203384 0.476488 0.464372 0.8 0 0
0.340577 0.337175 0.459827 0.8 0 0
0.306533 0.699668 0.431253 0.8 0 0
0.391350 0.591982 0.435921 0.8 0 0
0.368416 0.535897 0.114925 0.8 0 0
0.232464 0.484427 0.452730 0.8 0 0
0.229168 0.341136 0.216892 0.8 0 0
0.363019 0.345991 0.196945 0.8 0 0
0.195749 0.896031 0.465049 0.8 0 0
0.240115 0.901462 0.515643 0.8 0 0
0.133646 0.344705 0.470361 0.8 0 0
0.380563 0.455889 0.095177 0.8 0 0
0.201285 0.816103 0.496110 0.8 0 0
0.135833 0.058808 0.316164 0.8 0 0
0.250474 0.858309 0.461876 0.8 0 0
0.213096 0.406358 0.488850 0.8 0 0
0.155984 0.781800 0.497726 0.8 0 0
0.088918 0.319191 0.157483 0.8 0 0
0.218529 0.292154 0.304792 0.8 0 0
0.247806 0.156373 0.285609 0.8 0 0
0.283589 0.341520 0.421532 0.8 0 0
0.317072 0.332246 0.438610 0.8 0 0
0.131418 0.385410 0.334545 0.8 0 0
0.215128 0.025000 0.233957 0.8 0 0
0.125050 0.315388 0.239786 0.8 0 0
0.288837 0.872834 0.518703 0.8 0 0
0.080935 0.923417 0.518746 0.8 0 0
0.114671 0.870874 0.461142 0.8 0 0
0.182875 0.389638 0.207697 0.8 0 0
0.278237 0.039177 0.302366 0.8 0 0
0.304517 0.040044 0.412648 0.8 0 0
0.377672 0.488647 0.459997 0.8 0 0
0.196252 0.721210 0.424693 0.8 0 0
0.064396 0.886788 0.462915 0.8 0 0
0.245671 0.715212 0.425705 0.8 0 0
0.102366 0.335179 0.457863 0.8 0 0
0.165242 0.492572 0.488690 0.8 0 0
0.165637 0.394864 0.462335 0.8 0 0
0.052688 0.837523 0.485377 0.8 0 0
0.262325 0.743795 0.489662 0.8 0 0
0.122771 0.861980 0.514571 0.8 0 0
0.390514 0.351220 0.218787 0.8 0 0
0.393466 0.360780 0.162078 0.8 0 0
0.122011 0.301742 0.104389 0.8 0 0
0.376503 0.723230 0.428405 0.8 0 0
0.218340 0.866230 0.458264 0.8 0 0
0.381525 0.447943 0.111702 0.8 0 0
0.186766 0.341415 0.328217 0.8 0 0
0.172423 0.094487 0.245312 0.8 0 0
0.251165 0.386020 0.275030 0.8 0 0
0.358190 0.373227 0.448674 0.8 0 0
0.237219 0.696570 0.459106 0.8 0 0
0.158345 0.348893 0.443298 0.8 0 0
0.282357 0.508843 0.464677 0.8 0 0
0.368942 0.685588 0.473177 0.8 0 0
0.103581 0.653902 0.467167 0.8 0 0
0.225266 0.791995 0.441127 0.8 0 0
0.296040 0.602140 0.474977 0.8 0 0
0.345238 0.341799 0.159584 0.8 0 0
0.242462 0.940892 0.524734 0.8 0 0
0.178364 0.445494 0.415387 0.8 0 0
0.193211 0.777281 0.486928 0.8 0 0
0.052736 0.509475 0.446584 0.8 0 0
0.083386 0.464554 0.468378 0.8 0 0
0.307697 0.612234 0.487608 0.8 0 0
0.070081 0.634098 0.466553 0.8 0 0
0.226324 0.303713 0.411911 0.8 0 0
0.028202 0.615047 0.432211 0.8 0 0
0.175096 0.313628 0.249249 0.8 0 0
0.206523 0.669347 0.468255 0.8 0 0
0.278920 0.341499 0.369903 0.8 0 0
0.117785 0.315693 0.348661 0.8 0 0
0.188821 0.309749 0.227890 0.8 0 0
0.280104 0.591208 0.427475 0.8 0 0
0.246039 0.696898 0.489872 0.8 0 0
0.072862 0.333080 0.330575 0.8 0 0
0.262100 0.764935 0.494710 0.8 0 0
0.223937 0.460477 0.464036 0.8 0 0
0.166812 0.589534 0.475134 0.8 0 0
0.345865 0.416134 0.468298 0.8 0 0
0.211059 0.115204 0.306083 0.8 0 0
0.067396 0.392061 0.095145 0.8 0 0
0.300694 0.376882 0.485053 0.8 0 0
0.180770 0.341455 0.192778 0.8 0 0
0.282279 0.354525 0.442911 0.8 0 0
0.178035 0.388314 0.265681 0.8 0 0
0.368085 0.731790 0.446954 0.8 0 0
0.140266 0.065196 0.197998 0.8 0 0
0.118815 0.736215 0.431312 0.8 0 0
0.211157 0.338859 0.032144 0.8 0 0
0.088992 0.693544 0.467874 0.8 0 0
0.207153 0.063502 0.219877 0.8 0 0
0.157793 0.610012 0.474793 0.8 0 0
0.035542 0.796874 0.445839 0.8 0 0
0.347375 0.391702 0.102901 0.8 0 0
0.167312 0.313838 0.369446 0.8 0 0
0.195133 0.174835 0.276491 0.8 0 0
0.131776 0.775378 0.443851 0.8 0 0
0.206912 0.803775 0.493131 0.8 0 0
0.345284 0.760272 0.486682 0.8 0 0
0.114725 0.615275 0.486890 0.8 0 0
0.358171 0.379811 0.028694 0.8 0 0
0.335309 0.430434 0.462859 0.8 0 0
0.358257 0.544579 0.416953 0.8 0 0
0.169326 0.385996 0.291819 0.8 0 0
0.195452 0.831005 0.450125 0.8 0 0
0.060961 0.384270 0.055885 0.8 0 0
0.358115 0.629145 0.455785 0.8 0 0
0.169006 0.615176 0.423030 0.8 0 0
0.215818 0.529816 0.465395 0.8 0 0
0.368608 0.494616 0.437234 0.8 0 0
0.190126 0.744040 0.479332 0.8 0 0
0.095332 0.605764 0.470751 0.8 0 0
0.270359 0.903004 0.477557 0.8 0 0
0.253197 0.368542 0.026494 0.8 0 0
0.227247 0.216674 0.302981 0.8 0 0
0.288000 0.864205 0.506831 0.8 0 0
0.200271 0.789741 0.440522 0.8 0 0
0.389811 0.349422 0.276859 0.8 0 0
0.225324 0.859684 0.456714 0.8 0 0
0.166105 0.385085 0.218009 0.8 0 0
0.258378 0.208427 0.257621 0.8 0 0
0.104618 0.025000 0.397521 0.8 0 0
0.130535 0.386191 0.388918 0.8 0 0
0.252965 0.109478 0.274281 0.8 0 0
0.348611 0.322297 0.202122 0.8 0 0
0.069895 0.786805 0.475766 0.8 0 0
0.242742 0.384518 0.488109 0.8 0 0
0.174343 0.114498 0.242411 0.8 0 0
0.096201 0.569663 0.470890 0.8 0 0
0.225344 0.419784 0.475666 0.8 0 0
0.189253 0.884072 0.462744 0.8 0 0
0.211723 0.174835 0.273103 0.8 0 0
0.357292 0.341853 0.339442 0.8 0 0
0.362776 0.463966 0.104340 0.8 0 0
0.072321 0.930357 0.521486 0.8 0 0
0.055171 0.523223 0.095772 0.8 0 0
0.078375 0.392041 0.058250 0.8 0 0
0.373692 0.568547 0.245925 0.8 0 0
0.121554 0.689360 0.468000 0.8 0 0
0.340290 0.391704 0.297501 0.8 0 0
0.248164 0.313324 0.259978 0.8 0 0
0.188886 0.935362 0.545733 0.8 0 0
0.050734 0.356432 0.389082 0.8 0 0
0.393222 0.361671 0.313222 0.8 0 0
0.170517 0.081305 0.294043 0.8 0 0
0.133150 0.411683 0.487404 0.8 0 0
0.146256 0.906474 0.524793 0.8 0 0
0.199735 0.673320 0.468182 0.8 0 0
0.255357 0.409631 0.417802 0.8 0 0
0.147589 0.447281 0.474373 0.8 0 0
0.314998 0.816774 0.495762 0.8 0 0
0.383669 0.769406 0.472194 0.8 0 0
0.057506 0.935472 0.514431 0.8 0 0
0.255135 0.384650 0.138451 0.8 0 0
0.078021 0.325775 0.255073 0.8 0 0
0.255954 0.431449 0.475763 0.8 0 0
0.195496 0.456101 0.463995 0.8 0 0
0.093399 0.342029 0.350500 0.8 0 0
0.350941 0.025000 0.451391 0.8 0 0
0.301990 0.407137 0.462535 0.8 0 0
0.223827 0.764291 0.484126 0.8 0 0
0.375959 0.365729 0.182198 0.8 0 0
0.243028 0.388150 0.155338 0.8 0 0
0.234622 0.341299 0.163252 0.8 0 0
0.171833 0.203122 0.288134 0.8 0 0
0.269623 0.528055 0.427301 0.8 0 0
0.232340 0.082076 0.309704 0.8 0 0
0.307683 0.314186 0.105158 0.8 0 0
0.180535 0.330464 0.458246 0.8 0 0
0.192275 0.899663 0.515437 0.8 0 0
0.195915 0.299722 0.239658 0.8 0 0
0.101998 0.860689 0.505596 0.8 0 0
0.372594 0.322642 0.167843 0.8 0 0
0.372844 0.408592 0.429249 0.8 0 0
0.211975 0.391733 0.231909 0.8 0 0
0.142293 0.341708 0.283011 0.8 0 0
0.159898 0.324149 0.039252 0.8 0 0
0.235025 0.390573 0.221373 0.8 0 0
0.222489 0.756836 0.433010 0.8 0 0
0.359111 0.388618 0.416141 0.8 0 0
0.125990 0.545141 0.465117 0.8 0 0
0.375839 0.365527 0.185571 0.8 0 0
0.312918 0.699041 0.468592 0.8 0 0
0.116692 0.389261 0.140358 0.8 0 0
0.193563 0.429810 0.463473 0.8 0 0
0.356430 0.356436 0.026243 0.8 0 0
0.062750 0.744561 0.431519 0.8 0 0
0.384335 0.683885 0.420562 0.8 0 0
0.079935 0.323925 0.390976 0.8 0 0
0.244095 0.341341 0.305015 0.8 0 0
0.135007 0.058035 0.197711 0.8 0 0
0.061463 0.525298 0.444573 0.8 0 0
0.265975 0.503584 0.464643 0.8 0 0
0.171278 0.040671 0.186021 0.8 0 0
0.337165 0.389107 0.413055 0.8 0 0
0.193524 0.313480 0.233412 0.8 0 0
0.281946 0.920184 0.542049 0.8 0 0
0.078032 0.312563 0.081116 0.8 0 0
0.365671 0.336499 0.041683 0.8 0 0
0.094948 0.405920 0.462102 0.8 0 0
0.352974 0.328889 0.403527 0.8 0 0
0.368069 0.374823 0.374269 0.8 0 0
0.052967 0.373610 0.184918 0.8 0 0
0.238284 0.594012 0.419125 0.8 0 0
0.178839 0.388722 0.395496 0.8 0 0
0.300150 0.314047 0.252270 0.8 0 0
0.077533 0.342134 0.298106 0.8 0 0
0.239337 0.072291 0.267714 0.8 0 0
0.388104 0.346040 0.378589 0.8 0 0
0.084294 0.430574 0.462532 0.8 0 0
0.056256 0.440535 0.423355 0.8 0 0
0.112654 0.543954 0.465007 0.8 0 0
0.119414 0.417204 0.462488 0.8 0 0
0.096214 0.611805 0.470897 0.8 0 0
0.155336 0.341622 0.136621 0.8 0 0
0.049579 0.776847 0.480963 0.8 0 0
0.207657 0.341278 0.175225 0.8 0 0
0.063541 0.041920 0.393555 0.8 0 0
0.384300 0.576379 0.190431 0.8 0 0
0.230233 0.299749 0.137686 0.8 0 0
0.167443 0.085509 0.219682 0.8 0 0
0.223621 0.711581 0.422519 0.8 0 0
0.207958 0.341178 0.282953 0.8 0 0
0.038848 0.366815 0.130118 0.8 0 0
0.052816 0.364691 0.117377 0.8 0 0
0.214236 0.495200 0.415173 0.8 0 0
0.346388 0.304631 0.144988 0.8 0 0
0.371742 0.525607 0.430736 0.8 0 0
0.256183 0.319219 0.076989 0.8 0 0
0.216630 0.732981 0.500340 0.8 0 0
0.097361 0.884604 0.511087 0.8 0 0
0.080797 0.035509 0.362009 0.8 0 0
0.372294 0.322140 0.216906 0.8 0 0
0.130048 0.863089 0.506331 0.8 0 0
0.215961 0.341223 0.067070 0.8 0 0
0.258082 0.831233 0.499352 0.8 0 0
0.035154 0.589498 0.443704 0.8 0 0
0.217344 0.833612 0.500081 0.8 0 0
0.189547 0.659199 0.439395 0.8 0 0
0.222691 0.729693 0.476133 0.8 0 0
0.245893 0.053165 0.288502 0.8 0 0
0.065107 0.422413 0.448125 0.8 0 0
0.131757 0.679386 0.467864 0.8 0 0
0.182734 0.299697 0.142942 0.8 0 0
0.097726 0.804939 0.443847 0.8 0 0
0.235815 0.313146 0.247033 0.8 0 0
0.361146 0.346754 0.044927 0.8 0 0
0.180399 0.947486 0.534018 0.8 0 0
0.189565 0.369491 0.347207 0.8 0 0
0.328294 0.704239 0.488831 0.8 0 0
0.225612 0.910901 0.540814 0.8 0 0
0.035413 0.673109 0.443823 0.8 0 0
0.277817 0.493558 0.464388 0.8 0 0
0.367359 0.791703 0.478838 0.8 0 0
0.091247 0.392017 0.096722 0.8 0 0
0.366325 0.527150 0.442509 0.8 0 0
0.045060 0.450820 0.114105 0.8 0 0
0.120482 0.381542 0.422999 0.8 0 0
0.172067 0.096536 0.279326 0.8 0 0
0.189140 0.390836 0.188431 0.8 0 0
0.362382 0.520081 0.479852 0.8 0 0
0.251844 0.145591 0.245671 0.8 0 0
0.257949 0.469472 0.489084 0.8 0 0
0.310140 0.319901 0.078598 0.8 0 0
0.353575 0.682386 0.418983 0.8 0 0
0.068594 0.481630 0.414579 0.8 0 0
0.206430 0.201914 0.309886 0.8 0 0
0.232952 0.840090 0.461742 0.8 0 0
0.129835 0.385759 0.167601 0.8 0 0
0.192607 0.341108 0.130303 0.8 0 0
0.121009 0.341848 0.262113 0.8 0 0
0.091074 0.305411 0.192483 0.8 0 0
0.160626 0.314021 0.203920 0.8 0 0
0.361004 0.337603 0.224049 0.8 0 0
0.106152 0.316356 0.177838 0.8 0 0
0.070226 0.342182 0.348527 0.8 0 0
0.232726 0.540130 0.438757 0.8 0 0
0.252138 0.082903 0.192763 0.8 0 0
0.129489 0.683739 0.487311 0.8 0 0
0.108289 0.025000 0.165478 0.8 0 0
0.098064 0.317700 0.286255 0.8 0 0
0.340082 0.773995 0.436996 0.8 0 0
0.286984 0.791783 0.449068 0.8 0 0
0.189851 0.936160 0.510169 0.8 0 0
0.055344 0.631370 0.418142 0.8 0 0
0.338120 0.407524 0.471551 0.8 0 0
0.129949 0.341789 0.293106 0.8 0 0
0.267075 0.313363 0.194425 0.8 0 0
0.369011 0.378113 0.277251 0.8 0 0
0.086323 0.062914 0.406105 0.8 0 0
0.125945 0.315394 0.355395 0.8 0 0
0.254149 0.762399 0.440896 0.8 0 0
0.126051 0.972763 0.487891 0.8 0 0
0.262276 0.337076 0.042411 0.8 0 0
0.202126 0.083737 0.304291 0.8 0 0
0.101763 0.746476 0.430359 0.8 0 0
0.292315 0.385087 0.127242 0.8 0 0
0.285736 0.300716 0.393820 0.8 0 0
0.054806 0.679409 0.464861 0.8 0 0
0.324315 0.328609 0.035147 0.8 0 0
0.261147 0.862401 0.506533 0.8 0 0
0.073903 0.691644 0.457141 0.8 0 0
0.151487 0.385824 0.385754 0.8 0 0
0.083425 0.320274 0.212766 0.8 0 0
0.316882 0.391709 0.168620 0.8 0 0
0.070794 0.336418 0.095709 0.8 0 0
0.189405 0.155261 0.281335 0.8 0 0
0.295546 0.025000 0.191275 0.8 0 0
0.051147 0.566439 0.263054 0.8 0 0
0.091461 0.054780 0.156183 0.8 0 0
0.393356 0.372867 0.417034 0.8 0 0
0.361718 0.683232 0.480622 0.8 0 0
0.178281 0.326778 0.434441 0.8 0 0
0.167913 0.313741 0.203381 0.8 0 0
0.354663 0.328943 0.144026 0.8 0 0
0.185999 0.226818 0.262403 0.8 0 0
0.308826 0.665218 0.467718 0.8 0 0
0.145601 0.744980 0.502615 0.8 0 0
0.166362 0.341549 0.072147 0.8 0 0
0.119555 0.029238 0.189883 0.8 0 0
0.066418 0.494365 0.449368 0.8 0 0
0.217635 0.304622 0.304970 0.8 0 0
0.174611 0.746864 0.431059 0.8 0 0
0.145318 0.954741 0.534385 0.8 0 0
0.027979 0.865841 0.461898 0.8 0 0
0.290399 0.313852 0.302041 0.8 0 0
0.085767 0.894381 0.517014 0.8 0 0
0.195943 0.235419 0.284498 0.8 0 0
0.189721 0.440038 0.413954 0.8 0 0
0.392018 0.947032 0.494205 0.8 0 0
0.341083 0.318069 0.374176 0.8 0 0
0.057253 0.401935 0.440141 0.8 0 0
0.131057 0.759072 0.482324 0.8 0 0
0.183763 0.313324 0.270845 0.8 0 0
0.193088 0.299894 0.389763 0.8 0 0
0.148775 0.410308 0.417458 0.8 0 0
0.224538 0.341167 0.334294 0.8 0 0
0.210657 0.337266 0.031460 0.8 0 0
0.056750 0.813268 0.467982 0.8 0 0
0.052754 0.826748 0.479103 0.8 0 0
0.382098 0.368128 0.365838 0.8 0 0
0.359822 0.335935 0.350865 0.8 0 0
0.133309 0.315060 0.129107 0.8 0 0
0.071322 0.504851 0.415053 0.8 0 0
0.383728 0.407237 0.106217 0.8 0 0
0.277858 0.429818 0.421296 0.8 0 0
0.200122 0.341142 0.115341 0.8 0 0
0.158496 0.696134 0.462696 0.8 0 0
0.189401 0.473379 0.428445 0.8 0 0
0.037597 0.341320 0.100078 0.8 0 0
0.071021 0.382035 0.444153 0.8 0 0
0.370982 0.636002 0.432035 0.8 0 0
0.265109 0.071895 0.365677 0.8 0 0
0.053014 0.799174 0.457753 0.8 0 0
0.078422 0.342128 0.241257 0.8 0 0
0.222849 0.313246 0.222662 0.8 0 0
0.333269 0.316762 0.397308 0.8 0 0
0.115816 0.761397 0.505413 0.8 0 0
0.232248 0.299764 0.255355 0.8 0 0
0.377439 0.876830 0.465905 0.8 0 0
0.170251 0.651389 0.423430 0.8 0 0
0.369615 0.359225 0.237513 0.8 0 0
0.074805 0.342152 0.246537 0.8 0 0
0.129260 0.772771 0.442587 0.8 0 0
0.223819 0.318077 0.046854 0.8 0 0
0.309267 0.061237 0.367351 0.8 0 0
0.050103 0.573508 0.133360 0.8 0 0
0.253389 0.309091 0.426620 0.8 0 0
0.189271 0.384236 0.111269 0.8 0 0
0.164191 0.196093 0.254510 0.8 0 0
0.228288 0.749654 0.480777 0.8 0 0
0.369132 0.356280 0.347919 0.8 0 0
0.211161 0.597004 0.475589 0.8 0 0
0.114807 0.389844 0.331189 0.8 0 0
0.232354 0.933993 0.517928 0.8 0 0
0.381130 0.503242 0.455560 0.8 0 0
0.207610 0.391804 0.231859 0.8 0 0
0.257645 0.313182 0.312349 0.8 0 0
0.127365 0.950479 0.546823 0.8 0 0
0.153411 0.341635 0.333946 0.8 0 0
0.098235 0.341998 0.184938 0.8 0 0
0.213251 0.226818 0.276576 0.8 0 0
0.109525 0.539528 0.486600 0.8 0 0
0.172811 0.341507 0.339060 0.8 0 0
0.293436 0.894703 0.523185 0.8 0 0
0.315338 0.314571 0.245548 0.8 0 0
0.307011 0.316924 0.052382 0.8 0 0
0.349604 0.771973 0.436531 0.8 0 0
0.162870 0.341572 0.062277 0.8 0 0
0.186489 0.818943 0.507162 0.8 0 0
0.189357 0.515537 0.427175 0.8 0 0
0.026318 0.367141 0.226484 0.8 0 0
0.252615 0.067427 0.249122 0.8 0 0
0.232433 0.720964 0.425075 0.8 0 0
0.217168 0.335936 0.044143 0.8 0 0
0.170052 0.467804 0.463837 0.8 0 0
0.052886 0.507581 0.437841 0.8 0 0
0.279848 0.325429 0.431617 0.8 0 0
0.377913 0.366633 0.380330 0.8 0 0
0.147965 0.879711 0.471825 0.8 0 0
0.259838 0.602956 0.489126 0.8 0 0
0.221875 0.520424 0.415635 0.8 0 0
0.281889 0.830637 0.509609 0.8 0 0
0.338833 0.341769 0.260942 0.8 0 0
0.124528 0.301664 0.231358 0.8 0 0
0.330273 0.373164 0.441937 0.8 0 0
0.335741 0.316944 0.219507 0.8 0 0
0.146698 0.511539 0.474350 0.8 0 0
0.222188 0.148099 0.220945 0.8 0 0
0.196351 0.299719 0.209537 0.8 0 0
0.158758 0.025000 0.178292 0.8 0 0
0.112084 0.425326 0.414974 0.8 0 0
0.355005 0.549778 0.459902 0.8 0 0
0.045476 0.443779 0.427186 0.8 0 0
0.090957 0.041109 0.090930 0.8 0 0
0.148075 0.381030 0.282103 0.8 0 0
0.312369 0.380550 0.448002 0.8 0 0
0.333741 0.391705 0.436542 0.8 0 0
0.052842 0.880737 0.486524 0.8 0 0
0.323304 0.654667 0.467441 0.8 0 0
0.094211 0.412654 0.483885 0.8 0 0
0.216498 0.043851 0.211392 0.8 0 0
0.265049 0.025000 0.318999 0.8 0 0
0.220118 0.583749 0.489163 0.8 0 0
0.194848 0.162104 0.230930 0.8 0 0
0.092821 0.498121 0.463952 0.8 0 0
0.316031 0.726418 0.496015 0.8 0 0
0.219452 0.935389 0.523564 0.8 0 0
0.337879 0.860257 0.512583 0.8 0 0
0.393505 0.361104 0.340199 0.8 0 0
0.062523 0.871872 0.487557 0.8 0 0
0.072101 0.447529 0.477882 0.8 0 0
0.063106 0.503971 0.446167 0.8 0 0
0.254993 0.903051 0.473325 0.8 0 0
0.301765 0.301114 0.276331 0.8 0 0
0.324083 0.315584 0.192013 0.8 0 0
0.322446 0.314157 0.434590 0.8 0 0
0.125294 0.969974 0.497801 0.8 0 0
0.075935 0.416190 0.459937 0.8 0 0
0.091091 0.392017 0.357125 0.8 0 0
0.256807 0.384788 0.341689 0.8 0 0
0.075373 0.392046 0.238503 0.8 0 0
0.113212 0.315851 0.326270 0.8 0 0
0.238115 0.226818 0.285308 0.8 0 0
0.227715 0.349971 0.026556 0.8 0 0
0.232281 0.531282 0.464325 0.8 0 0
0.045375 0.695179 0.427688 0.8 0 0
0.097035 0.317963 0.389899 0.8 0 0
0.168184 0.173541 0.261652 0.8 0 0
0.232691 0.366560 0.150623 0.8 0 0
0.052887 0.887011 0.485358 0.8 0 0
0.203601 0.585764 0.466581 0.8 0 0
0.232381 0.426309 0.456412 0.8 0 0
0.096974 0.404476 0.470782 0.8 0 0
0.269644 0.032626 0.287404 0.8 0 0
0.288772 0.755379 0.440154 0.8 0 0
0.062822 0.687230 0.420823 0.8 0 0
0.372189 0.572826 0.281110 0.8 0 0
0.269510 0.386490 0.387838 0.8 0 0
0.277695 0.696340 0.426138 0.8 0 0
0.249456 0.253044 0.240422 0.8 0 0
0.232384 0.835860 0.493535 0.8 0 0
0.099127 0.341992 0.438784 0.8 0 0
0.193534 0.341112 0.163605 0.8 0 0
0.231502 0.341121 0.152070 0.8 0 0
0.308306 0.314200 0.116348 0.8 0 0
0.354213 0.388327 0.413043 0.8 0 0
0.069544 0.476833 0.476401 0.8 0 0
0.329263 0.316218 0.351103 0.8 0 0
0.148163 0.599013 0.474422 0.8 0 0
0.290421 0.650514 0.420451 0.8 0 0
0.361351 0.308314 0.121304 0.8 0 0
0.227175 0.391729 0.275362 0.8 0 0
0.176550 0.594655 0.420888 0.8 0 0
0.224117 0.391730 0.374464 0.8 0 0
0.267418 0.341447 0.039805 0.8 0 0
0.291705 0.915769 0.518717 0.8 0 0
0.283115 0.477792 0.423915 0.8 0 0
0.176566 0.029850 0.190081 0.8 0 0
0.195242 0.341359 0.274773 0.8 0 0
0.155710 0.750245 0.490190 0.8 0 0
0.237936 0.478649 0.489109 0.8 0 0
0.089549 0.533158 0.464640 0.8 0 0
0.231638 0.610751 0.466960 0.8 0 0
0.326773 0.315895 0.170232 0.8 0 0
0.171614 0.060913 0.248105 0.8 0 0
0.363024 0.583487 0.247838 0.8 0 0
0.136371 0.905510 0.516164 0.8 0 0
0.228357 0.313207 0.057395 0.8 0 0
0.244651 0.761506 0.494066 0.8 0 0
0.058806 0.960377 0.505674 0.8 0 0
0.365334 0.359172 0.072608 0.8 0 0
0.197974 0.352041 0.444605 0.8 0 0
0.388348 0.901852 0.493209 0.8 0 0
0.226906 0.861160 0.457095 0.8 0 0
0.136836 0.439404 0.487641 0.8 0 0
0.116224 0.750964 0.502942 0.8 0 0
0.057830 0.833001 0.491878 0.8 0 0
0.126130 0.489656 0.419874 0.8 0 0
0.138721 0.341731 0.144218 0.8 0 0
0.216095 0.963926 0.521401 0.8 0 0
0.158896 0.526744 0.424242 0.8 0 0
0.374806 0.494812 0.463680 0.8 0 0
0.189756 0.575747 0.448002 0.8 0 0
0.186780 0.313534 0.237647 0.8 0 0
0.299719 0.070705 0.405463 0.8 0 0
0.225922 0.030387 0.210697 0.8 0 0
0.220321 0.371930 0.025251 0.8 0 0
0.189478 0.395226 0.430697 0.8 0 0
0.222085 0.562522 0.416534 0.8 0 0
0.086679 0.914394 0.534797 0.8 0 0
0.310513 0.714749 0.492007 0.8 0 0
0.351673 0.830858 0.450126 0.8 0 0
0.287783 0.745890 0.489627 0.8 0 0
0.246991 0.300913 0.236732 0.8 0 0
0.150248 0.745315 0.502868 0.8 0 0
0.192305 0.341107 0.191309 0.8 0 0
0.257596 0.689968 0.466743 0.8 0 0
0.141120 0.362556 0.443340 0.8 0 0
0.034320 0.361890 0.116130 0.8 0 0
0.250869 0.927457 0.474122 0.8 0 0
0.324336 0.680113 0.467951 0.8 0 0
0.189955 0.633447 0.458972 0.8 0 0
0.378222 0.385067 0.418590 0.8 0 0
0.257031 0.857071 0.463554 0.8 0 0
0.189952 0.467361 0.455499 0.8 0 0
0.232686 0.426399 0.438732 0.8 0 0
0.302918 0.341607 0.038441 0.8 0 0
0.295543 0.385844 0.337403 0.8 0 0
0.231101 0.674173 0.475591 0.8 0 0
0.075285 0.538213 0.415734 0.8 0 0
0.181217 0.595661 0.466493 0.8 0 0
0.331838 0.641347 0.418149 0.8 0 0
0.368880 0.531616 0.472924 0.8 0 0
0.312481 0.363075 0.464715 0.8 0 0
0.242765 0.145245 0.231947 0.8 0 0
0.192431 0.957083 0.479138 0.8 0 0
0.200929 0.299716 0.136479 0.8 0 0
0.343344 0.825250 0.503150 0.8 0 0
0.318796 0.653105 0.487145 0.8 0 0
0.114061 0.449057 0.486817 0.8 0 0
0.045849 0.958949 0.514640 0.8 0 0
0.160011 0.354759 0.443294 0.8 0 0
0.311720 0.811125 0.517833 0.8 0 0
0.108388 0.764027 0.505453 0.8 0 0
0.061255 0.418607 0.416281 0.8 0 0
0.313083 0.068249 0.410912 0.8 0 0
0.354370 0.703785 0.469505 0.8 0 0
0.257379 0.391722 0.407472 0.8 0 0
0.046720 0.360444 0.149420 0.8 0 0
0.064572 0.957162 0.525842 0.8 0 0
0.296203 0.387346 0.349515 0.8 0 0
0.256343 0.821705 0.497160 0.8 0 0
0.362391 0.582154 0.175470 0.8 0 0
0.369380 0.371005 0.242165 0.8 0 0
0.295978 0.483394 0.474956 0.8 0 0
0.131095 0.025000 0.173940 0.8 0 0
0.062314 0.025000 0.101893 0.8 0 0
0.172257 0.183459 0.288078 0.8 0 0
0.273419 0.341474 0.192667 0.8 0 0
0.339562 0.893483 0.519490 0.8 0 0
0.268393 0.299909 0.243565 0.8 0 0
0.370483 0.647391 0.414497 0.8 0 0
0.393307 0.848963 0.468925 0.8 0 0
0.255876 0.341395 0.111162 0.8 0 0
0.363845 0.651857 0.478520 0.8 0 0
0.232488 0.354630 0.084719 0.8 0 0
0.131840 0.077784 0.161065 0.8 0 0
0.073578 0.719419 0.484179 0.8 0 0
0.393142 0.817041 0.462203 0.8 0 0
0.141872 0.745393 0.488488 0.8 0 0
0.189851 0.495637 0.451056 0.8 0 0
0.378684 0.588958 0.180924 0.8 0 0
0.166006 0.915104 0.475691 0.8 0 0
0.230976 0.341282 0.032421 0.8 0 0
0.182750 0.159884 0.279624 0.8 0 0
0.087551 0.045374 0.355400 0.8 0 0
0.211001 0.511675 0.489150 0.8 0 0
0.237690 0.663151 0.418571 0.8 0 0
0.261137 0.049084 0.353425 0.8 0 0
0.259594 0.025000 0.350243 0.8 0 0
0.211377 0.782580 0.438889 0.8 0 0
0.222535 0.470937 0.414685 0.8 0 0
0.367338 0.030221 0.076565 0.8 0 0
0.067643 0.708889 0.470331 0.8 0 0
0.142575 0.929007 0.529144 0.8 0 0
0.225568 0.341160 0.209544 0.8 0 0
0.085201 0.392028 0.312018 0.8 0 0
0.350822 0.484821 0.483534 0.8 0 0
0.162588 0.345563 0.453914 0.8 0 0
0.232655 0.364414 0.321615 0.8 0 0
0.243800 0.089827 0.224243 0.8 0 0
0.188336 0.313532 0.335010 0.8 0 0
0.059568 0.346276 0.129483 0.8 0 0
0.325683 0.828958 0.498527 0.8 0 0
0.232579 0.133266 0.224934 0.8 0 0
0.248917 0.313324 0.263389 0.8 0 0
0.116409 0.306906 0.080446 0.8 0 0
0.281797 0.845009 0.512758 0.8 0 0
0.366650 0.349915 0.401960 0.8 0 0
0.063574 0.042022 0.393528 0.8 0 0
0.184218 0.886180 0.464565 0.8 0 0
0.055171 0.043646 0.411735 0.8 0 0
0.051432 0.610838 0.354212 0.8 0 0
0.060940 0.388740 0.351913 0.8 0 0
0.268516 0.300009 0.366673 0.8 0 0
0.233050 0.854381 0.529010 0.8 0 0
0.056496 0.747068 0.451765 0.8 0 0
0.189492 0.373174 0.296498 0.8 0 0
0.154897 0.430461 0.474650 0.8 0 0
0.076092 0.586656 0.465634 0.8 0 0
0.186551 0.519187 0.475379 0.8 0 0
0.234708 0.299763 0.215088 0.8 0 0
0.215562 0.391732 0.034179 0.8 0 0
0.189832 0.524613 0.450718 0.8 0 0
0.100478 0.789860 0.496366 0.8 0 0
0.054958 0.500604 0.465133 0.8 0 0
0.286123 0.849233 0.513592 0.8 0 0
0.219849 0.789946 0.440603 0.8 0 0
0.189152 0.390224 0.444764 0.8 0 0
0.232691 0.408264 0.438082 0.8 0 0
0.392680 0.383153 0.053558 0.8 0 0
0.028535 0.896957 0.479132 0.8 0 0
0.286603 0.745549 0.503147 0.8 0 0
0.249014 0.300606 0.096423 0.8 0 0
0.312662 0.391358 0.029346 0.8 0 0
0.361600 0.308554 0.249937 0.8 0 0
0.340434 0.498707 0.464216 0.8 0 0
0.353061 0.420449 0.413692 0.8 0 0
0.177368 0.313603 0.183640 0.8 0 0
0.263989 0.696145 0.460588 0.8 0 0
0.190198 0.391619 0.337495 0.8 0 0
0.101211 0.341978 0.066939 0.8 0 0
0.162732 0.400218 0.462424 0.8 0 0
0.232824 0.374410 0.344484 0.8 0 0
0.345403 0.624523 0.417813 0.8 0 0
0.243377 0.089422 0.323908 0.8 0 0
0.155454 0.300708 0.387950 0.8 0 0
0.376675 0.918240 0.514890 0.8 0 0
0.323833 0.301907 0.253893 0.8 0 0
0.071425 0.594244 0.477496 0.8 0 0
0.189452 0.375138 0.320797 0.8 0 0
0.197368 0.380334 0.425994 0.8 0 0
0.253232 0.199561 0.237851 0.8 0 0
0.214357 0.910441 0.468410 0.8 0 0
0.164972 0.755354 0.437126 0.8 0 0
0.349539 0.391702 0.200996 0.8 0 0
0.279789 0.341503 0.387242 0.8 0 0
0.301567 0.488088 0.418949 0.8 0 0
0.281983 0.534820 0.465202 0.8 0 0
0.203946 0.299731 0.241577 0.8 0 0
0.295121 0.300996 0.377067 0.8 0 0
0.237300 0.569793 0.466107 0.8 0 0
0.227500 0.391729 0.417343 0.8 0 0
0.261245 0.611105 0.425831 0.8 0 0
0.040775 0.340828 0.406718 0.8 0 0
0.277016 0.435373 0.475334 0.8 0 0
0.232595 0.360898 0.154528 0.8 0 0
0.198928 0.061428 0.298825 0.8 0 0
0.026072 0.366259 0.129789 0.8 0 0
0.225591 0.822265 0.497426 0.8 0 0
0.232784 0.941255 0.494832 0.8 0 0
0.078742 0.342126 0.251947 0.8 0 0
0.204836 0.028734 0.307283 0.8 0 0
0.102012 0.971964 0.482410 0.8 0 0
0.367055 0.313643 0.328495 0.8 0 0
0.241535 0.165413 0.230979 0.8 0 0
0.262342 0.779989 0.498297 0.8 0 0
0.273541 0.850424 0.467012 0.8 0 0
0.271330 0.313542 0.378854 0.8 0 0
0.336964 0.888320 0.518767 0.8 0 0
0.336234 0.342237 0.041273 0.8 0 0
0.074774 0.342152 0.350419 0.8 0 0
0.369147 0.369935 0.063210 0.8 0 0
0.346930 0.687064 0.468011 0.8 0 0
0.216704 0.306499 0.419607 0.8 0 0
0.058365 0.358422 0.419475 0.8 0 0
0.332672 0.692849 0.455327 0.8 0 0
0.389727 0.920688 0.494347 0.8 0 0
0.229364 0.364248 0.025066 0.8 0 0
0.305764 0.341620 0.291028 0.8 0 0
0.060205 0.410934 0.443316 0.8 0 0
0.052855 0.366995 0.248339 0.8 0 0
0.368921 0.355896 0.296535 0.8 0 0
0.388608 0.447781 0.442300 0.8 0 0
0.355308 0.329679 0.293529 0.8 0 0
0.343342 0.746006 0.484398 0.8 0 0
0.197211 0.341347 0.328338 0.8 0 0
0.364465 0.347803 0.300083 0.8 0 0
0.047960 0.629222 0.347264 0.8 0 0
0.189559 0.925678 0.493424 0.8 0 0
0.252687 0.138339 0.249487 0.8 0 0
0.205931 0.358648 0.444442 0.8 0 0
0.345703 0.696894 0.467952 0.8 0 0
0.116229 0.025000 0.339778 0.8 0 0
0.335941 0.942158 0.544076 0.8 0 0
0.316040 0.391709 0.304378 0.8 0 0
0.275889 0.553406 0.475380 0.8 0 0
0.307685 0.744664 0.502156 0.8 0 0
0.179439 0.274674 0.236830 0.8 0 0
0.172280 0.355084 0.461879 0.8 0 0
0.198277 0.299739 0.341855 0.8 0 0
0.274781 0.437436 0.463268 0.8 0 0
0.081046 0.466539 0.466005 0.8 0 0
0.212237 0.699869 0.428213 0.8 0 0
0.155213 0.392003 0.487570 0.8 0 0
0.242860 0.760102 0.493716 0.8 0 0
0.161152 0.036118 0.258339 0.8 0 0
0.252293 0.055031 0.199921 0.8 0 0
0.199055 0.305259 0.222159 0.8 0 0
0.058622 0.725383 0.450393 0.8 0 0
0.171225 0.869943 0.508176 0.8 0 0
0.073103 0.392050 0.383893 0.8 0 0
0.382439 0.585524 0.231826 0.8 0 0
0.157020 0.661146 0.474661 0.8 0 0
0.199419 0.636373 0.475504 0.8 0 0
0.209101 0.466091 0.475547 0.8 0 0
0.275793 0.608373 0.475394 0.8 0 0
0.093124 0.342031 0.340938 0.8 0 0
0.219317 0.341229 0.404524 0.8 0 0
0.343040 0.544040 0.416187 0.8 0 0
0.092998 0.390598 0.483043 0.8 0 0
0.069756 0.336156 0.269265 0.8 0 0
0.098406 0.851672 0.503492 0.8 0 0
0.126815 0.437409 0.419286 0.8 0 0
0.186748 0.465672 0.463902 0.8 0 0
0.213534 0.313324 0.280034 0.8 0 0
0.120278 0.334874 0.049636 0.8 0 0
0.096540 0.385153 0.461692 0.8 0 0
0.177212 0.168010 0.287104 0.8 0 0
0.359670 0.369343 0.037734 0.8 0 0
0.052960 0.373192 0.187055 0.8 0 0
0.072194 0.043812 0.441421 0.8 0 0
0.191318 0.341102 0.184471 0.8 0 0
0.248237 0.085738 0.307219 0.8 0 0
0.346487 0.539607 0.467982 0.8 0 0
0.372208 0.359447 0.343453 0.8 0 0
0.248312 0.195844 0.230244 0.8 0 0
0.174176 0.953710 0.535210 0.8 0 0
0.119772 0.311379 0.067172 0.8 0 0
0.321859 0.439659 0.487046 0.8 0 0
0.219503 0.487195 0.415013 0.8 0 0
0.266989 0.561040 0.475564 0.8 0 0
0.331948 0.846031 0.524729 0.8 0 0
0.172560 0.501698 0.420086 0.8 0 0
0.235965 0.741138 0.489136 0.8 0 0
0.243455 0.490943 0.418744 0.8 0 0
0.156330 0.696586 0.425634 0.8 0 0
0.347691 0.931390 0.539882 0.8 0 0
0.153217 0.810308 0.518457 0.8 0 0
0.336913 0.631936 0.485956 0.8 0 0
0.394622 0.960549 0.488294 0.8 0 0
0.310450 0.390274 0.152031 0.8 0 0
0.055202 0.598384 0.320593 0.8 0 0
0.284715 0.382913 0.147391 0.8 0 0
0.255731 0.895050 0.471682 0.8 0 0
0.290825 0.341552 0.146864 0.8 0 0
0.084988 0.634788 0.469053 0.8 0 0
0.231345 0.179945 0.304870 0.8 0 0
0.380296 0.543986 0.456647 0.8 0 0
0.245434 0.075191 0.332801 0.8 0 0
0.142036 0.389740 0.422670 0.8 0 0
0.209188 0.686774 0.468514 0.8 0 0
0.134435 0.423007 0.487549 0.8 0 0
0.341950 0.315828 0.061489 0.8 0 0
0.208692 0.391733 0.397054 0.8 0 0
0.030605 0.368561 0.187281 0.8 0 0
0.189474 0.374039 0.051078 0.8 0 0
0.029845 0.392675 0.435936 0.8 0 0
0.138404 0.301167 0.303690 0.8 0 0
0.190586 0.461991 0.414498 0.8 0 0
0.189170 0.906447 0.525900 0.8 0 0
0.230170 0.451792 0.489109 0.8 0 0
0.382187 0.807707 0.483603 0.8 0 0
0.193129 0.174835 0.292086 0.8 0 0
0.032915 0.555719 0.420033 0.8 0 0
0.260857 0.383357 0.314408 0.8 0 0
0.159674 0.565249 0.488510 0.8 0 0
0.192991 0.313472 0.113802 0.8 0 0
0.117283 0.341872 0.332865 0.8 0 0
0.157868 0.744185 0.434568 0.8 0 0
0.242682 0.346391 0.456023 0.8 0 0
0.201102 0.419484 0.475475 0.8 0 0
0.116290 0.341879 0.305879 0.8 0 0
0.292565 0.327125 0.060274 0.8 0 0
0.281236 0.945952 0.479268 0.8 0 0
0.226875 0.813742 0.506351 0.8 0 0
0.323018 0.390790 0.472951 0.8 0 0
0.190655 0.154029 0.245158 0.8 0 0
0.034378 0.718564 0.424489 0.8 0 0
0.265225 0.049232 0.358668 0.8 0 0
0.232883 0.728058 0.439841 0.8 0 0
0.157297 0.025000 0.322147 0.8 0 0
0.135601 0.690947 0.466627 0.8 0 0
0.201218 0.932949 0.522914 0.8 0 0
0.350729 0.324492 0.363251 0.8 0 0
0.164509 0.753749 0.481311 0.8 0 0
0.251433 0.341375 0.338544 0.8 0 0
0.229201 0.341274 0.247942 0.8 0 0
0.367508 0.789764 0.500569 0.8 0 0
0.374373 0.363079 0.321239 0.8 0 0
0.281215 0.025000 0.362996 0.8 0 0
0.146290 0.082162 0.185744 0.8 0 0
0.040795 0.565676 0.451535 0.8 0 0
0.369646 0.899585 0.484900 0.8 0 0
0.060362 0.384490 0.060527 0.8 0 0
0.119020 0.403035 0.416168 0.8 0 0
0.160764 0.345671 0.443292 0.8 0 0
0.232854 0.186093 0.305181 0.8 0 0
0.284435 0.445616 0.475185 0.8 0 0
0.352153 0.582199 0.465850 0.8 0 0
0.382946 0.634525 0.359995 0.8 0 0
0.366417 0.498119 0.425446 0.8 0 0
0.028210 0.368088 0.308607 0.8 0 0
0.149022 0.082822 0.347436 0.8 0 0
0.089272 0.703260 0.484869 0.8 0 0
0.127405 0.418709 0.487293 0.8 0 0
0.238772 0.305301 0.416240 0.8 0 0
0.095631 0.521176 0.415426 0.8 0 0
0.362503 0.368555 0.407045 0.8 0 0
0.338751 0.303362 0.347259 0.8 0 0
0.163700 0.882171 0.468871 0.8 0 0
0.140279 0.378041 0.485540 0.8 0 0
0.189634 0.365992 0.203861 0.8 0 0
0.164154 0.300217 0.187918 0.8 0 0
0.026786 0.523459 0.429310 0.8 0 0
0.204528 0.391734 0.216014 0.8 0 0
0.309429 0.025000 0.362344 0.8 0 0
0.197345 0.313448 0.218928 0.8 0 0
0.232890 0.378328 0.182323 0.8 0 0
0.052742 0.360363 0.150589 0.8 0 0
0.318385 0.391708 0.329967 0.8 0 0
0.344740 0.341796 0.393080 0.8 0 0
0.140297 0.341721 0.050843 0.8 0 0
0.141068 0.314772 0.221431 0.8 0 0
0.313703 0.448557 0.474552 0.8 0 0
0.034947 0.345161 0.100703 0.8 0 0
0.208585 0.693064 0.475742 0.8 0 0
0.283922 0.300617 0.383504 0.8 0 0
0.384106 0.653254 0.420224 0.8 0 0
0.357704 0.391563 0.135376 0.8 0 0
0.108775 0.449061 0.486448 0.8 0 0
0.288124 0.480199 0.464073 0.8 0 0
0.308760 0.314230 0.312838 0.8 0 0
0.137336 0.805398 0.451978 0.8 0 0
0.232340 0.345868 0.152039 0.8 0 0
0.052955 0.920595 0.489181 0.8 0 0
0.201576 0.815144 0.495721 0.8 0 0
0.033952 0.368524 0.163445 0.8 0 0
0.278487 0.025000 0.371445 0.8 0 0
0.369391 0.557024 0.437263 0.8 0 0
0.048422 0.639456 0.458903 0.8 0 0
0.192512 0.823689 0.497636 0.8 0 0
0.124103 0.341827 0.175745 0.8 0 0
0.369342 0.433576 0.432359 0.8 0 0
0.296485 0.386279 0.104399 0.8 0 0
0.030149 0.925870 0.488263 0.8 0 0
0.164169 0.300347 0.374651 0.8 0 0
0.093781 0.342027 0.149164 0.8 0 0
0.210077 0.391733 0.045653 0.8 0 0
0.117732 0.532948 0.418518 0.8 0 0
0.222675 0.391776 0.210552 0.8 0 0
0.192128 0.672447 0.489034 0.8 0 0
0.388940 0.347753 0.265265 0.8 0 0
0.074061 0.342157 0.060347 0.8 0 0
0.303144 0.726871 0.482955 0.8 0 0
0.248413 0.762385 0.439240 0.8 0 0
0.261682 0.669002 0.419546 0.8 0 0
0.088682 0.584162 0.416685 0.8 0 0
0.071033 0.464765 0.477263 0.8 0 0
0.351969 0.820236 0.495801 0.8 0 0
0.232823 0.876253 0.477533 0.8 0 0
0.238619 0.313113 0.143884 0.8 0 0
0.115482 0.389664 0.322449 0.8 0 0
0.101912 0.317070 0.316135 0.8 0 0
0.347438 0.027492 0.139351 0.8 0 0
0.304519 0.301196 0.115777 0.8 0 0
0.181638 0.390625 0.431642 0.8 0 0
0.366881 0.348893 0.098359 0.8 0 0
0.104929 0.785159 0.488178 0.8 0 0
0.301726 0.314068 0.144041 0.8 0 0
0.241533 0.388854 0.339726 0.8 0 0
0.369371 0.438923 0.433902 0.8 0 0
0.260887 0.680381 0.488974 0.8 0 0
0.179002 0.239744 0.237484 0.8 0 0
0.241456 0.391726 0.376835 0.8 0 0
0.063096 0.709128 0.469514 0.8 0 0
0.205447 0.391734 0.279993 0.8 0 0
0.319775 0.623295 0.487177 0.8 0 0
0.324402 0.697288 0.487791 0.8 0 0
0.232552 0.358340 0.346038 0.8 0 0
0.029818 0.352784 0.224947 0.8 0 0
0.364161 0.310977 0.362210 0.8 0 0
0.232802 0.488566 0.433297 0.8 0 0
0.046112 0.412176 0.099128 0.8 0 0
0.219992 0.053407 0.215394 0.8 0 0
0.058192 0.461197 0.440849 0.8 0 0
0.215708 0.632089 0.417882 0.8 0 0
0.167925 0.733120 0.485579 0.8 0 0
0.138376 0.543566 0.474037 0.8 0 0
0.071926 0.026839 0.145008 0.8 0 0
0.201445 0.592871 0.417063 0.8 0 0
0.244239 0.716681 0.480303 0.8 0 0
0.189195 0.388058 0.223407 0.8 0 0
0.358398 0.306695 0.260440 0.8 0 0
0.391341 0.353900 0.183691 0.8 0 0
0.373962 0.583301 0.464806 0.8 0 0
0.190103 0.342462 0.185840 0.8 0 0
0.279991 0.383618 0.358512 0.8 0 0
0.054495 0.352165 0.344941 0.8 0 0
0.052911 0.818206 0.468078 0.8 0 0
0.352177 0.592860 0.483337 0.8 0 0
0.146051 0.341683 0.225237 0.8 0 0
0.287301 0.642396 0.488333 0.8 0 0
0.189316 0.381970 0.105762 0.8 0 0
0.230416 0.051626 0.223474 0.8 0 0
0.061277 0.344346 0.376556 0.8 0 0
0.309140 0.966793 0.481498 0.8 0 0
0.240135 0.366555 0.481824 0.8 0 0
0.082553 0.736596 0.476824 0.8 0 0
0.132973 0.506415 0.473824 0.8 0 0
0.322630 0.380499 0.450652 0.8 0 0
0.353756 0.385800 0.460234 0.8 0 0
0.055071 0.579226 0.228184 0.8 0 0
0.317432 0.535384 0.465060 0.8 0 0
0.258723 0.733199 0.500369 0.8 0 0
0.366476 0.731713 0.447914 0.8 0 0
0.231349 0.341122 0.122964 0.8 0 0
0.253788 0.200079 0.286058 0.8 0 0
0.296625 0.300913 0.121796 0.8 0 0
0.229378 0.404551 0.413309 0.8 0 0
0.155206 0.081245 0.350116 0.8 0 0
0.202650 0.556854 0.475513 0.8 0 0
0.368268 0.379030 0.275657 0.8 0 0
0.238871 0.484221 0.464372 0.8 0 0
0.220458 0.645494 0.418161 0.8 0 0
0.071430 0.855959 0.504306 0.8 0 0
0.209391 0.731562 0.427106 0.8 0 0
0.322393 0.315456 0.372079 0.8 0 0
0.241354 0.489544 0.489109 0.8 0 0
0.301072 0.301081 0.193877 0.8 0 0
0.350247 0.323942 0.216047 0.8 0 0
0.053431 0.377464 0.202977 0.8 0 0
0.239535 0.458996 0.463859 0.8 0 0
0.256987 0.619956 0.467034 0.8 0 0
0.230474 0.341128 0.402759 0.8 0 0
0.218759 0.108416 0.304921 0.8 0 0
0.158875 0.316582 0.090553 0.8 0 0
0.360670 0.702962 0.458990 0.8 0 0
0.352685 0.685540 0.462843 0.8 0 0
0.297864 0.941829 0.475732 0.8 0 0
0.393778 0.557322 0.428038 0.8 0 0
0.224626 0.105053 0.221435 0.8 0 0
0.151401 0.498067 0.464328 0.8 0 0
0.152079 0.518874 0.425892 0.8 0 0
0.054481 0.324517 0.399997 0.8 0 0
0.312836 0.779309 0.510229 0.8 0 0
0.175417 0.762686 0.483445 0.8 0 0
0.227280 0.876217 0.460571 0.8 0 0
0.256295 0.599587 0.424227 0.8 0 0
0.227118 0.313204 0.144885 0.8 0 0
0.220865 0.764295 0.508426 0.8 0 0
0.039943 0.495505 0.105011 0.8 0 0
0.356778 0.391700 0.246041 0.8 0 0
0.216713 0.088848 0.245134 0.8 0 0
0.274309 0.300329 0.400527 0.8 0 0
0.343958 0.415132 0.469362 0.8 0 0
0.061908 0.505002 0.471384 0.8 0 0
0.189558 0.369838 0.408014 0.8 0 0
0.267375 0.380792 0.434794 0.8 0 0
0.385604 0.403247 0.448142 0.8 0 0
0.342179 0.597004 0.417256 0.8 0 0
0.178312 0.435505 0.489147 0.8 0 0
0.101453 0.961992 0.526305 0.8 0 0
0.371649 0.520908 0.468285 0.8 0 0
0.047763 0.406307 0.458368 0.8 0 0
0.180455 0.913818 0.518363 0.8 0 0
0.131638 0.387923 0.405324 0.8 0 0
0.062060 0.368728 0.428053 0.8 0 0
0.327997 0.330947 0.435429 0.8 0 0
0.206820 0.158471 0.219944 0.8 0 0
0.289631 0.341547 0.203530 0.8 0 0
0.236059 0.417583 0.415002 0.8 0 0
0.029144 0.363689 0.075619 0.8 0 0
0.293010 0.553814 0.465539 0.8 0 0
0.206493 0.341285 0.185368 0.8 0 0
0.309734 0.887923 0.464999 0.8 0 0
0.242945 0.055926 0.207811 0.8 0 0
0.207016 0.341174 0.422840 0.8 0 0
0.128206 0.723288 0.428566 0.8 0 0
0.155881 0.386929 0.396279 0.8 0 0
0.082375 0.692877 0.467428 0.8 0 0
0.284563 0.533517 0.425151 0.8 0 0
0.189286 0.618525 0.425722 0.8 0 0
0.136906 0.491662 0.487659 0.8 0 0
0.366442 0.493550 0.454683 0.8 0 0
0.232822 0.374315 0.035601 0.8 0 0
0.185202 0.206023 0.301617 0.8 0 0
0.333784 0.307277 0.413933 0.8 0 0
0.183528 0.808959 0.504888 0.8 0 0
0.210399 0.950904 0.477744 0.8 0 0
0.197176 0.391736 0.437414 0.8 0 0
0.054760 0.569528 0.204178 0.8 0 0
0.202075 0.387114 0.462414 0.8 0 0
0.305304 0.341618 0.158423 0.8 0 0
0.074904 0.040576 0.440432 0.8 0 0
0.197104 0.340695 0.449451 0.8 0 0
0.057981 0.349276 0.196728 0.8 0 0
0.307423 0.695771 0.488149 0.8 0 0
0.165839 0.385396 0.358669 0.8 0 0
0.232582 0.579982 0.447882 0.8 0 0
0.100140 0.561167 0.465273 0.8 0 0
0.260370 0.385843 0.076546 0.8 0 0
0.321051 0.605222 0.466451 0.8 0 0
0.280456 0.300352 0.323794 0.8 0 0
0.287478 0.893829 0.536589 0.8 0 0
0.180250 0.542259 0.418882 0.8 0 0
0.053198 0.759546 0.447960 0.8 0 0
0.097635 0.064756 0.381705 0.8 0 0
0.110085 0.542378 0.472955 0.8 0 0
0.224149 0.025000 0.221721 0.8 0 0
0.369381 0.477596 0.435164 0.8 0 0
0.319566 0.033786 0.173429 0.8 0 0
0.105402 0.318640 0.052882 0.8 0 0
0.083602 0.061503 0.409802 0.8 0 0
0.105231 0.611077 0.466312 0.8 0 0
0.104295 0.316745 0.374776 0.8 0 0
0.308567 0.849312 0.456434 0.8 0 0
0.190024 0.830603 0.494303 0.8 0 0
0.330963 0.807103 0.501644 0.8 0 0
0.044148 0.584883 0.219958 0.8 0 0
0.061677 0.583338 0.462966 0.8 0 0
0.048474 0.837691 0.493839 0.8 0 0
0.183146 0.518369 0.464943 0.8 0 0
0.311851 0.884325 0.520728 0.8 0 0
0.364047 0.384236 0.312624 0.8 0 0
0.384097 0.578646 0.233673 0.8 0 0
0.213299 0.089881 0.271167 0.8 0 0
0.198550 0.453101 0.463724 0.8 0 0
0.232831 0.447064 0.430742 0.8 0 0
0.052929 0.881446 0.481654 0.8 0 0
0.306370 0.057872 0.360959 0.8 0 0
0.193924 0.604786 0.489199 0.8 0 0
0.220705 0.299759 0.325266 0.8 0 0
0.162224 0.422204 0.474929 0.8 0 0
0.274294 0.836552 0.500507 0.8 0 0
0.320332 0.025000 0.138294 0.8 0 0
0.134067 0.026082 0.143165 0.8 0 0
0.232495 0.844305 0.489068 0.8 0 0
0.296900 0.596897 0.474958 0.8 0 0
0.052569 0.377842 0.118585 0.8 0 0
0.042536 0.431920 0.095842 0.8 0 0
0.218969 0.460177 0.463998 0.8 0 0
0.056194 0.322465 0.197853 0.8 0 0
0.310020 0.884222 0.464059 0.8 0 0
0.364358 0.570898 0.127391 0.8 0 0
0.392498 0.734023 0.441443 0.8 0 0
0.038624 0.339878 0.391736 0.8 0 0
0.102674 0.025000 0.162727 0.8 0 0
0.192319 0.974899 0.483568 0.8 0 0
0.120863 0.308416 0.419000 0.8 0 0
0.295392 0.345274 0.471107 0.8 0 0
0.274506 0.379463 0.203938 0.8 0 0
0.132369 0.025000 0.352585 0.8 0 0
0.266003 0.040339 0.282693 0.8 0 0
0.289886 0.300692 0.326555 0.8 0 0
0.114418 0.563376 0.473124 0.8 0 0
0.119638 0.388593 0.182723 0.8 0 0
0.235133 0.025000 0.300868 0.8 0 0
0.115949 0.315733 0.200147 0.8 0 0
0.252435 0.385341 0.243536 0.8 0 0
0.390345 0.350676 0.177684 0.8 0 0
0.190033 0.345976 0.043900 0.8 0 0
0.244248 0.330669 0.458363 0.8 0 0
0.142037 0.313571 0.059892 0.8 0 0
0.392294 0.936167 0.478720 0.8 0 0
0.059191 0.629856 0.422357 0.8 0 0
0.191940 0.341105 0.136922 0.8 0 0
0.218794 0.529802 0.415873 0.8 0 0
0.074320 0.342155 0.340503 0.8 0 0
0.074063 0.627637 0.466448 0.8 0 0
0.220692 0.341236 0.349466 0.8 0 0
0.098168 0.643134 0.471203 0.8 0 0
0.089121 0.026786 0.087486 0.8 0 0
0.261679 0.551639 0.425266 0.8 0 0
0.230867 0.384688 0.443929 0.8 0 0
0.363771 0.341478 0.242559 0.8 0 0
0.366132 0.047318 0.102127 0.8 0 0
0.039000 0.347870 0.418976 0.8 0 0
0.109470 0.945116 0.476924 0.8 0 0
0.199988 0.653560 0.467784 0.8 0 0
0.037396 0.884445 0.491357 0.8 0 0
0.310040 0.390156 0.123993 0.8 0 0
0.057348 0.661677 0.432393 0.8 0 0
0.279036 0.321258 0.420387 0.8 0 0
0.175141 0.037019 0.189391 0.8 0 0
0.171998 0.299930 0.181623 0.8 0 0
0.262598 0.801028 0.452452 0.8 0 0
0.079662 0.718168 0.423785 0.8 0 0
0.374908 0.405416 0.121786 0.8 0 0
0.232485 0.847077 0.503123 0.8 0 0
0.232630 0.651330 0.446548 0.8 0 0
0.083031 0.361767 0.457183 0.8 0 0
0.287095 0.480675 0.422857 0.8 0 0
0.313477 0.447949 0.474578 0.8 0 0
0.173855 0.964127 0.482242 0.8 0 0
0.177694 0.299738 0.314503 0.8 0 0
0.205880 0.770023 0.495782 0.8 0 0
0.098291 0.829814 0.449590 0.8 0 0
0.366033 0.929643 0.500725 0.8 0 0
0.232425 0.313174 0.259671 0.8 0 0
0.050389 0.327929 0.378930 0.8 0 0
0.201857 0.184194 0.308680 0.8 0 0
0.195132 0.961302 0.480118 0.8 0 0
0.339298 0.336405 0.459313 0.8 0 0
0.189514 0.372040 0.321837 0.8 0 0
0.291841 0.565600 0.423675 0.8 0 0
0.075001 0.923059 0.510899 0.8 0 0
0.183521 0.202528 0.301260 0.8 0 0
0.255322 0.025000 0.277104 0.8 0 0
0.119626 0.727990 0.496298 0.8 0 0
0.230028 0.954043 0.527969 0.8 0 0
0.309733 0.662594 0.474594 0.8 0 0
0.232307 0.343912 0.033585 0.8 0 0
0.314954 0.380656 0.438786 0.8 0 0
0.363034 0.309883 0.108540 0.8 0 0
0.055130 0.605410 0.329930 0.8 0 0
0.331601 0.639165 0.486755 0.8 0 0
0.139871 0.365367 0.443343 0.8 0 0
0.338715 0.303326 0.215299 0.8 0 0
0.360790 0.704637 0.456217 0.8 0 0
0.230467 0.038391 0.301670 0.8 0 0
0.206320 0.025000 0.306310 0.8 0 0
0.117889 0.370344 0.443398 0.8 0 0
0.196708 0.932263 0.522943 0.8 0 0
0.368879 0.352933 0.322069 0.8 0 0
0.365146 0.411031 0.445238 0.8 0 0
0.176543 0.460592 0.418201 0.8 0 0
0.161390 0.085269 0.311826 0.8 0 0
0.343376 0.391703 0.318420 0.8 0 0
0.061157 0.679977 0.440516 0.8 0 0
0.240673 0.764580 0.508471 0.8 0 0
0.306979 0.033702 0.188423 0.8 0 0
0.198419 0.768492 0.495356 0.8 0 0
0.262151 0.696316 0.443429 0.8 0 0
0.218256 0.391731 0.096297 0.8 0 0
0.276309 0.564938 0.475374 0.8 0 0
0.381032 0.333564 0.360920 0.8 0 0
0.204554 0.698000 0.437794 0.8 0 0
0.052687 0.832142 0.484234 0.8 0 0
0.229257 0.809564 0.505404 0.8 0 0
0.134109 0.384676 0.184101 0.8 0 0
0.196072 0.383580 0.026631 0.8 0 0
0.149938 0.673235 0.474331 0.8 0 0
0.266279 0.299838 0.293550 0.8 0 0
0.195542 0.822274 0.522027 0.8 0 0
0.289277 0.843935 0.460936 0.8 0 0
0.270061 0.066492 0.373151 0.8 0 0
0.318710 0.301706 0.099814 0.8 0 0
0.194251 0.526381 0.415706 0.8 0 0
0.064676 0.384803 0.443530 0.8 0 0
0.362638 0.383537 0.111812 0.8 0 0
0.178505 0.184629 0.295801 0.8 0 0
0.379699 0.331861 0.114115 0.8 0 0
0.212531 0.675837 0.489014 0.8 0 0
0.217395 0.971946 0.490247 0.8 0 0
0.348257 0.304968 0.326704 0.8 0 0
0.182055 0.341446 0.227890 0.8 0 0
0.258146 0.041709 0.267910 0.8 0 0
0.283008 0.932387 0.530923 0.8 0 0
0.374613 0.600314 0.425962 0.8 0 0
0.367964 0.513392 0.474442 0.8 0 0
0.227103 0.862083 0.457308 0.8 0 0
0.232781 0.666535 0.438095 0.8 0 0
0.363754 0.045797 0.086204 0.8 0 0
0.383815 0.638650 0.413092 0.8 0 0
0.263110 0.313278 0.164523 0.8 0 0
0.238400 0.025000 0.239998 0.8 0 0
0.071752 0.046696 0.440637 0.8 0 0
0.143977 0.816543 0.519477 0.8 0 0
0.040163 0.584548 0.172578 0.8 0 0
0.135807 0.914411 0.518215 0.8 0 0
0.106279 0.797648 0.513086 0.8 0 0
0.145139 0.314626 0.310499 0.8 0 0
0.208984 0.324360 0.451634 0.8 0 0
0.065002 0.965821 0.512921 0.8 0 0
0.348797 0.025000 0.127494 0.8 0 0
0.224872 0.313218 0.103346 0.8 0 0
0.224745 0.341165 0.130184 0.8 0 0
