0.524895 0.659761 0.350778 0.8 0 0
0.544902 0.561308 0.428744 0.8 0 0
0.433814 0.058677 0.563263 0.8 0 0
0.247633 0.538508 0.120072 0.8 0 0
0.321442 0.281727 0.213855 0.8 0 0
0.543607 0.578240 0.142762 0.8 0 0
0.575753 0.878478 0.263765 0.8 0 0
0.520062 0.684625 0.277341 0.8 0 0
0.557300 0.326529 0.400498 0.8 0 0
0.492758 0.073751 0.330614 0.8 0 0
0.389841 0.505110 0.545415 0.8 0 0
0.539623 0.590149 0.274926 0.8 0 0
0.365443 0.394067 0.479317 0.8 0 0
0.569855 0.599892 0.451991 0.8 0 0
0.329444 0.363043 0.407191 0.8 0 0
0.177245 0.328885 0.331116 0.8 0 0
0.266450 0.100800 0.413064 0.8 0 0
0.340904 0.397917 0.369784 0.8 0 0
0.442038 0.037763 0.102529 0.8 0 0
0.575275 0.339491 0.253924 0.8 0 0
0.139330 0.093630 0.435481 0.8 0 0
0.206366 0.365628 0.451797 0.8 0 0
0.520904 0.487364 0.515507 0.8 0 0
0.140022 0.055323 0.172774 0.8 0 0
0.549349 0.542085 0.321503 0.8 0 0
0.418411 0.100800 0.161961 0.8 0 0
0.350499 0.359971 0.177404 0.8 0 0
0.584355 0.448504 0.147034 0.8 0 0
0.553130 0.685968 0.158717 0.8 0 0
0.519928 0.693061 0.332936 0.8 0 0
0.344797 0.280537 0.282477 0.8 0 0
0.540229 0.583916 0.429330 0.8 0 0
0.280124 0.367386 0.214700 0.8 0 0
0.542035 0.580097 0.196893 0.8 0 0
0.582731 0.544097 0.172167 0.8 0 0
0.527039 0.761990 0.132856 0.8 0 0
0.422179 0.465287 0.545532 0.8 0 0
0.462967 0.658921 0.047037 0.8 0 0
0.453589 0.412875 0.545428 0.8 0 0
0.535440 0.609855 0.293136 0.8 0 0
0.465926 0.423546 0.545752 0.8 0 0
0.588422 0.494122 0.318913 0.8 0 0
0.262825 0.366988 0.404204 0.8 0 0
0.448703 0.383256 0.208718 0.8 0 0
0.423832 0.420735 0.513061 0.8 0 0
0.541739 0.576051 0.455113 0.8 0 0
0.520933 0.712940 0.153564 0.8 0 0
0.145614 0.073751 0.171831 0.8 0 0
0.568607 0.600558 0.139624 0.8 0 0
0.253396 0.338459 0.295234 0.8 0 0
0.572341 0.866116 0.273655 0.8 0 0
0.564216 0.831766 0.150948 0.8 0 0
0.344131 0.397370 0.447184 0.8 0 0
0.115570 0.389194 0.443663 0.8 0 0
0.473714 0.313787 0.198986 0.8 0 0
0.482772 0.352041 0.212586 0.8 0 0
0.560475 0.648644 0.261506 0.8 0 0
0.522711 0.787630 0.142628 0.8 0 0
0.062608 0.342971 0.200709 0.8 0 0
0.553200 0.701354 0.170448 0.8 0 0
0.535321 0.614313 0.144900 0.8 0 0
0.520289 0.770670 0.469861 0.8 0 0
0.552374 0.399514 0.124306 0.8 0 0
0.156539 0.335765 0.268533 0.8 0 0
0.534427 0.836839 0.138879 0.8 0 0
0.155547 0.336056 0.293688 0.8 0 0
0.550120 0.539393 0.272965 0.8 0 0
0.574349 0.567898 0.137056 0.8 0 0
0.371097 0.626422 0.056154 0.8 0 0
0.440212 0.657089 0.097465 0.8 0 0
0.042292 0.370376 0.138336 0.8 0 0
0.120354 0.073751 0.467943 0.8 0 0
0.593231 0.974412 0.399085 0.8 0 0
0.347567 0.524018 0.545240 0.8 0 0
0.343723 0.397616 0.167076 0.8 0 0
0.320585 0.079124 0.259687 0.8 0 0
0.285718 0.403689 0.188423 0.8 0 0
0.243211 0.402730 0.357027 0.8 0 0
0.566490 0.842221 0.234913 0.8 0 0
0.374626 0.658921 0.582987 0.8 0 0
0.509163 0.390703 0.123541 0.8 0 0
0.613523 0.095428 0.344748 0.8 0 0
0.464365 0.654865 0.530833 0.8 0 0
0.373336 0.153017 0.322380 0.8 0 0
0.290378 0.367643 0.293747 0.8 0 0
0.339711 0.626422 0.033679 0.8 0 0
0.245276 0.306465 0.395234 0.8 0 0
0.551988 0.532908 0.152292 0.8 0 0
0.415902 0.373986 0.505229 0.8 0 0
0.575198 0.574282 0.456729 0.8 0 0
0.165926 0.400618 0.247745 0.8 0 0
0.257608 0.550914 0.512326 0.8 0 0
0.542096 0.427875 0.238913 0.8 0 0
0.185169 0.352796 0.416733 0.8 0 0
0.212730 0.317119 0.415611 0.8 0 0
0.399936 0.100800 0.383626 0.8 0 0
0.519327 0.421494 0.093118 0.8 0 0
0.580179 0.366615 0.211566 0.8 0 0
0.282463 0.532304 0.544905 0.8 0 0
0.162681 0.399897 0.275740 0.8 0 0
0.154433 0.359394 0.323157 0.8 0 0
0.332900 0.490357 0.512676 0.8 0 0
0.331738 0.658921 0.587829 0.8 0 0
0.464221 0.531187 0.513246 0.8 0 0
0.280217 0.403572 0.281546 0.8 0 0
0.375357 0.389495 0.500193 0.8 0 0
0.199176 0.365430 0.226634 0.8 0 0
0.170892 0.049301 0.173916 0.8 0 0
0.402293 0.043205 0.556905 0.8 0 0
0.526464 0.649310 0.487044 0.8 0 0
0.140063 0.394841 0.440450 0.8 0 0
0.294266 0.329874 0.219158 0.8 0 0
0.471444 0.520021 0.123356 0.8 0 0
0.205989 0.365607 0.345120 0.8 0 0
0.330604 0.658921 0.085246 0.8 0 0
0.567578 0.847796 0.309087 0.8 0 0
0.181187 0.327672 0.271906 0.8 0 0
0.166517 0.100800 0.153301 0.8 0 0
0.400835 0.534203 0.090555 0.8 0 0
0.367745 0.510521 0.090402 0.8 0 0
0.520336 0.404865 0.309822 0.8 0 0
0.525519 0.484458 0.513452 0.8 0 0
0.272543 0.297722 0.251083 0.8 0 0
0.406413 0.583612 0.513003 0.8 0 0
0.068137 0.377989 0.185444 0.8 0 0
0.412703 0.386827 0.423463 0.8 0 0
0.435911 0.100800 0.317602 0.8 0 0
0.483198 0.401279 0.543545 0.8 0 0
0.502615 0.391924 0.493343 0.8 0 0
0.423841 0.643682 0.117692 0.8 0 0
0.411888 0.350495 0.280342 0.8 0 0
0.392863 0.353494 0.151820 0.8 0 0
0.557628 0.396734 0.485348 0.8 0 0
0.521613 0.750705 0.144668 0.8 0 0
0.446816 0.480796 0.513163 0.8 0 0
0.265941 0.335725 0.377390 0.8 0 0
0.428893 0.100800 0.565098 0.8 0 0
0.617744 0.031608 0.340061 0.8 0 0
0.536583 0.604651 0.278469 0.8 0 0
0.245409 0.402764 0.187308 0.8 0 0
0.523852 0.663513 0.413383 0.8 0 0
0.280521 0.332660 0.352646 0.8 0 0
0.541776 0.576497 0.426046 0.8 0 0
0.559605 0.928725 0.231973 0.8 0 0
0.367233 0.112436 0.291469 0.8 0 0
0.488249 0.488223 0.513333 0.8 0 0
0.555887 0.507890 0.241422 0.8 0 0
0.540041 0.394322 0.123831 0.8 0 0
0.353061 0.575965 0.545242 0.8 0 0
0.430092 0.081824 0.289745 0.8 0 0
0.583586 0.347883 0.480311 0.8 0 0
0.396725 0.080784 0.090519 0.8 0 0
0.521235 0.771302 0.249078 0.8 0 0
0.479676 0.384315 0.363371 0.8 0 0
0.309345 0.102112 0.310776 0.8 0 0
0.071404 0.378859 0.299210 0.8 0 0
0.316399 0.401708 0.342947 0.8 0 0
0.250085 0.366673 0.336703 0.8 0 0
0.492290 0.582780 0.537335 0.8 0 0
0.540380 0.582615 0.454325 0.8 0 0
0.034670 0.341079 0.197211 0.8 0 0
0.144489 0.041034 0.493830 0.8 0 0
0.525453 0.658922 0.260500 0.8 0 0
0.566387 0.947452 0.241394 0.8 0 0
0.173014 0.364790 0.158641 0.8 0 0
0.512106 0.384499 0.506315 0.8 0 0
0.408845 0.317426 0.209645 0.8 0 0
0.519849 0.715274 0.414816 0.8 0 0
0.556607 0.469367 0.275080 0.8 0 0
0.610157 0.040224 0.310831 0.8 0 0
0.358952 0.316064 0.334895 0.8 0 0
0.180359 0.401284 0.326261 0.8 0 0
0.235953 0.342153 0.295910 0.8 0 0
0.547990 0.546125 0.437312 0.8 0 0
0.312493 0.321779 0.425904 0.8 0 0
0.578855 0.482798 0.131458 0.8 0 0
0.297291 0.658921 0.591774 0.8 0 0
0.529259 0.471423 0.544617 0.8 0 0
0.558102 0.811376 0.374744 0.8 0 0
0.339048 0.109514 0.280792 0.8 0 0
0.426117 0.056684 0.066142 0.8 0 0
0.519788 0.721315 0.446527 0.8 0 0
0.265561 0.384536 0.506178 0.8 0 0
0.545633 0.641987 0.129529 0.8 0 0
0.038978 0.340472 0.474918 0.8 0 0
0.580178 0.972615 0.184795 0.8 0 0
0.553575 0.323378 0.287876 0.8 0 0
0.571198 0.339063 0.481410 0.8 0 0
0.587128 0.916244 0.495052 0.8 0 0
0.314436 0.401922 0.477698 0.8 0 0
0.583764 0.533955 0.426731 0.8 0 0
0.542463 0.575091 0.336826 0.8 0 0
0.536370 0.601923 0.460784 0.8 0 0
0.357880 0.316297 0.327958 0.8 0 0
0.482769 0.573841 0.513330 0.8 0 0
0.159340 0.358338 0.341761 0.8 0 0
0.552805 0.460446 0.475201 0.8 0 0
0.344607 0.204037 0.292385 0.8 0 0
0.556350 0.668009 0.280562 0.8 0 0
0.552165 0.455698 0.256760 0.8 0 0
0.348251 0.491136 0.512744 0.8 0 0
0.520292 0.760319 0.439715 0.8 0 0
0.487196 0.422204 0.513309 0.8 0 0
0.550026 0.539923 0.267412 0.8 0 0
0.420720 0.073751 0.108261 0.8 0 0
0.227684 0.622990 0.530859 0.8 0 0
0.513290 0.344064 0.514699 0.8 0 0
0.332786 0.362696 0.161212 0.8 0 0
0.584730 0.355264 0.318788 0.8 0 0
0.172984 0.100800 0.166822 0.8 0 0
0.401956 0.073751 0.194075 0.8 0 0
0.280747 0.558916 0.090043 0.8 0 0
0.278927 0.333026 0.322420 0.8 0 0
0.444046 0.032397 0.568347 0.8 0 0
0.365112 0.357532 0.476710 0.8 0 0
0.374802 0.377105 0.505825 0.8 0 0
0.284105 0.403677 0.442798 0.8 0 0
0.589361 0.031250 0.337153 0.8 0 0
0.520698 0.774214 0.383761 0.8 0 0
0.520995 0.717416 0.151850 0.8 0 0
0.145611 0.340376 0.217805 0.8 0 0
0.578357 0.970929 0.183587 0.8 0 0
0.552071 0.684182 0.481405 0.8 0 0
0.306019 0.327224 0.390220 0.8 0 0
0.553674 0.349113 0.228341 0.8 0 0
0.342649 0.073751 0.361962 0.8 0 0
0.309293 0.326563 0.355396 0.8 0 0
0.244518 0.073751 0.406049 0.8 0 0
0.212884 0.317144 0.363741 0.8 0 0
0.235179 0.626422 0.583866 0.8 0 0
0.159570 0.061208 0.166844 0.8 0 0
0.600265 0.944355 0.182970 0.8 0 0
0.026731 0.350405 0.183001 0.8 0 0
0.409681 0.350747 0.411527 0.8 0 0
0.417833 0.559247 0.123121 0.8 0 0
0.267931 0.403288 0.260782 0.8 0 0
0.562714 0.826214 0.175200 0.8 0 0
0.364750 0.158444 0.336556 0.8 0 0
0.566589 0.617302 0.366301 0.8 0 0
0.521241 0.779650 0.271767 0.8 0 0
0.473628 0.600429 0.545796 0.8 0 0
0.545996 0.721980 0.503938 0.8 0 0
0.160248 0.334553 0.264365 0.8 0 0
0.562971 0.616190 0.134455 0.8 0 0
0.215417 0.365827 0.267349 0.8 0 0
0.554751 0.509622 0.487908 0.8 0 0
0.558968 0.657998 0.161236 0.8 0 0
0.176139 0.354783 0.338054 0.8 0 0
0.271464 0.585409 0.089993 0.8 0 0
0.575697 0.578253 0.147082 0.8 0 0
0.556357 0.369468 0.531830 0.8 0 0
0.418679 0.349465 0.262546 0.8 0 0
0.554986 0.639255 0.132592 0.8 0 0
0.533588 0.621561 0.164887 0.8 0 0
0.418818 0.073751 0.065387 0.8 0 0
0.552866 0.527846 0.191919 0.8 0 0
0.391692 0.603795 0.123017 0.8 0 0
0.410175 0.350639 0.461327 0.8 0 0
0.091620 0.383579 0.351912 0.8 0 0
0.456067 0.658769 0.545161 0.8 0 0
0.540264 0.379870 0.290643 0.8 0 0
0.555726 0.351083 0.342815 0.8 0 0
0.456500 0.348765 0.393862 0.8 0 0
0.248682 0.402866 0.463430 0.8 0 0
0.540298 0.585516 0.333391 0.8 0 0
0.284126 0.331855 0.396230 0.8 0 0
0.558638 0.813925 0.398936 0.8 0 0
0.535543 0.670502 0.506902 0.8 0 0
0.228799 0.658921 0.570510 0.8 0 0
0.573410 0.553564 0.504158 0.8 0 0
0.357683 0.267333 0.338835 0.8 0 0
0.416065 0.349863 0.267390 0.8 0 0
0.446233 0.613371 0.513177 0.8 0 0
0.357184 0.314638 0.209565 0.8 0 0
0.568265 0.611181 0.276450 0.8 0 0
0.581138 0.550691 0.219823 0.8 0 0
0.234181 0.310256 0.291371 0.8 0 0
0.543371 0.886219 0.400883 0.8 0 0
0.028957 0.347563 0.214234 0.8 0 0
0.521285 0.676293 0.394292 0.8 0 0
0.262404 0.658921 0.592662 0.8 0 0
0.521353 0.795922 0.324411 0.8 0 0
0.567184 0.614454 0.366715 0.8 0 0
0.422025 0.478879 0.090647 0.8 0 0
0.537719 0.601272 0.181392 0.8 0 0
0.242174 0.366471 0.234675 0.8 0 0
0.590744 0.918931 0.226150 0.8 0 0
0.551968 0.688170 0.410545 0.8 0 0
0.553312 0.769866 0.340279 0.8 0 0
0.277937 0.295715 0.414843 0.8 0 0
0.088758 0.382768 0.204649 0.8 0 0
0.532187 0.478071 0.111982 0.8 0 0
0.429501 0.090337 0.587681 0.8 0 0
0.527086 0.656991 0.498174 0.8 0 0
0.310270 0.326325 0.388348 0.8 0 0
0.318258 0.364749 0.419133 0.8 0 0
0.301165 0.328233 0.409825 0.8 0 0
0.298625 0.540979 0.122605 0.8 0 0
0.051475 0.340793 0.253473 0.8 0 0
0.233136 0.310440 0.401963 0.8 0 0
0.405909 0.100800 0.232379 0.8 0 0
0.348244 0.269943 0.341880 0.8 0 0
0.517273 0.100800 0.299206 0.8 0 0
0.520167 0.753349 0.449087 0.8 0 0
0.165768 0.357066 0.246247 0.8 0 0
0.361118 0.379386 0.129880 0.8 0 0
0.264336 0.089075 0.218373 0.8 0 0
0.233197 0.581029 0.106703 0.8 0 0
0.168151 0.073751 0.419276 0.8 0 0
0.509894 0.360317 0.285293 0.8 0 0
0.446615 0.592966 0.123249 0.8 0 0
0.579280 0.352089 0.134214 0.8 0 0
0.551181 0.533811 0.292093 0.8 0 0
0.143444 0.359094 0.186434 0.8 0 0
0.148954 0.083099 0.428564 0.8 0 0
0.534333 0.615223 0.298802 0.8 0 0
0.462946 0.348807 0.313414 0.8 0 0
0.545989 0.437054 0.259224 0.8 0 0
0.587291 0.520742 0.177031 0.8 0 0
0.536549 0.419415 0.143119 0.8 0 0
0.572646 0.363981 0.269374 0.8 0 0
0.230141 0.608253 0.105596 0.8 0 0
0.444470 0.348682 0.323218 0.8 0 0
0.542402 0.325970 0.171809 0.8 0 0
0.399342 0.100800 0.189212 0.8 0 0
0.286020 0.516424 0.544933 0.8 0 0
0.331432 0.399410 0.317161 0.8 0 0
0.386273 0.481954 0.512897 0.8 0 0
0.576288 0.574267 0.204224 0.8 0 0
0.467627 0.380261 0.095368 0.8 0 0
0.432480 0.053651 0.535605 0.8 0 0
0.527461 0.821950 0.379042 0.8 0 0
0.255954 0.303042 0.338789 0.8 0 0
0.549034 0.386886 0.429821 0.8 0 0
0.198313 0.321992 0.316546 0.8 0 0
0.275094 0.367280 0.355863 0.8 0 0
0.579264 0.559257 0.238909 0.8 0 0
0.571758 0.866812 0.451673 0.8 0 0
0.576613 0.573414 0.168579 0.8 0 0
0.570814 0.961036 0.366503 0.8 0 0
0.602047 0.950985 0.329546 0.8 0 0
0.522851 0.802068 0.324046 0.8 0 0
0.534710 0.609903 0.463391 0.8 0 0
0.442699 0.415119 0.532845 0.8 0 0
0.234708 0.342492 0.215793 0.8 0 0
0.547778 0.441881 0.214014 0.8 0 0
0.380047 0.073751 0.488509 0.8 0 0
0.582693 0.100800 0.337834 0.8 0 0
0.617022 0.061061 0.310857 0.8 0 0
0.554713 0.674644 0.335221 0.8 0 0
0.507880 0.395864 0.307582 0.8 0 0
0.404784 0.059094 0.088060 0.8 0 0
0.436546 0.383619 0.406549 0.8 0 0
0.587340 0.520643 0.167077 0.8 0 0
0.552420 0.529073 0.235169 0.8 0 0
0.354758 0.076276 0.217888 0.8 0 0
0.441856 0.073751 0.067185 0.8 0 0
0.565153 0.370334 0.108237 0.8 0 0
0.304120 0.315650 0.209332 0.8 0 0
0.585621 0.524178 0.471714 0.8 0 0
0.351251 0.317740 0.287083 0.8 0 0
0.569703 0.414670 0.346704 0.8 0 0
0.223888 0.366050 0.438381 0.8 0 0
0.378864 0.355528 0.322951 0.8 0 0
0.246439 0.366598 0.462642 0.8 0 0
0.172130 0.355740 0.223317 0.8 0 0
0.433696 0.100060 0.346555 0.8 0 0
0.295663 0.506118 0.122584 0.8 0 0
0.548084 0.897226 0.242386 0.8 0 0
0.434578 0.495463 0.123205 0.8 0 0
0.245801 0.366577 0.412111 0.8 0 0
0.242489 0.613476 0.512287 0.8 0 0
0.452004 0.485682 0.545684 0.8 0 0
0.255258 0.616329 0.544805 0.8 0 0
0.168236 0.073751 0.191552 0.8 0 0
0.202413 0.401800 0.425966 0.8 0 0
0.370048 0.313715 0.333133 0.8 0 0
0.331963 0.362743 0.280442 0.8 0 0
0.480137 0.366482 0.119035 0.8 0 0
0.289946 0.658921 0.544984 0.8 0 0
0.034700 0.341055 0.242950 0.8 0 0
0.296171 0.509473 0.512516 0.8 0 0
0.439025 0.392226 0.523843 0.8 0 0
0.553290 0.754745 0.302137 0.8 0 0
0.603039 0.059762 0.326981 0.8 0 0
0.190997 0.324352 0.346062 0.8 0 0
0.564181 0.521714 0.506175 0.8 0 0
0.084262 0.347373 0.292680 0.8 0 0
0.562465 0.936169 0.198443 0.8 0 0
0.553234 0.780686 0.388501 0.8 0 0
0.340909 0.536526 0.545197 0.8 0 0
0.568173 0.954041 0.387055 0.8 0 0
0.290141 0.330666 0.306145 0.8 0 0
0.238207 0.366401 0.478264 0.8 0 0
0.564517 0.631524 0.157046 0.8 0 0
0.587272 0.505203 0.418154 0.8 0 0
0.346160 0.073751 0.345658 0.8 0 0
0.434740 0.597822 0.090697 0.8 0 0
0.520570 0.073751 0.334321 0.8 0 0
0.369911 0.658921 0.605105 0.8 0 0
0.111958 0.388240 0.320227 0.8 0 0
0.559124 0.927149 0.210858 0.8 0 0
0.163721 0.400320 0.462355 0.8 0 0
0.238995 0.366420 0.479314 0.8 0 0
0.385061 0.354495 0.447675 0.8 0 0
0.145240 0.046971 0.158831 0.8 0 0
0.526512 0.653444 0.278031 0.8 0 0
0.106556 0.377687 0.129970 0.8 0 0
0.249993 0.339172 0.303313 0.8 0 0
0.490003 0.454464 0.090951 0.8 0 0
0.523112 0.803421 0.340283 0.8 0 0
0.171939 0.047749 0.173241 0.8 0 0
0.573562 0.337957 0.176056 0.8 0 0
0.574517 0.875030 0.289670 0.8 0 0
0.180292 0.391079 0.503749 0.8 0 0
0.378222 0.355551 0.435450 0.8 0 0
0.573236 0.872316 0.429928 0.8 0 0
0.345059 0.073751 0.271247 0.8 0 0
0.438073 0.080454 0.289781 0.8 0 0
0.575664 0.877772 0.224149 0.8 0 0
0.059696 0.342508 0.339966 0.8 0 0
0.252054 0.402934 0.371758 0.8 0 0
0.550801 0.347660 0.465142 0.8 0 0
0.156779 0.042560 0.185114 0.8 0 0
0.091899 0.348827 0.210785 0.8 0 0
0.527627 0.100731 0.290179 0.8 0 0
0.163243 0.100800 0.448433 0.8 0 0
0.563177 0.830720 0.331719 0.8 0 0
0.370002 0.387935 0.503340 0.8 0 0
0.290720 0.291800 0.219776 0.8 0 0
0.085665 0.347758 0.415374 0.8 0 0
0.086555 0.347852 0.316665 0.8 0 0
0.207844 0.365646 0.285110 0.8 0 0
0.374819 0.078027 0.157002 0.8 0 0
0.359308 0.315914 0.413668 0.8 0 0
0.546226 0.558155 0.277140 0.8 0 0
0.581001 0.547494 0.409839 0.8 0 0
0.339449 0.241655 0.337912 0.8 0 0
0.550109 0.541387 0.181934 0.8 0 0
0.552778 0.686510 0.223303 0.8 0 0
0.557486 0.100800 0.342440 0.8 0 0
0.542844 0.430289 0.472797 0.8 0 0
0.277136 0.577062 0.122524 0.8 0 0
0.492295 0.420262 0.545350 0.8 0 0
0.297019 0.329219 0.295793 0.8 0 0
0.254789 0.366785 0.320713 0.8 0 0
0.138767 0.358414 0.475731 0.8 0 0
0.050757 0.362055 0.128879 0.8 0 0
0.539361 0.379832 0.482537 0.8 0 0
0.451641 0.658921 0.030140 0.8 0 0
0.360713 0.199261 0.297765 0.8 0 0
0.446723 0.388433 0.097848 0.8 0 0
0.315980 0.325210 0.288204 0.8 0 0
0.551940 0.322215 0.306261 0.8 0 0
0.562993 0.829904 0.326778 0.8 0 0
0.514394 0.447344 0.101486 0.8 0 0
0.410786 0.073751 0.454403 0.8 0 0
0.121030 0.390203 0.191590 0.8 0 0
0.548805 0.545453 0.284712 0.8 0 0
0.417546 0.073751 0.191033 0.8 0 0
0.515399 0.353852 0.126404 0.8 0 0
0.564179 0.626516 0.473813 0.8 0 0
0.520815 0.739072 0.255953 0.8 0 0
0.213422 0.346991 0.226035 0.8 0 0
0.530493 0.334360 0.479704 0.8 0 0
0.519258 0.403936 0.357837 0.8 0 0
0.132714 0.083773 0.192310 0.8 0 0
0.312209 0.365654 0.449987 0.8 0 0
0.582338 0.895235 0.161105 0.8 0 0
0.447250 0.100800 0.528222 0.8 0 0
0.412512 0.087628 0.414540 0.8 0 0
0.158718 0.061102 0.166101 0.8 0 0
0.303717 0.403690 0.297884 0.8 0 0
0.243639 0.340487 0.336578 0.8 0 0
0.579119 0.888237 0.312375 0.8 0 0
0.308773 0.366246 0.353859 0.8 0 0
0.553919 0.777721 0.225768 0.8 0 0
0.237092 0.588333 0.512255 0.8 0 0
0.229048 0.343626 0.285267 0.8 0 0
0.278715 0.658921 0.080644 0.8 0 0
0.584607 0.533541 0.249760 0.8 0 0
0.587929 0.492643 0.451171 0.8 0 0
0.451853 0.061808 0.087917 0.8 0 0
0.419366 0.596023 0.513061 0.8 0 0
0.553214 0.743857 0.288344 0.8 0 0
0.417506 0.100800 0.313705 0.8 0 0
0.368548 0.091578 0.176035 0.8 0 0
0.045535 0.372895 0.305114 0.8 0 0
0.073296 0.345274 0.398650 0.8 0 0
0.262783 0.300977 0.213342 0.8 0 0
0.436531 0.383647 0.200242 0.8 0 0
0.362122 0.294231 0.441209 0.8 0 0
0.421973 0.658921 0.073969 0.8 0 0
0.579409 0.557161 0.307971 0.8 0 0
0.571210 0.416723 0.302740 0.8 0 0
0.558315 0.657888 0.312969 0.8 0 0
0.341170 0.361228 0.435302 0.8 0 0
0.521271 0.789880 0.293926 0.8 0 0
0.424772 0.055236 0.097094 0.8 0 0
0.524194 0.368240 0.405289 0.8 0 0
0.441997 0.428140 0.123259 0.8 0 0
0.351187 0.280537 0.398402 0.8 0 0
0.549895 0.450058 0.352095 0.8 0 0
0.529351 0.828703 0.321379 0.8 0 0
0.462663 0.444456 0.090823 0.8 0 0
0.368068 0.314144 0.323126 0.8 0 0
0.550976 0.536298 0.224301 0.8 0 0
0.369079 0.626422 0.565341 0.8 0 0
0.154185 0.336605 0.218755 0.8 0 0
0.570184 0.602182 0.267498 0.8 0 0
0.241807 0.402694 0.320719 0.8 0 0
0.436361 0.444255 0.090727 0.8 0 0
0.270776 0.614825 0.089980 0.8 0 0
0.455585 0.383033 0.230010 0.8 0 0
0.327315 0.073751 0.298802 0.8 0 0
0.388655 0.298733 0.321705 0.8 0 0
0.462844 0.378757 0.136091 0.8 0 0
0.303887 0.656200 0.535038 0.8 0 0
0.424005 0.658921 0.086881 0.8 0 0
0.421959 0.348817 0.485059 0.8 0 0
0.281032 0.627044 0.122357 0.8 0 0
0.335185 0.398810 0.351640 0.8 0 0
0.524265 0.808454 0.357570 0.8 0 0
0.478932 0.423242 0.513287 0.8 0 0
0.495876 0.356274 0.426587 0.8 0 0
0.301769 0.367366 0.285359 0.8 0 0
0.039828 0.371458 0.187657 0.8 0 0
0.226597 0.312771 0.272089 0.8 0 0
0.247131 0.402813 0.290543 0.8 0 0
0.377855 0.078329 0.493259 0.8 0 0
0.533556 0.615050 0.483558 0.8 0 0
0.354248 0.100800 0.416691 0.8 0 0
0.181050 0.365018 0.469444 0.8 0 0
0.149121 0.043180 0.159155 0.8 0 0
0.572677 0.590454 0.252995 0.8 0 0
0.310643 0.285223 0.247613 0.8 0 0
0.561821 0.935674 0.304185 0.8 0 0
0.040031 0.340376 0.432081 0.8 0 0
0.470019 0.315628 0.436886 0.8 0 0
0.163753 0.100800 0.214777 0.8 0 0
0.496047 0.384491 0.541284 0.8 0 0
0.555030 0.672180 0.381108 0.8 0 0
0.519066 0.100014 0.346934 0.8 0 0
0.277946 0.403528 0.364507 0.8 0 0
0.361226 0.497002 0.090378 0.8 0 0
0.370030 0.479302 0.545326 0.8 0 0
0.422262 0.100800 0.124986 0.8 0 0
0.289269 0.073751 0.348169 0.8 0 0
0.523398 0.667406 0.329289 0.8 0 0
0.523671 0.667474 0.263392 0.8 0 0
0.122520 0.058192 0.461071 0.8 0 0
0.580548 0.366060 0.143037 0.8 0 0
0.338172 0.320574 0.219204 0.8 0 0
0.562334 0.635525 0.463990 0.8 0 0
0.428233 0.100800 0.535698 0.8 0 0
0.405562 0.351343 0.464754 0.8 0 0
0.523333 0.670863 0.178040 0.8 0 0
0.342415 0.397738 0.288142 0.8 0 0
0.098953 0.350357 0.350861 0.8 0 0
0.520137 0.744011 0.429466 0.8 0 0
0.573305 0.588474 0.207334 0.8 0 0
0.428904 0.348580 0.460526 0.8 0 0
0.552325 0.529294 0.245017 0.8 0 0
0.331271 0.131492 0.308779 0.8 0 0
0.563743 0.631813 0.317897 0.8 0 0
0.271309 0.626422 0.061648 0.8 0 0
0.339545 0.545547 0.545182 0.8 0 0
0.528121 0.642899 0.412404 0.8 0 0
0.465443 0.580061 0.090837 0.8 0 0
0.236847 0.100800 0.387434 0.8 0 0
0.574023 0.967080 0.494908 0.8 0 0
0.394792 0.389548 0.480070 0.8 0 0
0.387606 0.292417 0.309638 0.8 0 0
0.555908 0.672250 0.180137 0.8 0 0
0.325572 0.363696 0.320040 0.8 0 0
0.584882 0.045648 0.341148 0.8 0 0
0.307722 0.073751 0.375567 0.8 0 0
0.413323 0.411309 0.513054 0.8 0 0
0.553882 0.755208 0.169940 0.8 0 0
0.582207 0.508289 0.502932 0.8 0 0
0.575746 0.969480 0.426042 0.8 0 0
0.518250 0.436986 0.091900 0.8 0 0
0.548067 0.545616 0.444030 0.8 0 0
0.592482 0.926111 0.431029 0.8 0 0
0.432705 0.439027 0.513099 0.8 0 0
0.418633 0.385983 0.318326 0.8 0 0
0.158714 0.390926 0.130776 0.8 0 0
0.485510 0.387360 0.542123 0.8 0 0
0.527019 0.088547 0.290176 0.8 0 0
0.180826 0.353779 0.349930 0.8 0 0
0.324450 0.563929 0.545110 0.8 0 0
0.501438 0.323635 0.435168 0.8 0 0
0.528364 0.413001 0.208424 0.8 0 0
0.554061 0.677862 0.331527 0.8 0 0
0.244255 0.366525 0.269764 0.8 0 0
0.233147 0.591086 0.122317 0.8 0 0
0.439306 0.502901 0.090727 0.8 0 0
0.178532 0.100800 0.216373 0.8 0 0
0.559876 0.648016 0.429646 0.8 0 0
0.559142 0.650769 0.465152 0.8 0 0
0.603717 0.962296 0.232809 0.8 0 0
0.507926 0.392800 0.138995 0.8 0 0
0.238030 0.623255 0.512268 0.8 0 0
0.561070 0.457494 0.505536 0.8 0 0
0.120201 0.037928 0.460107 0.8 0 0
0.095925 0.371178 0.128790 0.8 0 0
0.571359 0.592225 0.474147 0.8 0 0
0.474879 0.417900 0.545775 0.8 0 0
0.335427 0.321095 0.283148 0.8 0 0
0.287259 0.073751 0.301253 0.8 0 0
0.269196 0.577790 0.544883 0.8 0 0
0.559646 0.655044 0.146874 0.8 0 0
0.545200 0.565070 0.183842 0.8 0 0
0.185088 0.401400 0.404197 0.8 0 0
0.462621 0.498098 0.513237 0.8 0 0
0.558579 0.653583 0.459100 0.8 0 0
0.627332 0.089729 0.298955 0.8 0 0
0.579769 0.556478 0.256967 0.8 0 0
0.520245 0.682689 0.328379 0.8 0 0
0.549622 0.903486 0.409773 0.8 0 0
0.403642 0.080573 0.069526 0.8 0 0
0.274239 0.298190 0.425751 0.8 0 0
0.544244 0.566030 0.357216 0.8 0 0
0.522297 0.406556 0.222928 0.8 0 0
0.252124 0.402914 0.148337 0.8 0 0
0.427915 0.034414 0.059839 0.8 0 0
0.530287 0.356716 0.102885 0.8 0 0
0.509601 0.360385 0.402100 0.8 0 0
0.450885 0.658921 0.046437 0.8 0 0
0.533292 0.846718 0.421000 0.8 0 0
0.413413 0.386853 0.218017 0.8 0 0
0.578366 0.972114 0.473946 0.8 0 0
0.214041 0.346682 0.415312 0.8 0 0
0.477945 0.648570 0.052955 0.8 0 0
0.254695 0.397901 0.131949 0.8 0 0
0.377848 0.100800 0.225034 0.8 0 0
0.459048 0.414525 0.112554 0.8 0 0
0.503010 0.480024 0.545916 0.8 0 0
0.531426 0.625438 0.479753 0.8 0 0
0.145502 0.359666 0.368706 0.8 0 0
0.581243 0.974529 0.411262 0.8 0 0
0.573655 0.581640 0.455613 0.8 0 0
0.341270 0.460441 0.512703 0.8 0 0
0.219376 0.073751 0.410562 0.8 0 0
0.443778 0.390256 0.115096 0.8 0 0
0.556349 0.487545 0.241570 0.8 0 0
0.442526 0.529672 0.123235 0.8 0 0
0.407733 0.502900 0.123068 0.8 0 0
0.419320 0.302889 0.196714 0.8 0 0
0.540937 0.582201 0.344130 0.8 0 0
0.578829 0.886235 0.208553 0.8 0 0
0.473919 0.349480 0.300378 0.8 0 0
0.214582 0.346582 0.399349 0.8 0 0
0.305142 0.658921 0.044698 0.8 0 0
0.276971 0.626422 0.065675 0.8 0 0
0.534788 0.850906 0.313135 0.8 0 0
0.241911 0.320425 0.209045 0.8 0 0
0.344480 0.510141 0.122798 0.8 0 0
0.592552 0.949590 0.132365 0.8 0 0
0.540012 0.788610 0.506319 0.8 0 0
0.491320 0.356842 0.496511 0.8 0 0
0.570888 0.596625 0.373351 0.8 0 0
0.264768 0.073751 0.356909 0.8 0 0
0.143989 0.357682 0.335325 0.8 0 0
0.586132 0.527750 0.175427 0.8 0 0
0.358236 0.073751 0.315791 0.8 0 0
0.230345 0.602205 0.114939 0.8 0 0
0.375593 0.392541 0.423607 0.8 0 0
0.525442 0.658287 0.293904 0.8 0 0
0.358250 0.437559 0.102039 0.8 0 0
0.239179 0.613933 0.089842 0.8 0 0
0.539359 0.327115 0.474799 0.8 0 0
0.527775 0.649100 0.192516 0.8 0 0
0.419083 0.457275 0.090638 0.8 0 0
0.534267 0.395728 0.513377 0.8 0 0
0.566935 0.845169 0.304747 0.8 0 0
0.404865 0.100800 0.397722 0.8 0 0
0.390008 0.100800 0.415013 0.8 0 0
0.501975 0.393548 0.375714 0.8 0 0
0.066040 0.377777 0.452593 0.8 0 0
0.137946 0.092086 0.140323 0.8 0 0
0.288376 0.531161 0.122557 0.8 0 0
0.295087 0.367768 0.403386 0.8 0 0
0.155480 0.361722 0.441542 0.8 0 0
0.426944 0.585729 0.513091 0.8 0 0
0.412977 0.041984 0.057897 0.8 0 0
0.127787 0.048330 0.163636 0.8 0 0
0.552082 0.696549 0.408800 0.8 0 0
0.472516 0.658921 0.074129 0.8 0 0
0.116153 0.389140 0.253448 0.8 0 0
0.233199 0.581026 0.106552 0.8 0 0
0.140871 0.344843 0.270809 0.8 0 0
0.238664 0.554968 0.117328 0.8 0 0
0.546576 0.073751 0.304625 0.8 0 0
0.213462 0.346879 0.336566 0.8 0 0
0.051722 0.340931 0.357961 0.8 0 0
0.230241 0.638853 0.069523 0.8 0 0
0.313508 0.400520 0.139215 0.8 0 0
0.534079 0.612689 0.475288 0.8 0 0
0.520769 0.704575 0.168288 0.8 0 0
0.341564 0.184639 0.340798 0.8 0 0
0.520389 0.721538 0.305837 0.8 0 0
0.495495 0.355951 0.267412 0.8 0 0
0.554754 0.674395 0.337750 0.8 0 0
0.558809 0.656446 0.272215 0.8 0 0
0.124514 0.388749 0.497861 0.8 0 0
0.359987 0.395085 0.207205 0.8 0 0
0.469960 0.658921 0.076361 0.8 0 0
0.533314 0.331056 0.490715 0.8 0 0
0.550590 0.533265 0.450502 0.8 0 0
0.213136 0.317086 0.347196 0.8 0 0
0.553229 0.710299 0.189423 0.8 0 0
0.588244 0.974681 0.346573 0.8 0 0
0.146126 0.362699 0.135391 0.8 0 0
0.552794 0.759244 0.426781 0.8 0 0
0.244627 0.626422 0.545950 0.8 0 0
0.435095 0.348619 0.354574 0.8 0 0
0.567719 0.605365 0.140334 0.8 0 0
0.537385 0.599242 0.356990 0.8 0 0
0.215895 0.365835 0.232387 0.8 0 0
0.534594 0.615391 0.229276 0.8 0 0
0.371536 0.313315 0.423277 0.8 0 0
0.143001 0.100800 0.454683 0.8 0 0
0.452400 0.100800 0.319678 0.8 0 0
0.138409 0.090787 0.196495 0.8 0 0
0.552257 0.529640 0.245609 0.8 0 0
0.454294 0.619904 0.123286 0.8 0 0
0.157682 0.361966 0.221219 0.8 0 0
0.583104 0.899400 0.336558 0.8 0 0
0.482633 0.352073 0.269948 0.8 0 0
0.361561 0.394839 0.214077 0.8 0 0
0.525938 0.652652 0.448466 0.8 0 0
0.608776 0.077985 0.346742 0.8 0 0
0.422470 0.073751 0.134795 0.8 0 0
0.557352 0.354606 0.157126 0.8 0 0
0.564672 0.331678 0.289001 0.8 0 0
0.576274 0.574601 0.189024 0.8 0 0
0.533762 0.614803 0.447151 0.8 0 0
0.543660 0.568649 0.366987 0.8 0 0
0.553458 0.519876 0.429166 0.8 0 0
0.543447 0.382240 0.287893 0.8 0 0
0.101270 0.350892 0.436576 0.8 0 0
0.534009 0.616498 0.312911 0.8 0 0
0.578311 0.564559 0.203185 0.8 0 0
0.560868 0.636642 0.494589 0.8 0 0
0.026023 0.351821 0.273427 0.8 0 0
0.555987 0.483719 0.346541 0.8 0 0
0.260543 0.080220 0.215587 0.8 0 0
0.324771 0.658921 0.567959 0.8 0 0
0.587514 0.503319 0.390721 0.8 0 0
0.301653 0.489032 0.512536 0.8 0 0
0.567112 0.393572 0.535372 0.8 0 0
0.295238 0.329574 0.319741 0.8 0 0
0.324799 0.456915 0.117097 0.8 0 0
0.405047 0.414359 0.513828 0.8 0 0
0.425114 0.348546 0.162487 0.8 0 0
0.427500 0.071987 0.068928 0.8 0 0
0.554591 0.432273 0.506053 0.8 0 0
0.459879 0.414496 0.513221 0.8 0 0
0.087373 0.348057 0.365835 0.8 0 0
0.576719 0.880574 0.217110 0.8 0 0
0.553347 0.721005 0.193136 0.8 0 0
0.176118 0.354877 0.242717 0.8 0 0
0.553203 0.773310 0.374656 0.8 0 0
0.567969 0.953582 0.395495 0.8 0 0
0.027274 0.363584 0.329722 0.8 0 0
0.156158 0.398542 0.429193 0.8 0 0
0.460981 0.544276 0.545730 0.8 0 0
0.581213 0.895259 0.424455 0.8 0 0
0.271996 0.100800 0.343522 0.8 0 0
0.498166 0.415169 0.123594 0.8 0 0
0.287921 0.403745 0.240686 0.8 0 0
0.343216 0.319359 0.374635 0.8 0 0
0.420989 0.415793 0.123163 0.8 0 0
0.517002 0.401762 0.410055 0.8 0 0
0.319074 0.364581 0.481290 0.8 0 0
0.593488 0.933326 0.494869 0.8 0 0
0.294358 0.100800 0.333464 0.8 0 0
0.513864 0.414702 0.093447 0.8 0 0
0.608109 0.073751 0.340358 0.8 0 0
0.383805 0.645796 0.520422 0.8 0 0
0.453582 0.049573 0.090841 0.8 0 0
0.552176 0.686277 0.359033 0.8 0 0
0.516482 0.494334 0.545929 0.8 0 0
0.316262 0.567050 0.090193 0.8 0 0
0.595701 0.934958 0.435686 0.8 0 0
0.391079 0.626422 0.593897 0.8 0 0
0.520823 0.727099 0.219874 0.8 0 0
0.113604 0.355876 0.136089 0.8 0 0
0.142815 0.055967 0.476509 0.8 0 0
0.170395 0.401066 0.436966 0.8 0 0
0.071446 0.344976 0.483056 0.8 0 0
0.562205 0.640952 0.238031 0.8 0 0
0.520604 0.770407 0.394973 0.8 0 0
0.426413 0.409294 0.092002 0.8 0 0
0.254789 0.403009 0.490567 0.8 0 0
0.498435 0.372575 0.507199 0.8 0 0
0.512158 0.482532 0.091036 0.8 0 0
0.477133 0.639051 0.572547 0.8 0 0
0.144645 0.048201 0.494147 0.8 0 0
0.501910 0.362488 0.538916 0.8 0 0
0.553396 0.348324 0.520490 0.8 0 0
0.349790 0.085273 0.405095 0.8 0 0
0.298763 0.073751 0.333915 0.8 0 0
0.554283 0.913965 0.219585 0.8 0 0
0.520966 0.755211 0.266415 0.8 0 0
0.520682 0.716825 0.223587 0.8 0 0
0.520127 0.699899 0.305657 0.8 0 0
0.155792 0.359075 0.356469 0.8 0 0
0.563496 0.636123 0.170571 0.8 0 0
0.552901 0.525548 0.290947 0.8 0 0
0.264284 0.403218 0.402739 0.8 0 0
0.208774 0.365681 0.402758 0.8 0 0
0.549161 0.346202 0.409101 0.8 0 0
0.359146 0.280537 0.321586 0.8 0 0
0.391773 0.100800 0.294256 0.8 0 0
0.437264 0.046666 0.078159 0.8 0 0
0.553239 0.790673 0.415802 0.8 0 0
0.293036 0.290758 0.415583 0.8 0 0
0.610194 0.062797 0.322040 0.8 0 0
0.290021 0.626422 0.054295 0.8 0 0
0.428440 0.092530 0.587576 0.8 0 0
0.258793 0.518581 0.118199 0.8 0 0
0.569082 0.602935 0.482262 0.8 0 0
0.263483 0.570035 0.122468 0.8 0 0
0.548589 0.447292 0.443914 0.8 0 0
0.079881 0.346463 0.250970 0.8 0 0
0.408296 0.073751 0.222022 0.8 0 0
0.573458 0.874019 0.478482 0.8 0 0
0.553291 0.716647 0.193549 0.8 0 0
0.470023 0.382542 0.437133 0.8 0 0
0.530033 0.636723 0.263785 0.8 0 0
0.520517 0.723318 0.281033 0.8 0 0
0.479343 0.658387 0.074594 0.8 0 0
0.468414 0.313868 0.438109 0.8 0 0
0.536816 0.395037 0.507022 0.8 0 0
0.533225 0.617237 0.456563 0.8 0 0
0.403166 0.083284 0.252661 0.8 0 0
0.579100 0.888998 0.382270 0.8 0 0
0.377591 0.358236 0.498529 0.8 0 0
0.482099 0.385526 0.480927 0.8 0 0
0.602063 0.952872 0.482089 0.8 0 0
0.257292 0.626422 0.570508 0.8 0 0
0.458025 0.073751 0.292840 0.8 0 0
0.407334 0.626422 0.572669 0.8 0 0
0.480726 0.448191 0.513296 0.8 0 0
0.440064 0.626422 0.083128 0.8 0 0
0.520495 0.792748 0.484617 0.8 0 0
0.483916 0.308940 0.202261 0.8 0 0
0.522018 0.406597 0.294410 0.8 0 0
0.314543 0.584093 0.122686 0.8 0 0
0.338381 0.320499 0.252452 0.8 0 0
0.333158 0.227438 0.329333 0.8 0 0
0.428452 0.384496 0.280892 0.8 0 0
0.552801 0.724368 0.325925 0.8 0 0
0.555230 0.672783 0.306442 0.8 0 0
0.588414 0.490220 0.376909 0.8 0 0
0.549994 0.540957 0.226360 0.8 0 0
0.157090 0.398794 0.466419 0.8 0 0
0.564728 0.406857 0.342860 0.8 0 0
0.554932 0.518685 0.152641 0.8 0 0
0.570014 0.857392 0.304269 0.8 0 0
0.410906 0.387114 0.407705 0.8 0 0
0.559477 0.890406 0.507368 0.8 0 0
0.581199 0.973509 0.172458 0.8 0 0
0.218721 0.402167 0.356975 0.8 0 0
0.547659 0.553428 0.171041 0.8 0 0
0.380814 0.391756 0.395070 0.8 0 0
0.208374 0.365646 0.163907 0.8 0 0
0.359687 0.315958 0.281522 0.8 0 0
0.579193 0.342718 0.347025 0.8 0 0
0.058370 0.376020 0.465347 0.8 0 0
0.521403 0.750856 0.151364 0.8 0 0
0.302262 0.328074 0.332380 0.8 0 0
0.552503 0.758082 0.489008 0.8 0 0
0.284684 0.594587 0.512464 0.8 0 0
0.305847 0.655747 0.101817 0.8 0 0
0.272724 0.403415 0.438105 0.8 0 0
0.340459 0.073751 0.350299 0.8 0 0
0.545309 0.806695 0.131092 0.8 0 0
0.358458 0.437457 0.114576 0.8 0 0
0.560885 0.363673 0.110288 0.8 0 0
0.237473 0.586621 0.089840 0.8 0 0
0.565459 0.358075 0.170733 0.8 0 0
0.566478 0.359265 0.291969 0.8 0 0
0.122133 0.355068 0.447629 0.8 0 0
0.574373 0.339469 0.457043 0.8 0 0
0.520061 0.683418 0.336322 0.8 0 0
0.524866 0.663764 0.162295 0.8 0 0
0.525063 0.771728 0.504097 0.8 0 0
0.394395 0.353110 0.380536 0.8 0 0
0.296391 0.619635 0.090093 0.8 0 0
0.321693 0.497356 0.122697 0.8 0 0
0.345964 0.397272 0.164812 0.8 0 0
0.595241 0.933752 0.439999 0.8 0 0
0.165148 0.357093 0.357045 0.8 0 0
0.376149 0.281910 0.362399 0.8 0 0
0.223922 0.344584 0.420444 0.8 0 0
0.465253 0.307609 0.200705 0.8 0 0
0.556092 0.486873 0.305458 0.8 0 0
0.566997 0.615746 0.347886 0.8 0 0
0.257853 0.073751 0.220512 0.8 0 0
0.550174 0.628947 0.130024 0.8 0 0
0.588194 0.488914 0.445132 0.8 0 0
0.435750 0.566823 0.123195 0.8 0 0
0.558525 0.927432 0.371741 0.8 0 0
0.397849 0.389240 0.232292 0.8 0 0
0.033612 0.368533 0.359667 0.8 0 0
0.389088 0.093641 0.113698 0.8 0 0
0.578785 0.559980 0.315933 0.8 0 0
0.061626 0.342988 0.451961 0.8 0 0
0.140125 0.349310 0.278541 0.8 0 0
0.242757 0.402701 0.167559 0.8 0 0
0.553932 0.518491 0.386371 0.8 0 0
0.541108 0.380258 0.217533 0.8 0 0
0.371404 0.393302 0.245652 0.8 0 0
0.539718 0.589635 0.272102 0.8 0 0
0.396806 0.621405 0.090532 0.8 0 0
0.234690 0.366286 0.197382 0.8 0 0
0.136381 0.100800 0.179456 0.8 0 0
0.332522 0.321721 0.272675 0.8 0 0
0.436681 0.626422 0.593186 0.8 0 0
0.568801 0.609784 0.215927 0.8 0 0
0.163064 0.357517 0.375301 0.8 0 0
0.174854 0.364853 0.328472 0.8 0 0
0.555891 0.469976 0.440913 0.8 0 0
0.585247 0.452542 0.146331 0.8 0 0
0.570529 0.959592 0.309626 0.8 0 0
0.080663 0.346697 0.341977 0.8 0 0
0.534651 0.853498 0.485718 0.8 0 0
0.455676 0.626422 0.576522 0.8 0 0
0.306071 0.403236 0.437783 0.8 0 0
0.530855 0.628407 0.470823 0.8 0 0
0.303708 0.366945 0.466742 0.8 0 0
0.570571 0.335964 0.250756 0.8 0 0
0.136412 0.083905 0.493401 0.8 0 0
0.173110 0.330189 0.370152 0.8 0 0
0.552728 0.336005 0.506806 0.8 0 0
0.079441 0.346311 0.178155 0.8 0 0
0.249449 0.599297 0.089886 0.8 0 0
0.570964 0.545711 0.131282 0.8 0 0
0.301227 0.404028 0.367262 0.8 0 0
0.582460 0.351668 0.496934 0.8 0 0
0.247650 0.339756 0.209987 0.8 0 0
0.581539 0.523866 0.133442 0.8 0 0
0.568967 0.561729 0.505092 0.8 0 0
0.592043 0.974478 0.380800 0.8 0 0
0.101893 0.350826 0.215702 0.8 0 0
0.419877 0.100800 0.558409 0.8 0 0
0.558876 0.656441 0.254551 0.8 0 0
0.552430 0.091762 0.290289 0.8 0 0
0.168049 0.087979 0.218274 0.8 0 0
0.540284 0.871441 0.198438 0.8 0 0
0.338668 0.361769 0.200976 0.8 0 0
0.204398 0.100800 0.397262 0.8 0 0
0.518263 0.377128 0.130898 0.8 0 0
0.293405 0.514681 0.512505 0.8 0 0
0.522760 0.672322 0.241821 0.8 0 0
0.384382 0.308306 0.332628 0.8 0 0
0.335274 0.398813 0.325059 0.8 0 0
0.395221 0.658921 0.048445 0.8 0 0
0.581169 0.363724 0.279056 0.8 0 0
0.280187 0.367387 0.207509 0.8 0 0
0.235435 0.342311 0.244324 0.8 0 0
0.265581 0.367060 0.455189 0.8 0 0
0.373361 0.459962 0.090458 0.8 0 0
0.468791 0.348846 0.288360 0.8 0 0
0.348844 0.318142 0.401945 0.8 0 0
0.588510 0.502057 0.177775 0.8 0 0
0.475205 0.378482 0.541265 0.8 0 0
0.377993 0.355591 0.428173 0.8 0 0
0.546158 0.553890 0.490913 0.8 0 0
0.582860 0.538624 0.410756 0.8 0 0
0.544084 0.887660 0.358332 0.8 0 0
0.129100 0.050708 0.470177 0.8 0 0
0.542082 0.574436 0.451571 0.8 0 0
0.538124 0.379427 0.099281 0.8 0 0
0.540468 0.585847 0.279668 0.8 0 0
0.477474 0.383516 0.426057 0.8 0 0
0.569598 0.956217 0.238837 0.8 0 0
0.418987 0.100800 0.133677 0.8 0 0
0.588103 0.498476 0.327998 0.8 0 0
0.071225 0.344831 0.364460 0.8 0 0
0.632784 0.087998 0.311515 0.8 0 0
0.375181 0.073751 0.450987 0.8 0 0
0.477313 0.650720 0.525850 0.8 0 0
0.532686 0.841039 0.243951 0.8 0 0
0.284199 0.293829 0.298747 0.8 0 0
0.428129 0.351365 0.136666 0.8 0 0
0.521049 0.788961 0.343535 0.8 0 0
0.490458 0.439711 0.090955 0.8 0 0
0.444490 0.085646 0.346603 0.8 0 0
0.580105 0.431065 0.144490 0.8 0 0
0.556876 0.667057 0.205347 0.8 0 0
0.440886 0.348653 0.163341 0.8 0 0
0.380604 0.355230 0.370812 0.8 0 0
0.519660 0.403508 0.177595 0.8 0 0
0.542258 0.576193 0.326576 0.8 0 0
0.563255 0.631888 0.426496 0.8 0 0
0.029389 0.345756 0.465196 0.8 0 0
0.211522 0.317730 0.262783 0.8 0 0
0.510826 0.397289 0.420465 0.8 0 0
0.353023 0.317428 0.219699 0.8 0 0
0.540600 0.873827 0.257631 0.8 0 0
0.546736 0.554509 0.328496 0.8 0 0
0.430415 0.051122 0.059182 0.8 0 0
0.028816 0.347455 0.268657 0.8 0 0
0.259427 0.567528 0.512333 0.8 0 0
0.206568 0.401880 0.269488 0.8 0 0
0.508277 0.429280 0.513353 0.8 0 0
0.520536 0.750393 0.353848 0.8 0 0
0.552307 0.524713 0.463539 0.8 0 0
0.175127 0.401154 0.225392 0.8 0 0
0.402030 0.073751 0.344063 0.8 0 0
0.525913 0.680401 0.133367 0.8 0 0
0.550086 0.435565 0.134513 0.8 0 0
0.414818 0.419836 0.530428 0.8 0 0
0.435418 0.100800 0.062280 0.8 0 0
0.430859 0.317303 0.202947 0.8 0 0
0.488160 0.353987 0.459973 0.8 0 0
0.308958 0.285706 0.295715 0.8 0 0
0.408926 0.550518 0.123082 0.8 0 0
0.521377 0.750741 0.157213 0.8 0 0
0.459130 0.380244 0.114332 0.8 0 0
0.569954 0.599728 0.437479 0.8 0 0
0.271447 0.298033 0.286027 0.8 0 0
0.570151 0.362265 0.336931 0.8 0 0
0.561471 0.341815 0.130061 0.8 0 0
0.088994 0.348348 0.327115 0.8 0 0
0.444695 0.383362 0.375562 0.8 0 0
0.478133 0.350825 0.356247 0.8 0 0
0.388718 0.354090 0.212064 0.8 0 0
0.328215 0.322585 0.323282 0.8 0 0
0.554704 0.513785 0.431942 0.8 0 0
0.521242 0.678702 0.288187 0.8 0 0
0.287808 0.331056 0.416613 0.8 0 0
0.606149 0.056046 0.310800 0.8 0 0
0.587206 0.514445 0.293835 0.8 0 0
0.309880 0.489210 0.512573 0.8 0 0
0.572685 0.965668 0.324126 0.8 0 0
0.346428 0.605257 0.512737 0.8 0 0
0.524688 0.410371 0.490146 0.8 0 0
0.442251 0.067357 0.065049 0.8 0 0
0.510795 0.100800 0.328433 0.8 0 0
0.427784 0.305157 0.439442 0.8 0 0
0.026641 0.352846 0.155362 0.8 0 0
0.061980 0.345821 0.134976 0.8 0 0
0.562812 0.356085 0.190643 0.8 0 0
0.420667 0.439266 0.513052 0.8 0 0
0.540593 0.584607 0.494136 0.8 0 0
0.262031 0.366948 0.208865 0.8 0 0
0.233360 0.380233 0.128716 0.8 0 0
0.349021 0.073751 0.397408 0.8 0 0
0.466900 0.626422 0.596071 0.8 0 0
0.412339 0.590761 0.123099 0.8 0 0
0.063238 0.343092 0.195361 0.8 0 0
0.226058 0.402335 0.347730 0.8 0 0
0.323745 0.400570 0.352669 0.8 0 0
0.554907 0.672978 0.370118 0.8 0 0
0.560109 0.650181 0.274833 0.8 0 0
0.251195 0.402911 0.336076 0.8 0 0
0.551581 0.532342 0.272145 0.8 0 0
0.420812 0.385535 0.489640 0.8 0 0
0.462146 0.377153 0.533578 0.8 0 0
0.521824 0.406555 0.329273 0.8 0 0
0.218797 0.402169 0.351612 0.8 0 0
0.548883 0.321653 0.257882 0.8 0 0
0.284350 0.331909 0.288331 0.8 0 0
0.289083 0.330880 0.317308 0.8 0 0
0.153486 0.397799 0.300059 0.8 0 0
0.443504 0.049453 0.065640 0.8 0 0
0.387967 0.626422 0.608779 0.8 0 0
0.570530 0.598361 0.372154 0.8 0 0
0.553687 0.751673 0.203978 0.8 0 0
0.550535 0.547747 0.141147 0.8 0 0
0.269169 0.086449 0.221923 0.8 0 0
0.258137 0.622179 0.544807 0.8 0 0
0.477127 0.640396 0.573580 0.8 0 0
0.559560 0.652535 0.284382 0.8 0 0
0.528362 0.417322 0.542843 0.8 0 0
0.290427 0.330585 0.328046 0.8 0 0
0.551221 0.908159 0.434817 0.8 0 0
0.553419 0.523701 0.260062 0.8 0 0
0.519668 0.684615 0.370507 0.8 0 0
0.387519 0.390721 0.399267 0.8 0 0
0.556331 0.645321 0.500491 0.8 0 0
0.126264 0.090584 0.445932 0.8 0 0
0.438639 0.073751 0.051049 0.8 0 0
0.072693 0.379234 0.374126 0.8 0 0
0.549306 0.391768 0.501887 0.8 0 0
0.559492 0.364132 0.143073 0.8 0 0
0.578110 0.565337 0.211752 0.8 0 0
0.461857 0.073751 0.337321 0.8 0 0
0.197121 0.322258 0.405449 0.8 0 0
0.412158 0.626422 0.075476 0.8 0 0
0.254053 0.527256 0.092686 0.8 0 0
0.133859 0.393344 0.373783 0.8 0 0
0.261133 0.336733 0.388220 0.8 0 0
0.567697 0.951447 0.276327 0.8 0 0
0.243269 0.340527 0.377350 0.8 0 0
0.460910 0.303692 0.201894 0.8 0 0
0.327412 0.235538 0.321495 0.8 0 0
0.576208 0.572092 0.325444 0.8 0 0
0.552925 0.680685 0.454224 0.8 0 0
0.485771 0.352887 0.169386 0.8 0 0
0.584427 0.901347 0.195802 0.8 0 0
0.342808 0.163683 0.293243 0.8 0 0
0.509518 0.358462 0.099243 0.8 0 0
0.460691 0.658921 0.590944 0.8 0 0
0.520335 0.729568 0.341578 0.8 0 0
0.461604 0.504396 0.123328 0.8 0 0
0.575840 0.576786 0.185638 0.8 0 0
0.386845 0.473663 0.090510 0.8 0 0
0.554286 0.778893 0.146331 0.8 0 0
0.359048 0.658921 0.552189 0.8 0 0
0.341646 0.135264 0.340909 0.8 0 0
0.032483 0.342658 0.342526 0.8 0 0
0.393119 0.621316 0.545435 0.8 0 0
0.372519 0.650095 0.524672 0.8 0 0
0.513925 0.396368 0.502672 0.8 0 0
0.519597 0.073751 0.317132 0.8 0 0
0.318401 0.109607 0.308719 0.8 0 0
0.050627 0.362453 0.504057 0.8 0 0
0.534085 0.100800 0.316211 0.8 0 0
0.575535 0.876673 0.159837 0.8 0 0
0.586174 0.524058 0.347451 0.8 0 0
0.298556 0.073751 0.379918 0.8 0 0
0.390381 0.625975 0.123004 0.8 0 0
0.195395 0.322858 0.382213 0.8 0 0
0.297945 0.289237 0.353322 0.8 0 0
0.497932 0.356874 0.538608 0.8 0 0
0.522125 0.464002 0.104627 0.8 0 0
0.468377 0.382627 0.197553 0.8 0 0
0.535023 0.376103 0.335925 0.8 0 0
0.521740 0.792046 0.189633 0.8 0 0
0.284252 0.490094 0.544950 0.8 0 0
0.343767 0.553789 0.090299 0.8 0 0
0.468615 0.558213 0.090855 0.8 0 0
0.497859 0.354978 0.117732 0.8 0 0
0.555870 0.509502 0.236652 0.8 0 0
0.151868 0.073751 0.178120 0.8 0 0
0.395009 0.073751 0.483521 0.8 0 0
0.352596 0.309882 0.202094 0.8 0 0
0.588559 0.471732 0.351269 0.8 0 0
0.273530 0.622391 0.544878 0.8 0 0
0.201760 0.073751 0.418472 0.8 0 0
0.450478 0.366515 0.129676 0.8 0 0
0.074132 0.345258 0.185717 0.8 0 0
0.451691 0.540524 0.123278 0.8 0 0
0.453695 0.658921 0.575682 0.8 0 0
0.026592 0.361424 0.386003 0.8 0 0
0.241405 0.402681 0.278713 0.8 0 0
0.467938 0.626422 0.583010 0.8 0 0
0.256343 0.551034 0.089938 0.8 0 0
0.385290 0.507075 0.090495 0.8 0 0
0.488437 0.353855 0.292626 0.8 0 0
0.519750 0.722217 0.458025 0.8 0 0
0.283237 0.304221 0.209221 0.8 0 0
0.498530 0.566769 0.123478 0.8 0 0
0.224552 0.366045 0.244314 0.8 0 0
0.538341 0.598402 0.173736 0.8 0 0
0.418306 0.349538 0.238417 0.8 0 0
0.537294 0.607512 0.143351 0.8 0 0
0.122545 0.390765 0.405424 0.8 0 0
0.553737 0.746445 0.177778 0.8 0 0
0.586618 0.910065 0.428296 0.8 0 0
0.384843 0.286195 0.295953 0.8 0 0
0.553534 0.677278 0.477084 0.8 0 0
0.524603 0.664142 0.206382 0.8 0 0
0.155019 0.359329 0.260949 0.8 0 0
0.386548 0.106071 0.339261 0.8 0 0
0.561519 0.641461 0.364695 0.8 0 0
0.560546 0.931567 0.253111 0.8 0 0
0.465854 0.537733 0.090845 0.8 0 0
0.561442 0.640413 0.435395 0.8 0 0
0.552696 0.684307 0.334664 0.8 0 0
0.419019 0.349356 0.349696 0.8 0 0
0.231182 0.636283 0.589020 0.8 0 0
0.027500 0.361148 0.173566 0.8 0 0
0.144539 0.340573 0.411138 0.8 0 0
0.357296 0.159394 0.338960 0.8 0 0
0.047758 0.361060 0.504269 0.8 0 0
0.558707 0.525336 0.504593 0.8 0 0
0.440108 0.100800 0.075840 0.8 0 0
0.089102 0.382838 0.195099 0.8 0 0
0.445221 0.511488 0.090754 0.8 0 0
0.568351 0.412746 0.374263 0.8 0 0
0.345761 0.515794 0.545232 0.8 0 0
0.173281 0.330290 0.254414 0.8 0 0
0.186560 0.352577 0.336680 0.8 0 0
0.327186 0.551646 0.545112 0.8 0 0
0.272835 0.297461 0.365984 0.8 0 0
0.178831 0.401257 0.414430 0.8 0 0
0.531485 0.626886 0.399691 0.8 0 0
0.555895 0.469614 0.441854 0.8 0 0
0.146121 0.358820 0.296359 0.8 0 0
0.557454 0.394361 0.183026 0.8 0 0
0.533431 0.383008 0.504338 0.8 0 0
0.170924 0.330891 0.381664 0.8 0 0
0.367363 0.433185 0.543910 0.8 0 0
0.269662 0.367150 0.374018 0.8 0 0
0.112251 0.352887 0.208023 0.8 0 0
0.488137 0.314136 0.200904 0.8 0 0
0.534640 0.337862 0.151965 0.8 0 0
0.076582 0.380226 0.470674 0.8 0 0
0.525961 0.654362 0.360206 0.8 0 0
0.523173 0.668308 0.339739 0.8 0 0
0.569584 0.855898 0.316978 0.8 0 0
0.412510 0.073751 0.058886 0.8 0 0
0.502959 0.449505 0.123496 0.8 0 0
0.549265 0.766812 0.135095 0.8 0 0
0.574459 0.365205 0.213616 0.8 0 0
0.527924 0.824199 0.398199 0.8 0 0
0.264184 0.100800 0.286038 0.8 0 0
0.523261 0.665370 0.461604 0.8 0 0
0.441893 0.348669 0.478963 0.8 0 0
0.435457 0.073751 0.330094 0.8 0 0
0.541606 0.882173 0.487675 0.8 0 0
0.347220 0.318481 0.407258 0.8 0 0
0.460306 0.348789 0.325371 0.8 0 0
0.521183 0.466087 0.540161 0.8 0 0
0.414552 0.037300 0.582094 0.8 0 0
0.480925 0.620690 0.123400 0.8 0 0
0.213558 0.346978 0.208966 0.8 0 0
0.369007 0.656306 0.535719 0.8 0 0
0.403665 0.351672 0.407737 0.8 0 0
0.283303 0.403658 0.442720 0.8 0 0
0.489881 0.306971 0.426743 0.8 0 0
0.448224 0.589031 0.123254 0.8 0 0
0.270803 0.626422 0.595818 0.8 0 0
0.362933 0.100800 0.227266 0.8 0 0
0.219375 0.367087 0.140452 0.8 0 0
0.372840 0.441787 0.090449 0.8 0 0
0.551703 0.411371 0.506755 0.8 0 0
0.405168 0.424909 0.512989 0.8 0 0
0.575914 0.577075 0.153641 0.8 0 0
0.555555 0.501434 0.350677 0.8 0 0
0.106910 0.351960 0.368104 0.8 0 0
0.428999 0.495184 0.513097 0.8 0 0
0.178623 0.328358 0.386549 0.8 0 0
0.575837 0.432871 0.500657 0.8 0 0
0.263804 0.334648 0.209158 0.8 0 0
0.557637 0.659948 0.368700 0.8 0 0
0.543536 0.884948 0.259418 0.8 0 0
0.472845 0.349049 0.217482 0.8 0 0
0.242324 0.653171 0.033582 0.8 0 0
0.294036 0.607045 0.545004 0.8 0 0
0.438102 0.415959 0.121206 0.8 0 0
0.472245 0.348867 0.214709 0.8 0 0
0.385773 0.308863 0.437536 0.8 0 0
0.245548 0.340084 0.335278 0.8 0 0
0.242536 0.340651 0.410785 0.8 0 0
0.432195 0.301502 0.199083 0.8 0 0
0.454479 0.348754 0.471271 0.8 0 0
0.557050 0.922294 0.279773 0.8 0 0
0.139666 0.352349 0.291526 0.8 0 0
0.455371 0.348751 0.165112 0.8 0 0
0.317169 0.325019 0.223368 0.8 0 0
0.421779 0.517001 0.090650 0.8 0 0
0.564433 0.834432 0.257543 0.8 0 0
0.545899 0.436759 0.257479 0.8 0 0
0.529771 0.414300 0.163986 0.8 0 0
0.460546 0.435275 0.513225 0.8 0 0
0.340059 0.301836 0.432377 0.8 0 0
0.456393 0.506998 0.090811 0.8 0 0
0.289920 0.330600 0.425425 0.8 0 0
0.324174 0.363966 0.237395 0.8 0 0
0.486803 0.461742 0.123435 0.8 0 0
0.476310 0.658921 0.575428 0.8 0 0
0.371259 0.358634 0.496902 0.8 0 0
0.410569 0.073751 0.577830 0.8 0 0
0.493612 0.411577 0.513245 0.8 0 0
0.192365 0.395498 0.131407 0.8 0 0
0.246897 0.366608 0.447032 0.8 0 0
0.119726 0.390100 0.390306 0.8 0 0
0.504270 0.351910 0.511565 0.8 0 0
0.332335 0.544913 0.090248 0.8 0 0
0.258755 0.366862 0.149097 0.8 0 0
0.441148 0.100800 0.580910 0.8 0 0
0.346688 0.087638 0.242380 0.8 0 0
0.396227 0.477284 0.123018 0.8 0 0
0.230362 0.343273 0.364744 0.8 0 0
0.319633 0.485710 0.512617 0.8 0 0
0.570795 0.415430 0.210004 0.8 0 0
0.399308 0.603317 0.512961 0.8 0 0
0.556582 0.802698 0.223458 0.8 0 0
0.511912 0.397864 0.489413 0.8 0 0
0.427025 0.070025 0.064403 0.8 0 0
0.298163 0.484451 0.122592 0.8 0 0
0.580305 0.918183 0.504967 0.8 0 0
0.572809 0.966469 0.363793 0.8 0 0
0.139611 0.394759 0.463412 0.8 0 0
0.585382 0.905360 0.313957 0.8 0 0
0.397113 0.389275 0.351213 0.8 0 0
0.123761 0.390882 0.239233 0.8 0 0
0.579165 0.887113 0.205107 0.8 0 0
0.172097 0.330681 0.252835 0.8 0 0
0.309876 0.658921 0.547761 0.8 0 0
0.411354 0.073751 0.089172 0.8 0 0
0.537715 0.423808 0.376431 0.8 0 0
0.416916 0.100800 0.309138 0.8 0 0
0.245681 0.654692 0.529239 0.8 0 0
0.492772 0.430713 0.123463 0.8 0 0
0.090083 0.381680 0.139368 0.8 0 0
0.561113 0.645352 0.276635 0.8 0 0
0.256158 0.100800 0.410166 0.8 0 0
0.536136 0.604215 0.403188 0.8 0 0
0.050871 0.340786 0.387273 0.8 0 0
0.600996 0.090930 0.290505 0.8 0 0
0.320737 0.364536 0.172143 0.8 0 0
0.602844 0.962973 0.418027 0.8 0 0
0.420615 0.626422 0.069382 0.8 0 0
0.116854 0.386472 0.135273 0.8 0 0
0.410457 0.073751 0.444268 0.8 0 0
0.489397 0.509824 0.513349 0.8 0 0
0.522650 0.495787 0.522086 0.8 0 0
0.566595 0.332751 0.176868 0.8 0 0
0.551914 0.391431 0.137864 0.8 0 0
0.109630 0.387739 0.358042 0.8 0 0
0.422650 0.100800 0.572816 0.8 0 0
0.371831 0.654892 0.105253 0.8 0 0
0.542237 0.883022 0.393897 0.8 0 0
0.503821 0.425226 0.123575 0.8 0 0
0.588434 0.487237 0.415299 0.8 0 0
0.121662 0.390564 0.408212 0.8 0 0
0.273970 0.598055 0.512421 0.8 0 0
0.087560 0.382635 0.344722 0.8 0 0
0.373396 0.259060 0.307391 0.8 0 0
0.546243 0.557489 0.300665 0.8 0 0
0.411340 0.032483 0.063688 0.8 0 0
0.378109 0.539804 0.545375 0.8 0 0
0.520681 0.701375 0.179923 0.8 0 0
0.228144 0.643435 0.543438 0.8 0 0
0.243525 0.620325 0.122362 0.8 0 0
0.062777 0.352095 0.129743 0.8 0 0
0.542289 0.455022 0.099458 0.8 0 0
0.521305 0.765525 0.216203 0.8 0 0
0.168591 0.356479 0.234331 0.8 0 0
0.596732 0.935099 0.213719 0.8 0 0
0.370704 0.073751 0.284669 0.8 0 0
0.196232 0.330811 0.208845 0.8 0 0
0.319969 0.364664 0.156749 0.8 0 0
0.354763 0.395836 0.289656 0.8 0 0
0.573582 0.873295 0.406568 0.8 0 0
0.623283 0.053170 0.315165 0.8 0 0
0.520358 0.500322 0.524501 0.8 0 0
0.167638 0.363891 0.151024 0.8 0 0
0.139964 0.044101 0.193490 0.8 0 0
0.256033 0.640204 0.608601 0.8 0 0
0.338999 0.658921 0.041578 0.8 0 0
0.598863 0.942854 0.374763 0.8 0 0
0.387830 0.354253 0.170734 0.8 0 0
0.509053 0.382688 0.123480 0.8 0 0
0.584325 0.100800 0.338317 0.8 0 0
0.553342 0.425233 0.525858 0.8 0 0
0.276111 0.596323 0.090006 0.8 0 0
0.424010 0.507340 0.513079 0.8 0 0
0.255731 0.626422 0.572997 0.8 0 0
0.573782 0.365201 0.372314 0.8 0 0
0.429164 0.496593 0.123178 0.8 0 0
0.553472 0.771103 0.307700 0.8 0 0
0.530973 0.410232 0.123874 0.8 0 0
0.565379 0.332726 0.450075 0.8 0 0
0.534817 0.636157 0.504224 0.8 0 0
0.369760 0.203313 0.300787 0.8 0 0
0.357876 0.316332 0.292676 0.8 0 0
0.587487 0.518803 0.160786 0.8 0 0
0.440485 0.383489 0.430187 0.8 0 0
0.464124 0.557008 0.545747 0.8 0 0
0.257456 0.593641 0.089924 0.8 0 0
0.557130 0.604086 0.130701 0.8 0 0
