0.162678 0.133589 0.660405 0.8 0 0
0.424692 0.439103 0.433428 0.8 0 0
0.426745 0.467325 0.470281 0.8 0 0
0.568747 0.464271 0.247248 0.8 0 0
0.207252 0.467325 0.664173 0.8 0 0
0.219341 0.467325 0.381301 0.8 0 0
0.564835 0.612503 0.088300 0.8 0 0
0.116753 0.931726 0.080274 0.8 0 0
0.126092 0.888012 0.038653 0.8 0 0
0.470062 0.798111 0.048231 0.8 0 0
0.160377 0.646399 0.118552 0.8 0 0
0.319681 0.139328 0.398897 0.8 0 0
0.077773 0.665400 0.219275 0.8 0 0
0.257321 0.467325 0.284695 0.8 0 0
0.164887 0.467325 0.681353 0.8 0 0
0.115149 0.517911 0.205856 0.8 0 0
0.213750 0.164687 0.381351 0.8 0 0
0.073068 0.135015 0.362251 0.8 0 0
0.562268 0.892557 0.061658 0.8 0 0
0.399638 0.439103 0.313109 0.8 0 0
0.534529 0.092915 0.621129 0.8 0 0
0.361273 0.127733 0.442215 0.8 0 0
0.354002 0.464010 0.173385 0.8 0 0
0.100672 0.865965 0.089293 0.8 0 0
0.309124 0.530235 0.133152 0.8 0 0
0.128382 0.439103 0.618697 0.8 0 0
0.600063 0.525246 0.618155 0.8 0 0
0.432390 0.644532 0.069294 0.8 0 0
0.071883 0.652137 0.367544 0.8 0 0
0.335125 0.222084 0.469767 0.8 0 0
0.294832 0.346935 0.433418 0.8 0 0
0.100700 0.669241 0.489379 0.8 0 0
0.160734 0.543294 0.132500 0.8 0 0
0.419867 0.152136 0.555575 0.8 0 0
0.573310 0.618394 0.308088 0.8 0 0
0.295677 0.439103 0.633713 0.8 0 0
0.134451 0.454231 0.165997 0.8 0 0
0.106778 0.832959 0.046247 0.8 0 0
0.463672 0.439103 0.680196 0.8 0 0
0.148875 0.858941 0.042415 0.8 0 0
0.569030 0.454704 0.243845 0.8 0 0
0.526175 0.467325 0.294783 0.8 0 0
0.281092 0.467325 0.536086 0.8 0 0
0.286784 0.893467 0.084172 0.8 0 0
0.507464 0.467325 0.262961 0.8 0 0
0.369675 0.381946 0.433265 0.8 0 0
0.080940 0.668730 0.591463 0.8 0 0
0.258936 0.554833 0.082735 0.8 0 0
0.280253 0.439103 0.682679 0.8 0 0
0.365402 0.399594 0.420115 0.8 0 0
0.563137 0.631511 0.357348 0.8 0 0
0.535453 0.439103 0.226317 0.8 0 0
0.578431 0.138593 0.298113 0.8 0 0
0.574915 0.467325 0.583812 0.8 0 0
0.374014 0.824636 0.092830 0.8 0 0
0.208548 0.669855 0.067551 0.8 0 0
0.344902 0.417325 0.469044 0.8 0 0
0.127723 0.166459 0.355189 0.8 0 0
0.427303 0.685871 0.111205 0.8 0 0
0.562746 0.646392 0.358784 0.8 0 0
0.323733 0.439668 0.435412 0.8 0 0
0.363504 0.257252 0.453683 0.8 0 0
0.213299 0.798670 0.097552 0.8 0 0
0.215672 0.517887 0.088059 0.8 0 0
0.316699 0.075514 0.152794 0.8 0 0
0.304222 0.325088 0.457830 0.8 0 0
0.601603 0.639213 0.278919 0.8 0 0
0.315007 0.684231 0.112271 0.8 0 0
0.559645 0.624474 0.640642 0.8 0 0
0.426299 0.467325 0.197943 0.8 0 0
0.525684 0.628174 0.118272 0.8 0 0
0.562168 0.439103 0.644657 0.8 0 0
0.320386 0.153535 0.377930 0.8 0 0
0.353714 0.138639 0.412170 0.8 0 0
0.362419 0.130359 0.423515 0.8 0 0
0.645760 0.063557 0.298169 0.8 0 0
0.255239 0.586701 0.078451 0.8 0 0
0.111234 0.652507 0.240786 0.8 0 0
0.380855 0.572725 0.126864 0.8 0 0
0.368873 0.562618 0.128321 0.8 0 0
0.343070 0.138639 0.441131 0.8 0 0
0.582936 0.566332 0.606680 0.8 0 0
0.599532 0.644901 0.427900 0.8 0 0
0.346216 0.123914 0.262457 0.8 0 0
0.095017 0.165842 0.352426 0.8 0 0
0.110272 0.483617 0.630850 0.8 0 0
0.095399 0.913891 0.064759 0.8 0 0
0.308423 0.161764 0.412243 0.8 0 0
0.207146 0.508401 0.089407 0.8 0 0
0.068599 0.153570 0.358661 0.8 0 0
0.089388 0.439103 0.263410 0.8 0 0
0.354842 0.882031 0.037742 0.8 0 0
0.071772 0.457400 0.298981 0.8 0 0
0.353407 0.439103 0.592118 0.8 0 0
0.562747 0.633960 0.382739 0.8 0 0
0.316480 0.467325 0.381049 0.8 0 0
0.143782 0.467325 0.381094 0.8 0 0
0.107516 0.140089 0.325209 0.8 0 0
0.320655 0.139632 0.176079 0.8 0 0
0.145752 0.967953 0.043745 0.8 0 0
0.214963 0.936046 0.031486 0.8 0 0
0.286119 0.128606 0.475405 0.8 0 0
0.614564 0.139386 0.282112 0.8 0 0
0.108475 0.564008 0.611709 0.8 0 0
0.555399 0.439103 0.238460 0.8 0 0
0.046056 0.135323 0.332483 0.8 0 0
0.101821 0.669263 0.613648 0.8 0 0
0.456811 0.467325 0.171289 0.8 0 0
0.191810 0.599665 0.077174 0.8 0 0
0.596792 0.447185 0.400594 0.8 0 0
0.306542 0.526535 0.086206 0.8 0 0
0.426816 0.439103 0.504970 0.8 0 0
0.162523 0.587951 0.078979 0.8 0 0
0.315877 0.467325 0.482843 0.8 0 0
0.087657 0.439103 0.313581 0.8 0 0
0.223013 0.711989 0.109207 0.8 0 0
0.303782 0.231482 0.457511 0.8 0 0
0.163659 0.467325 0.348115 0.8 0 0
0.618452 0.120941 0.299105 0.8 0 0
0.563081 0.630702 0.363198 0.8 0 0
0.050222 0.133166 0.321775 0.8 0 0
0.596792 0.465239 0.605255 0.8 0 0
0.156218 0.439103 0.502616 0.8 0 0
0.538036 0.139089 0.367119 0.8 0 0
0.140964 0.467325 0.567417 0.8 0 0
0.461012 0.467325 0.578483 0.8 0 0
0.408634 0.971666 0.052713 0.8 0 0
0.284405 0.467325 0.609535 0.8 0 0
0.242038 0.970430 0.055290 0.8 0 0
0.472836 0.439103 0.483852 0.8 0 0
0.157551 0.876498 0.087440 0.8 0 0
0.562654 0.439103 0.662350 0.8 0 0
0.202885 0.467325 0.201344 0.8 0 0
0.225724 0.467325 0.309953 0.8 0 0
0.318744 0.163781 0.478469 0.8 0 0
0.492876 0.846921 0.041455 0.8 0 0
0.296983 0.512533 0.135639 0.8 0 0
0.240149 0.439103 0.475366 0.8 0 0
0.248025 0.342055 0.421269 0.8 0 0
0.183956 0.439103 0.662619 0.8 0 0
0.379606 0.460744 0.149728 0.8 0 0
0.443534 0.165531 0.559048 0.8 0 0
0.560372 0.610580 0.611364 0.8 0 0
0.241295 0.138543 0.377101 0.8 0 0
0.321700 0.805656 0.048326 0.8 0 0
0.151927 0.124860 0.385516 0.8 0 0
0.458141 0.877193 0.037620 0.8 0 0
0.395114 0.672582 0.113245 0.8 0 0
0.226153 0.467325 0.390240 0.8 0 0
0.090089 0.467325 0.436572 0.8 0 0
0.563299 0.578117 0.112769 0.8 0 0
0.314689 0.135585 0.401956 0.8 0 0
0.614502 0.032238 0.318309 0.8 0 0
0.102239 0.439103 0.333852 0.8 0 0
0.573035 0.664818 0.406714 0.8 0 0
0.512469 0.592145 0.123246 0.8 0 0
0.578115 0.467325 0.388428 0.8 0 0
0.563842 0.647790 0.271426 0.8 0 0
0.230485 0.800513 0.049707 0.8 0 0
0.301730 0.524330 0.134007 0.8 0 0
0.603374 0.604804 0.208672 0.8 0 0
0.432289 0.778649 0.051148 0.8 0 0
0.532160 0.467325 0.244134 0.8 0 0
0.326493 0.138639 0.406441 0.8 0 0
0.319734 0.138347 0.436250 0.8 0 0
0.135823 0.088457 0.621384 0.8 0 0
0.376939 0.138808 0.518327 0.8 0 0
0.100035 0.467325 0.533622 0.8 0 0
0.362087 0.310270 0.411402 0.8 0 0
0.360431 0.467325 0.422244 0.8 0 0
0.357112 0.158176 0.323864 0.8 0 0
0.250918 0.679067 0.113452 0.8 0 0
0.353399 0.127045 0.424901 0.8 0 0
0.093674 0.078884 0.337600 0.8 0 0
0.075615 0.467325 0.247214 0.8 0 0
0.370933 0.445599 0.195727 0.8 0 0
0.113903 0.558379 0.221434 0.8 0 0
0.459307 0.467325 0.467557 0.8 0 0
0.396084 0.467325 0.662186 0.8 0 0
0.128550 0.965779 0.059186 0.8 0 0
0.564179 0.439103 0.443999 0.8 0 0
0.415224 0.537844 0.083859 0.8 0 0
0.095369 0.058705 0.342016 0.8 0 0
0.300122 0.163350 0.478565 0.8 0 0
0.216149 0.875032 0.039732 0.8 0 0
0.620849 0.129116 0.306732 0.8 0 0
0.112793 0.938270 0.079418 0.8 0 0
0.303287 0.117352 0.495131 0.8 0 0
0.258051 0.467325 0.302057 0.8 0 0
0.457757 0.467325 0.624645 0.8 0 0
0.257159 0.866580 0.088033 0.8 0 0
0.593158 0.439103 0.285871 0.8 0 0
0.621367 0.171134 0.312613 0.8 0 0
0.204663 0.137863 0.414278 0.8 0 0
0.446200 0.439103 0.337676 0.8 0 0
0.373702 0.467325 0.410964 0.8 0 0
0.303978 0.475304 0.190693 0.8 0 0
0.261606 0.351202 0.433024 0.8 0 0
0.436873 0.439103 0.370234 0.8 0 0
0.540352 0.041934 0.619411 0.8 0 0
0.126727 0.878494 0.039936 0.8 0 0
0.132139 0.528926 0.134659 0.8 0 0
0.560993 0.633547 0.519005 0.8 0 0
0.334428 0.467325 0.407405 0.8 0 0
0.345668 0.831485 0.044651 0.8 0 0
0.369081 0.888605 0.084212 0.8 0 0
0.439737 0.439103 0.435383 0.8 0 0
0.194527 0.439103 0.263000 0.8 0 0
0.047357 0.166021 0.329502 0.8 0 0
0.352104 0.108339 0.177207 0.8 0 0
0.218977 0.140865 0.607465 0.8 0 0
0.100477 0.669237 0.446449 0.8 0 0
0.575086 0.439103 0.377569 0.8 0 0
0.097464 0.683262 0.081066 0.8 0 0
0.145483 0.765273 0.102580 0.8 0 0
0.542350 0.467325 0.494425 0.8 0 0
0.377909 0.503068 0.154595 0.8 0 0
0.070949 0.559520 0.611499 0.8 0 0
0.071772 0.445583 0.315327 0.8 0 0
0.193413 0.159747 0.366096 0.8 0 0
0.212885 0.467325 0.187515 0.8 0 0
0.598064 0.488329 0.606934 0.8 0 0
0.264768 0.459498 0.163812 0.8 0 0
0.564404 0.587464 0.087998 0.8 0 0
0.436867 0.596619 0.123209 0.8 0 0
0.265755 0.467325 0.567443 0.8 0 0
0.326147 0.446166 0.203119 0.8 0 0
0.463931 0.439103 0.680660 0.8 0 0
0.347422 0.144985 0.413605 0.8 0 0
0.364651 0.467325 0.167328 0.8 0 0
0.513863 0.084477 0.664050 0.8 0 0
0.476563 0.439103 0.403129 0.8 0 0
0.346506 0.116018 0.365281 0.8 0 0
0.291380 0.439103 0.213460 0.8 0 0
0.331263 0.333078 0.413340 0.8 0 0
0.361332 0.194110 0.410854 0.8 0 0
0.573483 0.439103 0.466980 0.8 0 0
0.561259 0.632790 0.499956 0.8 0 0
0.565282 0.621388 0.211233 0.8 0 0
0.114461 0.528145 0.237378 0.8 0 0
0.141536 0.122139 0.378578 0.8 0 0
0.154279 0.709341 0.110082 0.8 0 0
0.338200 0.505163 0.107463 0.8 0 0
0.085678 0.622526 0.539165 0.8 0 0
0.567901 0.618544 0.576627 0.8 0 0
0.417758 0.863651 0.087222 0.8 0 0
0.526023 0.894327 0.082258 0.8 0 0
0.439192 0.519633 0.133609 0.8 0 0
0.314580 0.100997 0.183755 0.8 0 0
0.396578 0.467325 0.367334 0.8 0 0
0.427955 0.467325 0.439212 0.8 0 0
0.347070 0.154905 0.413829 0.8 0 0
0.593691 0.439103 0.500573 0.8 0 0
0.215586 0.720133 0.060695 0.8 0 0
0.245616 0.349065 0.428070 0.8 0 0
0.304342 0.392631 0.410042 0.8 0 0
0.525977 0.655460 0.067112 0.8 0 0
0.559253 0.816273 0.092569 0.8 0 0
0.196848 0.894842 0.037197 0.8 0 0
0.223639 0.876383 0.039493 0.8 0 0
0.328040 0.969718 0.043971 0.8 0 0
0.046384 0.125740 0.346118 0.8 0 0
0.462611 0.122243 0.579216 0.8 0 0
0.467878 0.467325 0.384719 0.8 0 0
0.562853 0.637877 0.366988 0.8 0 0
0.384756 0.439103 0.254523 0.8 0 0
0.081824 0.452316 0.651092 0.8 0 0
0.365701 0.381028 0.421036 0.8 0 0
0.363172 0.142156 0.355459 0.8 0 0
0.253806 0.370151 0.405732 0.8 0 0
0.175057 0.688695 0.112719 0.8 0 0
0.432495 0.439103 0.684394 0.8 0 0
0.541035 0.467325 0.293371 0.8 0 0
0.140071 0.722869 0.060892 0.8 0 0
0.564827 0.603342 0.078541 0.8 0 0
0.349418 0.081518 0.144935 0.8 0 0
0.566450 0.618410 0.485008 0.8 0 0
0.188244 0.658671 0.116683 0.8 0 0
0.510538 0.161799 0.370887 0.8 0 0
0.362744 0.149268 0.456024 0.8 0 0
0.208638 0.439103 0.533210 0.8 0 0
0.601920 0.454599 0.611219 0.8 0 0
0.585286 0.132196 0.340781 0.8 0 0
0.304542 0.363177 0.458063 0.8 0 0
0.343964 0.817076 0.094079 0.8 0 0
0.584127 0.439103 0.236658 0.8 0 0
0.209343 0.706207 0.062626 0.8 0 0
0.464615 0.439103 0.433877 0.8 0 0
0.192960 0.728089 0.059789 0.8 0 0
0.598731 0.664271 0.452337 0.8 0 0
0.375786 0.467325 0.467797 0.8 0 0
0.604657 0.547975 0.219371 0.8 0 0
0.109385 0.589095 0.079224 0.8 0 0
0.468335 0.439103 0.301352 0.8 0 0
0.180175 0.740826 0.058161 0.8 0 0
0.096425 0.793559 0.067286 0.8 0 0
0.155495 0.697809 0.064167 0.8 0 0
0.218325 0.439103 0.320811 0.8 0 0
0.183629 0.363435 0.392454 0.8 0 0
0.425055 0.578957 0.078222 0.8 0 0
0.574848 0.665033 0.566320 0.8 0 0
0.069758 0.606914 0.609944 0.8 0 0
0.604959 0.521512 0.247198 0.8 0 0
0.173880 0.831143 0.093454 0.8 0 0
0.579576 0.439103 0.351679 0.8 0 0
0.560033 0.626189 0.607375 0.8 0 0
0.367573 0.871959 0.086475 0.8 0 0
0.088505 0.622608 0.376380 0.8 0 0
0.504113 0.467325 0.370603 0.8 0 0
0.407343 0.559204 0.081028 0.8 0 0
0.494727 0.467325 0.637351 0.8 0 0
0.546213 0.157852 0.614382 0.8 0 0
0.374116 0.114619 0.408591 0.8 0 0
0.310944 0.436987 0.126246 0.8 0 0
0.305635 0.117021 0.477691 0.8 0 0
0.292326 0.716096 0.108130 0.8 0 0
0.519110 0.439103 0.220260 0.8 0 0
0.457828 0.439103 0.470024 0.8 0 0
0.169260 0.467325 0.582728 0.8 0 0
0.305318 0.467325 0.535445 0.8 0 0
0.541743 0.439103 0.171290 0.8 0 0
0.044850 0.147120 0.352220 0.8 0 0
0.397092 0.971081 0.049196 0.8 0 0
0.097639 0.669156 0.614409 0.8 0 0
0.363156 0.502304 0.129505 0.8 0 0
0.562643 0.854665 0.068403 0.8 0 0
0.241822 0.889938 0.037522 0.8 0 0
0.427839 0.705891 0.108492 0.8 0 0
0.433707 0.118428 0.547446 0.8 0 0
0.461335 0.784805 0.050097 0.8 0 0
0.592797 0.171657 0.319496 0.8 0 0
0.297033 0.294670 0.441318 0.8 0 0
0.448838 0.157670 0.400757 0.8 0 0
0.070299 0.650321 0.487961 0.8 0 0
0.329793 0.106522 0.160259 0.8 0 0
0.303596 0.474229 0.130504 0.8 0 0
0.601226 0.623927 0.337625 0.8 0 0
0.203633 0.783007 0.099744 0.8 0 0
0.107390 0.598357 0.627043 0.8 0 0
0.060564 0.107730 0.345850 0.8 0 0
0.154272 0.051204 0.677941 0.8 0 0
0.108763 0.667581 0.394820 0.8 0 0
0.071433 0.527708 0.635874 0.8 0 0
0.054338 0.133321 0.354266 0.8 0 0
0.568297 0.467325 0.227906 0.8 0 0
0.549690 0.927682 0.030101 0.8 0 0
0.069455 0.651453 0.548182 0.8 0 0
0.624199 0.168288 0.317314 0.8 0 0
0.109208 0.662337 0.371852 0.8 0 0
0.562612 0.833318 0.044239 0.8 0 0
0.299785 0.194367 0.418173 0.8 0 0
0.565525 0.600646 0.232584 0.8 0 0
0.109620 0.647851 0.368815 0.8 0 0
0.350002 0.439103 0.670886 0.8 0 0
0.104231 0.538891 0.651430 0.8 0 0
0.355622 0.130921 0.239460 0.8 0 0
0.097819 0.644274 0.084456 0.8 0 0
0.352084 0.671278 0.066279 0.8 0 0
0.294047 0.439103 0.530174 0.8 0 0
0.374820 0.161855 0.486657 0.8 0 0
0.563948 0.693220 0.063630 0.8 0 0
0.258777 0.535636 0.085334 0.8 0 0
0.186287 0.439103 0.164936 0.8 0 0
0.096943 0.622822 0.400319 0.8 0 0
0.444434 0.166949 0.552758 0.8 0 0
0.073064 0.468375 0.627440 0.8 0 0
0.177558 0.718913 0.061146 0.8 0 0
0.320685 0.162509 0.261186 0.8 0 0
0.128980 0.111576 0.637523 0.8 0 0
0.161882 0.957574 0.076437 0.8 0 0
0.073942 0.449892 0.228443 0.8 0 0
0.457871 0.810636 0.046628 0.8 0 0
0.072373 0.503042 0.613031 0.8 0 0
0.210912 0.368434 0.424533 0.8 0 0
0.069851 0.635122 0.549757 0.8 0 0
0.083008 0.582993 0.252126 0.8 0 0
0.333725 0.467325 0.306546 0.8 0 0
0.563524 0.635588 0.319579 0.8 0 0
0.276236 0.467325 0.557893 0.8 0 0
0.098654 0.748737 0.105169 0.8 0 0
0.560089 0.772562 0.098477 0.8 0 0
0.564448 0.656636 0.207547 0.8 0 0
0.151504 0.036347 0.623488 0.8 0 0
0.203799 0.386463 0.409563 0.8 0 0
0.454820 0.439103 0.501092 0.8 0 0
0.606894 0.449748 0.236370 0.8 0 0
0.077621 0.503803 0.223946 0.8 0 0
0.071772 0.459430 0.584378 0.8 0 0
0.330515 0.143435 0.469767 0.8 0 0
0.548162 0.918771 0.078784 0.8 0 0
0.263606 0.136620 0.561182 0.8 0 0
0.493631 0.122073 0.375198 0.8 0 0
0.513939 0.140777 0.379067 0.8 0 0
0.440188 0.439103 0.622353 0.8 0 0
0.144323 0.439103 0.580601 0.8 0 0
0.490558 0.781663 0.050302 0.8 0 0
0.321385 0.105561 0.189962 0.8 0 0
0.379988 0.939486 0.077245 0.8 0 0
0.403803 0.467325 0.212784 0.8 0 0
0.462963 0.439103 0.221972 0.8 0 0
0.072567 0.100286 0.332657 0.8 0 0
0.329986 0.930493 0.078838 0.8 0 0
0.428739 0.440893 0.688832 0.8 0 0
0.180270 0.895728 0.084667 0.8 0 0
0.102180 0.941591 0.065926 0.8 0 0
0.104228 0.467325 0.405265 0.8 0 0
0.097160 0.728223 0.089320 0.8 0 0
0.069593 0.596014 0.642689 0.8 0 0
0.557578 0.911022 0.079761 0.8 0 0
0.339925 0.662914 0.114968 0.8 0 0
0.314308 0.467325 0.553647 0.8 0 0
0.334569 0.467325 0.340897 0.8 0 0
0.347627 0.265961 0.467063 0.8 0 0
0.257630 0.163832 0.395538 0.8 0 0
0.568930 0.461678 0.238079 0.8 0 0
0.493830 0.439103 0.522387 0.8 0 0
0.139080 0.833572 0.045921 0.8 0 0
0.533484 0.439103 0.230771 0.8 0 0
0.456231 0.439103 0.486448 0.8 0 0
0.473791 0.151455 0.394814 0.8 0 0
0.578246 0.589484 0.200447 0.8 0 0
0.256489 0.684872 0.112624 0.8 0 0
0.273001 0.911219 0.034408 0.8 0 0
0.566384 0.664522 0.284794 0.8 0 0
0.361803 0.720386 0.059562 0.8 0 0
0.157070 0.369251 0.408691 0.8 0 0
0.261208 0.782824 0.099335 0.8 0 0
0.371850 0.948178 0.028664 0.8 0 0
0.202606 0.920027 0.081212 0.8 0 0
0.261056 0.467325 0.449088 0.8 0 0
0.105542 0.507657 0.651435 0.8 0 0
0.399974 0.439103 0.292975 0.8 0 0
0.570120 0.626828 0.652786 0.8 0 0
0.532983 0.439103 0.305330 0.8 0 0
0.321979 0.155588 0.442591 0.8 0 0
0.299433 0.941012 0.030179 0.8 0 0
0.175053 0.537856 0.085663 0.8 0 0
0.261744 0.694570 0.111273 0.8 0 0
0.558978 0.926857 0.065232 0.8 0 0
0.560912 0.590091 0.609244 0.8 0 0
0.364136 0.439103 0.342238 0.8 0 0
0.227042 0.147682 0.531729 0.8 0 0
0.600904 0.639557 0.332238 0.8 0 0
0.596956 0.447864 0.244915 0.8 0 0
0.599181 0.646649 0.451662 0.8 0 0
0.381840 0.439103 0.370914 0.8 0 0
0.237116 0.467325 0.489754 0.8 0 0
0.429970 0.439103 0.174571 0.8 0 0
0.473062 0.134223 0.605500 0.8 0 0
0.165660 0.128169 0.394343 0.8 0 0
0.215072 0.871262 0.087716 0.8 0 0
0.139878 0.439103 0.538477 0.8 0 0
0.224464 0.153246 0.599849 0.8 0 0
0.359653 0.467325 0.652685 0.8 0 0
0.230417 0.375518 0.400070 0.8 0 0
0.461233 0.467325 0.557861 0.8 0 0
0.581482 0.125647 0.334141 0.8 0 0
0.097072 0.741906 0.092267 0.8 0 0
0.100820 0.674481 0.067735 0.8 0 0
0.524524 0.467325 0.507234 0.8 0 0
0.532563 0.467325 0.685004 0.8 0 0
0.524844 0.439103 0.581006 0.8 0 0
0.171321 0.568018 0.129076 0.8 0 0
0.095903 0.869003 0.079729 0.8 0 0
0.598523 0.623390 0.547419 0.8 0 0
0.182048 0.439103 0.449856 0.8 0 0
0.289569 0.439103 0.585965 0.8 0 0
0.396909 0.796431 0.049008 0.8 0 0
0.102126 0.849242 0.091545 0.8 0 0
0.090925 0.467325 0.580577 0.8 0 0
0.499570 0.467325 0.326412 0.8 0 0
0.316937 0.133700 0.317700 0.8 0 0
0.314739 0.136147 0.389079 0.8 0 0
0.609461 0.103154 0.295553 0.8 0 0
0.328530 0.467325 0.340918 0.8 0 0
0.597151 0.647896 0.606084 0.8 0 0
0.279394 0.134194 0.478823 0.8 0 0
0.177264 0.540835 0.085243 0.8 0 0
0.465307 0.136083 0.536450 0.8 0 0
0.522846 0.586700 0.123905 0.8 0 0
0.361343 0.439103 0.380484 0.8 0 0
0.070049 0.624752 0.554731 0.8 0 0
0.354193 0.461969 0.160016 0.8 0 0
0.075249 0.598068 0.221058 0.8 0 0
0.166750 0.467325 0.419678 0.8 0 0
0.531669 0.567048 0.079032 0.8 0 0
0.601476 0.461475 0.632256 0.8 0 0
0.556231 0.439103 0.182013 0.8 0 0
0.181084 0.641010 0.119126 0.8 0 0
0.561834 0.539035 0.636686 0.8 0 0
0.486988 0.872108 0.038092 0.8 0 0
0.169723 0.967423 0.038137 0.8 0 0
0.194538 0.790728 0.051301 0.8 0 0
0.430683 0.458871 0.688832 0.8 0 0
0.294328 0.439103 0.626567 0.8 0 0
0.525354 0.559125 0.080151 0.8 0 0
0.195629 0.439103 0.324316 0.8 0 0
0.313591 0.439103 0.628105 0.8 0 0
0.353199 0.101809 0.180576 0.8 0 0
0.096962 0.620346 0.273384 0.8 0 0
0.350131 0.649238 0.116742 0.8 0 0
0.467514 0.439103 0.185023 0.8 0 0
0.454755 0.122236 0.573211 0.8 0 0
0.108662 0.659656 0.417283 0.8 0 0
0.094554 0.467325 0.322588 0.8 0 0
0.520631 0.439103 0.166176 0.8 0 0
0.149339 0.467325 0.528564 0.8 0 0
0.481749 0.672741 0.065106 0.8 0 0
0.182561 0.446917 0.688832 0.8 0 0
0.554186 0.439103 0.354275 0.8 0 0
0.213657 0.118910 0.396535 0.8 0 0
0.230199 0.163908 0.579640 0.8 0 0
0.148014 0.439103 0.622995 0.8 0 0
0.360936 0.499812 0.108265 0.8 0 0
0.423931 0.528949 0.132463 0.8 0 0
0.190109 0.164696 0.585315 0.8 0 0
0.247419 0.467325 0.377040 0.8 0 0
0.598886 0.547857 0.254187 0.8 0 0
0.106741 0.827811 0.094410 0.8 0 0
0.439316 0.123973 0.367384 0.8 0 0
0.407495 0.708278 0.060856 0.8 0 0
0.519961 0.143172 0.587528 0.8 0 0
0.232318 0.448457 0.688832 0.8 0 0
0.372867 0.467325 0.345191 0.8 0 0
0.396084 0.623834 0.119834 0.8 0 0
0.091764 0.439103 0.407797 0.8 0 0
0.275897 0.162768 0.431779 0.8 0 0
0.562454 0.870388 0.061817 0.8 0 0
0.390428 0.972193 0.057889 0.8 0 0
0.190703 0.467325 0.493781 0.8 0 0
0.483191 0.439103 0.668771 0.8 0 0
0.252547 0.896736 0.083988 0.8 0 0
0.069110 0.663888 0.550129 0.8 0 0
0.072048 0.517964 0.608827 0.8 0 0
0.343169 0.137103 0.447193 0.8 0 0
0.601805 0.457779 0.613967 0.8 0 0
0.133758 0.122753 0.651687 0.8 0 0
0.579491 0.439103 0.639233 0.8 0 0
0.490374 0.522395 0.085384 0.8 0 0
0.080719 0.565947 0.651123 0.8 0 0
0.542733 0.439103 0.342026 0.8 0 0
0.602576 0.634906 0.212117 0.8 0 0
0.396884 0.443347 0.688832 0.8 0 0
0.602434 0.645162 0.203249 0.8 0 0
0.358999 0.829138 0.092334 0.8 0 0
0.332230 0.239594 0.398193 0.8 0 0
0.093141 0.540882 0.604963 0.8 0 0
0.320269 0.971766 0.059663 0.8 0 0
0.318533 0.137563 0.230573 0.8 0 0
0.550883 0.942259 0.036904 0.8 0 0
0.104428 0.784190 0.052863 0.8 0 0
0.335938 0.166246 0.398193 0.8 0 0
0.474605 0.467325 0.341745 0.8 0 0
0.227005 0.165697 0.552817 0.8 0 0
0.236082 0.134286 0.424783 0.8 0 0
0.356077 0.147983 0.455152 0.8 0 0
0.207255 0.467325 0.519261 0.8 0 0
0.186576 0.439103 0.613150 0.8 0 0
0.390356 0.128930 0.466913 0.8 0 0
0.439644 0.447904 0.688832 0.8 0 0
0.159330 0.458428 0.163812 0.8 0 0
0.096357 0.798523 0.064297 0.8 0 0
0.219026 0.162493 0.409689 0.8 0 0
0.557822 0.608362 0.120711 0.8 0 0
0.262798 0.149460 0.496181 0.8 0 0
0.422765 0.507777 0.103953 0.8 0 0
0.301048 0.439457 0.453671 0.8 0 0
0.202327 0.164975 0.607682 0.8 0 0
0.354085 0.336912 0.462371 0.8 0 0
0.299680 0.913503 0.033899 0.8 0 0
0.173964 0.689420 0.112629 0.8 0 0
0.514083 0.169726 0.630139 0.8 0 0
0.296796 0.136436 0.399604 0.8 0 0
0.486661 0.439103 0.191506 0.8 0 0
0.316108 0.155862 0.201201 0.8 0 0
0.496150 0.467325 0.512373 0.8 0 0
0.410447 0.439103 0.340150 0.8 0 0
0.551282 0.141848 0.361803 0.8 0 0
0.517497 0.549589 0.081501 0.8 0 0
0.095069 0.669102 0.394856 0.8 0 0
0.071772 0.457023 0.543839 0.8 0 0
0.564332 0.644793 0.239384 0.8 0 0
0.091964 0.467325 0.359027 0.8 0 0
0.125712 0.965599 0.063418 0.8 0 0
0.291886 0.742303 0.104588 0.8 0 0
0.375256 0.439103 0.180590 0.8 0 0
0.596134 0.439103 0.559109 0.8 0 0
0.099835 0.669214 0.569876 0.8 0 0
0.352375 0.569897 0.099808 0.8 0 0
0.470611 0.467325 0.430592 0.8 0 0
0.084263 0.668827 0.364274 0.8 0 0
0.182306 0.967388 0.036996 0.8 0 0
0.321895 0.156882 0.351221 0.8 0 0
0.397532 0.532568 0.132172 0.8 0 0
0.432974 0.906227 0.081347 0.8 0 0
0.347549 0.270977 0.400839 0.8 0 0
0.068639 0.631410 0.646280 0.8 0 0
0.412923 0.467325 0.645282 0.8 0 0
0.349982 0.111538 0.438620 0.8 0 0
0.258552 0.439103 0.413972 0.8 0 0
0.560445 0.664710 0.600788 0.8 0 0
0.578454 0.060120 0.321478 0.8 0 0
0.356673 0.505678 0.093082 0.8 0 0
0.330050 0.115240 0.379850 0.8 0 0
0.325549 0.439103 0.647589 0.8 0 0
0.540292 0.562514 0.127046 0.8 0 0
0.377579 0.505055 0.119498 0.8 0 0
0.549695 0.134483 0.312845 0.8 0 0
0.218153 0.551820 0.130915 0.8 0 0
0.572247 0.657481 0.207521 0.8 0 0
0.496088 0.960618 0.073513 0.8 0 0
0.325462 0.750148 0.055808 0.8 0 0
0.321915 0.149755 0.447046 0.8 0 0
0.567829 0.440398 0.609029 0.8 0 0
0.303902 0.476102 0.184525 0.8 0 0
0.088821 0.668932 0.587552 0.8 0 0
0.546232 0.666094 0.112987 0.8 0 0
0.181921 0.970029 0.056548 0.8 0 0
0.176596 0.467325 0.242635 0.8 0 0
0.380306 0.439103 0.239722 0.8 0 0
0.171580 0.819748 0.095013 0.8 0 0
0.589639 0.575445 0.254046 0.8 0 0
0.596792 0.453884 0.609934 0.8 0 0
0.094523 0.556421 0.651306 0.8 0 0
0.557566 0.467325 0.362058 0.8 0 0
0.070901 0.543428 0.645417 0.8 0 0
0.229593 0.369443 0.425857 0.8 0 0
0.137691 0.121360 0.350173 0.8 0 0
0.084332 0.129141 0.332782 0.8 0 0
0.402993 0.148809 0.378671 0.8 0 0
0.455128 0.704480 0.061012 0.8 0 0
0.256592 0.439103 0.362676 0.8 0 0
0.248593 0.586866 0.125945 0.8 0 0
0.283387 0.691242 0.064094 0.8 0 0
0.112731 0.606306 0.217502 0.8 0 0
0.126099 0.130078 0.656271 0.8 0 0
0.343612 0.112125 0.402225 0.8 0 0
0.328642 0.462752 0.137265 0.8 0 0
0.265258 0.467325 0.636261 0.8 0 0
0.391496 0.439103 0.204768 0.8 0 0
0.348605 0.816946 0.046596 0.8 0 0
0.191113 0.848329 0.043533 0.8 0 0
0.206287 0.894212 0.037211 0.8 0 0
0.470997 0.664044 0.066364 0.8 0 0
0.375436 0.442584 0.688832 0.8 0 0
0.321272 0.462291 0.114049 0.8 0 0
0.143310 0.467325 0.340439 0.8 0 0
0.160139 0.513650 0.089050 0.8 0 0
0.584581 0.467325 0.392185 0.8 0 0
0.363182 0.354238 0.454675 0.8 0 0
0.600184 0.152185 0.312437 0.8 0 0
0.438046 0.467325 0.685611 0.8 0 0
0.168129 0.576150 0.127999 0.8 0 0
0.374086 0.805003 0.095486 0.8 0 0
0.178142 0.439103 0.452766 0.8 0 0
0.374665 0.561910 0.080907 0.8 0 0
0.114693 0.515360 0.244329 0.8 0 0
0.347756 0.136816 0.466773 0.8 0 0
0.559344 0.439103 0.579729 0.8 0 0
0.105574 0.061054 0.636854 0.8 0 0
0.188030 0.467325 0.423127 0.8 0 0
0.283165 0.505759 0.098851 0.8 0 0
0.570803 0.467325 0.224387 0.8 0 0
0.328171 0.121194 0.318804 0.8 0 0
0.310697 0.510875 0.134741 0.8 0 0
0.287787 0.683530 0.065105 0.8 0 0
0.559982 0.613123 0.636571 0.8 0 0
0.343078 0.439103 0.568741 0.8 0 0
0.603071 0.613563 0.215130 0.8 0 0
0.093769 0.570074 0.252266 0.8 0 0
0.356698 0.591310 0.124531 0.8 0 0
0.090869 0.126254 0.363681 0.8 0 0
0.543823 0.447678 0.684913 0.8 0 0
0.401195 0.858062 0.040637 0.8 0 0
0.588724 0.057214 0.278345 0.8 0 0
0.096123 0.832705 0.070223 0.8 0 0
0.178146 0.362336 0.410691 0.8 0 0
0.544951 0.683008 0.110708 0.8 0 0
0.393632 0.126376 0.430974 0.8 0 0
0.461212 0.898368 0.082198 0.8 0 0
0.339993 0.467325 0.222522 0.8 0 0
0.319774 0.133559 0.409834 0.8 0 0
0.596792 0.441274 0.384321 0.8 0 0
0.074131 0.620268 0.261698 0.8 0 0
0.095426 0.622785 0.370301 0.8 0 0
0.277862 0.159176 0.537987 0.8 0 0
0.559168 0.439103 0.516647 0.8 0 0
0.313307 0.421009 0.464432 0.8 0 0
0.497245 0.806192 0.046933 0.8 0 0
0.460814 0.120640 0.553578 0.8 0 0
0.404871 0.762098 0.101060 0.8 0 0
0.421790 0.439103 0.409843 0.8 0 0
0.390098 0.158188 0.479557 0.8 0 0
0.250602 0.439103 0.642574 0.8 0 0
0.175373 0.062087 0.632788 0.8 0 0
0.078355 0.464868 0.243255 0.8 0 0
0.398396 0.583308 0.077834 0.8 0 0
0.345713 0.283481 0.399506 0.8 0 0
0.147979 0.617917 0.122499 0.8 0 0
0.301784 0.521814 0.149466 0.8 0 0
0.173025 0.949527 0.077442 0.8 0 0
0.379751 0.461015 0.171803 0.8 0 0
0.532916 0.040381 0.669765 0.8 0 0
0.171448 0.439103 0.172240 0.8 0 0
0.341361 0.175666 0.205171 0.8 0 0
0.118480 0.439103 0.197653 0.8 0 0
0.310995 0.568139 0.099668 0.8 0 0
0.227721 0.899984 0.036269 0.8 0 0
0.312230 0.467325 0.519439 0.8 0 0
0.329303 0.467325 0.260615 0.8 0 0
0.443062 0.467325 0.471723 0.8 0 0
0.184028 0.439103 0.195098 0.8 0 0
0.574576 0.649587 0.647177 0.8 0 0
0.562672 0.625679 0.404504 0.8 0 0
0.600038 0.517037 0.635942 0.8 0 0
0.329495 0.184950 0.469767 0.8 0 0
0.484054 0.439103 0.591141 0.8 0 0
0.380109 0.450869 0.163755 0.8 0 0
0.362817 0.141256 0.245019 0.8 0 0
0.222000 0.587335 0.126081 0.8 0 0
0.566137 0.594654 0.200286 0.8 0 0
0.405621 0.439103 0.202486 0.8 0 0
0.600418 0.640446 0.368109 0.8 0 0
0.131519 0.766957 0.102457 0.8 0 0
0.566722 0.161578 0.307623 0.8 0 0
0.214654 0.118920 0.395313 0.8 0 0
0.097542 0.666994 0.074425 0.8 0 0
0.344300 0.525645 0.133509 0.8 0 0
0.338648 0.439103 0.304979 0.8 0 0
0.170371 0.467325 0.449722 0.8 0 0
0.566743 0.146380 0.301808 0.8 0 0
0.561351 0.562637 0.628400 0.8 0 0
0.328573 0.467325 0.253415 0.8 0 0
0.379016 0.478655 0.169964 0.8 0 0
0.099234 0.439103 0.196320 0.8 0 0
0.298859 0.935890 0.078342 0.8 0 0
0.115809 0.039168 0.634153 0.8 0 0
0.364622 0.155295 0.417716 0.8 0 0
0.513148 0.467325 0.641497 0.8 0 0
0.300239 0.252043 0.416777 0.8 0 0
0.574308 0.478329 0.253920 0.8 0 0
0.303240 0.439103 0.397803 0.8 0 0
0.204158 0.467325 0.406463 0.8 0 0
0.109654 0.439103 0.558876 0.8 0 0
0.236447 0.377226 0.417381 0.8 0 0
0.347310 0.156148 0.430370 0.8 0 0
0.541727 0.166735 0.665416 0.8 0 0
0.071286 0.626041 0.460960 0.8 0 0
0.115290 0.467325 0.376878 0.8 0 0
0.338017 0.436380 0.144585 0.8 0 0
0.551678 0.467325 0.253922 0.8 0 0
0.588029 0.457591 0.650249 0.8 0 0
0.484646 0.135896 0.616807 0.8 0 0
0.564234 0.702740 0.105884 0.8 0 0
0.479517 0.127256 0.388972 0.8 0 0
0.317694 0.467325 0.391663 0.8 0 0
0.363105 0.141001 0.357560 0.8 0 0
0.598271 0.129750 0.332050 0.8 0 0
0.328107 0.439668 0.430571 0.8 0 0
0.471357 0.901265 0.034264 0.8 0 0
0.615154 0.168656 0.291095 0.8 0 0
0.274508 0.439103 0.249412 0.8 0 0
0.417629 0.439103 0.508703 0.8 0 0
0.478999 0.508653 0.106472 0.8 0 0
0.526715 0.172389 0.624270 0.8 0 0
0.370703 0.439103 0.252238 0.8 0 0
0.299764 0.828366 0.045418 0.8 0 0
0.408965 0.590340 0.076803 0.8 0 0
0.502405 0.119282 0.354065 0.8 0 0
0.261414 0.467325 0.470783 0.8 0 0
0.096078 0.856816 0.088255 0.8 0 0
0.172632 0.439103 0.340078 0.8 0 0
0.306206 0.439103 0.317397 0.8 0 0
0.282458 0.364791 0.419213 0.8 0 0
0.300402 0.689351 0.064222 0.8 0 0
0.318203 0.122644 0.447393 0.8 0 0
0.072643 0.481688 0.633367 0.8 0 0
0.307602 0.872655 0.086832 0.8 0 0
0.464797 0.629482 0.071087 0.8 0 0
0.115856 0.467302 0.249249 0.8 0 0
0.067427 0.098648 0.320702 0.8 0 0
0.457295 0.863193 0.039521 0.8 0 0
0.545694 0.439103 0.673367 0.8 0 0
0.318921 0.467325 0.552782 0.8 0 0
0.099337 0.882447 0.087073 0.8 0 0
0.327306 0.532177 0.124955 0.8 0 0
0.298870 0.335751 0.437585 0.8 0 0
0.091291 0.439103 0.501584 0.8 0 0
0.221545 0.467325 0.429545 0.8 0 0
0.585720 0.045498 0.291282 0.8 0 0
0.452841 0.467325 0.302297 0.8 0 0
0.469458 0.547779 0.082107 0.8 0 0
0.279986 0.748033 0.103902 0.8 0 0
0.320699 0.535419 0.124464 0.8 0 0
0.562329 0.882849 0.059290 0.8 0 0
0.496000 0.137222 0.334723 0.8 0 0
0.601047 0.487034 0.606974 0.8 0 0
0.298265 0.211391 0.445107 0.8 0 0
0.372564 0.439103 0.269744 0.8 0 0
0.393417 0.808179 0.094911 0.8 0 0
0.353875 0.409737 0.405436 0.8 0 0
0.451803 0.517311 0.133828 0.8 0 0
0.431764 0.907643 0.081164 0.8 0 0
0.071772 0.458311 0.417497 0.8 0 0
0.301680 0.150995 0.520952 0.8 0 0
0.338588 0.970051 0.045698 0.8 0 0
0.519412 0.439103 0.597254 0.8 0 0
0.126843 0.801952 0.050292 0.8 0 0
0.362312 0.128628 0.430565 0.8 0 0
0.123664 0.139592 0.331472 0.8 0 0
0.149216 0.884034 0.039017 0.8 0 0
0.274335 0.588907 0.078009 0.8 0 0
0.401063 0.158347 0.529582 0.8 0 0
0.354309 0.439103 0.679314 0.8 0 0
0.376760 0.530801 0.152526 0.8 0 0
0.501988 0.159366 0.377444 0.8 0 0
0.359579 0.153259 0.348757 0.8 0 0
0.095073 0.054919 0.327624 0.8 0 0
0.567312 0.596891 0.652772 0.8 0 0
0.357579 0.437431 0.130884 0.8 0 0
0.265560 0.467325 0.639738 0.8 0 0
0.089814 0.551258 0.252205 0.8 0 0
0.137369 0.025877 0.650189 0.8 0 0
0.504007 0.167975 0.590835 0.8 0 0
0.600790 0.624995 0.369213 0.8 0 0
0.049603 0.097789 0.317732 0.8 0 0
0.408205 0.712920 0.060223 0.8 0 0
0.314719 0.594480 0.076951 0.8 0 0
0.102597 0.439103 0.403412 0.8 0 0
0.195185 0.439103 0.301781 0.8 0 0
0.096628 0.800287 0.097283 0.8 0 0
0.452608 0.439103 0.653742 0.8 0 0
0.452016 0.760176 0.053499 0.8 0 0
0.339096 0.467325 0.554064 0.8 0 0
0.455838 0.758486 0.101165 0.8 0 0
0.553547 0.128721 0.645705 0.8 0 0
0.420663 0.778897 0.098668 0.8 0 0
0.361768 0.141151 0.418650 0.8 0 0
0.293325 0.465937 0.688832 0.8 0 0
0.397666 0.148540 0.474854 0.8 0 0
0.607864 0.038969 0.283281 0.8 0 0
0.202001 0.467325 0.663884 0.8 0 0
0.376608 0.797674 0.048993 0.8 0 0
0.571893 0.439103 0.448044 0.8 0 0
0.596792 0.464192 0.413511 0.8 0 0
0.579643 0.467325 0.518754 0.8 0 0
0.154091 0.150735 0.673074 0.8 0 0
0.068504 0.662261 0.598016 0.8 0 0
0.350891 0.535044 0.132187 0.8 0 0
0.096119 0.933514 0.076230 0.8 0 0
0.093368 0.615852 0.198837 0.8 0 0
0.345968 0.439103 0.431191 0.8 0 0
0.565012 0.467325 0.566728 0.8 0 0
0.466181 0.467325 0.444372 0.8 0 0
0.439914 0.439103 0.413896 0.8 0 0
0.363811 0.279990 0.415218 0.8 0 0
0.433546 0.760111 0.053647 0.8 0 0
0.336687 0.467325 0.286996 0.8 0 0
0.582440 0.665247 0.589280 0.8 0 0
0.488966 0.467325 0.341233 0.8 0 0
0.316417 0.160559 0.167754 0.8 0 0
0.462107 0.467325 0.291514 0.8 0 0
0.310272 0.439103 0.553231 0.8 0 0
0.596792 0.460619 0.605718 0.8 0 0
0.602178 0.649941 0.213836 0.8 0 0
0.306993 0.085262 0.186289 0.8 0 0
0.362341 0.163139 0.174424 0.8 0 0
0.080172 0.439103 0.540700 0.8 0 0
0.097018 0.728307 0.072932 0.8 0 0
0.519272 0.439103 0.385712 0.8 0 0
0.363581 0.599150 0.075952 0.8 0 0
0.317054 0.783916 0.098768 0.8 0 0
0.223028 0.848864 0.043221 0.8 0 0
0.319699 0.354345 0.420655 0.8 0 0
0.422716 0.159429 0.550842 0.8 0 0
0.516929 0.927376 0.077854 0.8 0 0
0.525218 0.926972 0.030381 0.8 0 0
0.113458 0.467325 0.367760 0.8 0 0
0.149735 0.439103 0.422038 0.8 0 0
0.363266 0.265309 0.413542 0.8 0 0
0.300552 0.543782 0.102434 0.8 0 0
0.105012 0.768959 0.102385 0.8 0 0
0.099003 0.444680 0.647323 0.8 0 0
0.393405 0.752983 0.054913 0.8 0 0
0.359904 0.439103 0.497551 0.8 0 0
0.532635 0.467325 0.348473 0.8 0 0
0.565782 0.587474 0.238135 0.8 0 0
0.375977 0.633425 0.071221 0.8 0 0
0.357231 0.185814 0.460085 0.8 0 0
0.361071 0.714448 0.107836 0.8 0 0
0.110894 0.459206 0.631081 0.8 0 0
0.324089 0.140953 0.463754 0.8 0 0
0.391421 0.970522 0.045463 0.8 0 0
0.302945 0.570394 0.116595 0.8 0 0
0.466680 0.893150 0.082863 0.8 0 0
0.152999 0.514423 0.088999 0.8 0 0
0.341225 0.154631 0.184542 0.8 0 0
0.068822 0.624463 0.645931 0.8 0 0
0.374615 0.439103 0.525543 0.8 0 0
0.260012 0.439103 0.360222 0.8 0 0
0.138160 0.454243 0.686254 0.8 0 0
0.085373 0.668850 0.456093 0.8 0 0
0.335723 0.128480 0.196365 0.8 0 0
0.305355 0.819267 0.094073 0.8 0 0
0.408129 0.642556 0.069744 0.8 0 0
0.493213 0.762327 0.100365 0.8 0 0
0.226527 0.569561 0.128452 0.8 0 0
0.563550 0.476180 0.625582 0.8 0 0
0.075834 0.559183 0.251302 0.8 0 0
0.575106 0.467325 0.612497 0.8 0 0
0.279945 0.732414 0.058550 0.8 0 0
0.147169 0.467325 0.596827 0.8 0 0
0.273565 0.439103 0.671832 0.8 0 0
0.399823 0.900615 0.034890 0.8 0 0
0.106095 0.642282 0.639754 0.8 0 0
0.361719 0.159393 0.231557 0.8 0 0
0.540646 0.132205 0.615445 0.8 0 0
0.360084 0.401211 0.458012 0.8 0 0
0.142286 0.845955 0.091687 0.8 0 0
0.051469 0.057374 0.363724 0.8 0 0
0.183121 0.467325 0.558427 0.8 0 0
0.271086 0.164790 0.425814 0.8 0 0
0.191555 0.864375 0.088825 0.8 0 0
0.494865 0.539988 0.130436 0.8 0 0
0.448717 0.161000 0.366976 0.8 0 0
0.597906 0.646549 0.550356 0.8 0 0
0.389726 0.439103 0.426666 0.8 0 0
0.153084 0.467325 0.490009 0.8 0 0
0.100097 0.772355 0.101963 0.8 0 0
0.529827 0.734797 0.056349 0.8 0 0
0.358652 0.560470 0.120593 0.8 0 0
0.561324 0.561622 0.632456 0.8 0 0
0.500124 0.717539 0.058907 0.8 0 0
0.535518 0.439103 0.442357 0.8 0 0
0.108660 0.633016 0.467779 0.8 0 0
0.338935 0.154631 0.172615 0.8 0 0
0.500155 0.467325 0.223321 0.8 0 0
0.551271 0.467325 0.498974 0.8 0 0
0.302284 0.506468 0.131521 0.8 0 0
0.110714 0.641642 0.299674 0.8 0 0
0.115442 0.503056 0.212253 0.8 0 0
0.177636 0.161407 0.361858 0.8 0 0
0.139289 0.467325 0.350659 0.8 0 0
0.562709 0.663790 0.623598 0.8 0 0
0.105509 0.467325 0.582299 0.8 0 0
0.548481 0.132107 0.665872 0.8 0 0
0.117723 0.467325 0.351301 0.8 0 0
0.343811 0.922797 0.079775 0.8 0 0
0.561221 0.651736 0.466195 0.8 0 0
0.378684 0.487770 0.175710 0.8 0 0
0.332584 0.439668 0.437714 0.8 0 0
0.599184 0.663217 0.419381 0.8 0 0
0.105655 0.611363 0.199002 0.8 0 0
0.115931 0.468096 0.242185 0.8 0 0
0.156542 0.439103 0.598821 0.8 0 0
0.598218 0.653046 0.513674 0.8 0 0
0.110111 0.625189 0.375355 0.8 0 0
0.397969 0.743876 0.056111 0.8 0 0
0.515955 0.703706 0.108126 0.8 0 0
0.326202 0.752199 0.102990 0.8 0 0
0.075807 0.467325 0.507245 0.8 0 0
0.159654 0.841207 0.044734 0.8 0 0
0.473619 0.892233 0.035469 0.8 0 0
0.077671 0.495494 0.235924 0.8 0 0
0.437548 0.439103 0.553503 0.8 0 0
0.385316 0.439103 0.357282 0.8 0 0
0.395624 0.151440 0.475253 0.8 0 0
0.146284 0.857601 0.090081 0.8 0 0
0.609071 0.101740 0.292292 0.8 0 0
0.261780 0.467325 0.600787 0.8 0 0
0.288134 0.467325 0.168622 0.8 0 0
0.513308 0.439103 0.274754 0.8 0 0
0.310844 0.166143 0.438302 0.8 0 0
0.358637 0.468100 0.198806 0.8 0 0
0.143697 0.467325 0.677277 0.8 0 0
0.205689 0.467325 0.247732 0.8 0 0
0.240331 0.646747 0.070439 0.8 0 0
0.573569 0.583046 0.606547 0.8 0 0
0.080697 0.488104 0.604773 0.8 0 0
0.285800 0.799093 0.096949 0.8 0 0
0.167409 0.439103 0.281332 0.8 0 0
0.260976 0.166931 0.416260 0.8 0 0
0.339264 0.907351 0.081899 0.8 0 0
0.604593 0.558410 0.204162 0.8 0 0
0.366063 0.168781 0.445810 0.8 0 0
0.323390 0.661182 0.115327 0.8 0 0
0.573268 0.439103 0.306020 0.8 0 0
0.484564 0.467325 0.491559 0.8 0 0
0.438426 0.467325 0.476706 0.8 0 0
0.357624 0.301092 0.408160 0.8 0 0
0.554755 0.728887 0.104427 0.8 0 0
0.584042 0.162960 0.340186 0.8 0 0
0.351370 0.094629 0.149845 0.8 0 0
0.175600 0.134167 0.586109 0.8 0 0
0.301863 0.467325 0.656097 0.8 0 0
0.228950 0.626533 0.120725 0.8 0 0
0.247697 0.467325 0.190517 0.8 0 0
0.302255 0.504069 0.113616 0.8 0 0
0.410242 0.467325 0.457478 0.8 0 0
0.169698 0.467325 0.270465 0.8 0 0
0.344172 0.467325 0.325656 0.8 0 0
0.111162 0.467325 0.621175 0.8 0 0
0.109587 0.633186 0.398965 0.8 0 0
0.363907 0.164289 0.452445 0.8 0 0
0.098618 0.560024 0.095564 0.8 0 0
0.541505 0.628052 0.118170 0.8 0 0
0.367915 0.199319 0.427848 0.8 0 0
0.593544 0.467325 0.317430 0.8 0 0
0.385018 0.439103 0.586430 0.8 0 0
0.109132 0.652509 0.396086 0.8 0 0
0.583040 0.467325 0.220224 0.8 0 0
0.512955 0.467325 0.392778 0.8 0 0
0.375594 0.972881 0.064019 0.8 0 0
0.116175 0.471697 0.217415 0.8 0 0
0.550087 0.467325 0.377221 0.8 0 0
0.127106 0.561530 0.130286 0.8 0 0
0.462875 0.123476 0.393786 0.8 0 0
0.172459 0.577318 0.080343 0.8 0 0
0.252472 0.618252 0.074203 0.8 0 0
0.396358 0.439103 0.513078 0.8 0 0
0.138138 0.439103 0.606572 0.8 0 0
0.125813 0.588403 0.079194 0.8 0 0
0.209381 0.467325 0.687502 0.8 0 0
0.152629 0.385759 0.414363 0.8 0 0
0.132287 0.439103 0.206732 0.8 0 0
0.600915 0.625268 0.359011 0.8 0 0
0.443818 0.158972 0.525341 0.8 0 0
0.361264 0.159848 0.462223 0.8 0 0
0.129183 0.094867 0.660039 0.8 0 0
0.345701 0.467325 0.448554 0.8 0 0
0.355992 0.439103 0.223364 0.8 0 0
0.584847 0.467325 0.394163 0.8 0 0
0.096199 0.808359 0.055478 0.8 0 0
0.589059 0.467325 0.524145 0.8 0 0
0.315352 0.363545 0.402043 0.8 0 0
0.253853 0.118325 0.533363 0.8 0 0
0.250109 0.439103 0.232049 0.8 0 0
0.239873 0.467325 0.560521 0.8 0 0
0.296632 0.467325 0.356605 0.8 0 0
0.331537 0.767023 0.100945 0.8 0 0
0.071772 0.460363 0.569736 0.8 0 0
0.515082 0.591827 0.075804 0.8 0 0
0.332050 0.444838 0.163812 0.8 0 0
0.616978 0.152185 0.302372 0.8 0 0
0.406690 0.930070 0.078319 0.8 0 0
0.108001 0.641230 0.500929 0.8 0 0
0.234324 0.467325 0.487113 0.8 0 0
0.458950 0.439103 0.457014 0.8 0 0
0.371339 0.467325 0.417678 0.8 0 0
0.483012 0.973085 0.057972 0.8 0 0
0.562366 0.569878 0.125884 0.8 0 0
0.298455 0.950997 0.028835 0.8 0 0
0.590024 0.151441 0.291274 0.8 0 0
0.213790 0.165115 0.382486 0.8 0 0
0.119540 0.467325 0.478242 0.8 0 0
0.163172 0.092006 0.641801 0.8 0 0
0.158629 0.941603 0.078623 0.8 0 0
0.356233 0.155400 0.166314 0.8 0 0
0.070754 0.667950 0.421040 0.8 0 0
0.069592 0.605916 0.624088 0.8 0 0
0.269632 0.366197 0.425497 0.8 0 0
0.070618 0.630755 0.501348 0.8 0 0
0.330400 0.122795 0.435114 0.8 0 0
0.257497 0.556077 0.082578 0.8 0 0
0.396009 0.817498 0.046165 0.8 0 0
0.114023 0.680117 0.066873 0.8 0 0
0.073191 0.458059 0.637581 0.8 0 0
0.477713 0.467325 0.677680 0.8 0 0
0.124263 0.439103 0.467507 0.8 0 0
0.471342 0.164244 0.361396 0.8 0 0
0.372938 0.084178 0.163531 0.8 0 0
0.452641 0.439103 0.450637 0.8 0 0
0.266793 0.833590 0.092424 0.8 0 0
0.239376 0.902313 0.035866 0.8 0 0
0.332866 0.138639 0.412394 0.8 0 0
0.165399 0.541415 0.132720 0.8 0 0
0.563203 0.778750 0.059952 0.8 0 0
0.482978 0.876803 0.084952 0.8 0 0
0.287365 0.725765 0.106859 0.8 0 0
0.077625 0.497664 0.235231 0.8 0 0
0.075204 0.610372 0.201114 0.8 0 0
0.584832 0.062550 0.330879 0.8 0 0
0.144040 0.439103 0.388421 0.8 0 0
0.107239 0.604973 0.625652 0.8 0 0
0.525791 0.857180 0.087286 0.8 0 0
0.115406 0.508763 0.204131 0.8 0 0
0.105673 0.439103 0.432008 0.8 0 0
0.578221 0.439103 0.417485 0.8 0 0
0.138230 0.657760 0.069716 0.8 0 0
0.593622 0.523844 0.200695 0.8 0 0
0.148359 0.026617 0.639837 0.8 0 0
0.597611 0.640002 0.585744 0.8 0 0
0.350295 0.973603 0.071136 0.8 0 0
0.328337 0.521253 0.126629 0.8 0 0
0.559187 0.467325 0.249762 0.8 0 0
0.138758 0.910503 0.082980 0.8 0 0
0.343088 0.130642 0.164333 0.8 0 0
0.371570 0.139208 0.446875 0.8 0 0
0.246836 0.467325 0.439536 0.8 0 0
0.602393 0.647187 0.202500 0.8 0 0
0.239677 0.439103 0.332168 0.8 0 0
0.612654 0.172232 0.311549 0.8 0 0
0.530332 0.162524 0.326644 0.8 0 0
0.319116 0.568531 0.100001 0.8 0 0
0.575056 0.155608 0.299753 0.8 0 0
0.337417 0.467325 0.253721 0.8 0 0
0.082133 0.439103 0.397555 0.8 0 0
0.158988 0.439103 0.549733 0.8 0 0
0.562269 0.659900 0.369515 0.8 0 0
0.556152 0.167504 0.321350 0.8 0 0
0.174519 0.885439 0.038637 0.8 0 0
0.310099 0.628523 0.119846 0.8 0 0
0.470522 0.439103 0.309924 0.8 0 0
0.171367 0.126589 0.643648 0.8 0 0
0.326232 0.541585 0.131488 0.8 0 0
0.513655 0.439103 0.634588 0.8 0 0
0.351633 0.151649 0.459594 0.8 0 0
0.098029 0.467325 0.577830 0.8 0 0
0.171015 0.888487 0.038251 0.8 0 0
0.286737 0.588257 0.125470 0.8 0 0
0.304242 0.166687 0.410114 0.8 0 0
0.570715 0.664840 0.481551 0.8 0 0
0.401938 0.158197 0.488604 0.8 0 0
0.404050 0.741405 0.103866 0.8 0 0
0.076479 0.502778 0.604722 0.8 0 0
0.418744 0.467325 0.446919 0.8 0 0
0.349424 0.155543 0.419048 0.8 0 0
0.369510 0.662159 0.114848 0.8 0 0
0.391526 0.461249 0.163812 0.8 0 0
0.112671 0.467325 0.370616 0.8 0 0
0.475078 0.124056 0.593249 0.8 0 0
0.108245 0.439103 0.653497 0.8 0 0
0.080959 0.439103 0.318180 0.8 0 0
0.095297 0.669096 0.615349 0.8 0 0
0.427928 0.446991 0.688832 0.8 0 0
0.215388 0.744996 0.104798 0.8 0 0
0.137683 0.439103 0.686017 0.8 0 0
0.151806 0.467325 0.548495 0.8 0 0
0.578358 0.467325 0.271880 0.8 0 0
0.582513 0.618856 0.526152 0.8 0 0
0.507991 0.122806 0.605948 0.8 0 0
0.102974 0.650152 0.118476 0.8 0 0
0.334810 0.968068 0.031297 0.8 0 0
0.228035 0.676835 0.066460 0.8 0 0
0.361573 0.194542 0.456930 0.8 0 0
0.267138 0.467325 0.205340 0.8 0 0
0.073173 0.439464 0.235366 0.8 0 0
0.127112 0.452737 0.166914 0.8 0 0
0.487045 0.454263 0.163812 0.8 0 0
0.351882 0.569579 0.097868 0.8 0 0
0.303520 0.923270 0.080014 0.8 0 0
0.077202 0.531202 0.203108 0.8 0 0
0.240623 0.439103 0.553659 0.8 0 0
0.192221 0.439103 0.210474 0.8 0 0
0.422977 0.506769 0.096485 0.8 0 0
0.441320 0.846896 0.041846 0.8 0 0
0.527953 0.592664 0.075594 0.8 0 0
0.352252 0.159781 0.460412 0.8 0 0
0.079539 0.096503 0.336560 0.8 0 0
0.490943 0.671657 0.065184 0.8 0 0
0.355275 0.113136 0.453173 0.8 0 0
0.232326 0.770459 0.101226 0.8 0 0
0.257017 0.714085 0.061202 0.8 0 0
0.592229 0.467325 0.537256 0.8 0 0
0.361313 0.926939 0.079083 0.8 0 0
0.273350 0.467325 0.588241 0.8 0 0
0.582837 0.439103 0.580115 0.8 0 0
0.395060 0.439103 0.282305 0.8 0 0
0.325349 0.138639 0.406706 0.8 0 0
0.369959 0.125378 0.441810 0.8 0 0
0.026508 0.074898 0.325628 0.8 0 0
0.261153 0.439103 0.606282 0.8 0 0
0.115225 0.500979 0.232249 0.8 0 0
0.404802 0.456269 0.163812 0.8 0 0
0.333578 0.467325 0.423582 0.8 0 0
0.547676 0.766715 0.051896 0.8 0 0
0.076279 0.467325 0.620720 0.8 0 0
0.070685 0.566136 0.618493 0.8 0 0
0.218211 0.720494 0.060626 0.8 0 0
0.354309 0.158512 0.430044 0.8 0 0
0.107217 0.467325 0.668381 0.8 0 0
0.450463 0.439103 0.672553 0.8 0 0
0.357616 0.160330 0.416392 0.8 0 0
0.192330 0.821728 0.094589 0.8 0 0
0.307659 0.423922 0.407632 0.8 0 0
0.394997 0.566238 0.127635 0.8 0 0
0.601562 0.647652 0.265775 0.8 0 0
0.359944 0.584266 0.125459 0.8 0 0
0.496680 0.439691 0.688832 0.8 0 0
0.355818 0.317068 0.406847 0.8 0 0
0.526402 0.439103 0.551554 0.8 0 0
0.334418 0.467325 0.603543 0.8 0 0
0.171808 0.168002 0.632456 0.8 0 0
0.331483 0.778528 0.051923 0.8 0 0
0.405530 0.439103 0.369898 0.8 0 0
0.027585 0.051539 0.330505 0.8 0 0
0.374715 0.792372 0.097190 0.8 0 0
0.136803 0.030258 0.663322 0.8 0 0
0.311432 0.815724 0.094506 0.8 0 0
0.108926 0.439103 0.599359 0.8 0 0
0.540448 0.114525 0.627375 0.8 0 0
0.116130 0.455254 0.251786 0.8 0 0
0.425169 0.139871 0.419331 0.8 0 0
0.311502 0.439103 0.562107 0.8 0 0
0.425555 0.467325 0.227635 0.8 0 0
0.064204 0.161230 0.350098 0.8 0 0
0.518418 0.439103 0.486528 0.8 0 0
0.273558 0.843477 0.091036 0.8 0 0
0.402899 0.439103 0.543168 0.8 0 0
0.273225 0.339084 0.431563 0.8 0 0
0.379269 0.472710 0.171366 0.8 0 0
0.564031 0.708296 0.087744 0.8 0 0
0.108214 0.439103 0.592310 0.8 0 0
0.158785 0.449942 0.163812 0.8 0 0
0.378008 0.499223 0.146461 0.8 0 0
0.060676 0.032742 0.349054 0.8 0 0
0.567977 0.560001 0.652808 0.8 0 0
0.409163 0.467325 0.677472 0.8 0 0
0.292359 0.439103 0.609070 0.8 0 0
0.364266 0.165612 0.416619 0.8 0 0
0.192209 0.467325 0.277627 0.8 0 0
0.558839 0.467325 0.176008 0.8 0 0
0.148665 0.671981 0.115179 0.8 0 0
0.525248 0.467325 0.292539 0.8 0 0
0.519051 0.511722 0.100086 0.8 0 0
0.226412 0.508650 0.124219 0.8 0 0
0.129214 0.439103 0.448652 0.8 0 0
0.563471 0.782371 0.094452 0.8 0 0
0.163617 0.761501 0.102954 0.8 0 0
0.532358 0.891646 0.082573 0.8 0 0
0.392942 0.467325 0.223601 0.8 0 0
0.325731 0.156929 0.396813 0.8 0 0
0.432855 0.467325 0.417517 0.8 0 0
0.450168 0.467325 0.351199 0.8 0 0
0.496675 0.439103 0.513510 0.8 0 0
0.425586 0.163502 0.386302 0.8 0 0
0.138914 0.122708 0.645495 0.8 0 0
0.554263 0.682651 0.063220 0.8 0 0
0.377825 0.463426 0.163053 0.8 0 0
0.354082 0.167918 0.405586 0.8 0 0
0.574137 0.439103 0.370796 0.8 0 0
0.076984 0.527110 0.651056 0.8 0 0
0.341635 0.309020 0.469767 0.8 0 0
0.472890 0.969629 0.072468 0.8 0 0
0.153728 0.035638 0.667867 0.8 0 0
0.420361 0.467325 0.651275 0.8 0 0
0.158636 0.467325 0.393638 0.8 0 0
0.444833 0.439103 0.305983 0.8 0 0
0.247705 0.439103 0.326025 0.8 0 0
0.250072 0.519275 0.087613 0.8 0 0
0.453377 0.765868 0.100185 0.8 0 0
0.122975 0.439103 0.283237 0.8 0 0
0.098573 0.582745 0.112301 0.8 0 0
0.341604 0.439103 0.382335 0.8 0 0
0.449046 0.677187 0.112216 0.8 0 0
0.621472 0.082799 0.276327 0.8 0 0
0.424376 0.439103 0.410948 0.8 0 0
0.478995 0.630225 0.118346 0.8 0 0
0.283014 0.467325 0.599361 0.8 0 0
0.352837 0.117386 0.179462 0.8 0 0
0.302005 0.515655 0.145115 0.8 0 0
0.298155 0.136250 0.526216 0.8 0 0
0.436259 0.548727 0.129694 0.8 0 0
0.425779 0.862932 0.087259 0.8 0 0
0.365410 0.463009 0.113902 0.8 0 0
0.315572 0.439103 0.166291 0.8 0 0
0.596016 0.439103 0.536756 0.8 0 0
0.153308 0.116529 0.637567 0.8 0 0
0.254946 0.467325 0.243741 0.8 0 0
0.271918 0.439103 0.307626 0.8 0 0
0.242405 0.467325 0.175026 0.8 0 0
0.456769 0.528785 0.132238 0.8 0 0
0.217622 0.439103 0.667586 0.8 0 0
0.072374 0.629404 0.374176 0.8 0 0
0.353318 0.133391 0.178576 0.8 0 0
0.563633 0.732216 0.064827 0.8 0 0
0.364278 0.579170 0.078650 0.8 0 0
0.095320 0.900138 0.042360 0.8 0 0
0.238488 0.970266 0.054325 0.8 0 0
0.417885 0.439103 0.241487 0.8 0 0
0.480981 0.467325 0.660375 0.8 0 0
0.369265 0.967562 0.073527 0.8 0 0
0.285508 0.439103 0.688047 0.8 0 0
0.171706 0.972205 0.073360 0.8 0 0
0.333797 0.529668 0.125335 0.8 0 0
0.164362 0.971737 0.074502 0.8 0 0
0.306748 0.626815 0.120102 0.8 0 0
0.242504 0.164120 0.390631 0.8 0 0
0.333210 0.439103 0.281677 0.8 0 0
0.227545 0.559624 0.082323 0.8 0 0
0.351887 0.942759 0.077014 0.8 0 0
0.530820 0.698607 0.061238 0.8 0 0
0.114077 0.646937 0.071362 0.8 0 0
0.498907 0.462999 0.163812 0.8 0 0
0.315833 0.142430 0.260088 0.8 0 0
0.258531 0.710950 0.061615 0.8 0 0
0.279803 0.467325 0.343931 0.8 0 0
0.599657 0.639849 0.428024 0.8 0 0
0.109931 0.656373 0.329769 0.8 0 0
0.384257 0.753162 0.054958 0.8 0 0
0.336392 0.439103 0.553327 0.8 0 0
0.306013 0.467325 0.646388 0.8 0 0
0.560842 0.911578 0.067453 0.8 0 0
0.204559 0.353576 0.413057 0.8 0 0
0.280234 0.152354 0.542169 0.8 0 0
0.125826 0.439103 0.202120 0.8 0 0
0.545319 0.467325 0.284877 0.8 0 0
0.324892 0.051179 0.200065 0.8 0 0
0.375759 0.551259 0.129418 0.8 0 0
0.168687 0.069121 0.625110 0.8 0 0
0.126411 0.830517 0.093895 0.8 0 0
0.357257 0.123736 0.355519 0.8 0 0
0.430929 0.624113 0.119534 0.8 0 0
0.101716 0.669265 0.528254 0.8 0 0
0.226082 0.467325 0.239696 0.8 0 0
0.383988 0.117701 0.507940 0.8 0 0
0.424626 0.626433 0.119267 0.8 0 0
0.164778 0.606395 0.123932 0.8 0 0
0.485394 0.655506 0.114877 0.8 0 0
0.230931 0.439103 0.652428 0.8 0 0
0.140247 0.467325 0.278244 0.8 0 0
0.364078 0.638915 0.070568 0.8 0 0
0.147556 0.088592 0.650584 0.8 0 0
0.241437 0.439103 0.287378 0.8 0 0
0.522570 0.742176 0.055405 0.8 0 0
0.305231 0.216149 0.458563 0.8 0 0
0.572492 0.618660 0.577372 0.8 0 0
0.596792 0.461860 0.490519 0.8 0 0
0.455172 0.952279 0.027483 0.8 0 0
0.375254 0.467325 0.300186 0.8 0 0
0.161647 0.451179 0.688602 0.8 0 0
0.544894 0.467325 0.216648 0.8 0 0
0.379142 0.850953 0.041765 0.8 0 0
0.099964 0.467325 0.558039 0.8 0 0
0.266721 0.899064 0.083566 0.8 0 0
0.321913 0.122076 0.465443 0.8 0 0
0.315277 0.145161 0.362633 0.8 0 0
0.540310 0.439103 0.602406 0.8 0 0
0.518870 0.750316 0.101797 0.8 0 0
0.502871 0.854232 0.087857 0.8 0 0
0.104872 0.439103 0.423431 0.8 0 0
0.095406 0.918901 0.070359 0.8 0 0
0.269171 0.439103 0.580822 0.8 0 0
0.374976 0.483926 0.132313 0.8 0 0
0.170736 0.467325 0.166521 0.8 0 0
0.468521 0.757172 0.101248 0.8 0 0
0.359051 0.148645 0.440580 0.8 0 0
0.370775 0.439103 0.316001 0.8 0 0
0.591621 0.471028 0.653181 0.8 0 0
0.217141 0.439103 0.505352 0.8 0 0
0.129543 0.667814 0.115887 0.8 0 0
0.071772 0.450339 0.452745 0.8 0 0
0.074707 0.628897 0.202819 0.8 0 0
0.139738 0.439103 0.650832 0.8 0 0
0.301463 0.427201 0.413009 0.8 0 0
0.068308 0.643896 0.647191 0.8 0 0
0.418543 0.467325 0.214872 0.8 0 0
0.091134 0.622680 0.290203 0.8 0 0
0.463911 0.515992 0.086450 0.8 0 0
0.355519 0.331041 0.406630 0.8 0 0
0.376464 0.082183 0.169895 0.8 0 0
0.522611 0.920508 0.031275 0.8 0 0
0.501664 0.467325 0.479189 0.8 0 0
0.103109 0.466351 0.175001 0.8 0 0
0.277981 0.675468 0.113735 0.8 0 0
0.102661 0.538650 0.651409 0.8 0 0
0.424444 0.956735 0.027111 0.8 0 0
0.350721 0.507432 0.106468 0.8 0 0
0.145475 0.711679 0.109831 0.8 0 0
0.292082 0.439103 0.326770 0.8 0 0
0.287983 0.439103 0.542319 0.8 0 0
