0.213059 0.528233 0.492332 0.8 0 0
0.411853 0.528202 0.318484 0.8 0 0
0.384468 0.513992 0.150822 0.8 0 0
0.433327 0.296449 0.274912 0.8 0 0
0.113768 0.200091 0.446542 0.8 0 0
0.409829 0.223914 0.447502 0.8 0 0
0.411903 0.216742 0.451753 0.8 0 0
0.389199 0.438738 0.463144 0.8 0 0
0.085567 0.303316 0.290609 0.8 0 0
0.119279 0.534883 0.287832 0.8 0 0
0.267124 0.297665 0.484436 0.8 0 0
0.399724 0.534207 0.254689 0.8 0 0
0.381707 0.784222 0.128943 0.8 0 0
0.396713 0.489450 0.475955 0.8 0 0
0.100025 0.321249 0.338093 0.8 0 0
0.159252 0.528207 0.343611 0.8 0 0
0.057287 0.845843 0.142654 0.8 0 0
0.432221 0.445792 0.167605 0.8 0 0
0.197499 0.533805 0.176772 0.8 0 0
0.368610 0.495686 0.124869 0.8 0 0
0.369237 0.528909 0.165277 0.8 0 0
0.132936 0.213296 0.464434 0.8 0 0
0.217837 0.528231 0.479085 0.8 0 0
0.113624 0.528192 0.262313 0.8 0 0
0.095096 0.235582 0.138502 0.8 0 0
0.202266 0.528189 0.246415 0.8 0 0
0.119122 0.528194 0.267692 0.8 0 0
0.347011 0.528217 0.403478 0.8 0 0
0.126596 0.475448 0.322352 0.8 0 0
0.409845 0.936989 0.091618 0.8 0 0
0.411510 0.220721 0.115947 0.8 0 0
0.354000 0.528199 0.299900 0.8 0 0
0.087301 0.901830 0.107632 0.8 0 0
0.482546 0.847129 0.161204 0.8 0 0
0.195501 0.528185 0.224477 0.8 0 0
0.429129 0.349679 0.128360 0.8 0 0
0.160664 0.528209 0.359359 0.8 0 0
0.135316 0.304553 0.449488 0.8 0 0
0.465482 0.032944 0.051810 0.8 0 0
0.122540 0.744405 0.137823 0.8 0 0
0.403742 0.218176 0.123923 0.8 0 0
0.256786 0.528215 0.391770 0.8 0 0
0.088406 0.568609 0.165851 0.8 0 0
0.111068 0.262748 0.169827 0.8 0 0
0.178600 0.475471 0.455183 0.8 0 0
0.215812 0.300936 0.485671 0.8 0 0
0.261704 0.528225 0.446923 0.8 0 0
0.124659 0.163185 0.442222 0.8 0 0
0.374073 0.528202 0.317186 0.8 0 0
0.220772 0.475477 0.485609 0.8 0 0
0.134604 0.534843 0.245497 0.8 0 0
0.287679 0.528206 0.342550 0.8 0 0
0.353807 0.528214 0.381765 0.8 0 0
0.041180 0.725891 0.189718 0.8 0 0
0.142812 0.528221 0.421053 0.8 0 0
0.138903 0.306118 0.412249 0.8 0 0
0.068786 0.686545 0.177151 0.8 0 0
0.392056 0.349177 0.444511 0.8 0 0
0.401606 0.283213 0.467907 0.8 0 0
0.241506 0.475480 0.502659 0.8 0 0
0.293296 0.541508 0.222399 0.8 0 0
0.136565 0.528206 0.337238 0.8 0 0
0.380528 0.528185 0.222959 0.8 0 0
0.139580 0.738733 0.138324 0.8 0 0
0.311492 0.528233 0.494111 0.8 0 0
0.389036 0.475461 0.398895 0.8 0 0
0.387852 0.068896 0.461171 0.8 0 0
0.164744 0.475428 0.212712 0.8 0 0
0.264852 0.528187 0.234518 0.8 0 0
0.387902 0.528221 0.419532 0.8 0 0
0.408911 0.365550 0.145344 0.8 0 0
0.134281 0.206022 0.447955 0.8 0 0
0.145057 0.521274 0.110742 0.8 0 0
0.388969 0.532018 0.423988 0.8 0 0
0.333056 0.532322 0.465673 0.8 0 0
0.469982 0.749719 0.186086 0.8 0 0
0.206100 0.528225 0.445562 0.8 0 0
0.369483 0.475450 0.337391 0.8 0 0
0.096276 0.528194 0.268558 0.8 0 0
0.109341 0.383170 0.156189 0.8 0 0
0.395734 0.708116 0.118631 0.8 0 0
0.408306 0.399386 0.150614 0.8 0 0
0.234542 0.487470 0.523038 0.8 0 0
0.296132 0.475444 0.302623 0.8 0 0
0.329938 0.528194 0.268894 0.8 0 0
0.327964 0.539020 0.221589 0.8 0 0
0.136354 0.107589 0.453246 0.8 0 0
0.386258 0.298692 0.455347 0.8 0 0
0.121358 0.495074 0.472707 0.8 0 0
0.196545 0.323222 0.469155 0.8 0 0
0.138863 0.528195 0.277557 0.8 0 0
0.396551 0.475423 0.183809 0.8 0 0
0.100621 0.284961 0.109514 0.8 0 0
0.377079 0.528209 0.357041 0.8 0 0
0.296948 0.528190 0.249626 0.8 0 0
0.127863 0.475466 0.425926 0.8 0 0
0.445649 0.475456 0.371288 0.8 0 0
0.351022 0.528202 0.315832 0.8 0 0
0.117150 0.271530 0.163466 0.8 0 0
0.274485 0.528227 0.454912 0.8 0 0
0.118490 0.528219 0.409325 0.8 0 0
0.064715 0.485956 0.246853 0.8 0 0
0.296389 0.322727 0.483324 0.8 0 0
0.311309 0.475433 0.239571 0.8 0 0
0.135441 0.528230 0.463428 0.8 0 0
0.321694 0.528222 0.431026 0.8 0 0
0.469790 0.506302 0.304022 0.8 0 0
0.386688 0.475450 0.335111 0.8 0 0
0.446011 0.561769 0.186365 0.8 0 0
0.112007 0.386901 0.461127 0.8 0 0
0.111037 0.381442 0.451828 0.8 0 0
0.413111 0.325592 0.122625 0.8 0 0
0.273585 0.541128 0.215737 0.8 0 0
0.461621 0.719400 0.186040 0.8 0 0
0.470192 0.490066 0.328898 0.8 0 0
0.456197 0.871819 0.132334 0.8 0 0
0.447999 0.664609 0.182026 0.8 0 0
0.419212 0.342913 0.149088 0.8 0 0
0.280867 0.535770 0.179519 0.8 0 0
0.185587 0.528204 0.325376 0.8 0 0
0.315671 0.528226 0.450609 0.8 0 0
0.224740 0.528212 0.372568 0.8 0 0
0.447451 0.567547 0.167758 0.8 0 0
0.053985 0.041256 0.036301 0.8 0 0
0.123331 0.475424 0.194018 0.8 0 0
0.376790 0.665852 0.139650 0.8 0 0
0.429602 0.351225 0.129675 0.8 0 0
0.393111 0.247995 0.443833 0.8 0 0
0.092165 0.477065 0.436401 0.8 0 0
0.109330 0.402257 0.139689 0.8 0 0
0.397409 0.926277 0.109385 0.8 0 0
0.151496 0.475458 0.380709 0.8 0 0
0.104016 0.912861 0.110762 0.8 0 0
0.088961 0.092373 0.061315 0.8 0 0
0.344926 0.912681 0.119855 0.8 0 0
0.114036 0.317157 0.464178 0.8 0 0
0.390713 0.485276 0.154974 0.8 0 0
0.409732 0.919040 0.096338 0.8 0 0
0.439413 0.483602 0.164943 0.8 0 0
0.152899 0.528228 0.461924 0.8 0 0
0.271280 0.503333 0.526496 0.8 0 0
0.148776 0.539655 0.308050 0.8 0 0
0.418563 0.528196 0.282186 0.8 0 0
0.305310 0.478374 0.519628 0.8 0 0
0.136146 0.209444 0.458156 0.8 0 0
0.279589 0.528216 0.396727 0.8 0 0
0.099212 0.508808 0.180350 0.8 0 0
0.238420 0.528203 0.320388 0.8 0 0
0.415411 0.303106 0.345023 0.8 0 0
0.313944 0.475444 0.303920 0.8 0 0
0.163329 0.918506 0.113434 0.8 0 0
0.374811 0.475441 0.283995 0.8 0 0
0.151994 0.475461 0.396239 0.8 0 0
0.394376 0.837069 0.108919 0.8 0 0
0.159777 0.302119 0.461471 0.8 0 0
0.438731 0.893482 0.126432 0.8 0 0
0.080077 0.183674 0.091439 0.8 0 0
0.262438 0.475419 0.164339 0.8 0 0
0.230128 0.475462 0.401382 0.8 0 0
0.407510 0.285281 0.182800 0.8 0 0
0.391118 0.285457 0.465176 0.8 0 0
0.424074 0.175990 0.103786 0.8 0 0
0.255823 0.531664 0.487339 0.8 0 0
0.170377 0.528231 0.477016 0.8 0 0
0.283110 0.299071 0.478573 0.8 0 0
0.058244 0.732782 0.173107 0.8 0 0
0.115352 0.302228 0.375895 0.8 0 0
0.119665 0.371379 0.467554 0.8 0 0
0.149158 0.899360 0.120633 0.8 0 0
0.153940 0.590060 0.114715 0.8 0 0
0.367721 0.533521 0.202446 0.8 0 0
0.299121 0.528174 0.160726 0.8 0 0
0.237123 0.945840 0.097430 0.8 0 0
0.256685 0.544815 0.319457 0.8 0 0
0.069410 0.901273 0.135424 0.8 0 0
0.411969 0.119930 0.458271 0.8 0 0
0.230226 0.320369 0.472883 0.8 0 0
0.075739 0.148495 0.085942 0.8 0 0
0.401457 0.475456 0.366997 0.8 0 0
0.350884 0.475446 0.312642 0.8 0 0
0.134793 0.654142 0.140493 0.8 0 0
0.273616 0.528167 0.125590 0.8 0 0
0.220931 0.475418 0.158546 0.8 0 0
0.119291 0.475474 0.469645 0.8 0 0
0.420834 0.532928 0.304526 0.8 0 0
0.137808 0.856799 0.104777 0.8 0 0
0.389472 0.816828 0.134524 0.8 0 0
0.269362 0.528180 0.194255 0.8 0 0
0.084391 0.601196 0.170287 0.8 0 0
0.338650 0.528210 0.364319 0.8 0 0
0.430687 0.122937 0.086849 0.8 0 0
0.178515 0.542376 0.294177 0.8 0 0
0.249975 0.542181 0.410012 0.8 0 0
0.082116 0.169761 0.099977 0.8 0 0
0.402617 0.732953 0.123281 0.8 0 0
0.265845 0.475457 0.374640 0.8 0 0
0.422595 0.318098 0.268386 0.8 0 0
0.380715 0.528230 0.473537 0.8 0 0
0.151846 0.528183 0.208845 0.8 0 0
0.404179 0.531723 0.230437 0.8 0 0
0.078349 0.528216 0.391866 0.8 0 0
0.338452 0.542434 0.353948 0.8 0 0
0.089383 0.603216 0.179945 0.8 0 0
0.108663 0.282559 0.204351 0.8 0 0
0.116864 0.232281 0.140069 0.8 0 0
0.425602 0.340577 0.124341 0.8 0 0
0.408191 0.257162 0.159191 0.8 0 0
0.195262 0.530836 0.154243 0.8 0 0
0.163105 0.956597 0.098628 0.8 0 0
0.255112 0.528189 0.246254 0.8 0 0
0.275672 0.528221 0.421330 0.8 0 0
0.256532 0.543504 0.269057 0.8 0 0
0.073480 0.046249 0.051151 0.8 0 0
0.152851 0.528210 0.362565 0.8 0 0
0.077990 0.475462 0.406066 0.8 0 0
0.437588 0.308090 0.274123 0.8 0 0
0.415467 0.298925 0.115246 0.8 0 0
0.388146 0.528215 0.391978 0.8 0 0
0.162362 0.541796 0.319323 0.8 0 0
0.430062 0.475458 0.380960 0.8 0 0
0.383630 0.557243 0.124105 0.8 0 0
0.104523 0.519185 0.173513 0.8 0 0
0.178230 0.529072 0.150375 0.8 0 0
0.124483 0.535112 0.365254 0.8 0 0
0.144791 0.702312 0.122780 0.8 0 0
0.427889 0.528218 0.406465 0.8 0 0
0.329438 0.475413 0.131149 0.8 0 0
0.214100 0.542812 0.263298 0.8 0 0
0.148298 0.940354 0.080369 0.8 0 0
0.368128 0.548960 0.108268 0.8 0 0
0.114622 0.397215 0.149667 0.8 0 0
0.132032 0.488985 0.465013 0.8 0 0
0.429545 0.366857 0.132537 0.8 0 0
0.182967 0.528192 0.260753 0.8 0 0
0.249516 0.524214 0.108844 0.8 0 0
0.133565 0.536766 0.282806 0.8 0 0
0.077466 0.511760 0.220645 0.8 0 0
0.229814 0.475435 0.254646 0.8 0 0
0.372358 0.535926 0.400174 0.8 0 0
0.112785 0.941703 0.096758 0.8 0 0
0.388125 0.763124 0.138389 0.8 0 0
0.385548 0.834125 0.109111 0.8 0 0
0.078673 0.528561 0.366890 0.8 0 0
0.420825 0.226817 0.142398 0.8 0 0
0.098246 0.506220 0.157226 0.8 0 0
0.060917 0.500996 0.265663 0.8 0 0
0.442264 0.475432 0.237190 0.8 0 0
0.164146 0.963949 0.085685 0.8 0 0
0.188635 0.528218 0.407439 0.8 0 0
0.459467 0.475450 0.334362 0.8 0 0
0.202470 0.528176 0.169783 0.8 0 0
0.411676 0.475424 0.188710 0.8 0 0
0.369904 0.528201 0.312243 0.8 0 0
0.158073 0.528203 0.321187 0.8 0 0
0.142859 0.528184 0.215709 0.8 0 0
0.140344 0.528215 0.387876 0.8 0 0
0.242624 0.949800 0.085250 0.8 0 0
0.127691 0.375463 0.442789 0.8 0 0
0.134108 0.061375 0.462687 0.8 0 0
0.461783 0.475444 0.302804 0.8 0 0
0.446131 0.508631 0.221606 0.8 0 0
0.246004 0.528226 0.452527 0.8 0 0
0.107823 0.528212 0.370301 0.8 0 0
0.154300 0.530990 0.453062 0.8 0 0
0.094599 0.475459 0.387713 0.8 0 0
0.269364 0.974063 0.078934 0.8 0 0
0.231727 0.528217 0.400536 0.8 0 0
0.340406 0.475468 0.434247 0.8 0 0
0.207102 0.958997 0.094252 0.8 0 0
0.407925 0.270987 0.465030 0.8 0 0
0.355734 0.528173 0.152373 0.8 0 0
0.407527 0.369208 0.445028 0.8 0 0
0.390590 0.534710 0.387876 0.8 0 0
0.178122 0.528228 0.462677 0.8 0 0
0.325044 0.543053 0.324109 0.8 0 0
0.088909 0.305684 0.236025 0.8 0 0
0.164881 0.476373 0.501609 0.8 0 0
0.383094 0.745824 0.136596 0.8 0 0
0.236384 0.543778 0.286825 0.8 0 0
0.388539 0.105113 0.462205 0.8 0 0
0.361404 0.475418 0.154390 0.8 0 0
0.085065 0.081396 0.065828 0.8 0 0
0.360003 0.475467 0.429460 0.8 0 0
0.390417 0.350897 0.445593 0.8 0 0
0.351132 0.528210 0.362455 0.8 0 0
0.130756 0.475439 0.277437 0.8 0 0
0.110444 0.465728 0.454788 0.8 0 0
0.347482 0.298071 0.458517 0.8 0 0
0.152962 0.862936 0.120773 0.8 0 0
0.127188 0.298188 0.413205 0.8 0 0
0.138875 0.756886 0.118586 0.8 0 0
0.312128 0.528227 0.453927 0.8 0 0
0.373484 0.490894 0.101965 0.8 0 0
0.218186 0.528194 0.272437 0.8 0 0
0.410571 0.042167 0.461761 0.8 0 0
0.133644 0.102727 0.463382 0.8 0 0
0.299285 0.543222 0.362220 0.8 0 0
0.294191 0.528170 0.134689 0.8 0 0
0.382433 0.799818 0.129070 0.8 0 0
0.297150 0.528169 0.135948 0.8 0 0
0.215223 0.510450 0.519133 0.8 0 0
0.257453 0.528222 0.427784 0.8 0 0
0.309897 0.542410 0.248076 0.8 0 0
0.280032 0.475466 0.422449 0.8 0 0
0.114583 0.334753 0.134107 0.8 0 0
0.426048 0.475456 0.368979 0.8 0 0
0.344567 0.528181 0.198229 0.8 0 0
0.341137 0.475444 0.301672 0.8 0 0
0.093677 0.528194 0.267581 0.8 0 0
0.123542 0.696247 0.134909 0.8 0 0
0.130739 0.219639 0.465924 0.8 0 0
0.135780 0.357344 0.459964 0.8 0 0
0.130006 0.642160 0.134212 0.8 0 0
0.403004 0.510391 0.163131 0.8 0 0
0.238116 0.475431 0.230347 0.8 0 0
0.332895 0.528182 0.207820 0.8 0 0
0.359714 0.955195 0.075648 0.8 0 0
0.387955 0.882991 0.117522 0.8 0 0
0.431377 0.291277 0.243214 0.8 0 0
0.111929 0.337434 0.142839 0.8 0 0
0.386126 0.528198 0.291629 0.8 0 0
0.188420 0.905582 0.104209 0.8 0 0
0.484527 0.799974 0.153180 0.8 0 0
0.221876 0.528214 0.381791 0.8 0 0
0.090200 0.280824 0.176046 0.8 0 0
0.172624 0.540191 0.254978 0.8 0 0
0.184964 0.540398 0.395357 0.8 0 0
0.213578 0.475473 0.460328 0.8 0 0
0.293141 0.475456 0.367369 0.8 0 0
0.135297 0.039299 0.460890 0.8 0 0
0.078364 0.528661 0.273523 0.8 0 0
0.211402 0.320006 0.485499 0.8 0 0
0.089806 0.489168 0.202064 0.8 0 0
0.252558 0.929740 0.092239 0.8 0 0
0.182467 0.475468 0.434067 0.8 0 0
0.118425 0.475445 0.305064 0.8 0 0
0.408711 0.259236 0.464508 0.8 0 0
0.269528 0.529943 0.136233 0.8 0 0
0.076482 0.148187 0.088397 0.8 0 0
0.089548 0.290671 0.211323 0.8 0 0
0.155591 0.300201 0.453854 0.8 0 0
0.178198 0.528218 0.406876 0.8 0 0
0.168113 0.528181 0.201046 0.8 0 0
0.356135 0.528231 0.479019 0.8 0 0
0.113848 0.475440 0.281291 0.8 0 0
0.268021 0.542296 0.407112 0.8 0 0
0.409072 0.528193 0.265230 0.8 0 0
0.238201 0.475436 0.259770 0.8 0 0
0.147607 0.624791 0.116289 0.8 0 0
0.223351 0.536447 0.447028 0.8 0 0
0.409878 0.179115 0.447585 0.8 0 0
0.406546 0.320398 0.382645 0.8 0 0
0.437055 0.458742 0.158094 0.8 0 0
0.258868 0.528218 0.408016 0.8 0 0
0.235021 0.475451 0.342202 0.8 0 0
0.323534 0.475447 0.316729 0.8 0 0
0.331776 0.528224 0.436031 0.8 0 0
0.192397 0.315238 0.481639 0.8 0 0
0.267751 0.529027 0.129428 0.8 0 0
0.156090 0.507304 0.495767 0.8 0 0
0.133151 0.528206 0.341923 0.8 0 0
0.277374 0.475429 0.218412 0.8 0 0
0.393026 0.530963 0.204198 0.8 0 0
0.148053 0.481675 0.104832 0.8 0 0
0.225909 0.949819 0.088670 0.8 0 0
0.111152 0.137796 0.459052 0.8 0 0
0.116218 0.528197 0.285478 0.8 0 0
0.426274 0.257928 0.102977 0.8 0 0
0.222542 0.528234 0.495121 0.8 0 0
0.349512 0.492117 0.507295 0.8 0 0
0.426905 0.475456 0.371668 0.8 0 0
0.069454 0.521905 0.402189 0.8 0 0
0.354427 0.528593 0.482408 0.8 0 0
0.083039 0.170826 0.100754 0.8 0 0
0.163680 0.528177 0.182121 0.8 0 0
0.213962 0.528210 0.358326 0.8 0 0
0.404808 0.781134 0.120788 0.8 0 0
0.216228 0.322439 0.480928 0.8 0 0
0.281250 0.543079 0.257740 0.8 0 0
0.496859 0.802615 0.162804 0.8 0 0
0.105920 0.528178 0.184180 0.8 0 0
0.419321 0.475447 0.318073 0.8 0 0
0.402984 0.351800 0.467619 0.8 0 0
0.388762 0.313609 0.405458 0.8 0 0
0.163111 0.528207 0.346073 0.8 0 0
0.137592 0.578773 0.128864 0.8 0 0
0.396626 0.738083 0.139932 0.8 0 0
0.119832 0.203575 0.125472 0.8 0 0
0.311121 0.528979 0.137852 0.8 0 0
0.349814 0.528236 0.505157 0.8 0 0
0.172046 0.475478 0.492299 0.8 0 0
0.409423 0.298669 0.463434 0.8 0 0
0.206612 0.475421 0.173010 0.8 0 0
0.302677 0.528198 0.294268 0.8 0 0
0.053911 0.493102 0.300359 0.8 0 0
0.392672 0.528216 0.394404 0.8 0 0
0.324031 0.510329 0.515843 0.8 0 0
0.076768 0.529224 0.300828 0.8 0 0
0.164407 0.528183 0.212392 0.8 0 0
0.316604 0.946594 0.084623 0.8 0 0
0.068280 0.696828 0.183775 0.8 0 0
0.081344 0.504118 0.169649 0.8 0 0
0.330413 0.475447 0.317641 0.8 0 0
0.405390 0.785301 0.121564 0.8 0 0
0.258054 0.535421 0.173853 0.8 0 0
0.466486 0.743286 0.183368 0.8 0 0
0.101778 0.201283 0.126675 0.8 0 0
0.411207 0.915837 0.106319 0.8 0 0
0.419665 0.531546 0.173736 0.8 0 0
0.386553 0.795568 0.135321 0.8 0 0
0.390252 0.475418 0.159359 0.8 0 0
0.083296 0.308206 0.308114 0.8 0 0
0.112695 0.237496 0.147888 0.8 0 0
0.177836 0.475481 0.509010 0.8 0 0
0.259251 0.528207 0.342601 0.8 0 0
0.331456 0.528190 0.248033 0.8 0 0
0.150466 0.518641 0.492031 0.8 0 0
0.180272 0.542542 0.322318 0.8 0 0
0.079884 0.528212 0.370601 0.8 0 0
0.478578 0.793592 0.155812 0.8 0 0
0.441662 0.528193 0.265869 0.8 0 0
0.409730 0.528193 0.268236 0.8 0 0
0.141107 0.840870 0.109417 0.8 0 0
0.327209 0.475447 0.316763 0.8 0 0
0.435335 0.475465 0.420949 0.8 0 0
0.086968 0.306213 0.349661 0.8 0 0
0.391759 0.925552 0.103157 0.8 0 0
0.158023 0.479386 0.137860 0.8 0 0
0.093218 0.414523 0.161849 0.8 0 0
0.254238 0.543204 0.259456 0.8 0 0
0.056490 0.504428 0.287583 0.8 0 0
0.407030 0.513725 0.469101 0.8 0 0
0.275470 0.938728 0.115602 0.8 0 0
0.356375 0.528235 0.501683 0.8 0 0
0.332527 0.323826 0.467824 0.8 0 0
0.369533 0.539715 0.287287 0.8 0 0
0.121970 0.828922 0.130129 0.8 0 0
0.293240 0.475411 0.116476 0.8 0 0
0.409573 0.297344 0.219986 0.8 0 0
0.186871 0.914222 0.095614 0.8 0 0
0.163079 0.475450 0.335458 0.8 0 0
0.188564 0.541614 0.386349 0.8 0 0
0.263255 0.528178 0.182431 0.8 0 0
0.061486 0.681581 0.170943 0.8 0 0
0.103493 0.475428 0.215707 0.8 0 0
0.204753 0.542397 0.253050 0.8 0 0
0.440482 0.633943 0.184514 0.8 0 0
0.204785 0.528213 0.375928 0.8 0 0
0.376890 0.534000 0.417417 0.8 0 0
0.142111 0.528205 0.337034 0.8 0 0
0.410856 0.528223 0.433180 0.8 0 0
0.270616 0.949968 0.075035 0.8 0 0
0.094803 0.314541 0.379629 0.8 0 0
0.454372 0.887296 0.114438 0.8 0 0
0.406102 0.534020 0.269824 0.8 0 0
0.264599 0.528217 0.402848 0.8 0 0
0.326389 0.528184 0.212645 0.8 0 0
0.153748 0.528186 0.225035 0.8 0 0
0.318852 0.542945 0.352766 0.8 0 0
0.238279 0.491315 0.523792 0.8 0 0
0.245885 0.523047 0.525323 0.8 0 0
0.439922 0.528212 0.370145 0.8 0 0
0.294272 0.962384 0.068079 0.8 0 0
0.471226 0.655499 0.183439 0.8 0 0
0.072457 0.054530 0.038644 0.8 0 0
0.317260 0.933011 0.092786 0.8 0 0
0.249105 0.528213 0.379959 0.8 0 0
0.092116 0.102494 0.066315 0.8 0 0
0.435866 0.252307 0.109329 0.8 0 0
0.333251 0.948510 0.094138 0.8 0 0
0.284600 0.305191 0.493076 0.8 0 0
0.330071 0.528221 0.423920 0.8 0 0
0.353851 0.298057 0.458159 0.8 0 0
0.251946 0.475472 0.457143 0.8 0 0
0.120463 0.475435 0.251765 0.8 0 0
0.255723 0.532708 0.155234 0.8 0 0
0.215661 0.534694 0.457835 0.8 0 0
0.316130 0.919411 0.112549 0.8 0 0
0.265670 0.528223 0.433457 0.8 0 0
0.308778 0.528189 0.247236 0.8 0 0
0.124366 0.043615 0.442185 0.8 0 0
0.402617 0.212335 0.126973 0.8 0 0
0.219201 0.528184 0.219030 0.8 0 0
0.452216 0.475432 0.234546 0.8 0 0
0.142128 0.749991 0.131536 0.8 0 0
0.095975 0.922096 0.121327 0.8 0 0
0.362365 0.540839 0.344062 0.8 0 0
0.155404 0.484438 0.122937 0.8 0 0
0.134972 0.528218 0.403572 0.8 0 0
0.434636 0.434269 0.152009 0.8 0 0
0.383148 0.475462 0.405526 0.8 0 0
0.125671 0.528188 0.234777 0.8 0 0
0.187017 0.475459 0.384751 0.8 0 0
0.189780 0.532784 0.173440 0.8 0 0
0.210993 0.475453 0.352604 0.8 0 0
0.445683 0.075335 0.068736 0.8 0 0
0.395896 0.475420 0.168260 0.8 0 0
0.337867 0.531048 0.162171 0.8 0 0
0.079459 0.910825 0.102589 0.8 0 0
0.350747 0.913098 0.095872 0.8 0 0
0.443387 0.170019 0.095324 0.8 0 0
0.224251 0.475456 0.368998 0.8 0 0
0.181787 0.475420 0.166463 0.8 0 0
0.437769 0.230071 0.110496 0.8 0 0
0.481588 0.707395 0.187179 0.8 0 0
0.416174 0.475438 0.270525 0.8 0 0
0.433949 0.293525 0.231795 0.8 0 0
0.184774 0.528171 0.142482 0.8 0 0
0.458558 0.042444 0.054993 0.8 0 0
0.225705 0.475447 0.318603 0.8 0 0
0.028218 0.791441 0.171435 0.8 0 0
0.135397 0.793701 0.135790 0.8 0 0
0.228982 0.542924 0.377737 0.8 0 0
0.053587 0.831025 0.148794 0.8 0 0
0.088954 0.931620 0.107374 0.8 0 0
0.372125 0.528233 0.488031 0.8 0 0
0.058280 0.639587 0.190738 0.8 0 0
0.058446 0.481816 0.277898 0.8 0 0
0.243104 0.528218 0.408506 0.8 0 0
0.438256 0.528207 0.341826 0.8 0 0
0.287779 0.528226 0.449534 0.8 0 0
0.200229 0.475479 0.497310 0.8 0 0
0.154990 0.885114 0.124326 0.8 0 0
0.243712 0.528188 0.239879 0.8 0 0
0.438372 0.494446 0.424988 0.8 0 0
0.469669 0.836411 0.159517 0.8 0 0
0.223521 0.475474 0.468319 0.8 0 0
0.495774 0.805651 0.168375 0.8 0 0
0.312189 0.528182 0.202476 0.8 0 0
0.213721 0.525661 0.116071 0.8 0 0
0.205076 0.475422 0.180372 0.8 0 0
0.413222 0.221635 0.107474 0.8 0 0
0.137317 0.528181 0.201979 0.8 0 0
0.210564 0.528203 0.322782 0.8 0 0
0.483857 0.717490 0.186408 0.8 0 0
0.122421 0.518956 0.473409 0.8 0 0
0.432326 0.333043 0.138584 0.8 0 0
0.106970 0.286326 0.134118 0.8 0 0
0.386911 0.366135 0.458614 0.8 0 0
0.094075 0.117880 0.080392 0.8 0 0
0.110488 0.307087 0.282094 0.8 0 0
0.153746 0.549929 0.107905 0.8 0 0
0.444496 0.585335 0.167507 0.8 0 0
0.109534 0.221775 0.107942 0.8 0 0
0.147227 0.475418 0.158748 0.8 0 0
0.393592 0.482794 0.478028 0.8 0 0
0.175906 0.528223 0.429168 0.8 0 0
0.088717 0.109381 0.061114 0.8 0 0
0.477500 0.883371 0.132979 0.8 0 0
0.099807 0.528188 0.239303 0.8 0 0
0.221788 0.543700 0.301572 0.8 0 0
0.477390 0.754327 0.189316 0.8 0 0
0.319348 0.535792 0.445984 0.8 0 0
0.121809 0.475434 0.248996 0.8 0 0
0.112000 0.475435 0.256237 0.8 0 0
0.193991 0.528224 0.437645 0.8 0 0
0.299712 0.528173 0.155518 0.8 0 0
0.125046 0.528186 0.224950 0.8 0 0
0.343621 0.475416 0.147883 0.8 0 0
0.428502 0.115956 0.078376 0.8 0 0
0.386944 0.041803 0.451606 0.8 0 0
0.350160 0.528218 0.401853 0.8 0 0
0.142193 0.475448 0.323014 0.8 0 0
0.429243 0.313861 0.118767 0.8 0 0
0.214724 0.528180 0.197880 0.8 0 0
0.387937 0.619033 0.118420 0.8 0 0
0.157105 0.528219 0.408146 0.8 0 0
0.386284 0.149699 0.455503 0.8 0 0
0.186172 0.528221 0.421690 0.8 0 0
0.457510 0.600233 0.184527 0.8 0 0
0.470446 0.730688 0.191079 0.8 0 0
0.351183 0.894147 0.106909 0.8 0 0
0.114751 0.277726 0.179825 0.8 0 0
0.130368 0.253836 0.466166 0.8 0 0
0.128430 0.536825 0.324709 0.8 0 0
0.390251 0.475451 0.342582 0.8 0 0
0.086755 0.612971 0.178912 0.8 0 0
0.286395 0.528219 0.411047 0.8 0 0
0.334221 0.542668 0.343748 0.8 0 0
0.273724 0.528201 0.312044 0.8 0 0
0.278890 0.528191 0.256126 0.8 0 0
0.201769 0.475449 0.330909 0.8 0 0
0.064668 0.610960 0.173740 0.8 0 0
0.251911 0.929951 0.092054 0.8 0 0
0.070843 0.528201 0.310592 0.8 0 0
0.161605 0.960519 0.078630 0.8 0 0
0.354497 0.528202 0.313918 0.8 0 0
0.146282 0.516853 0.489253 0.8 0 0
0.382919 0.691395 0.118444 0.8 0 0
0.201616 0.528217 0.399954 0.8 0 0
0.437534 0.466710 0.159533 0.8 0 0
0.113089 0.142579 0.447580 0.8 0 0
0.085758 0.541199 0.186808 0.8 0 0
0.314746 0.528179 0.191404 0.8 0 0
0.086558 0.520848 0.159893 0.8 0 0
0.185035 0.528197 0.288005 0.8 0 0
0.131929 0.530280 0.442654 0.8 0 0
0.169106 0.528220 0.414761 0.8 0 0
0.349456 0.542355 0.320144 0.8 0 0
0.316366 0.928731 0.092150 0.8 0 0
0.135615 0.688046 0.142445 0.8 0 0
0.101719 0.172793 0.083896 0.8 0 0
0.211550 0.528167 0.120315 0.8 0 0
0.103977 0.528313 0.425054 0.8 0 0
0.246437 0.956422 0.068461 0.8 0 0
0.086735 0.486020 0.157387 0.8 0 0
0.106379 0.425132 0.143198 0.8 0 0
0.445999 0.528193 0.268753 0.8 0 0
0.112316 0.441912 0.448698 0.8 0 0
0.459735 0.481760 0.380688 0.8 0 0
0.336113 0.475458 0.378133 0.8 0 0
0.332264 0.475448 0.322506 0.8 0 0
0.381596 0.694116 0.140451 0.8 0 0
0.299360 0.528181 0.204447 0.8 0 0
0.336507 0.537099 0.423734 0.8 0 0
0.087207 0.300025 0.258729 0.8 0 0
0.370886 0.520138 0.493098 0.8 0 0
0.226492 0.317565 0.469651 0.8 0 0
0.100438 0.475429 0.220913 0.8 0 0
0.175634 0.528212 0.374311 0.8 0 0
0.356279 0.538489 0.242715 0.8 0 0
0.366125 0.321895 0.452772 0.8 0 0
0.141482 0.322741 0.437436 0.8 0 0
0.107515 0.528203 0.325633 0.8 0 0
0.166934 0.921630 0.102884 0.8 0 0
0.205027 0.528187 0.232853 0.8 0 0
0.041681 0.822039 0.145480 0.8 0 0
0.412322 0.528180 0.193434 0.8 0 0
0.245676 0.528227 0.456486 0.8 0 0
0.350773 0.528178 0.179270 0.8 0 0
0.134168 0.849690 0.106323 0.8 0 0
0.123724 0.294129 0.442012 0.8 0 0
0.106060 0.303040 0.331473 0.8 0 0
0.383876 0.514777 0.150429 0.8 0 0
0.409281 0.509106 0.167299 0.8 0 0
0.353383 0.475438 0.272482 0.8 0 0
0.386779 0.120502 0.452400 0.8 0 0
0.109128 0.345539 0.126710 0.8 0 0
0.164068 0.534975 0.426479 0.8 0 0
0.270227 0.544675 0.321906 0.8 0 0
0.299792 0.475483 0.516592 0.8 0 0
0.375803 0.482492 0.114051 0.8 0 0
0.401839 0.528210 0.364678 0.8 0 0
0.431311 0.354853 0.146362 0.8 0 0
0.417371 0.532887 0.286046 0.8 0 0
0.428223 0.383739 0.155734 0.8 0 0
0.409327 0.202545 0.446745 0.8 0 0
0.270153 0.528201 0.309916 0.8 0 0
0.075934 0.648154 0.174086 0.8 0 0
0.246492 0.528207 0.341899 0.8 0 0
0.271911 0.924798 0.095945 0.8 0 0
0.099398 0.147237 0.079940 0.8 0 0
0.250491 0.528173 0.156246 0.8 0 0
0.165278 0.511379 0.124787 0.8 0 0
0.362824 0.528189 0.245783 0.8 0 0
0.240646 0.528180 0.193247 0.8 0 0
0.153954 0.528215 0.389514 0.8 0 0
0.224499 0.528181 0.197159 0.8 0 0
0.317196 0.528200 0.305915 0.8 0 0
0.307698 0.528236 0.506934 0.8 0 0
0.092050 0.511868 0.436221 0.8 0 0
0.065184 0.045886 0.056622 0.8 0 0
0.374849 0.586136 0.137841 0.8 0 0
0.438004 0.528217 0.396363 0.8 0 0
0.411606 0.475458 0.383254 0.8 0 0
0.026782 0.806862 0.166604 0.8 0 0
0.386499 0.315730 0.453729 0.8 0 0
0.471801 0.476368 0.313984 0.8 0 0
0.121829 0.300481 0.442318 0.8 0 0
0.163506 0.528180 0.190039 0.8 0 0
0.087495 0.528190 0.250156 0.8 0 0
0.153003 0.528178 0.187642 0.8 0 0
0.378677 0.475476 0.480768 0.8 0 0
0.323551 0.541205 0.398270 0.8 0 0
0.253541 0.528171 0.147601 0.8 0 0
0.231582 0.531266 0.149954 0.8 0 0
0.394571 0.795714 0.137836 0.8 0 0
0.299376 0.537745 0.437926 0.8 0 0
0.135289 0.388072 0.460840 0.8 0 0
0.092502 0.306433 0.118353 0.8 0 0
0.131480 0.720273 0.116655 0.8 0 0
0.109752 0.475461 0.399643 0.8 0 0
0.369935 0.528215 0.391549 0.8 0 0
0.299858 0.475475 0.472082 0.8 0 0
0.256207 0.528196 0.283544 0.8 0 0
0.116903 0.086630 0.444097 0.8 0 0
0.294042 0.930283 0.114950 0.8 0 0
0.429512 0.528223 0.430354 0.8 0 0
0.412482 0.475424 0.192138 0.8 0 0
0.139021 0.607316 0.137295 0.8 0 0
0.167691 0.511611 0.119959 0.8 0 0
0.129637 0.379856 0.443669 0.8 0 0
0.345189 0.528236 0.505416 0.8 0 0
0.436225 0.576079 0.166577 0.8 0 0
0.492008 0.805924 0.173870 0.8 0 0
0.483120 0.872906 0.139532 0.8 0 0
0.283541 0.541139 0.417192 0.8 0 0
0.068742 0.650922 0.170392 0.8 0 0
0.203394 0.533988 0.460331 0.8 0 0
0.208220 0.528185 0.222666 0.8 0 0
0.267061 0.528202 0.314912 0.8 0 0
0.093422 0.456324 0.171581 0.8 0 0
0.233388 0.528190 0.251858 0.8 0 0
0.365416 0.943409 0.077807 0.8 0 0
0.214461 0.528178 0.188067 0.8 0 0
0.106863 0.478360 0.155719 0.8 0 0
0.433125 0.256003 0.105621 0.8 0 0
0.129676 0.535107 0.256182 0.8 0 0
0.068222 0.684170 0.190443 0.8 0 0
0.159102 0.878036 0.119833 0.8 0 0
0.444075 0.503084 0.218511 0.8 0 0
0.144249 0.633383 0.140425 0.8 0 0
0.390145 0.533772 0.234859 0.8 0 0
0.152546 0.537321 0.249393 0.8 0 0
0.182385 0.312337 0.477726 0.8 0 0
0.280916 0.542248 0.406121 0.8 0 0
0.331665 0.475443 0.299589 0.8 0 0
0.087943 0.500707 0.204868 0.8 0 0
0.113448 0.098170 0.447045 0.8 0 0
0.457176 0.528200 0.306276 0.8 0 0
0.318993 0.475478 0.491113 0.8 0 0
0.226034 0.528180 0.198974 0.8 0 0
0.193388 0.528207 0.346486 0.8 0 0
0.163600 0.528186 0.223934 0.8 0 0
0.421887 0.475427 0.205657 0.8 0 0
0.411124 0.414298 0.144018 0.8 0 0
0.164592 0.537883 0.396831 0.8 0 0
0.181167 0.528228 0.461787 0.8 0 0
0.179960 0.528181 0.141854 0.8 0 0
0.289032 0.542937 0.380487 0.8 0 0
0.117568 0.534583 0.349336 0.8 0 0
0.133276 0.528204 0.328402 0.8 0 0
0.373404 0.671916 0.126804 0.8 0 0
0.265425 0.475467 0.428497 0.8 0 0
0.445230 0.475436 0.257010 0.8 0 0
0.332577 0.528215 0.385567 0.8 0 0
0.350107 0.504799 0.128008 0.8 0 0
0.094665 0.293175 0.260361 0.8 0 0
0.435285 0.528192 0.263933 0.8 0 0
0.104937 0.475435 0.256371 0.8 0 0
0.308329 0.528217 0.400554 0.8 0 0
0.083246 0.137901 0.093290 0.8 0 0
0.107373 0.528189 0.243851 0.8 0 0
0.109343 0.283786 0.132132 0.8 0 0
0.133933 0.103786 0.447454 0.8 0 0
0.154382 0.528217 0.400802 0.8 0 0
0.203179 0.926167 0.116806 0.8 0 0
0.462016 0.501524 0.265525 0.8 0 0
0.261007 0.528204 0.326106 0.8 0 0
0.167192 0.952505 0.099647 0.8 0 0
0.389338 0.536503 0.361864 0.8 0 0
0.086148 0.313716 0.298885 0.8 0 0
0.385266 0.945801 0.106244 0.8 0 0
0.167007 0.531707 0.117639 0.8 0 0
0.257637 0.519201 0.107205 0.8 0 0
0.355825 0.523995 0.121038 0.8 0 0
0.425637 0.355916 0.128025 0.8 0 0
0.125064 0.534297 0.253017 0.8 0 0
0.451725 0.576591 0.185284 0.8 0 0
0.407602 0.274889 0.174087 0.8 0 0
0.050815 0.499540 0.315689 0.8 0 0
0.378495 0.528181 0.199134 0.8 0 0
0.258615 0.971432 0.070529 0.8 0 0
0.210633 0.475440 0.278073 0.8 0 0
0.239609 0.528232 0.487714 0.8 0 0
0.461368 0.520759 0.262312 0.8 0 0
0.282969 0.528194 0.273859 0.8 0 0
0.391745 0.630027 0.132624 0.8 0 0
0.294352 0.543409 0.277340 0.8 0 0
0.104350 0.475462 0.404556 0.8 0 0
0.364269 0.604653 0.128354 0.8 0 0
0.140921 0.946168 0.081043 0.8 0 0
0.457622 0.681278 0.194555 0.8 0 0
0.332765 0.528185 0.222587 0.8 0 0
0.290018 0.517033 0.112192 0.8 0 0
0.089872 0.541207 0.161198 0.8 0 0
0.321782 0.531448 0.157377 0.8 0 0
0.210504 0.962576 0.093009 0.8 0 0
0.421920 0.172097 0.082767 0.8 0 0
0.229870 0.528200 0.307449 0.8 0 0
0.407797 0.199516 0.445238 0.8 0 0
0.418241 0.528216 0.391354 0.8 0 0
0.284272 0.940616 0.114080 0.8 0 0
0.091413 0.327319 0.126370 0.8 0 0
0.392144 0.376014 0.444447 0.8 0 0
0.041712 0.715626 0.189419 0.8 0 0
0.399507 0.318979 0.426386 0.8 0 0
0.437826 0.479828 0.168750 0.8 0 0
0.100359 0.516469 0.448734 0.8 0 0
0.167680 0.475470 0.446030 0.8 0 0
0.252005 0.475465 0.419198 0.8 0 0
0.141235 0.475454 0.357598 0.8 0 0
0.262083 0.528226 0.451857 0.8 0 0
0.367094 0.528191 0.256477 0.8 0 0
0.394566 0.760303 0.115008 0.8 0 0
0.402595 0.528180 0.195077 0.8 0 0
0.088903 0.273166 0.124809 0.8 0 0
0.301867 0.532186 0.476631 0.8 0 0
0.060761 0.496352 0.266432 0.8 0 0
0.444592 0.529226 0.293134 0.8 0 0
0.103678 0.298597 0.316945 0.8 0 0
0.068619 0.482769 0.400938 0.8 0 0
0.188884 0.528218 0.404025 0.8 0 0
0.395124 0.528192 0.260277 0.8 0 0
0.410993 0.528190 0.250089 0.8 0 0
0.311624 0.528204 0.325896 0.8 0 0
0.210831 0.528177 0.182157 0.8 0 0
0.248579 0.538880 0.200086 0.8 0 0
0.129937 0.133427 0.466476 0.8 0 0
0.303575 0.543722 0.318055 0.8 0 0
0.435970 0.299812 0.248832 0.8 0 0
0.100114 0.531262 0.378965 0.8 0 0
0.369744 0.475424 0.191234 0.8 0 0
0.098423 0.235478 0.145269 0.8 0 0
0.269365 0.943610 0.092528 0.8 0 0
0.457850 0.623920 0.170581 0.8 0 0
0.323844 0.498528 0.119026 0.8 0 0
0.315728 0.528214 0.385981 0.8 0 0
0.091076 0.384021 0.152391 0.8 0 0
0.447677 0.514660 0.410971 0.8 0 0
0.193617 0.528193 0.268324 0.8 0 0
0.121819 0.475420 0.167423 0.8 0 0
0.387739 0.159621 0.460983 0.8 0 0
0.264248 0.528230 0.476099 0.8 0 0
0.437289 0.302811 0.297227 0.8 0 0
0.465607 0.515390 0.283308 0.8 0 0
0.223992 0.528226 0.452465 0.8 0 0
0.345082 0.528203 0.321989 0.8 0 0
0.112687 0.304703 0.122798 0.8 0 0
0.290935 0.528224 0.441146 0.8 0 0
0.480149 0.856428 0.132137 0.8 0 0
0.105870 0.261076 0.127466 0.8 0 0
0.384500 0.586550 0.117066 0.8 0 0
0.347074 0.475446 0.310355 0.8 0 0
0.397282 0.025032 0.450803 0.8 0 0
0.177697 0.528201 0.312163 0.8 0 0
0.195437 0.475435 0.254233 0.8 0 0
0.238368 0.528212 0.371177 0.8 0 0
0.166670 0.512122 0.502791 0.8 0 0
0.438572 0.122760 0.062098 0.8 0 0
0.249224 0.475447 0.317320 0.8 0 0
0.437615 0.607035 0.188483 0.8 0 0
0.386587 0.482764 0.453269 0.8 0 0
0.459560 0.475441 0.284398 0.8 0 0
0.408423 0.358033 0.445628 0.8 0 0
0.426206 0.446515 0.171254 0.8 0 0
0.379132 0.933095 0.102830 0.8 0 0
0.285885 0.543913 0.343452 0.8 0 0
0.212326 0.528190 0.250530 0.8 0 0
0.221445 0.543207 0.274062 0.8 0 0
0.276212 0.528173 0.153816 0.8 0 0
0.370999 0.475466 0.427133 0.8 0 0
0.418907 0.501352 0.175235 0.8 0 0
0.087241 0.528207 0.343173 0.8 0 0
0.260350 0.475481 0.507334 0.8 0 0
0.185678 0.528218 0.402201 0.8 0 0
0.120008 0.475420 0.168887 0.8 0 0
0.433341 0.930917 0.103547 0.8 0 0
0.339922 0.528220 0.421060 0.8 0 0
0.126695 0.535400 0.269279 0.8 0 0
0.367602 0.912729 0.106575 0.8 0 0
0.308653 0.535721 0.184784 0.8 0 0
0.427122 0.906100 0.108881 0.8 0 0
0.292344 0.542820 0.252737 0.8 0 0
0.284898 0.475436 0.257268 0.8 0 0
0.437201 0.479434 0.426754 0.8 0 0
0.120738 0.511341 0.162611 0.8 0 0
0.467233 0.491167 0.343552 0.8 0 0
0.436854 0.529148 0.383223 0.8 0 0
0.091339 0.528218 0.405689 0.8 0 0
0.232630 0.300047 0.475399 0.8 0 0
0.412310 0.065421 0.453823 0.8 0 0
0.406589 0.298908 0.406091 0.8 0 0
0.465808 0.495856 0.350606 0.8 0 0
0.081369 0.136409 0.068035 0.8 0 0
0.076168 0.051079 0.051493 0.8 0 0
0.078255 0.891757 0.113085 0.8 0 0
0.212297 0.543430 0.303204 0.8 0 0
0.304960 0.528186 0.232111 0.8 0 0
0.278489 0.543684 0.277760 0.8 0 0
0.052547 0.521234 0.327794 0.8 0 0
0.382919 0.647713 0.116263 0.8 0 0
0.051504 0.671725 0.175484 0.8 0 0
0.422567 0.528216 0.394932 0.8 0 0
0.074916 0.897809 0.108825 0.8 0 0
0.149490 0.545738 0.108725 0.8 0 0
0.091342 0.475450 0.332742 0.8 0 0
0.367057 0.475474 0.468964 0.8 0 0
0.268843 0.528216 0.395921 0.8 0 0
0.377412 0.677876 0.139304 0.8 0 0
0.172147 0.486846 0.506432 0.8 0 0
0.411778 0.061220 0.459216 0.8 0 0
0.151419 0.475454 0.355027 0.8 0 0
0.114429 0.364990 0.139948 0.8 0 0
0.392042 0.096713 0.444566 0.8 0 0
0.266621 0.533477 0.474637 0.8 0 0
0.471923 0.490406 0.314590 0.8 0 0
0.443844 0.643288 0.177848 0.8 0 0
0.167168 0.475417 0.151823 0.8 0 0
0.234118 0.542235 0.230867 0.8 0 0
0.096015 0.318206 0.268303 0.8 0 0
0.220567 0.542742 0.379382 0.8 0 0
0.090156 0.276503 0.113037 0.8 0 0
0.351435 0.528179 0.189718 0.8 0 0
0.409553 0.216960 0.447085 0.8 0 0
0.304174 0.528183 0.212055 0.8 0 0
0.408467 0.487664 0.468151 0.8 0 0
0.080781 0.506625 0.215654 0.8 0 0
0.261934 0.475462 0.403403 0.8 0 0
0.433070 0.308869 0.132333 0.8 0 0
0.121016 0.046969 0.467881 0.8 0 0
0.229054 0.529906 0.140898 0.8 0 0
0.425431 0.245134 0.128868 0.8 0 0
0.393211 0.498335 0.450560 0.8 0 0
0.326107 0.475457 0.376348 0.8 0 0
0.128189 0.668394 0.138150 0.8 0 0
0.159332 0.475442 0.293329 0.8 0 0
0.116273 0.239587 0.444489 0.8 0 0
0.053078 0.511398 0.304479 0.8 0 0
0.081763 0.475432 0.238917 0.8 0 0
0.131973 0.530008 0.189266 0.8 0 0
0.246820 0.528174 0.160133 0.8 0 0
0.128752 0.475470 0.449074 0.8 0 0
0.173296 0.490386 0.127717 0.8 0 0
0.285006 0.528233 0.487520 0.8 0 0
0.146651 0.528227 0.454970 0.8 0 0
0.276041 0.475468 0.434818 0.8 0 0
0.247926 0.496732 0.525739 0.8 0 0
0.402341 0.528182 0.203810 0.8 0 0
0.437258 0.528212 0.369091 0.8 0 0
0.132418 0.475463 0.410560 0.8 0 0
0.113128 0.045686 0.447539 0.8 0 0
0.178854 0.528180 0.191622 0.8 0 0
0.206610 0.489518 0.117514 0.8 0 0
0.158642 0.488604 0.137447 0.8 0 0
0.370080 0.494305 0.493638 0.8 0 0
0.354669 0.528206 0.338848 0.8 0 0
0.188667 0.529031 0.492187 0.8 0 0
0.494843 0.799876 0.172054 0.8 0 0
0.455929 0.038010 0.031516 0.8 0 0
0.278141 0.528190 0.248447 0.8 0 0
0.090052 0.422563 0.160977 0.8 0 0
0.230217 0.475464 0.416441 0.8 0 0
0.275560 0.528175 0.163795 0.8 0 0
0.166951 0.528195 0.276810 0.8 0 0
0.406176 0.254334 0.152306 0.8 0 0
0.121768 0.803438 0.113671 0.8 0 0
0.392761 0.536539 0.291541 0.8 0 0
0.170758 0.514791 0.505505 0.8 0 0
0.129680 0.500697 0.156675 0.8 0 0
0.123209 0.100596 0.468309 0.8 0 0
0.234505 0.475435 0.255184 0.8 0 0
0.117138 0.244865 0.132563 0.8 0 0
0.272781 0.528199 0.300325 0.8 0 0
0.377469 0.543374 0.109858 0.8 0 0
0.390587 0.537033 0.297952 0.8 0 0
0.139328 0.609159 0.137723 0.8 0 0
0.114085 0.475454 0.359118 0.8 0 0
0.390231 0.313518 0.403599 0.8 0 0
0.189500 0.535167 0.193343 0.8 0 0
0.350563 0.528200 0.308584 0.8 0 0
0.436795 0.248207 0.109474 0.8 0 0
0.173744 0.540700 0.259626 0.8 0 0
0.387165 0.612623 0.118190 0.8 0 0
0.418715 0.439347 0.145232 0.8 0 0
0.103960 0.528184 0.216034 0.8 0 0
0.374544 0.532008 0.440711 0.8 0 0
0.140918 0.841665 0.109130 0.8 0 0
0.092651 0.528203 0.324418 0.8 0 0
0.345760 0.541752 0.267551 0.8 0 0
0.064900 0.522085 0.245933 0.8 0 0
0.389065 0.475444 0.301787 0.8 0 0
0.347859 0.542240 0.348047 0.8 0 0
0.379743 0.534981 0.400848 0.8 0 0
0.267729 0.475456 0.368274 0.8 0 0
0.371789 0.528233 0.490247 0.8 0 0
0.261479 0.536397 0.455084 0.8 0 0
0.208078 0.475455 0.362239 0.8 0 0
0.108500 0.491369 0.173910 0.8 0 0
0.085115 0.475438 0.267026 0.8 0 0
0.094880 0.211042 0.089662 0.8 0 0
0.235238 0.532386 0.157098 0.8 0 0
0.370081 0.318070 0.430258 0.8 0 0
0.105653 0.277055 0.132052 0.8 0 0
0.175892 0.475424 0.190999 0.8 0 0
0.239552 0.475474 0.467749 0.8 0 0
0.041983 0.856673 0.132214 0.8 0 0
0.101098 0.475449 0.327718 0.8 0 0
0.358864 0.528177 0.176142 0.8 0 0
0.305700 0.528203 0.325281 0.8 0 0
0.402845 0.528191 0.256021 0.8 0 0
0.198595 0.488166 0.119132 0.8 0 0
0.154775 0.528187 0.228714 0.8 0 0
0.201061 0.528223 0.429605 0.8 0 0
0.134799 0.528187 0.229075 0.8 0 0
0.137863 0.312668 0.409359 0.8 0 0
0.446609 0.890128 0.113644 0.8 0 0
0.279781 0.475435 0.250712 0.8 0 0
0.411066 0.261700 0.116326 0.8 0 0
0.089344 0.484468 0.202762 0.8 0 0
0.116160 0.528197 0.290450 0.8 0 0
0.318368 0.475479 0.497869 0.8 0 0
0.253172 0.475433 0.239971 0.8 0 0
0.416853 0.297541 0.380521 0.8 0 0
0.203086 0.528218 0.404299 0.8 0 0
0.160635 0.528183 0.210172 0.8 0 0
0.396874 0.351830 0.442473 0.8 0 0
0.438519 0.312516 0.317768 0.8 0 0
0.363851 0.528560 0.476422 0.8 0 0
0.481789 0.740462 0.190605 0.8 0 0
0.295387 0.923577 0.109698 0.8 0 0
0.097035 0.528215 0.387553 0.8 0 0
0.084206 0.574521 0.190500 0.8 0 0
0.417743 0.528195 0.277907 0.8 0 0
0.366452 0.314019 0.461542 0.8 0 0
0.283160 0.306508 0.493747 0.8 0 0
0.155720 0.528224 0.436382 0.8 0 0
0.241740 0.542995 0.254902 0.8 0 0
0.231168 0.528217 0.402920 0.8 0 0
0.386651 0.084481 0.457361 0.8 0 0
0.282724 0.962484 0.067291 0.8 0 0
0.113804 0.318566 0.369505 0.8 0 0
0.342429 0.502160 0.122910 0.8 0 0
0.322542 0.303152 0.461858 0.8 0 0
0.311886 0.528213 0.376062 0.8 0 0
0.391120 0.353381 0.445128 0.8 0 0
0.088242 0.556136 0.162929 0.8 0 0
0.319023 0.475425 0.198360 0.8 0 0
0.084151 0.476079 0.210584 0.8 0 0
0.346490 0.528196 0.283020 0.8 0 0
0.202661 0.528201 0.309072 0.8 0 0
0.262940 0.528229 0.467259 0.8 0 0
0.423784 0.528214 0.379593 0.8 0 0
0.370641 0.503863 0.125642 0.8 0 0
0.407366 0.528580 0.439222 0.8 0 0
0.351905 0.504024 0.505703 0.8 0 0
0.267018 0.475458 0.377195 0.8 0 0
0.415860 0.224534 0.113586 0.8 0 0
0.192751 0.528180 0.192390 0.8 0 0
0.394011 0.153275 0.443255 0.8 0 0
0.368478 0.528212 0.374361 0.8 0 0
0.132448 0.536239 0.270037 0.8 0 0
0.385808 0.528311 0.171322 0.8 0 0
0.133252 0.837770 0.107413 0.8 0 0
0.029360 0.796519 0.174569 0.8 0 0
0.075128 0.528210 0.357195 0.8 0 0
0.298856 0.528232 0.482483 0.8 0 0
0.390433 0.320571 0.435008 0.8 0 0
0.060405 0.857451 0.140023 0.8 0 0
0.358545 0.528219 0.410583 0.8 0 0
0.082795 0.530080 0.334055 0.8 0 0
0.375101 0.503743 0.123391 0.8 0 0
0.148264 0.958569 0.087599 0.8 0 0
0.399392 0.475466 0.427012 0.8 0 0
0.157336 0.608238 0.130439 0.8 0 0
0.450245 0.528827 0.327819 0.8 0 0
0.444763 0.127982 0.065805 0.8 0 0
0.284091 0.544297 0.318060 0.8 0 0
0.051571 0.477469 0.322969 0.8 0 0
0.438867 0.479894 0.164676 0.8 0 0
0.303476 0.528213 0.375099 0.8 0 0
0.139785 0.480029 0.149969 0.8 0 0
0.078463 0.528194 0.272800 0.8 0 0
0.121505 0.937794 0.111675 0.8 0 0
0.470759 0.504176 0.326087 0.8 0 0
0.445181 0.546443 0.167640 0.8 0 0
0.358314 0.528217 0.402788 0.8 0 0
0.414456 0.231729 0.103455 0.8 0 0
0.142914 0.721284 0.122223 0.8 0 0
0.113137 0.399217 0.144663 0.8 0 0
0.461422 0.044416 0.057190 0.8 0 0
0.408337 0.311912 0.420345 0.8 0 0
0.428898 0.528205 0.331258 0.8 0 0
0.110484 0.055157 0.454660 0.8 0 0
0.145621 0.528227 0.453312 0.8 0 0
0.156625 0.528193 0.262431 0.8 0 0
0.036603 0.825966 0.171456 0.8 0 0
0.076527 0.520484 0.222058 0.8 0 0
0.332074 0.475463 0.406400 0.8 0 0
0.091992 0.530159 0.377196 0.8 0 0
0.146723 0.513638 0.107425 0.8 0 0
0.067305 0.475438 0.271058 0.8 0 0
0.111960 0.242147 0.449274 0.8 0 0
0.385544 0.475435 0.252326 0.8 0 0
0.349409 0.911966 0.095497 0.8 0 0
0.300276 0.942968 0.111325 0.8 0 0
0.168446 0.475476 0.482093 0.8 0 0
0.109552 0.336979 0.125023 0.8 0 0
0.348747 0.528225 0.445806 0.8 0 0
0.127343 0.242252 0.467592 0.8 0 0
0.141728 0.878313 0.102773 0.8 0 0
0.289155 0.528172 0.145740 0.8 0 0
0.421713 0.533040 0.322159 0.8 0 0
0.109960 0.241357 0.108886 0.8 0 0
0.146820 0.528181 0.199983 0.8 0 0
0.140547 0.528205 0.336275 0.8 0 0
0.066536 0.904853 0.130386 0.8 0 0
0.059773 0.511403 0.363581 0.8 0 0
0.402965 0.232224 0.133534 0.8 0 0
0.350053 0.313180 0.472286 0.8 0 0
0.353152 0.531988 0.180096 0.8 0 0
0.306339 0.970665 0.085894 0.8 0 0
0.054199 0.050117 0.053758 0.8 0 0
0.436201 0.475451 0.337750 0.8 0 0
0.388702 0.103856 0.462451 0.8 0 0
0.071413 0.102885 0.057716 0.8 0 0
0.123184 0.376200 0.442027 0.8 0 0
0.382845 0.475459 0.384636 0.8 0 0
0.125222 0.124808 0.468047 0.8 0 0
0.433698 0.189657 0.084345 0.8 0 0
0.111448 0.413420 0.159005 0.8 0 0
0.273927 0.530632 0.493227 0.8 0 0
0.196285 0.542268 0.254207 0.8 0 0
0.278169 0.948467 0.077507 0.8 0 0
0.084904 0.601496 0.190892 0.8 0 0
0.077399 0.539756 0.179075 0.8 0 0
0.455193 0.528205 0.332015 0.8 0 0
0.107070 0.435270 0.145929 0.8 0 0
0.099645 0.935908 0.110447 0.8 0 0
0.218363 0.528169 0.131199 0.8 0 0
0.416206 0.235256 0.100438 0.8 0 0
0.119813 0.730384 0.132800 0.8 0 0
0.400631 0.083175 0.442255 0.8 0 0
0.375580 0.528185 0.220618 0.8 0 0
0.173285 0.528184 0.212486 0.8 0 0
0.465738 0.897334 0.124148 0.8 0 0
0.134418 0.528204 0.327845 0.8 0 0
0.395249 0.528212 0.371783 0.8 0 0
0.196999 0.475479 0.496158 0.8 0 0
0.396380 0.850724 0.110241 0.8 0 0
0.344939 0.475428 0.216611 0.8 0 0
0.107482 0.314407 0.282732 0.8 0 0
0.410470 0.449900 0.461840 0.8 0 0
0.314308 0.528223 0.432751 0.8 0 0
0.395390 0.475427 0.208970 0.8 0 0
0.281687 0.544163 0.299653 0.8 0 0
0.098556 0.321697 0.335875 0.8 0 0
0.126843 0.278001 0.467688 0.8 0 0
0.300244 0.528191 0.253774 0.8 0 0
0.418338 0.280765 0.203680 0.8 0 0
0.076751 0.658163 0.185982 0.8 0 0
0.385451 0.637533 0.140048 0.8 0 0
0.325690 0.484657 0.119401 0.8 0 0
0.418425 0.475424 0.190293 0.8 0 0
0.464556 0.848701 0.145531 0.8 0 0
0.457213 0.887928 0.114800 0.8 0 0
0.171648 0.540711 0.372101 0.8 0 0
0.385471 0.640785 0.117043 0.8 0 0
0.244571 0.528215 0.390262 0.8 0 0
0.425204 0.298532 0.360747 0.8 0 0
0.281515 0.300553 0.489714 0.8 0 0
0.102898 0.531955 0.266971 0.8 0 0
0.430965 0.500134 0.155776 0.8 0 0
0.188177 0.475459 0.383576 0.8 0 0
0.336981 0.475424 0.193406 0.8 0 0
0.153362 0.529904 0.461452 0.8 0 0
0.417078 0.316782 0.292289 0.8 0 0
0.148157 0.848172 0.117480 0.8 0 0
0.406492 0.411754 0.465951 0.8 0 0
0.360831 0.529111 0.161371 0.8 0 0
0.422658 0.297015 0.314189 0.8 0 0
0.389132 0.289189 0.463070 0.8 0 0
0.135567 0.111953 0.449900 0.8 0 0
0.110779 0.038657 0.453183 0.8 0 0
0.291711 0.971789 0.084594 0.8 0 0
0.146471 0.538621 0.351627 0.8 0 0
0.246753 0.528219 0.414256 0.8 0 0
0.440235 0.108113 0.057333 0.8 0 0
0.251174 0.542658 0.241676 0.8 0 0
0.437926 0.303019 0.333046 0.8 0 0
0.172809 0.528227 0.453080 0.8 0 0
0.113376 0.942642 0.098961 0.8 0 0
0.426108 0.248519 0.153857 0.8 0 0
0.374637 0.301821 0.451931 0.8 0 0
0.144148 0.833143 0.124902 0.8 0 0
0.089247 0.391700 0.147698 0.8 0 0
0.430152 0.309837 0.233961 0.8 0 0
0.117164 0.808150 0.121565 0.8 0 0
0.124058 0.475440 0.280626 0.8 0 0
0.350239 0.542313 0.323327 0.8 0 0
0.389803 0.535330 0.381312 0.8 0 0
0.095686 0.528209 0.356863 0.8 0 0
0.271209 0.528179 0.189833 0.8 0 0
0.413799 0.532667 0.260791 0.8 0 0
0.129327 0.300741 0.405721 0.8 0 0
0.078229 0.527588 0.415404 0.8 0 0
0.409406 0.498587 0.167384 0.8 0 0
0.140974 0.943657 0.080360 0.8 0 0
0.238414 0.475476 0.478217 0.8 0 0
0.263142 0.475483 0.518699 0.8 0 0
0.251802 0.475464 0.410869 0.8 0 0
0.141273 0.315597 0.415381 0.8 0 0
0.420448 0.528192 0.265469 0.8 0 0
0.435986 0.299876 0.249134 0.8 0 0
0.198480 0.528186 0.227742 0.8 0 0
0.437331 0.303543 0.253591 0.8 0 0
0.194079 0.542824 0.344115 0.8 0 0
0.182197 0.533928 0.447229 0.8 0 0
0.141537 0.491823 0.486106 0.8 0 0
0.104216 0.308313 0.220636 0.8 0 0
0.136312 0.384856 0.457292 0.8 0 0
0.208429 0.941619 0.105673 0.8 0 0
0.094866 0.528188 0.240559 0.8 0 0
0.303344 0.528211 0.366595 0.8 0 0
0.180127 0.528204 0.330897 0.8 0 0
0.351554 0.475421 0.172772 0.8 0 0
0.416075 0.213774 0.109344 0.8 0 0
0.271583 0.971543 0.086314 0.8 0 0
0.110696 0.420252 0.453532 0.8 0 0
0.276712 0.528217 0.400808 0.8 0 0
0.142781 0.315047 0.416883 0.8 0 0
0.147244 0.855540 0.125113 0.8 0 0
0.054703 0.025634 0.047658 0.8 0 0
0.122138 0.528200 0.300976 0.8 0 0
0.087863 0.475459 0.385090 0.8 0 0
0.400362 0.475456 0.371640 0.8 0 0
0.112276 0.073555 0.461586 0.8 0 0
0.218725 0.475468 0.434181 0.8 0 0
0.378467 0.827212 0.122998 0.8 0 0
0.462354 0.522192 0.367708 0.8 0 0
0.421771 0.248799 0.125345 0.8 0 0
0.442636 0.508780 0.168663 0.8 0 0
0.078368 0.519049 0.415615 0.8 0 0
0.433064 0.326264 0.134904 0.8 0 0
0.262389 0.542026 0.415204 0.8 0 0
0.255144 0.528189 0.244946 0.8 0 0
0.340901 0.528178 0.179445 0.8 0 0
0.408685 0.533334 0.258736 0.8 0 0
0.452619 0.912709 0.112750 0.8 0 0
0.407325 0.229221 0.141728 0.8 0 0
0.288561 0.478437 0.523010 0.8 0 0
0.165738 0.475470 0.446465 0.8 0 0
0.322596 0.475416 0.143668 0.8 0 0
0.290389 0.528211 0.366076 0.8 0 0
0.221204 0.944434 0.107165 0.8 0 0
0.069620 0.528203 0.323816 0.8 0 0
0.147884 0.537541 0.259139 0.8 0 0
0.401132 0.816029 0.113125 0.8 0 0
0.133116 0.668898 0.140699 0.8 0 0
0.462124 0.728660 0.180220 0.8 0 0
0.369296 0.574673 0.135489 0.8 0 0
0.446532 0.122393 0.085737 0.8 0 0
0.430745 0.362216 0.149392 0.8 0 0
0.202232 0.475439 0.274942 0.8 0 0
0.153345 0.497791 0.493946 0.8 0 0
0.462365 0.074590 0.061430 0.8 0 0
0.421321 0.171487 0.083722 0.8 0 0
0.085031 0.214844 0.110097 0.8 0 0
0.320581 0.528207 0.345089 0.8 0 0
0.248132 0.528210 0.359026 0.8 0 0
0.313854 0.543348 0.305354 0.8 0 0
0.038095 0.849864 0.137913 0.8 0 0
0.161504 0.475417 0.150727 0.8 0 0
0.213530 0.959350 0.068377 0.8 0 0
0.142443 0.733924 0.133588 0.8 0 0
0.403470 0.535003 0.290977 0.8 0 0
0.425158 0.288759 0.244171 0.8 0 0
0.154379 0.529022 0.105564 0.8 0 0
0.472498 0.526856 0.317469 0.8 0 0
0.186934 0.475482 0.512168 0.8 0 0
0.121651 0.456688 0.442326 0.8 0 0
0.102071 0.430897 0.142030 0.8 0 0
0.136812 0.483600 0.151943 0.8 0 0
0.196957 0.475458 0.378859 0.8 0 0
0.124688 0.475450 0.332595 0.8 0 0
0.429053 0.530390 0.378493 0.8 0 0
0.072405 0.475449 0.329904 0.8 0 0
0.405138 0.127611 0.443476 0.8 0 0
0.361081 0.528205 0.335169 0.8 0 0
0.321388 0.528168 0.127083 0.8 0 0
0.101303 0.160185 0.093261 0.8 0 0
0.166865 0.475461 0.398413 0.8 0 0
0.431517 0.528195 0.278982 0.8 0 0
0.377843 0.865907 0.104107 0.8 0 0
0.275716 0.528226 0.449448 0.8 0 0
0.251306 0.529650 0.500630 0.8 0 0
0.368221 0.485252 0.099209 0.8 0 0
0.151399 0.528197 0.286630 0.8 0 0
0.104573 0.522987 0.179819 0.8 0 0
0.129561 0.430786 0.443609 0.8 0 0
0.431082 0.528195 0.278423 0.8 0 0
0.301091 0.934889 0.091533 0.8 0 0
0.176637 0.542198 0.356253 0.8 0 0
0.413277 0.933503 0.091839 0.8 0 0
0.200776 0.475482 0.512940 0.8 0 0
0.416351 0.499023 0.165579 0.8 0 0
0.073552 0.667202 0.188229 0.8 0 0
0.093280 0.313345 0.375624 0.8 0 0
0.175077 0.475478 0.488159 0.8 0 0
0.376409 0.681668 0.121171 0.8 0 0
0.201405 0.528205 0.332923 0.8 0 0
0.116928 0.388413 0.466259 0.8 0 0
0.413205 0.475461 0.398604 0.8 0 0
0.467309 0.528204 0.328753 0.8 0 0
0.182399 0.480981 0.512510 0.8 0 0
0.408388 0.928418 0.116112 0.8 0 0
0.223343 0.528180 0.195888 0.8 0 0
0.382101 0.555232 0.116328 0.8 0 0
0.436509 0.528202 0.317422 0.8 0 0
0.113912 0.434637 0.446283 0.8 0 0
0.402474 0.306296 0.425386 0.8 0 0
0.408769 0.211646 0.113846 0.8 0 0
0.438094 0.475461 0.398763 0.8 0 0
0.124608 0.833558 0.110399 0.8 0 0
0.184187 0.908113 0.098320 0.8 0 0
0.396686 0.528214 0.381244 0.8 0 0
0.074512 0.529051 0.328910 0.8 0 0
0.406006 0.210972 0.466308 0.8 0 0
0.084195 0.528183 0.212899 0.8 0 0
0.135069 0.528185 0.224218 0.8 0 0
0.199214 0.528203 0.323014 0.8 0 0
0.380235 0.537690 0.365531 0.8 0 0
0.412788 0.392577 0.157404 0.8 0 0
0.429405 0.287091 0.133197 0.8 0 0
0.439561 0.528198 0.296973 0.8 0 0
0.460336 0.487287 0.257204 0.8 0 0
0.197935 0.528231 0.478698 0.8 0 0
0.189992 0.528198 0.292903 0.8 0 0
0.344200 0.528172 0.145747 0.8 0 0
0.221463 0.475482 0.513685 0.8 0 0
0.055947 0.475450 0.333459 0.8 0 0
0.284250 0.528228 0.461977 0.8 0 0
0.369532 0.475477 0.488261 0.8 0 0
0.155307 0.624183 0.124640 0.8 0 0
0.397202 0.528179 0.188617 0.8 0 0
0.429312 0.272537 0.179208 0.8 0 0
0.432857 0.193560 0.085367 0.8 0 0
0.107488 0.291923 0.246109 0.8 0 0
0.187107 0.528186 0.225485 0.8 0 0
0.202432 0.500664 0.118355 0.8 0 0
0.178354 0.540926 0.255518 0.8 0 0
0.153712 0.475446 0.314814 0.8 0 0
0.067494 0.475445 0.305713 0.8 0 0
0.118922 0.528226 0.447293 0.8 0 0
0.088116 0.430368 0.157005 0.8 0 0
0.186112 0.528204 0.331546 0.8 0 0
0.110155 0.319549 0.358208 0.8 0 0
0.126892 0.528182 0.202707 0.8 0 0
0.113678 0.453413 0.446634 0.8 0 0
0.475726 0.679124 0.187319 0.8 0 0
0.332949 0.528190 0.251267 0.8 0 0
0.146921 0.475470 0.450353 0.8 0 0
0.110761 0.263477 0.457115 0.8 0 0
0.082038 0.528215 0.389066 0.8 0 0
0.162757 0.475455 0.361178 0.8 0 0
0.352436 0.496102 0.112454 0.8 0 0
0.171469 0.542244 0.328881 0.8 0 0
0.356627 0.522144 0.111161 0.8 0 0
0.102942 0.485967 0.155223 0.8 0 0
0.254348 0.924200 0.100008 0.8 0 0
0.260639 0.528183 0.214565 0.8 0 0
0.113816 0.533287 0.259437 0.8 0 0
0.112667 0.528204 0.327899 0.8 0 0
0.406120 0.269284 0.164545 0.8 0 0
0.268855 0.543944 0.350805 0.8 0 0
0.376602 0.528202 0.316120 0.8 0 0
0.341990 0.528224 0.436868 0.8 0 0
0.073571 0.475442 0.288664 0.8 0 0
0.425332 0.134682 0.076761 0.8 0 0
0.160216 0.475422 0.181199 0.8 0 0
0.430817 0.366293 0.134720 0.8 0 0
0.330725 0.528168 0.128086 0.8 0 0
0.307472 0.475440 0.280222 0.8 0 0
0.084486 0.472678 0.161934 0.8 0 0
0.206889 0.475444 0.304729 0.8 0 0
0.206991 0.528230 0.474464 0.8 0 0
0.135845 0.319799 0.450716 0.8 0 0
0.411140 0.475423 0.183458 0.8 0 0
0.261502 0.528233 0.487810 0.8 0 0
0.383289 0.564651 0.128665 0.8 0 0
0.239101 0.528233 0.489349 0.8 0 0
