0.334186 0.465838 0.414375 0.8 0 0
0.034075 0.787448 0.422922 0.8 0 0
0.389603 0.430511 0.282555 0.8 0 0
0.092484 0.916057 0.414283 0.8 0 0
0.265945 0.604336 0.408781 0.8 0 0
0.202514 0.457780 0.418883 0.8 0 0
0.248687 0.841901 0.422511 0.8 0 0
0.459075 0.212353 0.405455 0.8 0 0
0.125841 0.549124 0.397472 0.8 0 0
0.096433 0.430511 0.119012 0.8 0 0
0.349474 0.430511 0.326522 0.8 0 0
0.318894 0.430511 0.388439 0.8 0 0
0.061514 0.607440 0.406879 0.8 0 0
0.353886 0.465838 0.245696 0.8 0 0
0.269761 0.465838 0.376135 0.8 0 0
0.270254 0.795591 0.413016 0.8 0 0
0.103106 0.405149 0.102007 0.8 0 0
0.129785 0.430511 0.129695 0.8 0 0
0.477914 0.072357 0.464855 0.8 0 0
0.082210 0.156260 0.065721 0.8 0 0
0.188857 0.509429 0.378028 0.8 0 0
0.102892 0.410517 0.104864 0.8 0 0
0.180366 0.926077 0.427844 0.8 0 0
0.262834 0.628420 0.391223 0.8 0 0
0.028465 0.728048 0.407551 0.8 0 0
0.246528 0.965393 0.419987 0.8 0 0
0.433087 0.442353 0.054114 0.8 0 0
0.202451 0.465838 0.068623 0.8 0 0
0.058531 0.504644 0.396234 0.8 0 0
0.128872 0.372541 0.087458 0.8 0 0
0.392159 0.415602 0.343020 0.8 0 0
0.481022 0.048734 0.488537 0.8 0 0
0.253995 0.509431 0.378463 0.8 0 0
0.473113 0.584858 0.411079 0.8 0 0
0.093831 0.436562 0.338450 0.8 0 0
0.072608 0.430511 0.110433 0.8 0 0
0.203765 0.952663 0.438863 0.8 0 0
0.450641 0.177695 0.105152 0.8 0 0
0.141874 0.430511 0.055134 0.8 0 0
0.452530 0.895627 0.449460 0.8 0 0
0.433507 0.137555 0.260328 0.8 0 0
0.485706 0.652933 0.421757 0.8 0 0
0.102635 0.595033 0.408782 0.8 0 0
0.490686 0.728520 0.393046 0.8 0 0
0.090124 0.615664 0.392044 0.8 0 0
0.047896 0.465838 0.199103 0.8 0 0
0.464301 0.120309 0.392029 0.8 0 0
0.300880 0.430511 0.344710 0.8 0 0
0.482890 0.480642 0.397588 0.8 0 0
0.075963 0.846655 0.434058 0.8 0 0
0.453691 0.319391 0.382805 0.8 0 0
0.305057 0.439831 0.026531 0.8 0 0
0.443809 0.205200 0.108972 0.8 0 0
0.455715 0.455045 0.399144 0.8 0 0
0.177943 0.571531 0.391797 0.8 0 0
0.101739 0.294825 0.118371 0.8 0 0
0.165657 0.465838 0.077116 0.8 0 0
0.329422 0.465838 0.170381 0.8 0 0
0.102377 0.169559 0.078538 0.8 0 0
0.131254 0.465838 0.153215 0.8 0 0
0.065359 0.149501 0.077796 0.8 0 0
0.089911 0.120424 0.284521 0.8 0 0
0.226131 0.430511 0.418972 0.8 0 0
0.106915 0.950367 0.418208 0.8 0 0
0.076257 0.461572 0.399717 0.8 0 0
0.060813 0.488548 0.392011 0.8 0 0
0.051683 0.530225 0.381069 0.8 0 0
0.335354 0.770655 0.417319 0.8 0 0
0.484054 0.430511 0.340303 0.8 0 0
0.156106 0.132721 0.265319 0.8 0 0
0.347730 0.739190 0.425181 0.8 0 0
0.376340 0.463564 0.387184 0.8 0 0
0.453230 0.861306 0.410812 0.8 0 0
0.463236 0.237310 0.088328 0.8 0 0
0.207426 0.465838 0.413756 0.8 0 0
0.138737 0.441260 0.093484 0.8 0 0
0.346541 0.632604 0.393529 0.8 0 0
0.417031 0.280447 0.103884 0.8 0 0
0.273450 0.775064 0.415350 0.8 0 0
0.342322 0.430511 0.316136 0.8 0 0
0.106580 0.948007 0.447902 0.8 0 0
0.029249 0.682935 0.418519 0.8 0 0
0.072280 0.163810 0.427794 0.8 0 0
0.433783 0.431149 0.325145 0.8 0 0
0.464757 0.201614 0.415808 0.8 0 0
0.178347 0.120953 0.242836 0.8 0 0
0.190321 0.465838 0.335941 0.8 0 0
0.446288 0.430511 0.303123 0.8 0 0
0.271845 0.465838 0.266667 0.8 0 0
0.170891 0.436106 0.032850 0.8 0 0
0.186490 0.582732 0.406933 0.8 0 0
0.232808 0.430511 0.372648 0.8 0 0
0.142409 0.465838 0.370602 0.8 0 0
0.251998 0.570274 0.386632 0.8 0 0
0.488562 0.465838 0.215754 0.8 0 0
0.049374 0.443457 0.284167 0.8 0 0
0.476509 0.756658 0.433182 0.8 0 0
0.125446 0.319445 0.388943 0.8 0 0
0.432579 0.345711 0.088373 0.8 0 0
0.059360 0.515003 0.403532 0.8 0 0
0.221918 0.451841 0.420664 0.8 0 0
0.049239 0.465838 0.204448 0.8 0 0
0.249693 0.710492 0.417010 0.8 0 0
0.310642 0.430511 0.396082 0.8 0 0
0.130084 0.306358 0.094641 0.8 0 0
0.108060 0.371580 0.343672 0.8 0 0
0.152860 0.958577 0.456513 0.8 0 0
0.409464 0.492552 0.390970 0.8 0 0
0.312125 0.430511 0.107725 0.8 0 0
0.411513 0.465838 0.195905 0.8 0 0
0.344710 0.465838 0.178608 0.8 0 0
0.480119 0.071162 0.476371 0.8 0 0
0.462476 0.491427 0.385110 0.8 0 0
0.157770 0.137739 0.259445 0.8 0 0
0.102464 0.253263 0.389941 0.8 0 0
0.078867 0.513486 0.369790 0.8 0 0
0.464654 0.151582 0.133250 0.8 0 0
0.463183 0.201469 0.413364 0.8 0 0
0.444800 0.135253 0.087911 0.8 0 0
0.504109 0.763888 0.406386 0.8 0 0
0.045782 0.639629 0.420038 0.8 0 0
0.366710 0.465838 0.129264 0.8 0 0
0.096826 0.430511 0.281529 0.8 0 0
0.275774 0.952606 0.423128 0.8 0 0
0.143109 0.430474 0.136946 0.8 0 0
0.388007 0.436794 0.125245 0.8 0 0
0.481459 0.743722 0.405659 0.8 0 0
0.056071 0.465838 0.206062 0.8 0 0
0.091535 0.148627 0.118971 0.8 0 0
0.365106 0.845267 0.432015 0.8 0 0
0.050300 0.621596 0.380635 0.8 0 0
0.430524 0.199515 0.416215 0.8 0 0
0.074886 0.125560 0.157495 0.8 0 0
0.463234 0.242591 0.091422 0.8 0 0
0.442098 0.432377 0.059866 0.8 0 0
0.380895 0.465838 0.116953 0.8 0 0
0.270832 0.529114 0.384540 0.8 0 0
0.286359 0.430511 0.255144 0.8 0 0
0.393989 0.460754 0.380526 0.8 0 0
0.448619 0.101722 0.422932 0.8 0 0
0.117868 0.452760 0.098515 0.8 0 0
0.255383 0.961187 0.443156 0.8 0 0
0.237132 0.974306 0.427946 0.8 0 0
0.366278 0.430511 0.074336 0.8 0 0
0.450604 0.871972 0.429102 0.8 0 0
0.440187 0.148547 0.434698 0.8 0 0
0.469600 0.030414 0.060419 0.8 0 0
0.320357 0.465838 0.242046 0.8 0 0
0.242630 0.953518 0.421424 0.8 0 0
0.465244 0.430511 0.138845 0.8 0 0
0.027263 0.685850 0.393192 0.8 0 0
0.093257 0.245347 0.074751 0.8 0 0
0.433496 0.899431 0.449886 0.8 0 0
0.309918 0.465838 0.279536 0.8 0 0
0.052612 0.690832 0.405004 0.8 0 0
0.061966 0.110265 0.453337 0.8 0 0
0.412613 0.430511 0.303769 0.8 0 0
0.170661 0.465838 0.148292 0.8 0 0
0.464475 0.665345 0.406293 0.8 0 0
0.395127 0.505859 0.377755 0.8 0 0
0.095344 0.130521 0.077950 0.8 0 0
0.451255 0.868221 0.446330 0.8 0 0
0.081605 0.278980 0.413379 0.8 0 0
0.067390 0.104475 0.341386 0.8 0 0
0.264114 0.729383 0.402884 0.8 0 0
0.157159 0.943673 0.439638 0.8 0 0
0.347207 0.899930 0.439375 0.8 0 0
0.124566 0.439627 0.408159 0.8 0 0
0.462316 0.499482 0.378388 0.8 0 0
0.407901 0.432801 0.043233 0.8 0 0
0.493031 0.433365 0.263107 0.8 0 0
0.399746 0.430511 0.107623 0.8 0 0
0.392016 0.441844 0.136690 0.8 0 0
0.450731 0.132973 0.071372 0.8 0 0
0.421677 0.596450 0.407056 0.8 0 0
0.327341 0.451422 0.423062 0.8 0 0
0.138044 0.465838 0.308898 0.8 0 0
0.244692 0.430511 0.234747 0.8 0 0
0.434187 0.430511 0.225744 0.8 0 0
0.426542 0.430511 0.325509 0.8 0 0
0.470924 0.155506 0.445590 0.8 0 0
0.321043 0.465838 0.206787 0.8 0 0
0.156133 0.465838 0.168163 0.8 0 0
0.078739 0.047991 0.068741 0.8 0 0
0.170966 0.948877 0.436578 0.8 0 0
0.393602 0.124502 0.267280 0.8 0 0
0.351849 0.731061 0.423169 0.8 0 0
0.198484 0.461133 0.028346 0.8 0 0
0.320753 0.509504 0.395639 0.8 0 0
0.488890 0.430511 0.239009 0.8 0 0
0.398892 0.130158 0.242511 0.8 0 0
0.444853 0.143688 0.135149 0.8 0 0
0.082175 0.255093 0.084783 0.8 0 0
0.387866 0.437169 0.124960 0.8 0 0
0.443238 0.199258 0.075466 0.8 0 0
0.415915 0.465838 0.203647 0.8 0 0
0.356791 0.448115 0.032051 0.8 0 0
0.185803 0.863528 0.433920 0.8 0 0
0.368579 0.430511 0.069568 0.8 0 0
0.311735 0.451185 0.423764 0.8 0 0
0.250141 0.641822 0.396503 0.8 0 0
0.332816 0.729343 0.411194 0.8 0 0
0.320758 0.430511 0.349685 0.8 0 0
0.408348 0.531148 0.379780 0.8 0 0
0.151047 0.465838 0.261796 0.8 0 0
0.118865 0.580018 0.393931 0.8 0 0
0.052628 0.055544 0.074116 0.8 0 0
0.429616 0.427976 0.360075 0.8 0 0
0.107827 0.465838 0.303638 0.8 0 0
0.318449 0.430511 0.399697 0.8 0 0
0.108702 0.256842 0.112209 0.8 0 0
0.058115 0.692044 0.425516 0.8 0 0
0.349335 0.132504 0.265773 0.8 0 0
0.109371 0.465838 0.377542 0.8 0 0
0.106387 0.371288 0.126384 0.8 0 0
0.505477 0.608454 0.405821 0.8 0 0
0.075671 0.430511 0.202078 0.8 0 0
0.142766 0.941665 0.423084 0.8 0 0
0.136768 0.511534 0.390201 0.8 0 0
0.045373 0.638578 0.382572 0.8 0 0
0.419115 0.138511 0.256862 0.8 0 0
0.287357 0.465838 0.393686 0.8 0 0
0.112813 0.465838 0.206507 0.8 0 0
0.245808 0.465838 0.365410 0.8 0 0
0.091620 0.128656 0.200308 0.8 0 0
0.484542 0.745721 0.423587 0.8 0 0
0.187269 0.494594 0.395362 0.8 0 0
0.081204 0.308741 0.397298 0.8 0 0
0.103816 0.554517 0.387574 0.8 0 0
0.452938 0.122653 0.358032 0.8 0 0
0.350081 0.850778 0.437445 0.8 0 0
0.145016 0.113921 0.253985 0.8 0 0
0.232170 0.465838 0.323300 0.8 0 0
0.457652 0.430511 0.140023 0.8 0 0
0.208557 0.465838 0.360256 0.8 0 0
0.226904 0.430511 0.413450 0.8 0 0
0.183144 0.950254 0.433963 0.8 0 0
0.112872 0.465838 0.399440 0.8 0 0
0.194354 0.430511 0.284046 0.8 0 0
0.138849 0.441939 0.410799 0.8 0 0
0.190155 0.465838 0.222156 0.8 0 0
0.171505 0.836050 0.415189 0.8 0 0
0.471933 0.465838 0.178937 0.8 0 0
0.471838 0.173111 0.093088 0.8 0 0
0.076994 0.236045 0.092070 0.8 0 0
0.443153 0.646059 0.414522 0.8 0 0
0.510311 0.689014 0.400715 0.8 0 0
0.295260 0.430511 0.353046 0.8 0 0
0.071281 0.112539 0.446273 0.8 0 0
0.063903 0.117526 0.311172 0.8 0 0
0.112011 0.465838 0.081493 0.8 0 0
0.088621 0.465838 0.155731 0.8 0 0
0.481469 0.771249 0.420665 0.8 0 0
0.106048 0.444334 0.116230 0.8 0 0
0.085422 0.125649 0.064721 0.8 0 0
0.179094 0.430511 0.052604 0.8 0 0
0.462006 0.683249 0.398430 0.8 0 0
0.068351 0.088054 0.087192 0.8 0 0
0.255752 0.471089 0.394121 0.8 0 0
0.168417 0.430511 0.292537 0.8 0 0
0.391520 0.438495 0.108369 0.8 0 0
0.346820 0.623691 0.409583 0.8 0 0
0.140201 0.390012 0.128128 0.8 0 0
0.491047 0.460542 0.197627 0.8 0 0
0.124836 0.330644 0.121821 0.8 0 0
0.340487 0.430511 0.191572 0.8 0 0
0.474371 0.121390 0.459319 0.8 0 0
0.074001 0.126967 0.332467 0.8 0 0
0.151629 0.465838 0.352558 0.8 0 0
0.254376 0.430511 0.412622 0.8 0 0
0.317222 0.430511 0.142259 0.8 0 0
0.119286 0.281259 0.394719 0.8 0 0
0.093990 0.193366 0.446687 0.8 0 0
0.421682 0.430511 0.144508 0.8 0 0
0.252627 0.430511 0.144600 0.8 0 0
0.390627 0.422673 0.123311 0.8 0 0
0.461196 0.465838 0.254344 0.8 0 0
0.392191 0.424836 0.347294 0.8 0 0
0.321505 0.430511 0.196425 0.8 0 0
0.146180 0.430850 0.135209 0.8 0 0
0.215171 0.430511 0.137777 0.8 0 0
0.086601 0.110356 0.087200 0.8 0 0
0.377253 0.447130 0.035337 0.8 0 0
0.490474 0.435073 0.190494 0.8 0 0
0.219810 0.430511 0.117798 0.8 0 0
0.429290 0.615908 0.390360 0.8 0 0
0.286954 0.430511 0.089221 0.8 0 0
0.259888 0.835476 0.414629 0.8 0 0
0.446765 0.099866 0.459707 0.8 0 0
0.224399 0.135916 0.246652 0.8 0 0
0.491630 0.754500 0.419149 0.8 0 0
0.445961 0.377400 0.105736 0.8 0 0
0.116846 0.303814 0.119506 0.8 0 0
0.198803 0.596107 0.390543 0.8 0 0
0.341569 0.811515 0.415333 0.8 0 0
0.289973 0.442608 0.424473 0.8 0 0
0.460023 0.242423 0.085374 0.8 0 0
0.340048 0.430511 0.155697 0.8 0 0
0.184210 0.487590 0.391751 0.8 0 0
0.268650 0.801935 0.430270 0.8 0 0
0.089032 0.285599 0.416531 0.8 0 0
0.043568 0.430511 0.182696 0.8 0 0
0.029887 0.656123 0.395012 0.8 0 0
0.264247 0.661797 0.415897 0.8 0 0
0.308631 0.430511 0.143394 0.8 0 0
0.348832 0.631339 0.409350 0.8 0 0
0.221515 0.430511 0.147761 0.8 0 0
0.168179 0.430511 0.037751 0.8 0 0
0.483882 0.649821 0.411296 0.8 0 0
0.301857 0.448687 0.026257 0.8 0 0
0.083686 0.465838 0.115225 0.8 0 0
0.429125 0.238160 0.107972 0.8 0 0
0.489324 0.430511 0.246719 0.8 0 0
0.186186 0.430553 0.029501 0.8 0 0
0.104606 0.289308 0.416478 0.8 0 0
0.323900 0.597493 0.395115 0.8 0 0
0.478931 0.806536 0.401950 0.8 0 0
0.333708 0.465838 0.372455 0.8 0 0
0.211365 0.430511 0.157380 0.8 0 0
0.050609 0.863862 0.430536 0.8 0 0
0.341038 0.954973 0.455955 0.8 0 0
0.477882 0.430511 0.198292 0.8 0 0
0.128422 0.960518 0.420687 0.8 0 0
0.079081 0.236483 0.099502 0.8 0 0
0.097959 0.257022 0.113163 0.8 0 0
0.486531 0.672285 0.386622 0.8 0 0
0.225996 0.127275 0.267358 0.8 0 0
0.354123 0.660512 0.406192 0.8 0 0
0.443036 0.421302 0.343477 0.8 0 0
0.146228 0.430511 0.205762 0.8 0 0
0.137876 0.947594 0.455252 0.8 0 0
0.177260 0.888941 0.441698 0.8 0 0
0.098035 0.409438 0.336264 0.8 0 0
0.245008 0.430511 0.253616 0.8 0 0
0.495325 0.535076 0.388662 0.8 0 0
0.456982 0.066198 0.074788 0.8 0 0
0.481957 0.056208 0.477206 0.8 0 0
0.151123 0.940758 0.454477 0.8 0 0
0.476870 0.050460 0.469781 0.8 0 0
0.394698 0.430511 0.160413 0.8 0 0
0.488002 0.430511 0.208961 0.8 0 0
0.339956 0.430511 0.374516 0.8 0 0
0.231164 0.465838 0.148160 0.8 0 0
0.100035 0.945022 0.446295 0.8 0 0
0.030947 0.716539 0.422655 0.8 0 0
0.115604 0.416505 0.092930 0.8 0 0
0.487416 0.451806 0.330835 0.8 0 0
0.434429 0.577969 0.402692 0.8 0 0
0.133202 0.494185 0.376025 0.8 0 0
0.066963 0.093973 0.415420 0.8 0 0
0.067964 0.127428 0.302456 0.8 0 0
0.112830 0.304697 0.120307 0.8 0 0
0.314403 0.465838 0.305515 0.8 0 0
0.307090 0.430511 0.395663 0.8 0 0
0.320816 0.559135 0.395170 0.8 0 0
0.466938 0.465838 0.318119 0.8 0 0
0.447168 0.135373 0.223004 0.8 0 0
0.349240 0.701535 0.420106 0.8 0 0
0.201520 0.430511 0.380668 0.8 0 0
0.466284 0.095819 0.478028 0.8 0 0
0.100059 0.430511 0.275649 0.8 0 0
0.118940 0.465838 0.088880 0.8 0 0
0.347767 0.430511 0.092038 0.8 0 0
0.079931 0.131934 0.243117 0.8 0 0
0.456678 0.465838 0.344965 0.8 0 0
0.054030 0.772290 0.397847 0.8 0 0
0.228014 0.946629 0.454602 0.8 0 0
0.456864 0.053841 0.485819 0.8 0 0
0.060868 0.725736 0.404832 0.8 0 0
0.305318 0.430511 0.410971 0.8 0 0
0.083360 0.086848 0.082081 0.8 0 0
0.156600 0.465838 0.406994 0.8 0 0
0.064670 0.768224 0.426246 0.8 0 0
0.422683 0.904918 0.443641 0.8 0 0
0.420833 0.465838 0.356525 0.8 0 0
0.415666 0.465838 0.295878 0.8 0 0
0.247017 0.465838 0.378502 0.8 0 0
0.075526 0.093656 0.400777 0.8 0 0
0.371188 0.465838 0.078108 0.8 0 0
0.349581 0.842414 0.415892 0.8 0 0
0.453970 0.163265 0.070871 0.8 0 0
0.400850 0.391352 0.129067 0.8 0 0
0.144607 0.430511 0.318108 0.8 0 0
0.152370 0.138589 0.253451 0.8 0 0
0.026262 0.691137 0.402088 0.8 0 0
0.296183 0.465838 0.180272 0.8 0 0
0.338678 0.814536 0.424783 0.8 0 0
0.310437 0.465838 0.130285 0.8 0 0
0.099611 0.371992 0.119449 0.8 0 0
0.457977 0.105140 0.444548 0.8 0 0
0.068341 0.100430 0.362873 0.8 0 0
0.128219 0.465838 0.242202 0.8 0 0
0.355827 0.465838 0.224197 0.8 0 0
0.042908 0.674909 0.386720 0.8 0 0
0.439191 0.334975 0.088491 0.8 0 0
0.424909 0.307458 0.361675 0.8 0 0
0.206026 0.465838 0.353577 0.8 0 0
0.323920 0.114534 0.251156 0.8 0 0
0.382067 0.463353 0.374880 0.8 0 0
0.335302 0.551472 0.382395 0.8 0 0
0.455930 0.108351 0.092269 0.8 0 0
0.157320 0.465838 0.056266 0.8 0 0
0.449084 0.465838 0.161744 0.8 0 0
0.420807 0.429847 0.325924 0.8 0 0
0.402417 0.430272 0.333029 0.8 0 0
0.415972 0.361412 0.339669 0.8 0 0
0.112053 0.942975 0.454713 0.8 0 0
0.348859 0.465838 0.374284 0.8 0 0
0.481864 0.713848 0.425462 0.8 0 0
0.052053 0.744082 0.414501 0.8 0 0
0.456859 0.235464 0.110450 0.8 0 0
0.288804 0.430511 0.292108 0.8 0 0
0.073020 0.684668 0.399332 0.8 0 0
0.430021 0.430511 0.137736 0.8 0 0
0.482543 0.644500 0.388955 0.8 0 0
0.211836 0.430511 0.160800 0.8 0 0
0.045133 0.623371 0.418181 0.8 0 0
0.471248 0.121436 0.259033 0.8 0 0
0.135749 0.465838 0.387211 0.8 0 0
0.127520 0.935391 0.436753 0.8 0 0
0.330317 0.430511 0.400484 0.8 0 0
0.249223 0.465838 0.401613 0.8 0 0
0.338931 0.802834 0.416858 0.8 0 0
0.062367 0.060667 0.057386 0.8 0 0
0.185201 0.523847 0.398443 0.8 0 0
0.510760 0.676523 0.404952 0.8 0 0
0.216029 0.965717 0.420010 0.8 0 0
0.469675 0.136662 0.139900 0.8 0 0
0.181029 0.813462 0.412494 0.8 0 0
0.088193 0.115957 0.347501 0.8 0 0
0.264643 0.961129 0.443639 0.8 0 0
0.413711 0.444263 0.406691 0.8 0 0
0.313535 0.430511 0.323342 0.8 0 0
0.160360 0.939120 0.444347 0.8 0 0
0.429710 0.228385 0.085731 0.8 0 0
0.196276 0.430511 0.132750 0.8 0 0
0.089446 0.891422 0.448815 0.8 0 0
0.370005 0.942055 0.429994 0.8 0 0
0.166100 0.465838 0.059359 0.8 0 0
0.269648 0.465739 0.376162 0.8 0 0
0.405095 0.943813 0.423902 0.8 0 0
0.485584 0.644431 0.406213 0.8 0 0
0.401522 0.419748 0.138393 0.8 0 0
0.030496 0.653310 0.392365 0.8 0 0
0.074589 0.658012 0.405449 0.8 0 0
0.417576 0.578834 0.405756 0.8 0 0
0.405942 0.430511 0.326124 0.8 0 0
0.066405 0.579026 0.382547 0.8 0 0
0.071258 0.557494 0.402889 0.8 0 0
0.361648 0.465838 0.295335 0.8 0 0
0.462887 0.148192 0.100350 0.8 0 0
0.094664 0.358834 0.109549 0.8 0 0
0.471170 0.113580 0.309798 0.8 0 0
0.448765 0.325616 0.119817 0.8 0 0
0.481380 0.858093 0.415389 0.8 0 0
0.172837 0.465838 0.098995 0.8 0 0
0.385595 0.430511 0.329144 0.8 0 0
0.172957 0.720744 0.420098 0.8 0 0
0.102112 0.405485 0.104603 0.8 0 0
0.059933 0.066636 0.081941 0.8 0 0
0.084607 0.198037 0.070428 0.8 0 0
0.274911 0.465838 0.055372 0.8 0 0
0.402093 0.494262 0.376367 0.8 0 0
0.161871 0.430511 0.271521 0.8 0 0
0.406249 0.430511 0.197277 0.8 0 0
0.314034 0.430511 0.139509 0.8 0 0
0.056254 0.654802 0.395292 0.8 0 0
0.118958 0.465838 0.379033 0.8 0 0
0.509602 0.670225 0.399728 0.8 0 0
0.467809 0.525300 0.387511 0.8 0 0
0.463033 0.135628 0.271664 0.8 0 0
0.361849 0.430511 0.086513 0.8 0 0
0.112341 0.929448 0.415821 0.8 0 0
0.396567 0.465838 0.367186 0.8 0 0
0.508102 0.631297 0.397526 0.8 0 0
0.470456 0.465838 0.373300 0.8 0 0
0.120842 0.430511 0.289718 0.8 0 0
0.050197 0.460095 0.288574 0.8 0 0
0.042432 0.441960 0.200087 0.8 0 0
0.092234 0.117846 0.073968 0.8 0 0
0.405408 0.345663 0.374931 0.8 0 0
0.114142 0.231657 0.099428 0.8 0 0
0.075397 0.115044 0.233876 0.8 0 0
0.048285 0.445854 0.278336 0.8 0 0
0.123728 0.465838 0.218390 0.8 0 0
0.063949 0.480206 0.365607 0.8 0 0
0.421291 0.258726 0.101995 0.8 0 0
0.248346 0.689779 0.413093 0.8 0 0
0.242919 0.465838 0.091580 0.8 0 0
0.072893 0.091989 0.413585 0.8 0 0
0.437409 0.378812 0.131383 0.8 0 0
0.509274 0.644147 0.401853 0.8 0 0
0.063943 0.581768 0.398437 0.8 0 0
0.081979 0.315844 0.395131 0.8 0 0
0.101878 0.406790 0.106681 0.8 0 0
0.047905 0.430511 0.225200 0.8 0 0
0.457385 0.842880 0.441040 0.8 0 0
0.083981 0.114407 0.444248 0.8 0 0
0.493096 0.461963 0.229218 0.8 0 0
0.042575 0.579312 0.376615 0.8 0 0
0.067957 0.473764 0.398198 0.8 0 0
0.266882 0.597768 0.407503 0.8 0 0
0.077241 0.430511 0.364370 0.8 0 0
0.480932 0.096430 0.072288 0.8 0 0
0.089741 0.132575 0.067314 0.8 0 0
0.157819 0.925357 0.435103 0.8 0 0
0.402280 0.434177 0.343395 0.8 0 0
0.463492 0.465838 0.190856 0.8 0 0
0.081345 0.099354 0.366396 0.8 0 0
0.107762 0.314246 0.121911 0.8 0 0
0.451811 0.103660 0.353000 0.8 0 0
0.380266 0.430511 0.078799 0.8 0 0
0.072963 0.919725 0.434246 0.8 0 0
0.227941 0.433622 0.025579 0.8 0 0
0.235723 0.465838 0.042607 0.8 0 0
0.480536 0.066230 0.478741 0.8 0 0
0.275185 0.430511 0.337608 0.8 0 0
0.355756 0.779159 0.409725 0.8 0 0
0.216985 0.954102 0.439841 0.8 0 0
0.123843 0.430511 0.056964 0.8 0 0
0.393686 0.495913 0.376335 0.8 0 0
0.202845 0.465838 0.218183 0.8 0 0
0.095809 0.430511 0.067676 0.8 0 0
0.059811 0.076672 0.061505 0.8 0 0
0.269946 0.649805 0.411778 0.8 0 0
0.468544 0.430511 0.330271 0.8 0 0
0.354845 0.430511 0.242205 0.8 0 0
0.064794 0.458998 0.355012 0.8 0 0
0.468246 0.430511 0.168648 0.8 0 0
0.330233 0.465838 0.165307 0.8 0 0
0.264482 0.508914 0.377937 0.8 0 0
0.298516 0.119703 0.243935 0.8 0 0
0.092503 0.465838 0.315442 0.8 0 0
0.433055 0.346068 0.345915 0.8 0 0
0.105681 0.202691 0.419587 0.8 0 0
0.438822 0.161924 0.446683 0.8 0 0
0.064051 0.113733 0.315707 0.8 0 0
0.240470 0.430511 0.298456 0.8 0 0
0.435773 0.896962 0.422742 0.8 0 0
0.084101 0.340497 0.373327 0.8 0 0
0.446255 0.430511 0.347404 0.8 0 0
0.488587 0.465838 0.312945 0.8 0 0
0.434676 0.430511 0.178244 0.8 0 0
0.444911 0.140002 0.115977 0.8 0 0
0.270076 0.667386 0.413711 0.8 0 0
0.120673 0.465838 0.346598 0.8 0 0
0.088239 0.151562 0.120873 0.8 0 0
0.238295 0.430511 0.060231 0.8 0 0
0.123250 0.430511 0.263618 0.8 0 0
0.461384 0.234480 0.419881 0.8 0 0
0.062200 0.631555 0.419124 0.8 0 0
0.162833 0.884228 0.437426 0.8 0 0
0.078422 0.430511 0.325831 0.8 0 0
0.446170 0.465838 0.297883 0.8 0 0
0.460377 0.488819 0.403004 0.8 0 0
0.247528 0.430511 0.094700 0.8 0 0
0.370356 0.465838 0.269803 0.8 0 0
0.275828 0.430511 0.153641 0.8 0 0
0.363686 0.803574 0.424109 0.8 0 0
0.129275 0.317942 0.090240 0.8 0 0
0.143988 0.428792 0.343676 0.8 0 0
0.089372 0.349555 0.361326 0.8 0 0
0.271264 0.478759 0.389809 0.8 0 0
0.193966 0.744233 0.413290 0.8 0 0
0.187270 0.430511 0.404031 0.8 0 0
0.308955 0.136967 0.261034 0.8 0 0
0.410570 0.430511 0.116613 0.8 0 0
0.069071 0.825669 0.416292 0.8 0 0
0.265344 0.880325 0.420207 0.8 0 0
0.468924 0.536755 0.384810 0.8 0 0
0.131699 0.465838 0.151194 0.8 0 0
0.473363 0.105404 0.449371 0.8 0 0
0.270651 0.508469 0.394097 0.8 0 0
0.181324 0.525600 0.395093 0.8 0 0
0.444368 0.142233 0.110147 0.8 0 0
0.355081 0.683600 0.404831 0.8 0 0
0.507735 0.629329 0.395867 0.8 0 0
0.381148 0.481134 0.390020 0.8 0 0
0.144400 0.962618 0.446854 0.8 0 0
0.099128 0.594193 0.387639 0.8 0 0
0.278941 0.465838 0.259630 0.8 0 0
0.064030 0.591139 0.404075 0.8 0 0
0.460305 0.260386 0.400454 0.8 0 0
0.401633 0.465838 0.175498 0.8 0 0
0.436860 0.296378 0.083134 0.8 0 0
0.290831 0.430511 0.269369 0.8 0 0
0.460772 0.118784 0.214330 0.8 0 0
0.184486 0.784657 0.409721 0.8 0 0
0.308924 0.430511 0.104836 0.8 0 0
0.426264 0.308909 0.403152 0.8 0 0
0.064863 0.885423 0.410772 0.8 0 0
0.132336 0.406988 0.372449 0.8 0 0
0.096645 0.896996 0.443172 0.8 0 0
0.121617 0.299613 0.384548 0.8 0 0
0.470379 0.465838 0.250876 0.8 0 0
0.422187 0.266286 0.410075 0.8 0 0
0.108844 0.263094 0.420841 0.8 0 0
0.177874 0.660277 0.396693 0.8 0 0
0.318404 0.465838 0.413745 0.8 0 0
0.073592 0.101546 0.465088 0.8 0 0
0.116422 0.465838 0.368012 0.8 0 0
0.314604 0.430511 0.033272 0.8 0 0
0.417448 0.277186 0.100331 0.8 0 0
0.399961 0.370739 0.114762 0.8 0 0
0.485906 0.466175 0.385368 0.8 0 0
0.268164 0.656740 0.413656 0.8 0 0
0.427962 0.406364 0.321867 0.8 0 0
0.457091 0.143975 0.428298 0.8 0 0
0.359752 0.845496 0.436252 0.8 0 0
0.472200 0.430511 0.265095 0.8 0 0
0.123649 0.445401 0.140568 0.8 0 0
0.353697 0.430511 0.213154 0.8 0 0
0.107121 0.931248 0.453371 0.8 0 0
0.118107 0.274795 0.082334 0.8 0 0
0.491733 0.650003 0.421425 0.8 0 0
0.297895 0.430511 0.162867 0.8 0 0
0.170462 0.441202 0.415457 0.8 0 0
0.035510 0.608505 0.386822 0.8 0 0
0.098667 0.934099 0.416346 0.8 0 0
0.507958 0.668932 0.415615 0.8 0 0
0.340052 0.711252 0.400994 0.8 0 0
0.439803 0.221850 0.111306 0.8 0 0
0.074452 0.430511 0.208627 0.8 0 0
0.061851 0.566612 0.374360 0.8 0 0
0.448639 0.368278 0.111728 0.8 0 0
0.468966 0.836961 0.405420 0.8 0 0
0.134240 0.418531 0.368552 0.8 0 0
0.086497 0.430511 0.173683 0.8 0 0
0.175687 0.823983 0.434842 0.8 0 0
0.078605 0.462444 0.382039 0.8 0 0
0.471031 0.057983 0.060806 0.8 0 0
0.086197 0.138757 0.220728 0.8 0 0
0.046097 0.430511 0.228857 0.8 0 0
0.447971 0.873969 0.415499 0.8 0 0
0.393118 0.413996 0.335335 0.8 0 0
0.340935 0.744912 0.405322 0.8 0 0
0.258115 0.898087 0.442942 0.8 0 0
0.345373 0.658004 0.394987 0.8 0 0
0.394490 0.489076 0.375097 0.8 0 0
0.319530 0.475599 0.392568 0.8 0 0
0.082491 0.465838 0.156504 0.8 0 0
0.054974 0.569506 0.412034 0.8 0 0
0.390568 0.465838 0.195843 0.8 0 0
0.339761 0.661712 0.394829 0.8 0 0
0.239388 0.465838 0.335859 0.8 0 0
0.356530 0.430974 0.032009 0.8 0 0
0.123172 0.465838 0.387183 0.8 0 0
0.387708 0.943174 0.452619 0.8 0 0
0.066641 0.134577 0.185588 0.8 0 0
0.454002 0.862402 0.420981 0.8 0 0
0.253361 0.827520 0.415792 0.8 0 0
0.160375 0.430511 0.404296 0.8 0 0
0.163017 0.465838 0.317847 0.8 0 0
0.160470 0.930190 0.442860 0.8 0 0
0.439835 0.465838 0.358444 0.8 0 0
0.462933 0.207919 0.104909 0.8 0 0
0.096438 0.359840 0.352161 0.8 0 0
0.413279 0.353916 0.128796 0.8 0 0
0.446945 0.127880 0.438587 0.8 0 0
0.473409 0.430511 0.335531 0.8 0 0
0.456163 0.125029 0.352048 0.8 0 0
0.069029 0.510947 0.405353 0.8 0 0
0.087133 0.367439 0.361945 0.8 0 0
0.292149 0.465838 0.410883 0.8 0 0
0.066346 0.802082 0.438601 0.8 0 0
0.099264 0.907079 0.414846 0.8 0 0
0.352118 0.688635 0.400840 0.8 0 0
0.193381 0.430511 0.226726 0.8 0 0
0.089111 0.194339 0.447621 0.8 0 0
0.343195 0.458442 0.422054 0.8 0 0
0.102439 0.465838 0.229981 0.8 0 0
0.369012 0.451669 0.034014 0.8 0 0
0.219540 0.465838 0.311475 0.8 0 0
0.236640 0.136346 0.247288 0.8 0 0
0.042951 0.629467 0.418876 0.8 0 0
0.083220 0.135484 0.262994 0.8 0 0
0.333139 0.686900 0.400834 0.8 0 0
0.251340 0.609679 0.407660 0.8 0 0
0.475644 0.112638 0.069733 0.8 0 0
0.406998 0.430511 0.152005 0.8 0 0
0.482307 0.853349 0.435856 0.8 0 0
0.434201 0.596665 0.408430 0.8 0 0
0.423677 0.465838 0.274647 0.8 0 0
0.481868 0.449511 0.376099 0.8 0 0
0.458976 0.140689 0.068444 0.8 0 0
0.089088 0.286115 0.110368 0.8 0 0
0.078811 0.209574 0.100893 0.8 0 0
0.110614 0.465838 0.092206 0.8 0 0
0.250446 0.638148 0.395691 0.8 0 0
0.106500 0.393527 0.127494 0.8 0 0
0.067691 0.465349 0.100311 0.8 0 0
0.343925 0.827281 0.416221 0.8 0 0
0.157150 0.434730 0.118738 0.8 0 0
0.185296 0.898749 0.434943 0.8 0 0
0.081479 0.126315 0.328944 0.8 0 0
0.077458 0.041203 0.475875 0.8 0 0
0.462023 0.241837 0.087958 0.8 0 0
0.452260 0.115861 0.403123 0.8 0 0
0.316713 0.464398 0.376642 0.8 0 0
0.162864 0.122073 0.242428 0.8 0 0
0.081169 0.260492 0.098713 0.8 0 0
0.282754 0.465838 0.097173 0.8 0 0
0.437073 0.349950 0.345774 0.8 0 0
0.457363 0.138407 0.082292 0.8 0 0
0.191041 0.795188 0.422849 0.8 0 0
0.339993 0.808722 0.416723 0.8 0 0
0.182363 0.680585 0.418295 0.8 0 0
0.463559 0.533226 0.407240 0.8 0 0
0.436510 0.430511 0.159065 0.8 0 0
0.111415 0.430511 0.237109 0.8 0 0
0.453173 0.124410 0.175102 0.8 0 0
0.133241 0.430511 0.105370 0.8 0 0
0.143717 0.433489 0.336609 0.8 0 0
0.342928 0.745692 0.404845 0.8 0 0
0.068756 0.908071 0.413360 0.8 0 0
0.122405 0.465838 0.156918 0.8 0 0
0.468543 0.057987 0.086596 0.8 0 0
0.474423 0.584612 0.377803 0.8 0 0
0.362451 0.874337 0.439161 0.8 0 0
0.198960 0.590035 0.404952 0.8 0 0
0.443111 0.912905 0.445672 0.8 0 0
0.463266 0.183807 0.417565 0.8 0 0
0.068499 0.465838 0.132427 0.8 0 0
0.458021 0.138828 0.250403 0.8 0 0
0.264415 0.430511 0.392952 0.8 0 0
0.475102 0.587342 0.379265 0.8 0 0
0.057237 0.049237 0.079376 0.8 0 0
0.075940 0.264073 0.403295 0.8 0 0
0.348508 0.465838 0.276486 0.8 0 0
0.492147 0.456822 0.211307 0.8 0 0
0.177348 0.845449 0.415826 0.8 0 0
0.135562 0.430511 0.291905 0.8 0 0
0.065969 0.447120 0.358222 0.8 0 0
0.394088 0.400600 0.116358 0.8 0 0
0.328451 0.430511 0.226816 0.8 0 0
0.027545 0.671439 0.401820 0.8 0 0
0.033342 0.776481 0.402722 0.8 0 0
0.084122 0.267984 0.086058 0.8 0 0
0.039015 0.676902 0.386945 0.8 0 0
0.090320 0.136199 0.091933 0.8 0 0
0.251627 0.904090 0.425878 0.8 0 0
0.121065 0.368680 0.085672 0.8 0 0
0.118652 0.502112 0.380169 0.8 0 0
0.121795 0.569728 0.395760 0.8 0 0
0.448049 0.309670 0.089214 0.8 0 0
0.422188 0.607092 0.391710 0.8 0 0
0.196729 0.951687 0.418414 0.8 0 0
0.135544 0.379689 0.128218 0.8 0 0
0.250281 0.919103 0.440511 0.8 0 0
0.091022 0.183117 0.416718 0.8 0 0
0.143137 0.465838 0.342800 0.8 0 0
0.424094 0.567242 0.405220 0.8 0 0
0.175771 0.465838 0.142463 0.8 0 0
0.359097 0.430511 0.034086 0.8 0 0
0.094196 0.303716 0.411962 0.8 0 0
0.465718 0.226674 0.091782 0.8 0 0
0.173280 0.465838 0.354324 0.8 0 0
0.098559 0.384982 0.343162 0.8 0 0
0.341240 0.514303 0.382344 0.8 0 0
0.177866 0.691348 0.418559 0.8 0 0
0.195302 0.725775 0.412561 0.8 0 0
0.460463 0.106464 0.466243 0.8 0 0
0.437793 0.286246 0.369693 0.8 0 0
0.504701 0.697309 0.389488 0.8 0 0
0.346298 0.570670 0.400350 0.8 0 0
0.157273 0.465838 0.120384 0.8 0 0
0.377733 0.430511 0.265199 0.8 0 0
0.405361 0.343073 0.362734 0.8 0 0
0.120664 0.430511 0.210071 0.8 0 0
0.247762 0.787229 0.420545 0.8 0 0
0.436120 0.925228 0.437145 0.8 0 0
0.445771 0.364007 0.122314 0.8 0 0
0.447964 0.349734 0.356904 0.8 0 0
0.090505 0.465838 0.182470 0.8 0 0
0.249141 0.518097 0.395324 0.8 0 0
0.476024 0.581795 0.388042 0.8 0 0
0.477533 0.542422 0.409133 0.8 0 0
0.430085 0.465838 0.244277 0.8 0 0
0.056484 0.878886 0.420319 0.8 0 0
0.104674 0.430511 0.176304 0.8 0 0
0.458095 0.430511 0.359177 0.8 0 0
0.482769 0.050899 0.480538 0.8 0 0
0.237212 0.430511 0.044501 0.8 0 0
0.086193 0.110920 0.294053 0.8 0 0
0.435909 0.465838 0.241248 0.8 0 0
0.210078 0.465838 0.217677 0.8 0 0
0.487412 0.811588 0.402531 0.8 0 0
0.354595 0.460478 0.420144 0.8 0 0
0.248533 0.540756 0.386456 0.8 0 0
0.066171 0.805626 0.428097 0.8 0 0
0.359784 0.465838 0.292825 0.8 0 0
0.148075 0.465838 0.134937 0.8 0 0
0.391719 0.433192 0.344228 0.8 0 0
0.399026 0.465838 0.165521 0.8 0 0
0.466153 0.727156 0.423431 0.8 0 0
0.457896 0.468753 0.400711 0.8 0 0
0.456909 0.465838 0.379011 0.8 0 0
0.459995 0.221662 0.428492 0.8 0 0
0.248843 0.948714 0.440778 0.8 0 0
0.197355 0.538441 0.381334 0.8 0 0
0.429965 0.207533 0.411651 0.8 0 0
0.075789 0.129325 0.314064 0.8 0 0
0.216766 0.137928 0.250296 0.8 0 0
0.242939 0.430511 0.300753 0.8 0 0
0.119819 0.534803 0.401752 0.8 0 0
0.344754 0.907419 0.433876 0.8 0 0
0.453910 0.266986 0.084923 0.8 0 0
0.306589 0.430511 0.219735 0.8 0 0
0.407460 0.365799 0.376872 0.8 0 0
0.059502 0.809272 0.439419 0.8 0 0
0.172276 0.686099 0.413082 0.8 0 0
0.259631 0.463155 0.423231 0.8 0 0
0.075979 0.147820 0.164557 0.8 0 0
0.437938 0.223398 0.110580 0.8 0 0
0.111928 0.430511 0.086200 0.8 0 0
0.317545 0.476642 0.390767 0.8 0 0
0.074921 0.118179 0.402163 0.8 0 0
0.098196 0.465838 0.257075 0.8 0 0
0.483647 0.436920 0.140395 0.8 0 0
0.166716 0.794631 0.415502 0.8 0 0
0.055757 0.531669 0.405431 0.8 0 0
0.302674 0.430511 0.315219 0.8 0 0
0.199185 0.430511 0.134491 0.8 0 0
0.394521 0.404975 0.111114 0.8 0 0
0.072540 0.085849 0.059287 0.8 0 0
0.463476 0.723278 0.402437 0.8 0 0
0.390739 0.430511 0.239391 0.8 0 0
0.111897 0.530040 0.382677 0.8 0 0
0.268990 0.527336 0.382305 0.8 0 0
0.453388 0.430511 0.167273 0.8 0 0
0.453828 0.686638 0.418850 0.8 0 0
0.191448 0.746318 0.421497 0.8 0 0
0.356393 0.959779 0.431616 0.8 0 0
0.310303 0.430511 0.057951 0.8 0 0
0.403848 0.394106 0.367670 0.8 0 0
0.092793 0.430511 0.286831 0.8 0 0
0.469109 0.124321 0.334125 0.8 0 0
0.192505 0.430511 0.217471 0.8 0 0
0.409164 0.430511 0.383991 0.8 0 0
0.248518 0.465838 0.416052 0.8 0 0
0.380883 0.430511 0.174991 0.8 0 0
0.147466 0.465838 0.268905 0.8 0 0
0.310496 0.128410 0.242111 0.8 0 0
0.412800 0.465838 0.071110 0.8 0 0
0.482176 0.641579 0.383114 0.8 0 0
0.249499 0.727183 0.407448 0.8 0 0
0.099961 0.430511 0.103424 0.8 0 0
0.248372 0.852316 0.425172 0.8 0 0
0.464362 0.121619 0.096819 0.8 0 0
0.070800 0.442604 0.386884 0.8 0 0
0.481350 0.104729 0.079796 0.8 0 0
0.091766 0.203155 0.408697 0.8 0 0
0.426040 0.465838 0.073132 0.8 0 0
0.072885 0.177663 0.073820 0.8 0 0
0.213139 0.430511 0.412570 0.8 0 0
0.407089 0.430511 0.325517 0.8 0 0
0.104739 0.180514 0.090093 0.8 0 0
0.428190 0.465838 0.375933 0.8 0 0
0.475402 0.737818 0.403780 0.8 0 0
0.448308 0.907079 0.447045 0.8 0 0
0.439774 0.209080 0.108058 0.8 0 0
0.326416 0.643224 0.403139 0.8 0 0
0.405345 0.500766 0.377667 0.8 0 0
0.229802 0.465838 0.407799 0.8 0 0
0.339128 0.571234 0.405518 0.8 0 0
0.044861 0.638920 0.382610 0.8 0 0
0.095586 0.430511 0.089736 0.8 0 0
0.274095 0.855144 0.425836 0.8 0 0
0.046397 0.465838 0.176575 0.8 0 0
0.156349 0.465838 0.242344 0.8 0 0
0.073544 0.142629 0.199950 0.8 0 0
0.235097 0.430511 0.107482 0.8 0 0
0.185462 0.430511 0.104795 0.8 0 0
0.098587 0.264538 0.076197 0.8 0 0
0.074989 0.843811 0.433655 0.8 0 0
0.105577 0.465838 0.344737 0.8 0 0
0.285721 0.465838 0.061697 0.8 0 0
0.397487 0.384957 0.112308 0.8 0 0
0.453883 0.907128 0.440922 0.8 0 0
0.259705 0.430511 0.252880 0.8 0 0
0.111756 0.451680 0.053632 0.8 0 0
0.118806 0.929605 0.419659 0.8 0 0
0.460256 0.903046 0.437263 0.8 0 0
0.248902 0.465838 0.396397 0.8 0 0
0.139561 0.430511 0.041925 0.8 0 0
0.190709 0.430511 0.108986 0.8 0 0
0.055927 0.742045 0.407348 0.8 0 0
0.309832 0.465838 0.377937 0.8 0 0
0.160465 0.430511 0.081853 0.8 0 0
0.314854 0.468854 0.386109 0.8 0 0
0.138629 0.430511 0.258327 0.8 0 0
0.264897 0.430511 0.318722 0.8 0 0
0.038454 0.687635 0.425517 0.8 0 0
0.191960 0.474563 0.394522 0.8 0 0
0.262158 0.824074 0.413305 0.8 0 0
0.183560 0.430511 0.166707 0.8 0 0
0.059538 0.590133 0.377046 0.8 0 0
0.082117 0.665483 0.395463 0.8 0 0
0.447665 0.374589 0.113692 0.8 0 0
0.466607 0.041569 0.062208 0.8 0 0
0.446198 0.393132 0.350392 0.8 0 0
0.104845 0.465838 0.113574 0.8 0 0
0.482933 0.816722 0.440462 0.8 0 0
0.474724 0.723859 0.403107 0.8 0 0
0.093308 0.309239 0.086081 0.8 0 0
0.478192 0.774925 0.403626 0.8 0 0
0.201337 0.465838 0.102190 0.8 0 0
0.351506 0.960510 0.443262 0.8 0 0
0.176993 0.579107 0.394805 0.8 0 0
0.194987 0.465838 0.257546 0.8 0 0
0.044353 0.454961 0.172602 0.8 0 0
0.221249 0.430511 0.303186 0.8 0 0
0.467813 0.096102 0.405367 0.8 0 0
0.110251 0.429956 0.099795 0.8 0 0
0.204910 0.430511 0.230127 0.8 0 0
0.243241 0.465838 0.371901 0.8 0 0
0.060344 0.731452 0.429073 0.8 0 0
0.264284 0.430511 0.401141 0.8 0 0
0.294714 0.950320 0.434161 0.8 0 0
0.446592 0.465838 0.193086 0.8 0 0
0.384903 0.465838 0.195463 0.8 0 0
0.176441 0.459144 0.416123 0.8 0 0
0.483163 0.430511 0.255367 0.8 0 0
0.140046 0.389925 0.128198 0.8 0 0
0.438825 0.421996 0.354430 0.8 0 0
0.492178 0.519798 0.382836 0.8 0 0
0.204117 0.465838 0.116226 0.8 0 0
0.144879 0.430511 0.367473 0.8 0 0
0.453672 0.855125 0.444835 0.8 0 0
0.076586 0.133726 0.279347 0.8 0 0
0.150481 0.465838 0.166338 0.8 0 0
0.377681 0.933784 0.440909 0.8 0 0
0.227658 0.465838 0.050693 0.8 0 0
0.303654 0.465838 0.071574 0.8 0 0
0.430848 0.430511 0.109111 0.8 0 0
0.062780 0.630686 0.417783 0.8 0 0
0.063507 0.105620 0.471553 0.8 0 0
0.060649 0.430511 0.270216 0.8 0 0
0.349546 0.447426 0.420990 0.8 0 0
0.392142 0.465838 0.237991 0.8 0 0
0.499172 0.685588 0.388147 0.8 0 0
0.237932 0.430511 0.131773 0.8 0 0
0.207376 0.465838 0.269341 0.8 0 0
0.222910 0.465838 0.223328 0.8 0 0
0.110845 0.229710 0.079413 0.8 0 0
0.394552 0.430511 0.121611 0.8 0 0
0.154165 0.465838 0.253697 0.8 0 0
0.473869 0.140733 0.075272 0.8 0 0
0.107023 0.378034 0.127113 0.8 0 0
0.070925 0.704407 0.400073 0.8 0 0
0.114535 0.546066 0.403040 0.8 0 0
0.069935 0.463411 0.362578 0.8 0 0
0.371169 0.127242 0.267543 0.8 0 0
0.092748 0.135410 0.145302 0.8 0 0
0.107879 0.465838 0.145478 0.8 0 0
0.365433 0.834710 0.429429 0.8 0 0
0.474020 0.097100 0.455729 0.8 0 0
0.176950 0.465838 0.353920 0.8 0 0
0.460070 0.268604 0.104349 0.8 0 0
0.433331 0.432671 0.103191 0.8 0 0
0.138220 0.400479 0.363316 0.8 0 0
0.069731 0.465838 0.122088 0.8 0 0
0.182262 0.915103 0.428082 0.8 0 0
0.276875 0.465838 0.259612 0.8 0 0
0.083640 0.330519 0.390937 0.8 0 0
0.116638 0.465838 0.273982 0.8 0 0
0.232661 0.440460 0.025135 0.8 0 0
0.500544 0.584288 0.383745 0.8 0 0
0.458358 0.112794 0.449789 0.8 0 0
0.321165 0.465838 0.107832 0.8 0 0
0.030663 0.728012 0.421856 0.8 0 0
0.259300 0.430511 0.300349 0.8 0 0
0.034014 0.787924 0.420888 0.8 0 0
0.460435 0.106071 0.311431 0.8 0 0
0.058565 0.627040 0.393485 0.8 0 0
0.447998 0.370155 0.365027 0.8 0 0
0.075134 0.430511 0.209021 0.8 0 0
0.403798 0.430511 0.120550 0.8 0 0
0.331952 0.465838 0.078943 0.8 0 0
0.454309 0.652819 0.413687 0.8 0 0
0.073172 0.465838 0.124517 0.8 0 0
0.130971 0.312703 0.093559 0.8 0 0
0.107737 0.430511 0.311805 0.8 0 0
0.436205 0.180172 0.440720 0.8 0 0
0.091745 0.400806 0.347056 0.8 0 0
0.086188 0.240256 0.076922 0.8 0 0
0.314121 0.465838 0.030412 0.8 0 0
0.099654 0.164659 0.444492 0.8 0 0
0.090566 0.430511 0.347768 0.8 0 0
0.414305 0.346549 0.386527 0.8 0 0
0.297103 0.430511 0.180517 0.8 0 0
0.438617 0.430511 0.149439 0.8 0 0
0.263755 0.453393 0.381408 0.8 0 0
0.310898 0.430511 0.150600 0.8 0 0
0.052081 0.687900 0.410547 0.8 0 0
0.358548 0.114878 0.259385 0.8 0 0
0.337575 0.584065 0.386116 0.8 0 0
0.093345 0.139710 0.105912 0.8 0 0
0.088182 0.430511 0.172593 0.8 0 0
0.444041 0.465838 0.171304 0.8 0 0
0.445634 0.129411 0.212078 0.8 0 0
0.133576 0.320948 0.106463 0.8 0 0
0.442251 0.346605 0.387012 0.8 0 0
0.443014 0.665383 0.414866 0.8 0 0
0.191106 0.430511 0.309908 0.8 0 0
0.317846 0.496397 0.391720 0.8 0 0
0.050680 0.456077 0.291156 0.8 0 0
0.428151 0.260809 0.084429 0.8 0 0
0.075452 0.191875 0.097415 0.8 0 0
0.350959 0.430511 0.230225 0.8 0 0
0.232476 0.430511 0.322948 0.8 0 0
0.190461 0.430511 0.166084 0.8 0 0
0.067491 0.430511 0.149676 0.8 0 0
0.438523 0.309769 0.361006 0.8 0 0
0.462471 0.132318 0.298616 0.8 0 0
0.312080 0.430511 0.140810 0.8 0 0
0.378033 0.430511 0.219957 0.8 0 0
0.189917 0.430511 0.109942 0.8 0 0
0.174684 0.683900 0.400563 0.8 0 0
0.290286 0.950951 0.439119 0.8 0 0
0.107298 0.603064 0.389437 0.8 0 0
0.321858 0.465838 0.306663 0.8 0 0
0.084932 0.211390 0.442018 0.8 0 0
0.454351 0.465838 0.368510 0.8 0 0
0.111199 0.262622 0.078211 0.8 0 0
0.473225 0.574625 0.379009 0.8 0 0
0.416104 0.465838 0.268293 0.8 0 0
0.484821 0.041430 0.081052 0.8 0 0
0.403983 0.439347 0.356804 0.8 0 0
0.438742 0.446958 0.122249 0.8 0 0
0.161738 0.465838 0.063819 0.8 0 0
0.469398 0.465838 0.375647 0.8 0 0
0.185059 0.790538 0.429489 0.8 0 0
0.145308 0.419707 0.132823 0.8 0 0
0.088383 0.364572 0.359763 0.8 0 0
0.395728 0.494902 0.375852 0.8 0 0
0.092453 0.376215 0.351032 0.8 0 0
0.056004 0.666971 0.423166 0.8 0 0
0.181238 0.738955 0.403399 0.8 0 0
0.459802 0.117817 0.248850 0.8 0 0
0.268670 0.431827 0.025191 0.8 0 0
0.137401 0.342493 0.111798 0.8 0 0
0.430466 0.114651 0.250967 0.8 0 0
0.251692 0.430511 0.386599 0.8 0 0
0.077485 0.114324 0.428911 0.8 0 0
0.403911 0.944054 0.419943 0.8 0 0
0.417247 0.430511 0.395692 0.8 0 0
0.034473 0.700276 0.389613 0.8 0 0
0.251974 0.875177 0.437715 0.8 0 0
0.202103 0.465838 0.052958 0.8 0 0
0.432876 0.125326 0.241999 0.8 0 0
0.360451 0.430511 0.410690 0.8 0 0
0.180299 0.464611 0.030591 0.8 0 0
0.173393 0.465838 0.329534 0.8 0 0
0.438238 0.439602 0.113481 0.8 0 0
0.045499 0.430511 0.255898 0.8 0 0
0.043541 0.451297 0.176662 0.8 0 0
0.149778 0.465838 0.211784 0.8 0 0
0.096084 0.134662 0.077985 0.8 0 0
0.334330 0.430511 0.364343 0.8 0 0
0.062905 0.794930 0.418311 0.8 0 0
0.261198 0.465838 0.030311 0.8 0 0
0.424743 0.259298 0.088150 0.8 0 0
0.069911 0.740537 0.404301 0.8 0 0
0.459299 0.121158 0.388546 0.8 0 0
0.202444 0.430511 0.057301 0.8 0 0
0.509002 0.641613 0.400780 0.8 0 0
0.275447 0.430511 0.423167 0.8 0 0
0.083651 0.104345 0.332247 0.8 0 0
0.417092 0.465838 0.072103 0.8 0 0
0.422952 0.465838 0.249060 0.8 0 0
0.224078 0.465838 0.293864 0.8 0 0
0.449729 0.126069 0.072717 0.8 0 0
0.412727 0.381214 0.135379 0.8 0 0
0.087239 0.263384 0.080723 0.8 0 0
0.380324 0.136054 0.246878 0.8 0 0
0.075649 0.440700 0.395517 0.8 0 0
0.263758 0.957665 0.456459 0.8 0 0
0.035282 0.603393 0.393364 0.8 0 0
0.062612 0.474988 0.381528 0.8 0 0
0.054993 0.721152 0.404243 0.8 0 0
0.384847 0.467398 0.373075 0.8 0 0
0.180895 0.430511 0.197159 0.8 0 0
0.078784 0.430511 0.166613 0.8 0 0
0.083955 0.101935 0.358337 0.8 0 0
0.362308 0.801612 0.416472 0.8 0 0
0.091544 0.115614 0.451992 0.8 0 0
0.250310 0.698332 0.416442 0.8 0 0
0.332650 0.463840 0.373091 0.8 0 0
0.436578 0.426115 0.105778 0.8 0 0
0.098806 0.355282 0.351819 0.8 0 0
0.271504 0.477190 0.389327 0.8 0 0
0.411156 0.425506 0.143169 0.8 0 0
0.244016 0.430511 0.376663 0.8 0 0
0.339969 0.136857 0.261280 0.8 0 0
0.105549 0.465838 0.272207 0.8 0 0
0.278458 0.430511 0.249459 0.8 0 0
0.097035 0.465838 0.152300 0.8 0 0
0.479557 0.604946 0.389110 0.8 0 0
0.468122 0.150146 0.085377 0.8 0 0
0.057094 0.441851 0.324154 0.8 0 0
0.122172 0.441714 0.139825 0.8 0 0
0.103606 0.375811 0.343284 0.8 0 0
0.447725 0.888011 0.411241 0.8 0 0
0.362250 0.430511 0.112030 0.8 0 0
0.054119 0.710112 0.404600 0.8 0 0
0.280850 0.465838 0.118395 0.8 0 0
0.349939 0.718372 0.422211 0.8 0 0
0.387679 0.465838 0.064075 0.8 0 0
0.357816 0.430511 0.139128 0.8 0 0
0.204274 0.554279 0.395241 0.8 0 0
0.145032 0.376384 0.106397 0.8 0 0
0.228813 0.465838 0.082805 0.8 0 0
0.073350 0.524970 0.369610 0.8 0 0
0.076124 0.039920 0.072504 0.8 0 0
0.197688 0.430511 0.353852 0.8 0 0
0.254623 0.454905 0.025113 0.8 0 0
0.432155 0.430511 0.354512 0.8 0 0
0.412410 0.465838 0.377073 0.8 0 0
0.315078 0.430511 0.368807 0.8 0 0
0.512607 0.702137 0.412291 0.8 0 0
0.222973 0.464411 0.420761 0.8 0 0
0.044485 0.670587 0.386227 0.8 0 0
0.190002 0.465838 0.158057 0.8 0 0
0.068852 0.448198 0.375457 0.8 0 0
0.452134 0.120777 0.209452 0.8 0 0
0.486693 0.759630 0.407620 0.8 0 0
0.110933 0.289729 0.377780 0.8 0 0
0.079631 0.430511 0.205360 0.8 0 0
0.107391 0.323320 0.405974 0.8 0 0
0.122590 0.430511 0.284758 0.8 0 0
0.457667 0.131277 0.244552 0.8 0 0
0.427872 0.260229 0.383461 0.8 0 0
0.079016 0.430511 0.104828 0.8 0 0
0.112289 0.312483 0.121798 0.8 0 0
0.474308 0.547955 0.372417 0.8 0 0
0.154587 0.465838 0.051170 0.8 0 0
0.104407 0.420600 0.105614 0.8 0 0
0.083363 0.138360 0.234504 0.8 0 0
0.153651 0.430511 0.278254 0.8 0 0
0.479351 0.509373 0.368013 0.8 0 0
0.361301 0.834745 0.433765 0.8 0 0
0.338882 0.943491 0.423670 0.8 0 0
0.064426 0.121082 0.086562 0.8 0 0
0.392170 0.135653 0.263367 0.8 0 0
0.083966 0.470480 0.385768 0.8 0 0
0.349171 0.941438 0.422903 0.8 0 0
0.099471 0.165522 0.432697 0.8 0 0
0.392527 0.465838 0.345558 0.8 0 0
0.360536 0.465838 0.135734 0.8 0 0
0.062244 0.109516 0.384636 0.8 0 0
0.426977 0.461405 0.402317 0.8 0 0
0.447140 0.877948 0.435038 0.8 0 0
0.379546 0.465838 0.270043 0.8 0 0
0.468775 0.067109 0.061834 0.8 0 0
0.143944 0.465838 0.224530 0.8 0 0
0.067837 0.039023 0.471773 0.8 0 0
0.116762 0.274749 0.409403 0.8 0 0
0.198316 0.655224 0.408469 0.8 0 0
0.067083 0.174664 0.434702 0.8 0 0
0.061628 0.430511 0.330978 0.8 0 0
0.460932 0.430511 0.229609 0.8 0 0
0.148887 0.465838 0.049920 0.8 0 0
0.271562 0.918837 0.441798 0.8 0 0
0.140506 0.465838 0.213443 0.8 0 0
0.389941 0.465838 0.207219 0.8 0 0
0.435475 0.581171 0.402998 0.8 0 0
0.093439 0.140318 0.090251 0.8 0 0
0.510067 0.675852 0.401368 0.8 0 0
0.247809 0.590987 0.401576 0.8 0 0
0.481117 0.619396 0.387425 0.8 0 0
0.199822 0.450167 0.418635 0.8 0 0
0.422252 0.910760 0.433546 0.8 0 0
0.404292 0.430511 0.079810 0.8 0 0
0.118904 0.953814 0.449132 0.8 0 0
0.428844 0.430511 0.184942 0.8 0 0
0.106918 0.334991 0.402706 0.8 0 0
0.375625 0.465838 0.179148 0.8 0 0
0.067845 0.847394 0.443777 0.8 0 0
0.473611 0.768291 0.409402 0.8 0 0
0.176215 0.797627 0.410384 0.8 0 0
0.189819 0.578720 0.406985 0.8 0 0
0.147357 0.430511 0.250023 0.8 0 0
0.472115 0.111499 0.416631 0.8 0 0
0.068420 0.183083 0.439942 0.8 0 0
0.088253 0.660783 0.415846 0.8 0 0
0.068003 0.430511 0.303791 0.8 0 0
0.436521 0.256353 0.382142 0.8 0 0
0.086221 0.111407 0.398094 0.8 0 0
0.249753 0.430511 0.291093 0.8 0 0
0.115128 0.465838 0.195395 0.8 0 0
0.252912 0.961255 0.441845 0.8 0 0
0.075810 0.154048 0.110871 0.8 0 0
0.215325 0.974002 0.432846 0.8 0 0
0.413313 0.430511 0.370199 0.8 0 0
0.254302 0.430511 0.234586 0.8 0 0
0.379351 0.478403 0.388121 0.8 0 0
0.352662 0.933396 0.427580 0.8 0 0
0.441718 0.891847 0.431415 0.8 0 0
0.084292 0.249103 0.428077 0.8 0 0
0.050340 0.758282 0.433592 0.8 0 0
0.456986 0.123918 0.362348 0.8 0 0
0.437271 0.905006 0.450524 0.8 0 0
0.467777 0.430511 0.352474 0.8 0 0
0.463208 0.739118 0.406859 0.8 0 0
0.345263 0.430511 0.165533 0.8 0 0
0.261175 0.938188 0.426203 0.8 0 0
0.091283 0.254380 0.111103 0.8 0 0
0.192097 0.770295 0.414393 0.8 0 0
0.474533 0.091298 0.455383 0.8 0 0
0.077545 0.144274 0.065045 0.8 0 0
0.469830 0.098448 0.400154 0.8 0 0
0.434833 0.465838 0.220224 0.8 0 0
0.299717 0.430511 0.197411 0.8 0 0
0.458865 0.659443 0.413113 0.8 0 0
0.064755 0.053079 0.056053 0.8 0 0
0.435830 0.593568 0.389084 0.8 0 0
0.065058 0.430511 0.182234 0.8 0 0
0.380497 0.430511 0.337769 0.8 0 0
0.108316 0.373669 0.089124 0.8 0 0
0.447835 0.111125 0.375965 0.8 0 0
0.131436 0.517299 0.397052 0.8 0 0
0.124756 0.430511 0.202835 0.8 0 0
0.322469 0.586444 0.396667 0.8 0 0
0.089860 0.127697 0.169001 0.8 0 0
0.473704 0.776755 0.435894 0.8 0 0
0.400750 0.371889 0.364444 0.8 0 0
0.341906 0.114283 0.252759 0.8 0 0
0.084980 0.478406 0.392709 0.8 0 0
0.435625 0.465838 0.361087 0.8 0 0
0.171926 0.430511 0.136063 0.8 0 0
0.252041 0.455127 0.373221 0.8 0 0
0.463809 0.702369 0.421007 0.8 0 0
0.200403 0.465838 0.116671 0.8 0 0
0.098828 0.180880 0.098293 0.8 0 0
0.339051 0.621626 0.411849 0.8 0 0
0.027836 0.702016 0.394585 0.8 0 0
0.335113 0.585685 0.386051 0.8 0 0
0.098237 0.465838 0.262776 0.8 0 0
0.444311 0.232327 0.431186 0.8 0 0
0.087037 0.886499 0.428655 0.8 0 0
0.135437 0.404259 0.368741 0.8 0 0
0.440549 0.181376 0.101452 0.8 0 0
0.259413 0.639327 0.392202 0.8 0 0
0.389467 0.430511 0.286673 0.8 0 0
0.368773 0.430511 0.066377 0.8 0 0
0.072859 0.559856 0.410940 0.8 0 0
0.417327 0.347837 0.090429 0.8 0 0
0.386383 0.430511 0.292004 0.8 0 0
0.435374 0.256103 0.080456 0.8 0 0
0.240109 0.430511 0.291949 0.8 0 0
0.136100 0.957966 0.419089 0.8 0 0
0.122998 0.928795 0.453098 0.8 0 0
0.167756 0.776298 0.413368 0.8 0 0
0.091769 0.253052 0.428861 0.8 0 0
0.470942 0.115991 0.388982 0.8 0 0
0.327367 0.644449 0.407399 0.8 0 0
0.496016 0.570448 0.408591 0.8 0 0
0.192589 0.465838 0.304106 0.8 0 0
0.463932 0.464313 0.400207 0.8 0 0
0.428773 0.273310 0.414421 0.8 0 0
0.033117 0.632313 0.409139 0.8 0 0
0.396376 0.947547 0.439487 0.8 0 0
0.455132 0.465838 0.275919 0.8 0 0
0.330682 0.613406 0.409153 0.8 0 0
0.059793 0.515392 0.404608 0.8 0 0
0.095594 0.430511 0.193673 0.8 0 0
0.428202 0.328475 0.397515 0.8 0 0
0.407017 0.430614 0.332436 0.8 0 0
0.052739 0.679471 0.387246 0.8 0 0
0.216158 0.430511 0.297479 0.8 0 0
0.344026 0.430511 0.233339 0.8 0 0
0.170357 0.695595 0.409678 0.8 0 0
0.465452 0.176595 0.422388 0.8 0 0
0.064369 0.506261 0.367469 0.8 0 0
0.483983 0.741416 0.407153 0.8 0 0
0.478566 0.776537 0.435871 0.8 0 0
0.160017 0.430511 0.297360 0.8 0 0
0.438422 0.436965 0.128543 0.8 0 0
0.166324 0.779453 0.421619 0.8 0 0
0.446461 0.465838 0.329168 0.8 0 0
0.080360 0.668393 0.416585 0.8 0 0
0.481633 0.080667 0.068734 0.8 0 0
0.078561 0.927732 0.429143 0.8 0 0
0.080618 0.430511 0.146652 0.8 0 0
0.109089 0.554981 0.383322 0.8 0 0
0.452091 0.432343 0.066244 0.8 0 0
0.056551 0.430511 0.181793 0.8 0 0
0.104234 0.915441 0.438229 0.8 0 0
0.176308 0.431640 0.416108 0.8 0 0
0.162015 0.920692 0.427259 0.8 0 0
0.089944 0.444032 0.394479 0.8 0 0
0.444632 0.290345 0.409492 0.8 0 0
0.417879 0.274126 0.402422 0.8 0 0
0.467980 0.465838 0.193914 0.8 0 0
0.060038 0.483888 0.386905 0.8 0 0
0.218604 0.430511 0.401212 0.8 0 0
0.286491 0.430511 0.090486 0.8 0 0
0.432847 0.298410 0.408031 0.8 0 0
0.107327 0.211058 0.417949 0.8 0 0
0.480047 0.030893 0.058363 0.8 0 0
0.189513 0.785278 0.425698 0.8 0 0
0.491316 0.703666 0.390208 0.8 0 0
0.435357 0.383785 0.375385 0.8 0 0
0.256937 0.697679 0.420017 0.8 0 0
0.340198 0.962889 0.425886 0.8 0 0
0.052018 0.430511 0.148200 0.8 0 0
0.229159 0.430511 0.136247 0.8 0 0
0.482225 0.619694 0.393630 0.8 0 0
0.393578 0.425872 0.132578 0.8 0 0
0.101498 0.274026 0.421634 0.8 0 0
0.445793 0.465838 0.365292 0.8 0 0
0.061206 0.651332 0.421382 0.8 0 0
0.286573 0.465838 0.346886 0.8 0 0
0.057370 0.812769 0.402471 0.8 0 0
0.450116 0.350944 0.113131 0.8 0 0
0.354232 0.698702 0.403604 0.8 0 0
0.333178 0.492972 0.396672 0.8 0 0
0.181313 0.558542 0.386557 0.8 0 0
0.346632 0.465838 0.033657 0.8 0 0
0.061160 0.067655 0.464369 0.8 0 0
0.427486 0.465838 0.379760 0.8 0 0
0.236405 0.430511 0.107722 0.8 0 0
0.339619 0.693016 0.419525 0.8 0 0
0.508791 0.728956 0.418131 0.8 0 0
0.478496 0.460147 0.397736 0.8 0 0
0.119042 0.430511 0.373628 0.8 0 0
0.350597 0.465838 0.174109 0.8 0 0
0.455657 0.116322 0.416888 0.8 0 0
0.065226 0.125149 0.251215 0.8 0 0
0.462730 0.700382 0.420853 0.8 0 0
0.078980 0.430511 0.213605 0.8 0 0
0.416240 0.430511 0.119990 0.8 0 0
0.064697 0.111425 0.320862 0.8 0 0
0.095682 0.430511 0.170062 0.8 0 0
0.452986 0.456300 0.361940 0.8 0 0
0.455187 0.314110 0.106226 0.8 0 0
0.041005 0.626279 0.381165 0.8 0 0
0.085046 0.093760 0.457602 0.8 0 0
0.075080 0.072088 0.486321 0.8 0 0
0.081427 0.496618 0.371623 0.8 0 0
0.151982 0.944063 0.420164 0.8 0 0
0.114815 0.138130 0.251411 0.8 0 0
0.446099 0.364647 0.121815 0.8 0 0
0.188521 0.430511 0.364930 0.8 0 0
0.416322 0.430511 0.077470 0.8 0 0
0.091188 0.256507 0.388533 0.8 0 0
0.401449 0.430511 0.197132 0.8 0 0
0.101966 0.585587 0.386555 0.8 0 0
0.382310 0.465838 0.400567 0.8 0 0
0.242437 0.465838 0.293578 0.8 0 0
0.135465 0.430511 0.207734 0.8 0 0
0.456632 0.155619 0.102169 0.8 0 0
0.081948 0.868389 0.412763 0.8 0 0
0.046682 0.775024 0.435502 0.8 0 0
0.073365 0.430511 0.169806 0.8 0 0
0.475230 0.430511 0.108393 0.8 0 0
0.444187 0.667093 0.396751 0.8 0 0
0.379261 0.430511 0.189421 0.8 0 0
0.206104 0.516746 0.385964 0.8 0 0
0.074815 0.439319 0.377737 0.8 0 0
0.179427 0.924377 0.427083 0.8 0 0
0.145384 0.465838 0.076829 0.8 0 0
0.440526 0.169136 0.079283 0.8 0 0
0.375874 0.430511 0.220872 0.8 0 0
0.468338 0.442095 0.090743 0.8 0 0
0.472665 0.076422 0.483454 0.8 0 0
0.175856 0.430511 0.366802 0.8 0 0
0.455050 0.465838 0.261911 0.8 0 0
0.171797 0.136203 0.261999 0.8 0 0
0.487975 0.838563 0.413238 0.8 0 0
