0.216335 0.159758 0.687792 0.8 0 0
0.367446 0.759413 0.609764 0.8 0 0
0.446004 0.796799 0.577326 0.8 0 0
0.345100 0.713750 0.626939 0.8 0 0
0.494685 0.523750 0.334711 0.8 0 0
0.356526 0.476250 0.482591 0.8 0 0
0.110579 0.476250 0.302224 0.8 0 0
0.051259 0.500000 0.248405 0.8 0 0
0.626984 0.786804 0.502596 0.8 0 0
0.585428 0.461317 0.337066 0.8 0 0
0.649448 0.039670 0.492139 0.8 0 0
0.521883 0.935246 0.545995 0.8 0 0
0.668320 0.901397 0.485528 0.8 0 0
0.551273 0.452500 0.523987 0.8 0 0
0.217510 0.444494 0.690638 0.8 0 0
0.087149 0.500000 0.288444 0.8 0 0
0.609880 0.773257 0.535354 0.8 0 0
0.649003 0.045701 0.491060 0.8 0 0
0.104195 0.456259 0.416241 0.8 0 0
0.173260 0.500000 0.520894 0.8 0 0
0.280112 0.819769 0.645826 0.8 0 0
0.552647 0.492500 0.520445 0.8 0 0
0.211573 0.103135 0.676259 0.8 0 0
0.547542 0.796923 0.535400 0.8 0 0
0.250052 0.751709 0.683933 0.8 0 0
0.532672 0.476250 0.222253 0.8 0 0
0.265108 0.859581 0.681454 0.8 0 0
0.436645 0.523750 0.452854 0.8 0 0
0.605863 0.523750 0.412086 0.8 0 0
0.222431 0.541213 0.702554 0.8 0 0
0.329365 0.500000 0.633334 0.8 0 0
0.472184 0.126633 0.062843 0.8 0 0
0.594994 0.856278 0.541500 0.8 0 0
0.226018 0.476250 0.457844 0.8 0 0
0.155648 0.500000 0.217379 0.8 0 0
0.703967 0.478009 0.499717 0.8 0 0
0.565242 0.744446 0.528091 0.8 0 0
0.704861 0.317999 0.501882 0.8 0 0
0.698997 0.824529 0.487680 0.8 0 0
0.400714 0.490952 0.583180 0.8 0 0
0.558706 0.493669 0.147993 0.8 0 0
0.629557 0.793009 0.501534 0.8 0 0
0.617272 0.491547 0.414141 0.8 0 0
0.646375 0.477951 0.481743 0.8 0 0
0.682889 0.099105 0.466665 0.8 0 0
0.681415 0.469539 0.467270 0.8 0 0
0.647155 0.469092 0.486585 0.8 0 0
0.374424 0.713750 0.611775 0.8 0 0
0.477736 0.523750 0.437100 0.8 0 0
0.485402 0.391974 0.034310 0.8 0 0
0.299558 0.465451 0.111048 0.8 0 0
0.166583 0.458201 0.567243 0.8 0 0
0.089677 0.500000 0.203988 0.8 0 0
0.520980 0.463027 0.533521 0.8 0 0
0.386432 0.476250 0.155305 0.8 0 0
0.259897 0.476250 0.181779 0.8 0 0
0.496421 0.523750 0.365853 0.8 0 0
0.277622 0.476250 0.462183 0.8 0 0
0.363667 0.476250 0.269143 0.8 0 0
0.241788 0.523641 0.624977 0.8 0 0
0.631640 0.815702 0.526369 0.8 0 0
0.426827 0.481204 0.623788 0.8 0 0
0.076336 0.452500 0.209213 0.8 0 0
0.290865 0.893859 0.667081 0.8 0 0
0.703864 0.425388 0.499468 0.8 0 0
0.694002 0.161265 0.475584 0.8 0 0
0.566604 0.476250 0.314275 0.8 0 0
0.495733 0.096467 0.081434 0.8 0 0
0.663609 0.695164 0.474626 0.8 0 0
0.690826 0.121226 0.467892 0.8 0 0
0.305277 0.523750 0.397479 0.8 0 0
0.553277 0.476250 0.413333 0.8 0 0
0.251036 0.825053 0.657832 0.8 0 0
0.522347 0.071417 0.070445 0.8 0 0
0.149999 0.500000 0.496964 0.8 0 0
0.329527 0.476250 0.531003 0.8 0 0
0.403688 0.713750 0.603986 0.8 0 0
0.343348 0.523750 0.560443 0.8 0 0
0.195783 0.477458 0.513563 0.8 0 0
0.612533 0.871752 0.534258 0.8 0 0
0.417633 0.499638 0.576194 0.8 0 0
0.702615 0.452206 0.509910 0.8 0 0
0.496367 0.484240 0.121504 0.8 0 0
0.480270 0.371476 0.082424 0.8 0 0
0.033248 0.029291 0.244392 0.8 0 0
0.309246 0.523750 0.259178 0.8 0 0
0.048482 0.090726 0.266112 0.8 0 0
0.561915 0.523750 0.409300 0.8 0 0
0.167116 0.455012 0.568534 0.8 0 0
0.167475 0.453268 0.165587 0.8 0 0
0.460575 0.500000 0.059512 0.8 0 0
0.592683 0.751375 0.516760 0.8 0 0
0.083610 0.456182 0.241902 0.8 0 0
0.099804 0.485358 0.244920 0.8 0 0
0.534940 0.855401 0.566298 0.8 0 0
0.500009 0.510896 0.130229 0.8 0 0
0.469998 0.338424 0.057549 0.8 0 0
0.139635 0.500298 0.228473 0.8 0 0
0.162318 0.485624 0.556922 0.8 0 0
0.048356 0.026305 0.266164 0.8 0 0
0.662591 0.838010 0.523967 0.8 0 0
0.521013 0.500000 0.161321 0.8 0 0
0.514366 0.758341 0.549098 0.8 0 0
0.340471 0.523750 0.311553 0.8 0 0
0.612530 0.523750 0.485866 0.8 0 0
0.704741 0.708326 0.501592 0.8 0 0
0.562629 0.817471 0.529170 0.8 0 0
0.636102 0.866584 0.524526 0.8 0 0
0.211125 0.484548 0.550717 0.8 0 0
0.324823 0.523750 0.384722 0.8 0 0
0.506621 0.904797 0.552296 0.8 0 0
0.150606 0.523750 0.237917 0.8 0 0
0.229046 0.876048 0.705455 0.8 0 0
0.453519 0.523750 0.443981 0.8 0 0
0.077473 0.452500 0.333944 0.8 0 0
0.397178 0.918242 0.597487 0.8 0 0
0.238619 0.463175 0.650214 0.8 0 0
0.563367 0.500000 0.556900 0.8 0 0
0.609646 0.895526 0.509756 0.8 0 0
0.080099 0.055558 0.233399 0.8 0 0
0.265607 0.165904 0.682662 0.8 0 0
0.330844 0.516393 0.149520 0.8 0 0
0.257034 0.159729 0.661899 0.8 0 0
0.262648 0.333452 0.691580 0.8 0 0
0.291956 0.523750 0.248038 0.8 0 0
0.280025 0.873347 0.671557 0.8 0 0
0.290804 0.905420 0.641411 0.8 0 0
0.281304 0.890264 0.645334 0.8 0 0
0.503493 0.523750 0.529082 0.8 0 0
0.656109 0.500000 0.422615 0.8 0 0
0.103436 0.500000 0.392076 0.8 0 0
0.256119 0.365025 0.659684 0.8 0 0
0.706249 0.807713 0.505243 0.8 0 0
0.318440 0.819580 0.655695 0.8 0 0
0.528854 0.476250 0.309028 0.8 0 0
0.703567 0.111630 0.498747 0.8 0 0
0.127146 0.523750 0.238189 0.8 0 0
0.693566 0.155380 0.474529 0.8 0 0
0.207938 0.923741 0.662781 0.8 0 0
0.420770 0.476250 0.501373 0.8 0 0
0.034058 0.332959 0.246355 0.8 0 0
0.078946 0.245097 0.253533 0.8 0 0
0.097848 0.467662 0.400879 0.8 0 0
0.360883 0.460756 0.137116 0.8 0 0
0.321340 0.500000 0.645622 0.8 0 0
0.692531 0.267465 0.472020 0.8 0 0
0.256964 0.939658 0.693927 0.8 0 0
0.527126 0.476250 0.224924 0.8 0 0
0.569222 0.476250 0.486372 0.8 0 0
0.226081 0.523750 0.364093 0.8 0 0
0.658386 0.962707 0.513784 0.8 0 0
0.252209 0.917771 0.683043 0.8 0 0
0.070839 0.426098 0.210973 0.8 0 0
0.664821 0.369722 0.525516 0.8 0 0
0.287756 0.735081 0.668365 0.8 0 0
0.607230 0.454374 0.549296 0.8 0 0
0.226858 0.523750 0.288412 0.8 0 0
0.037574 0.284150 0.219226 0.8 0 0
0.279528 0.523750 0.192573 0.8 0 0
0.479419 0.317434 0.036780 0.8 0 0
0.379744 0.523750 0.212636 0.8 0 0
0.592054 0.481364 0.228710 0.8 0 0
0.223804 0.786316 0.705879 0.8 0 0
0.424258 0.862496 0.586306 0.8 0 0
0.276104 0.523750 0.362621 0.8 0 0
0.515174 0.500000 0.545988 0.8 0 0
0.244019 0.169441 0.699272 0.8 0 0
0.161143 0.487468 0.554076 0.8 0 0
0.677114 0.432665 0.520440 0.8 0 0
0.065659 0.320956 0.207629 0.8 0 0
0.215826 0.060284 0.659524 0.8 0 0
0.651882 0.332060 0.498032 0.8 0 0
0.398314 0.493462 0.121660 0.8 0 0
0.380993 0.459637 0.077422 0.8 0 0
0.385114 0.476250 0.236376 0.8 0 0
0.404364 0.483964 0.067772 0.8 0 0
0.469421 0.476250 0.371567 0.8 0 0
0.472655 0.088943 0.063982 0.8 0 0
0.256886 0.514723 0.642569 0.8 0 0
0.079675 0.039308 0.232374 0.8 0 0
0.526519 0.486984 0.582623 0.8 0 0
0.390590 0.500000 0.617594 0.8 0 0
0.224882 0.523750 0.435094 0.8 0 0
0.283907 0.476250 0.539960 0.8 0 0
0.234327 0.805403 0.664731 0.8 0 0
0.510875 0.235051 0.075182 0.8 0 0
0.257926 0.665649 0.664059 0.8 0 0
0.507794 0.474617 0.025064 0.8 0 0
0.388402 0.523750 0.535107 0.8 0 0
0.706023 0.461976 0.508502 0.8 0 0
0.182876 0.500000 0.578439 0.8 0 0
0.689592 0.368214 0.464904 0.8 0 0
0.467207 0.476250 0.523485 0.8 0 0
0.700228 0.229079 0.490661 0.8 0 0
0.329693 0.476250 0.558275 0.8 0 0
0.381743 0.816007 0.603861 0.8 0 0
0.395195 0.500000 0.627721 0.8 0 0
0.276430 0.500000 0.665117 0.8 0 0
0.426465 0.476250 0.308523 0.8 0 0
0.250143 0.025000 0.685764 0.8 0 0
0.262629 0.301473 0.691588 0.8 0 0
0.209142 0.723228 0.662284 0.8 0 0
0.136339 0.459474 0.369646 0.8 0 0
0.458170 0.811346 0.572302 0.8 0 0
0.613140 0.500000 0.341511 0.8 0 0
0.097265 0.492476 0.399468 0.8 0 0
0.586765 0.512318 0.340334 0.8 0 0
0.245489 0.815891 0.660123 0.8 0 0
0.129657 0.452500 0.375681 0.8 0 0
0.299689 0.476250 0.413619 0.8 0 0
0.549569 0.452919 0.125879 0.8 0 0
0.391103 0.506343 0.124638 0.8 0 0
0.123106 0.523750 0.305422 0.8 0 0
0.676231 0.270103 0.469415 0.8 0 0
0.688547 0.328987 0.515719 0.8 0 0
0.290394 0.500000 0.675177 0.8 0 0
0.100322 0.496668 0.244706 0.8 0 0
0.582292 0.452500 0.266312 0.8 0 0
0.267822 0.480097 0.688027 0.8 0 0
0.501323 0.489250 0.541637 0.8 0 0
0.695212 0.944297 0.478513 0.8 0 0
0.659367 0.829022 0.516159 0.8 0 0
0.269118 0.499611 0.688908 0.8 0 0
0.200662 0.523750 0.262332 0.8 0 0
0.403791 0.895874 0.620452 0.8 0 0
0.591481 0.460937 0.227323 0.8 0 0
0.315983 0.497589 0.104266 0.8 0 0
0.541721 0.476250 0.326073 0.8 0 0
0.079711 0.232572 0.232461 0.8 0 0
0.434985 0.523750 0.138785 0.8 0 0
0.663099 0.549041 0.525197 0.8 0 0
0.309260 0.523750 0.590695 0.8 0 0
0.554158 0.476250 0.483700 0.8 0 0
0.250378 0.038395 0.696646 0.8 0 0
0.441534 0.476250 0.282836 0.8 0 0
0.264583 0.523750 0.450671 0.8 0 0
0.514700 0.452500 0.556529 0.8 0 0
0.122158 0.452500 0.198316 0.8 0 0
0.601312 0.739343 0.513197 0.8 0 0
0.083382 0.435100 0.241351 0.8 0 0
0.675934 0.975000 0.471082 0.8 0 0
0.697006 0.414950 0.482859 0.8 0 0
0.470048 0.457787 0.057668 0.8 0 0
0.577247 0.452500 0.251428 0.8 0 0
0.154458 0.523750 0.250936 0.8 0 0
0.253937 0.828501 0.654400 0.8 0 0
0.054680 0.438217 0.263552 0.8 0 0
0.646688 0.428693 0.481614 0.8 0 0
0.515919 0.523750 0.362855 0.8 0 0
0.360351 0.476250 0.356007 0.8 0 0
0.051751 0.466570 0.289305 0.8 0 0
0.380026 0.452500 0.104717 0.8 0 0
0.401879 0.476250 0.429677 0.8 0 0
0.605814 0.805345 0.511338 0.8 0 0
0.495843 0.139738 0.029998 0.8 0 0
0.219672 0.872859 0.695872 0.8 0 0
0.701429 0.663011 0.493571 0.8 0 0
0.253453 0.918493 0.653229 0.8 0 0
0.464820 0.523750 0.415699 0.8 0 0
0.573381 0.845500 0.550425 0.8 0 0
0.071362 0.273148 0.212241 0.8 0 0
0.414674 0.476250 0.256141 0.8 0 0
0.252906 0.502671 0.644213 0.8 0 0
0.602702 0.452500 0.330677 0.8 0 0
0.439799 0.523750 0.510299 0.8 0 0
0.597754 0.916234 0.540361 0.8 0 0
0.038967 0.117820 0.258242 0.8 0 0
0.707228 0.502711 0.507613 0.8 0 0
0.512941 0.468447 0.588230 0.8 0 0
0.661444 0.500000 0.437831 0.8 0 0
0.030028 0.362126 0.236595 0.8 0 0
0.452703 0.476250 0.215878 0.8 0 0
0.311747 0.848334 0.632763 0.8 0 0
0.451184 0.500000 0.060321 0.8 0 0
0.382098 0.523750 0.155302 0.8 0 0
0.481891 0.089900 0.086350 0.8 0 0
0.702810 0.843925 0.496915 0.8 0 0
0.601647 0.464443 0.551601 0.8 0 0
0.668425 0.578613 0.472638 0.8 0 0
0.513674 0.433520 0.038868 0.8 0 0
0.258487 0.773646 0.665419 0.8 0 0
0.249569 0.516569 0.645591 0.8 0 0
0.224587 0.975000 0.695758 0.8 0 0
0.116180 0.514997 0.238158 0.8 0 0
0.084495 0.198579 0.244047 0.8 0 0
0.108066 0.496921 0.425610 0.8 0 0
0.056314 0.461109 0.300351 0.8 0 0
0.475676 0.883915 0.590769 0.8 0 0
0.701087 0.641672 0.492743 0.8 0 0
0.349319 0.508554 0.604402 0.8 0 0
0.548939 0.523750 0.300721 0.8 0 0
0.556994 0.743649 0.557191 0.8 0 0
0.613810 0.452712 0.405760 0.8 0 0
0.581602 0.819848 0.521335 0.8 0 0
0.241046 0.940842 0.685408 0.8 0 0
0.239941 0.920351 0.662413 0.8 0 0
0.257035 0.060893 0.693898 0.8 0 0
0.526962 0.470644 0.071159 0.8 0 0
0.276176 0.465580 0.120703 0.8 0 0
0.706386 0.932845 0.505575 0.8 0 0
0.072301 0.140260 0.214516 0.8 0 0
0.415444 0.523750 0.330817 0.8 0 0
0.258220 0.629524 0.664772 0.8 0 0
0.224699 0.489998 0.583591 0.8 0 0
0.154208 0.476250 0.309913 0.8 0 0
0.547662 0.881856 0.535350 0.8 0 0
0.620070 0.523750 0.421196 0.8 0 0
0.554102 0.476250 0.486673 0.8 0 0
0.333966 0.476250 0.322567 0.8 0 0
0.696361 0.381928 0.481296 0.8 0 0
0.705343 0.367112 0.508783 0.8 0 0
0.567105 0.460535 0.168323 0.8 0 0
0.151005 0.476330 0.529538 0.8 0 0
0.242203 0.168020 0.648632 0.8 0 0
0.579773 0.886944 0.547786 0.8 0 0
0.164006 0.505205 0.218410 0.8 0 0
0.266529 0.282831 0.684894 0.8 0 0
0.214449 0.075795 0.683224 0.8 0 0
0.402525 0.811709 0.595280 0.8 0 0
0.482020 0.129997 0.086662 0.8 0 0
0.556402 0.452500 0.171333 0.8 0 0
0.490867 0.523750 0.299349 0.8 0 0
0.463838 0.476250 0.111613 0.8 0 0
0.250280 0.942354 0.696687 0.8 0 0
0.675481 0.461573 0.469722 0.8 0 0
0.518303 0.479172 0.534626 0.8 0 0
0.653424 0.519729 0.501767 0.8 0 0
0.107285 0.523750 0.259687 0.8 0 0
0.514616 0.035452 0.073637 0.8 0 0
0.062402 0.500000 0.303779 0.8 0 0
0.648654 0.406310 0.490216 0.8 0 0
0.526934 0.523750 0.480050 0.8 0 0
0.416937 0.951250 0.613128 0.8 0 0
0.082374 0.485141 0.238910 0.8 0 0
0.389120 0.523750 0.327811 0.8 0 0
0.050541 0.335858 0.265261 0.8 0 0
0.396587 0.523750 0.346748 0.8 0 0
0.202418 0.500000 0.584821 0.8 0 0
0.620267 0.480002 0.296995 0.8 0 0
0.189530 0.452500 0.553118 0.8 0 0
0.271496 0.523750 0.227098 0.8 0 0
0.465446 0.112703 0.046524 0.8 0 0
0.565857 0.520944 0.289698 0.8 0 0
0.275220 0.476250 0.324790 0.8 0 0
0.436860 0.523750 0.299136 0.8 0 0
0.218752 0.701745 0.693644 0.8 0 0
0.253762 0.395670 0.653975 0.8 0 0
0.501567 0.523750 0.152325 0.8 0 0
0.153182 0.474092 0.410414 0.8 0 0
0.579049 0.910385 0.548084 0.8 0 0
0.213163 0.452500 0.599396 0.8 0 0
0.370844 0.479054 0.595514 0.8 0 0
0.074512 0.317666 0.219869 0.8 0 0
0.162188 0.500000 0.504152 0.8 0 0
0.581334 0.791153 0.521446 0.8 0 0
0.494435 0.773562 0.583023 0.8 0 0
0.678559 0.471209 0.438086 0.8 0 0
0.452770 0.523750 0.152868 0.8 0 0
0.666837 0.454371 0.409714 0.8 0 0
0.673294 0.350036 0.522017 0.8 0 0
0.654628 0.408746 0.504684 0.8 0 0
0.504728 0.523750 0.228724 0.8 0 0
0.225470 0.523750 0.408385 0.8 0 0
0.427607 0.918894 0.584922 0.8 0 0
0.469772 0.500000 0.043620 0.8 0 0
0.515232 0.413805 0.042640 0.8 0 0
0.385194 0.492071 0.127078 0.8 0 0
0.085367 0.486123 0.246159 0.8 0 0
0.068933 0.491781 0.206359 0.8 0 0
0.706555 0.913362 0.505985 0.8 0 0
0.434374 0.476250 0.231449 0.8 0 0
0.336435 0.761914 0.648264 0.8 0 0
0.210060 0.523750 0.330932 0.8 0 0
0.522577 0.476250 0.348249 0.8 0 0
0.521803 0.476250 0.442533 0.8 0 0
0.490810 0.776461 0.558825 0.8 0 0
0.683266 0.434433 0.517900 0.8 0 0
0.278058 0.476250 0.439447 0.8 0 0
0.654901 0.975000 0.484684 0.8 0 0
0.171603 0.483371 0.455004 0.8 0 0
0.667923 0.975000 0.503404 0.8 0 0
0.519652 0.713750 0.554913 0.8 0 0
0.262633 0.100323 0.691586 0.8 0 0
0.424707 0.523750 0.179630 0.8 0 0
0.178237 0.452500 0.575486 0.8 0 0
0.412183 0.483123 0.578445 0.8 0 0
0.442728 0.913850 0.604374 0.8 0 0
0.672302 0.263348 0.471037 0.8 0 0
0.661795 0.364619 0.475376 0.8 0 0
0.502166 0.888923 0.579831 0.8 0 0
0.365952 0.907950 0.636076 0.8 0 0
0.697287 0.397642 0.483539 0.8 0 0
0.573095 0.500000 0.244039 0.8 0 0
0.258228 0.476250 0.641888 0.8 0 0
0.579883 0.713750 0.532405 0.8 0 0
0.645848 0.322232 0.483419 0.8 0 0
0.409164 0.804265 0.618233 0.8 0 0
0.406482 0.476250 0.132586 0.8 0 0
0.203641 0.514957 0.532593 0.8 0 0
0.064206 0.477839 0.319451 0.8 0 0
0.406015 0.933079 0.619533 0.8 0 0
0.481553 0.258535 0.085533 0.8 0 0
0.524636 0.839288 0.570552 0.8 0 0
0.254702 0.490911 0.656252 0.8 0 0
0.458620 0.476250 0.219645 0.8 0 0
0.528081 0.523750 0.234311 0.8 0 0
0.464909 0.333800 0.045223 0.8 0 0
0.666203 0.805712 0.524945 0.8 0 0
0.225593 0.476250 0.211612 0.8 0 0
0.229638 0.523750 0.222673 0.8 0 0
0.211374 0.602619 0.675776 0.8 0 0
0.653815 0.855285 0.517212 0.8 0 0
0.664861 0.502334 0.525499 0.8 0 0
0.316859 0.834453 0.656348 0.8 0 0
0.558134 0.521625 0.270994 0.8 0 0
0.266601 0.587485 0.685069 0.8 0 0
0.671359 0.592269 0.471426 0.8 0 0
0.233122 0.714221 0.666218 0.8 0 0
0.034817 0.061197 0.248193 0.8 0 0
0.294698 0.476250 0.471097 0.8 0 0
0.423688 0.908363 0.612236 0.8 0 0
0.261948 0.781735 0.673802 0.8 0 0
0.307158 0.893490 0.660353 0.8 0 0
0.623775 0.732030 0.529616 0.8 0 0
0.483510 0.452500 0.584639 0.8 0 0
0.171311 0.475561 0.578687 0.8 0 0
0.468565 0.466902 0.054079 0.8 0 0
0.356149 0.476250 0.351984 0.8 0 0
0.484553 0.847957 0.561409 0.8 0 0
0.199169 0.499943 0.646115 0.8 0 0
0.672127 0.129982 0.471109 0.8 0 0
0.219388 0.051586 0.695184 0.8 0 0
0.479743 0.282266 0.036646 0.8 0 0
0.166695 0.452500 0.524199 0.8 0 0
0.403603 0.926026 0.620529 0.8 0 0
0.030072 0.488606 0.236701 0.8 0 0
0.165141 0.523750 0.421510 0.8 0 0
0.676266 0.837360 0.494860 0.8 0 0
0.397966 0.523750 0.557722 0.8 0 0
0.654557 0.376361 0.504510 0.8 0 0
0.653495 0.040105 0.501939 0.8 0 0
0.469603 0.181343 0.040833 0.8 0 0
0.520198 0.250142 0.071332 0.8 0 0
0.251354 0.476250 0.453226 0.8 0 0
0.234671 0.210002 0.703132 0.8 0 0
0.674853 0.896548 0.491437 0.8 0 0
0.546833 0.452500 0.570596 0.8 0 0
0.244561 0.060603 0.647658 0.8 0 0
0.647893 0.909564 0.488373 0.8 0 0
0.656904 0.810933 0.490242 0.8 0 0
0.059126 0.364083 0.210327 0.8 0 0
0.288493 0.520478 0.629518 0.8 0 0
0.571685 0.476250 0.361071 0.8 0 0
0.287092 0.452500 0.657166 0.8 0 0
0.555528 0.476250 0.316336 0.8 0 0
0.309985 0.801192 0.659186 0.8 0 0
0.678329 0.715852 0.499856 0.8 0 0
0.376745 0.925403 0.605924 0.8 0 0
0.406825 0.500000 0.079988 0.8 0 0
0.489175 0.500000 0.596341 0.8 0 0
0.355441 0.523750 0.426465 0.8 0 0
0.695662 0.280106 0.479604 0.8 0 0
0.141529 0.457339 0.506604 0.8 0 0
0.475243 0.055979 0.070251 0.8 0 0
0.519098 0.523750 0.398961 0.8 0 0
0.510122 0.496376 0.030264 0.8 0 0
0.515774 0.413153 0.043953 0.8 0 0
0.651379 0.270248 0.496815 0.8 0 0
0.593225 0.486946 0.355936 0.8 0 0
0.496403 0.490195 0.543669 0.8 0 0
0.506349 0.476250 0.489439 0.8 0 0
0.100619 0.454966 0.283189 0.8 0 0
0.395481 0.476250 0.495950 0.8 0 0
0.259326 0.565161 0.667452 0.8 0 0
0.491199 0.933028 0.558664 0.8 0 0
0.358644 0.476250 0.408995 0.8 0 0
0.663041 0.741655 0.487708 0.8 0 0
0.283331 0.481248 0.169138 0.8 0 0
0.587450 0.876500 0.544615 0.8 0 0
0.237014 0.963519 0.650775 0.8 0 0
0.085386 0.452500 0.281648 0.8 0 0
0.060205 0.025000 0.212492 0.8 0 0
0.133397 0.523750 0.317899 0.8 0 0
0.445385 0.476250 0.414027 0.8 0 0
0.458085 0.523750 0.130941 0.8 0 0
0.488155 0.491139 0.547074 0.8 0 0
0.544278 0.476250 0.403300 0.8 0 0
0.203376 0.500000 0.633042 0.8 0 0
0.497316 0.482865 0.080780 0.8 0 0
0.351251 0.523750 0.362136 0.8 0 0
0.181009 0.452500 0.551486 0.8 0 0
0.553430 0.487539 0.259617 0.8 0 0
0.079202 0.500000 0.316741 0.8 0 0
0.521757 0.311766 0.058442 0.8 0 0
0.181203 0.484219 0.211309 0.8 0 0
0.210207 0.046686 0.672950 0.8 0 0
0.696621 0.095597 0.512385 0.8 0 0
0.701574 0.552607 0.493922 0.8 0 0
0.575519 0.947945 0.523847 0.8 0 0
0.519777 0.334815 0.071506 0.8 0 0
0.171343 0.523750 0.403338 0.8 0 0
0.607383 0.473059 0.265813 0.8 0 0
0.211252 0.316578 0.675482 0.8 0 0
0.232751 0.500000 0.151453 0.8 0 0
0.648713 0.473573 0.490358 0.8 0 0
0.491598 0.476250 0.322859 0.8 0 0
0.418099 0.523750 0.144996 0.8 0 0
0.624844 0.452500 0.331312 0.8 0 0
0.531586 0.452500 0.206501 0.8 0 0
0.063979 0.346963 0.259713 0.8 0 0
0.221940 0.476250 0.265459 0.8 0 0
0.220296 0.476250 0.242198 0.8 0 0
0.158414 0.452500 0.523555 0.8 0 0
0.216614 0.364010 0.659198 0.8 0 0
0.501271 0.334699 0.027757 0.8 0 0
0.339417 0.476250 0.415212 0.8 0 0
0.514894 0.476250 0.388883 0.8 0 0
0.428004 0.491604 0.109401 0.8 0 0
0.358204 0.500000 0.133705 0.8 0 0
0.244882 0.025000 0.693726 0.8 0 0
0.251508 0.025000 0.683001 0.8 0 0
0.646174 0.824818 0.481826 0.8 0 0
0.477374 0.452500 0.582187 0.8 0 0
0.144648 0.500000 0.501927 0.8 0 0
0.295435 0.523750 0.504979 0.8 0 0
0.486517 0.523750 0.122405 0.8 0 0
0.665189 0.494912 0.525364 0.8 0 0
0.503137 0.840767 0.553735 0.8 0 0
0.487653 0.359473 0.084770 0.8 0 0
0.581474 0.926643 0.547083 0.8 0 0
0.344175 0.523750 0.494692 0.8 0 0
0.404742 0.906109 0.620059 0.8 0 0
0.550289 0.452500 0.531827 0.8 0 0
0.193695 0.476250 0.446052 0.8 0 0
0.090212 0.500000 0.314564 0.8 0 0
0.070921 0.421198 0.211172 0.8 0 0
0.533340 0.477832 0.528417 0.8 0 0
0.197462 0.500000 0.554966 0.8 0 0
0.302282 0.476250 0.569284 0.8 0 0
0.489738 0.476250 0.186781 0.8 0 0
0.583419 0.518075 0.332230 0.8 0 0
0.059376 0.064212 0.210223 0.8 0 0
0.081826 0.324174 0.252343 0.8 0 0
0.145097 0.476250 0.322991 0.8 0 0
0.237637 0.452380 0.650518 0.8 0 0
0.469688 0.297168 0.056799 0.8 0 0
0.251356 0.446900 0.648149 0.8 0 0
0.565717 0.796502 0.553589 0.8 0 0
0.363681 0.925490 0.611319 0.8 0 0
0.249164 0.150973 0.645758 0.8 0 0
0.688100 0.064256 0.515903 0.8 0 0
0.387806 0.828220 0.627052 0.8 0 0
0.283380 0.452500 0.671285 0.8 0 0
0.206436 0.058197 0.663818 0.8 0 0
0.413991 0.484016 0.115187 0.8 0 0
0.201253 0.476250 0.305435 0.8 0 0
0.039100 0.156510 0.258565 0.8 0 0
0.080254 0.322246 0.233774 0.8 0 0
0.666661 0.025000 0.476332 0.8 0 0
0.420737 0.523750 0.410090 0.8 0 0
0.505290 0.321855 0.077488 0.8 0 0
0.359989 0.523750 0.240512 0.8 0 0
0.248905 0.913813 0.658712 0.8 0 0
0.355224 0.523750 0.464567 0.8 0 0
0.468018 0.500000 0.574639 0.8 0 0
0.554012 0.493284 0.261028 0.8 0 0
0.449502 0.476250 0.332760 0.8 0 0
0.649344 0.443479 0.491886 0.8 0 0
0.390258 0.476250 0.571872 0.8 0 0
0.683705 0.696004 0.517718 0.8 0 0
0.039551 0.120328 0.218409 0.8 0 0
0.130350 0.470072 0.232307 0.8 0 0
0.339201 0.946698 0.621427 0.8 0 0
0.229378 0.484098 0.653928 0.8 0 0
0.694346 0.185010 0.476418 0.8 0 0
0.528482 0.476250 0.302350 0.8 0 0
0.372046 0.476250 0.266191 0.8 0 0
0.348655 0.488054 0.604676 0.8 0 0
0.481480 0.074940 0.085356 0.8 0 0
0.589025 0.729906 0.518270 0.8 0 0
0.401151 0.844970 0.621542 0.8 0 0
0.469674 0.929926 0.593247 0.8 0 0
0.351492 0.523750 0.382956 0.8 0 0
0.068652 0.500000 0.311515 0.8 0 0
0.307034 0.523750 0.351176 0.8 0 0
0.073835 0.047962 0.218230 0.8 0 0
0.566370 0.499274 0.290940 0.8 0 0
0.558763 0.740314 0.556461 0.8 0 0
0.081206 0.337294 0.236081 0.8 0 0
0.119568 0.452500 0.330979 0.8 0 0
0.055020 0.278352 0.212022 0.8 0 0
0.195449 0.500000 0.626450 0.8 0 0
0.517206 0.751346 0.547925 0.8 0 0
0.349656 0.483972 0.141752 0.8 0 0
0.428646 0.737836 0.610188 0.8 0 0
0.475520 0.476250 0.317387 0.8 0 0
0.252023 0.025000 0.655793 0.8 0 0
0.316698 0.476250 0.240955 0.8 0 0
0.335999 0.523750 0.222032 0.8 0 0
0.445935 0.503120 0.101996 0.8 0 0
0.536963 0.452500 0.137524 0.8 0 0
0.448776 0.523750 0.540722 0.8 0 0
0.702719 0.310577 0.496694 0.8 0 0
0.260634 0.064517 0.670618 0.8 0 0
0.209180 0.487259 0.199757 0.8 0 0
0.512705 0.090799 0.036520 0.8 0 0
0.674178 0.818295 0.521652 0.8 0 0
0.060531 0.261290 0.209746 0.8 0 0
0.025345 0.165701 0.225254 0.8 0 0
0.260391 0.476250 0.308329 0.8 0 0
0.697958 0.377550 0.485165 0.8 0 0
0.241562 0.716816 0.686656 0.8 0 0
0.292528 0.523750 0.563402 0.8 0 0
0.457684 0.476250 0.253852 0.8 0 0
0.232183 0.481460 0.601715 0.8 0 0
0.510861 0.523750 0.521184 0.8 0 0
0.254211 0.523750 0.431396 0.8 0 0
0.484697 0.476250 0.508754 0.8 0 0
0.403221 0.811274 0.594992 0.8 0 0
0.704734 0.117921 0.509035 0.8 0 0
0.702823 0.872598 0.496946 0.8 0 0
0.247900 0.084841 0.646280 0.8 0 0
0.254367 0.133374 0.655442 0.8 0 0
0.307361 0.484035 0.107826 0.8 0 0
0.524514 0.340149 0.065119 0.8 0 0
0.651017 0.106614 0.495938 0.8 0 0
0.236331 0.476250 0.545786 0.8 0 0
0.586405 0.813992 0.545047 0.8 0 0
0.031618 0.432737 0.240444 0.8 0 0
0.063189 0.495816 0.316991 0.8 0 0
0.381661 0.497955 0.591048 0.8 0 0
0.563217 0.476250 0.363876 0.8 0 0
0.452489 0.933630 0.574648 0.8 0 0
0.212546 0.035495 0.678616 0.8 0 0
0.070196 0.064401 0.209416 0.8 0 0
0.317837 0.724600 0.655944 0.8 0 0
0.350570 0.523750 0.555132 0.8 0 0
0.664480 0.476636 0.404010 0.8 0 0
0.532032 0.714859 0.567498 0.8 0 0
0.471725 0.476250 0.183971 0.8 0 0
0.262162 0.070257 0.674319 0.8 0 0
0.252550 0.895316 0.657207 0.8 0 0
0.647002 0.864127 0.494331 0.8 0 0
0.384965 0.485446 0.127172 0.8 0 0
0.280494 0.745649 0.671363 0.8 0 0
0.070408 0.465702 0.209931 0.8 0 0
0.266356 0.954212 0.684475 0.8 0 0
0.223777 0.425069 0.656241 0.8 0 0
0.092623 0.495953 0.263836 0.8 0 0
0.251648 0.423300 0.696122 0.8 0 0
0.331496 0.476250 0.192428 0.8 0 0
0.225939 0.325595 0.706738 0.8 0 0
0.514973 0.246373 0.042013 0.8 0 0
0.433583 0.814333 0.582455 0.8 0 0
0.229027 0.523750 0.441202 0.8 0 0
0.658595 0.735753 0.514290 0.8 0 0
0.272246 0.766553 0.649074 0.8 0 0
0.120437 0.452646 0.331156 0.8 0 0
0.673582 0.742873 0.488360 0.8 0 0
0.392991 0.476250 0.404665 0.8 0 0
0.261908 0.089827 0.673704 0.8 0 0
0.186308 0.452500 0.608402 0.8 0 0
0.204571 0.523750 0.270739 0.8 0 0
0.443586 0.803526 0.604020 0.8 0 0
0.326941 0.754224 0.626489 0.8 0 0
0.310046 0.476250 0.218351 0.8 0 0
0.358026 0.452500 0.612295 0.8 0 0
0.244190 0.220033 0.647812 0.8 0 0
0.526961 0.884400 0.543898 0.8 0 0
0.559268 0.482484 0.273749 0.8 0 0
0.047994 0.270538 0.214923 0.8 0 0
0.593533 0.818131 0.542103 0.8 0 0
0.508508 0.486920 0.076158 0.8 0 0
0.287542 0.853625 0.668453 0.8 0 0
0.255500 0.726505 0.658185 0.8 0 0
0.694763 0.754106 0.477427 0.8 0 0
0.688464 0.735086 0.464363 0.8 0 0
0.659538 0.764862 0.516573 0.8 0 0
0.240863 0.476250 0.330635 0.8 0 0
0.223594 0.567422 0.656317 0.8 0 0
0.580081 0.487746 0.509117 0.8 0 0
0.465335 0.523750 0.280758 0.8 0 0
0.375265 0.824857 0.632231 0.8 0 0
0.230309 0.523750 0.402943 0.8 0 0
0.253099 0.374071 0.652371 0.8 0 0
0.181504 0.523750 0.396051 0.8 0 0
0.424478 0.486378 0.059466 0.8 0 0
0.212057 0.935918 0.677430 0.8 0 0
0.391667 0.476250 0.412467 0.8 0 0
0.603750 0.517899 0.381468 0.8 0 0
0.567105 0.476250 0.471607 0.8 0 0
0.285228 0.476250 0.482756 0.8 0 0
0.052256 0.261290 0.213163 0.8 0 0
0.539389 0.523750 0.419660 0.8 0 0
0.318781 0.500000 0.640553 0.8 0 0
0.261213 0.523750 0.186472 0.8 0 0
0.540944 0.500000 0.202325 0.8 0 0
0.497384 0.523750 0.441748 0.8 0 0
0.261410 0.409007 0.692091 0.8 0 0
0.384153 0.499709 0.076117 0.8 0 0
0.268921 0.476250 0.279385 0.8 0 0
0.485947 0.742902 0.560833 0.8 0 0
0.220306 0.357922 0.697407 0.8 0 0
0.414026 0.523750 0.171845 0.8 0 0
0.436283 0.914814 0.607035 0.8 0 0
0.245754 0.664866 0.698556 0.8 0 0
0.081077 0.115544 0.235769 0.8 0 0
0.685244 0.067271 0.465693 0.8 0 0
0.425107 0.500000 0.585849 0.8 0 0
0.253484 0.476250 0.275569 0.8 0 0
0.581789 0.500000 0.270641 0.8 0 0
0.228424 0.572873 0.705712 0.8 0 0
0.334049 0.476250 0.345808 0.8 0 0
0.460925 0.523750 0.274829 0.8 0 0
0.136882 0.500000 0.408424 0.8 0 0
0.468991 0.261739 0.055109 0.8 0 0
0.139669 0.452500 0.392183 0.8 0 0
0.542738 0.754013 0.563078 0.8 0 0
0.487263 0.512956 0.547443 0.8 0 0
0.695606 0.191417 0.479467 0.8 0 0
0.067953 0.345383 0.206682 0.8 0 0
0.368365 0.476250 0.498409 0.8 0 0
0.262621 0.804698 0.691591 0.8 0 0
0.403538 0.476250 0.218916 0.8 0 0
0.253935 0.394684 0.654395 0.8 0 0
0.351126 0.766669 0.616503 0.8 0 0
0.645395 0.864393 0.482323 0.8 0 0
0.264855 0.951250 0.660077 0.8 0 0
0.493152 0.452500 0.593018 0.8 0 0
0.696667 0.470790 0.482039 0.8 0 0
0.028378 0.306576 0.223023 0.8 0 0
0.490053 0.931716 0.584832 0.8 0 0
0.414617 0.735342 0.615981 0.8 0 0
0.207452 0.523750 0.506854 0.8 0 0
0.083443 0.172949 0.241497 0.8 0 0
0.402953 0.523750 0.401751 0.8 0 0
0.258606 0.476250 0.489387 0.8 0 0
0.684001 0.470732 0.517596 0.8 0 0
0.481663 0.951250 0.586466 0.8 0 0
0.056273 0.419618 0.262894 0.8 0 0
0.698047 0.786664 0.511796 0.8 0 0
0.467912 0.425460 0.041532 0.8 0 0
0.686505 0.069272 0.465172 0.8 0 0
0.283629 0.775287 0.670069 0.8 0 0
0.509644 0.488681 0.153563 0.8 0 0
0.330012 0.480813 0.149863 0.8 0 0
0.277712 0.490423 0.633970 0.8 0 0
0.333122 0.523750 0.237900 0.8 0 0
0.645997 0.715700 0.494745 0.8 0 0
0.461850 0.523750 0.438931 0.8 0 0
0.662224 0.942093 0.475198 0.8 0 0
0.213862 0.435274 0.681801 0.8 0 0
0.258994 0.368765 0.666647 0.8 0 0
0.217090 0.332350 0.689619 0.8 0 0
0.571366 0.523750 0.473447 0.8 0 0
0.539203 0.476250 0.447036 0.8 0 0
0.336556 0.480948 0.095771 0.8 0 0
0.378964 0.473912 0.643551 0.8 0 0
0.585130 0.463162 0.211949 0.8 0 0
0.216967 0.200289 0.689322 0.8 0 0
0.241162 0.474890 0.623359 0.8 0 0
0.151996 0.499378 0.531937 0.8 0 0
0.085687 0.500000 0.300779 0.8 0 0
0.234977 0.523750 0.436162 0.8 0 0
0.521252 0.461976 0.057220 0.8 0 0
0.329259 0.523750 0.355606 0.8 0 0
0.254983 0.853173 0.656934 0.8 0 0
0.579490 0.483582 0.509360 0.8 0 0
0.645181 0.488272 0.481690 0.8 0 0
0.248355 0.258854 0.646092 0.8 0 0
0.074171 0.452500 0.299692 0.8 0 0
0.318216 0.476250 0.169428 0.8 0 0
0.656968 0.794985 0.510349 0.8 0 0
0.676344 0.025000 0.480414 0.8 0 0
0.403924 0.476250 0.174421 0.8 0 0
0.246400 0.849834 0.659746 0.8 0 0
0.214100 0.685857 0.682378 0.8 0 0
0.328798 0.490012 0.664265 0.8 0 0
0.661377 0.800668 0.521027 0.8 0 0
0.216522 0.474117 0.659344 0.8 0 0
0.535599 0.452500 0.555628 0.8 0 0
0.457206 0.523750 0.527671 0.8 0 0
0.215927 0.436202 0.686803 0.8 0 0
0.657092 0.793327 0.490164 0.8 0 0
0.661787 0.178313 0.475379 0.8 0 0
0.377585 0.521122 0.130220 0.8 0 0
0.613065 0.452500 0.392869 0.8 0 0
0.213938 0.505856 0.557531 0.8 0 0
0.619360 0.489663 0.419193 0.8 0 0
0.504564 0.065923 0.077788 0.8 0 0
0.575806 0.452500 0.525391 0.8 0 0
0.522538 0.451263 0.070366 0.8 0 0
0.216040 0.433158 0.687076 0.8 0 0
0.265010 0.144362 0.681216 0.8 0 0
0.706872 0.200347 0.508152 0.8 0 0
0.410008 0.847797 0.617884 0.8 0 0
0.261131 0.495592 0.671822 0.8 0 0
0.330637 0.523750 0.207406 0.8 0 0
0.524013 0.500000 0.088399 0.8 0 0
0.053761 0.292283 0.212542 0.8 0 0
0.702950 0.181241 0.509772 0.8 0 0
0.297112 0.476250 0.323627 0.8 0 0
0.655660 0.420227 0.507183 0.8 0 0
0.240955 0.475436 0.186636 0.8 0 0
0.264656 0.177791 0.680359 0.8 0 0
0.647731 0.804756 0.487981 0.8 0 0
0.144555 0.476908 0.226441 0.8 0 0
0.331108 0.476250 0.597835 0.8 0 0
0.689591 0.777937 0.464900 0.8 0 0
0.245375 0.460005 0.647323 0.8 0 0
0.499507 0.500000 0.047256 0.8 0 0
0.541560 0.476250 0.249043 0.8 0 0
0.679313 0.501145 0.519532 0.8 0 0
0.212861 0.815367 0.679377 0.8 0 0
0.439564 0.476250 0.397503 0.8 0 0
0.495658 0.523750 0.166283 0.8 0 0
0.653555 0.104817 0.502085 0.8 0 0
0.121546 0.481904 0.235942 0.8 0 0
0.187132 0.476250 0.275851 0.8 0 0
0.220519 0.671245 0.697922 0.8 0 0
0.215354 0.667679 0.685416 0.8 0 0
0.211479 0.140217 0.676030 0.8 0 0
0.547343 0.502732 0.244862 0.8 0 0
0.272213 0.523750 0.634293 0.8 0 0
0.357900 0.804062 0.639401 0.8 0 0
0.567640 0.749578 0.527101 0.8 0 0
0.246709 0.476250 0.397060 0.8 0 0
0.288172 0.936696 0.668193 0.8 0 0
0.689147 0.236646 0.464081 0.8 0 0
0.323008 0.476250 0.539454 0.8 0 0
0.069904 0.035075 0.208710 0.8 0 0
0.073602 0.479695 0.217666 0.8 0 0
0.590526 0.476250 0.436543 0.8 0 0
0.478914 0.523750 0.526541 0.8 0 0
0.252854 0.490795 0.651776 0.8 0 0
0.217442 0.226788 0.658857 0.8 0 0
0.257358 0.484828 0.662685 0.8 0 0
0.267136 0.361401 0.689727 0.8 0 0
0.377333 0.452500 0.128584 0.8 0 0
0.205307 0.476250 0.439168 0.8 0 0
0.442608 0.494660 0.565882 0.8 0 0
0.484679 0.523750 0.500815 0.8 0 0
0.541953 0.476250 0.288587 0.8 0 0
0.654820 0.553448 0.505148 0.8 0 0
0.674664 0.500000 0.468634 0.8 0 0
0.126465 0.488373 0.345689 0.8 0 0
0.240543 0.156800 0.649318 0.8 0 0
0.495286 0.758986 0.556977 0.8 0 0
0.335691 0.501418 0.147518 0.8 0 0
0.603681 0.519269 0.499372 0.8 0 0
0.648757 0.864395 0.493606 0.8 0 0
0.030790 0.258622 0.238441 0.8 0 0
0.249830 0.523750 0.556021 0.8 0 0
0.328283 0.476250 0.342952 0.8 0 0
0.070062 0.398468 0.257201 0.8 0 0
0.434602 0.523750 0.386820 0.8 0 0
0.254388 0.137114 0.655492 0.8 0 0
0.692759 0.932323 0.472574 0.8 0 0
0.596751 0.523750 0.420238 0.8 0 0
0.319558 0.523750 0.238687 0.8 0 0
0.700563 0.506103 0.510757 0.8 0 0
0.481844 0.244097 0.086237 0.8 0 0
0.412553 0.523750 0.578009 0.8 0 0
0.648073 0.338816 0.488809 0.8 0 0
0.258860 0.400599 0.666322 0.8 0 0
0.660873 0.381029 0.519806 0.8 0 0
0.245945 0.462759 0.634935 0.8 0 0
0.392502 0.523750 0.264351 0.8 0 0
0.388742 0.500000 0.079028 0.8 0 0
0.652127 0.785195 0.517909 0.8 0 0
0.673507 0.522426 0.470539 0.8 0 0
0.672002 0.468065 0.522550 0.8 0 0
0.173032 0.452500 0.553003 0.8 0 0
0.655117 0.854159 0.505867 0.8 0 0
0.310592 0.476250 0.378629 0.8 0 0
0.513832 0.501661 0.163705 0.8 0 0
0.209175 0.531327 0.662270 0.8 0 0
0.219647 0.765645 0.695811 0.8 0 0
0.279908 0.476250 0.323941 0.8 0 0
0.466978 0.132620 0.041917 0.8 0 0
0.273008 0.476250 0.401544 0.8 0 0
0.377712 0.500000 0.091968 0.8 0 0
0.438608 0.763624 0.580380 0.8 0 0
0.659926 0.771849 0.476147 0.8 0 0
0.237156 0.755021 0.675986 0.8 0 0
0.259322 0.177733 0.667441 0.8 0 0
0.066744 0.205392 0.207181 0.8 0 0
0.671420 0.781098 0.522791 0.8 0 0
0.257359 0.542083 0.693764 0.8 0 0
0.535690 0.494934 0.092285 0.8 0 0
0.357472 0.476250 0.404412 0.8 0 0
0.084989 0.216655 0.245242 0.8 0 0
0.041723 0.447277 0.217513 0.8 0 0
0.591846 0.500000 0.320862 0.8 0 0
0.383577 0.523750 0.381183 0.8 0 0
0.302080 0.767843 0.662450 0.8 0 0
0.255270 0.860380 0.656084 0.8 0 0
0.617234 0.476250 0.455213 0.8 0 0
0.467757 0.797386 0.594039 0.8 0 0
0.524872 0.257854 0.065986 0.8 0 0
0.491416 0.493904 0.083219 0.8 0 0
0.662811 0.477883 0.399971 0.8 0 0
0.487035 0.390292 0.033635 0.8 0 0
0.296632 0.508654 0.163646 0.8 0 0
0.288800 0.476250 0.390154 0.8 0 0
0.556329 0.500000 0.547957 0.8 0 0
0.187418 0.466927 0.493277 0.8 0 0
0.388365 0.500000 0.108402 0.8 0 0
0.250524 0.038366 0.646134 0.8 0 0
0.382348 0.500000 0.117723 0.8 0 0
0.466653 0.308968 0.049447 0.8 0 0
0.058472 0.315970 0.210597 0.8 0 0
0.151996 0.500000 0.479058 0.8 0 0
0.236145 0.457221 0.702524 0.8 0 0
0.261390 0.588297 0.672450 0.8 0 0
0.212714 0.147001 0.660809 0.8 0 0
0.348672 0.476250 0.263492 0.8 0 0
0.489934 0.500000 0.053228 0.8 0 0
0.448468 0.523750 0.194957 0.8 0 0
0.483575 0.945538 0.561813 0.8 0 0
0.593715 0.523750 0.385879 0.8 0 0
0.207778 0.839692 0.667068 0.8 0 0
0.701338 0.427069 0.510437 0.8 0 0
0.629234 0.951250 0.509640 0.8 0 0
0.266295 0.476250 0.594151 0.8 0 0
0.432836 0.452500 0.574485 0.8 0 0
0.226239 0.298719 0.655224 0.8 0 0
0.315902 0.507371 0.155689 0.8 0 0
0.606974 0.523750 0.400180 0.8 0 0
0.354760 0.476250 0.308419 0.8 0 0
0.420191 0.734255 0.613680 0.8 0 0
0.319425 0.476250 0.356265 0.8 0 0
0.511072 0.279903 0.032565 0.8 0 0
0.578479 0.452500 0.210349 0.8 0 0
0.072745 0.482183 0.340118 0.8 0 0
0.509411 0.523750 0.203966 0.8 0 0
0.290088 0.523750 0.566414 0.8 0 0
0.421913 0.839853 0.587274 0.8 0 0
0.391477 0.818392 0.625536 0.8 0 0
0.694056 0.594820 0.513444 0.8 0 0
0.475555 0.476250 0.221997 0.8 0 0
0.159479 0.523750 0.294990 0.8 0 0
0.636323 0.877486 0.498740 0.8 0 0
0.182247 0.523750 0.219206 0.8 0 0
0.265694 0.910086 0.682873 0.8 0 0
0.283361 0.755224 0.670179 0.8 0 0
0.476535 0.369635 0.073378 0.8 0 0
0.231591 0.191128 0.653014 0.8 0 0
0.039866 0.279816 0.260421 0.8 0 0
0.504578 0.756152 0.578835 0.8 0 0
0.259711 0.873323 0.692793 0.8 0 0
0.545585 0.736661 0.536207 0.8 0 0
0.539023 0.478962 0.224712 0.8 0 0
0.237284 0.792907 0.676297 0.8 0 0
0.289022 0.783289 0.642147 0.8 0 0
0.224458 0.464454 0.656065 0.8 0 0
0.574319 0.896795 0.550037 0.8 0 0
0.486939 0.463152 0.085069 0.8 0 0
0.514817 0.523750 0.301528 0.8 0 0
0.182589 0.457935 0.210736 0.8 0 0
0.465466 0.364170 0.042542 0.8 0 0
0.392062 0.476250 0.553201 0.8 0 0
0.674584 0.734154 0.508636 0.8 0 0
0.263029 0.493520 0.676420 0.8 0 0
0.667589 0.241314 0.524373 0.8 0 0
0.516630 0.523750 0.470514 0.8 0 0
0.427592 0.476250 0.155064 0.8 0 0
0.657046 0.428519 0.510540 0.8 0 0
0.201160 0.456417 0.203068 0.8 0 0
0.704516 0.205943 0.501045 0.8 0 0
0.342578 0.482236 0.607186 0.8 0 0
0.256114 0.918416 0.655735 0.8 0 0
0.700616 0.788752 0.491601 0.8 0 0
0.162333 0.500000 0.528556 0.8 0 0
0.473120 0.447494 0.065110 0.8 0 0
0.254824 0.491763 0.656548 0.8 0 0
0.389766 0.476250 0.355013 0.8 0 0
0.192899 0.476250 0.415991 0.8 0 0
0.316924 0.523750 0.559074 0.8 0 0
0.186299 0.500000 0.537739 0.8 0 0
0.209218 0.476250 0.375249 0.8 0 0
0.051128 0.333264 0.265019 0.8 0 0
0.264482 0.841303 0.677975 0.8 0 0
0.253983 0.630336 0.654513 0.8 0 0
0.086918 0.457884 0.249913 0.8 0 0
0.497542 0.481003 0.080689 0.8 0 0
0.443865 0.523750 0.301607 0.8 0 0
0.344648 0.908522 0.644873 0.8 0 0
0.337252 0.932854 0.647927 0.8 0 0
0.697272 0.736014 0.483503 0.8 0 0
0.516330 0.500000 0.542840 0.8 0 0
0.243952 0.459167 0.630111 0.8 0 0
0.278242 0.472277 0.171240 0.8 0 0
0.678253 0.208755 0.519969 0.8 0 0
0.262453 0.495345 0.675025 0.8 0 0
0.649146 0.814572 0.493445 0.8 0 0
0.205905 0.471537 0.662418 0.8 0 0
0.483549 0.523750 0.471484 0.8 0 0
0.597739 0.523750 0.483786 0.8 0 0
0.174743 0.500000 0.529386 0.8 0 0
0.325769 0.714758 0.652668 0.8 0 0
0.290610 0.905297 0.667186 0.8 0 0
0.515160 0.446567 0.073412 0.8 0 0
0.105825 0.500000 0.382408 0.8 0 0
0.329695 0.928708 0.651047 0.8 0 0
0.310694 0.476250 0.347152 0.8 0 0
0.373998 0.762631 0.607059 0.8 0 0
0.459805 0.839237 0.571627 0.8 0 0
0.551814 0.452500 0.521231 0.8 0 0
0.601330 0.522919 0.375607 0.8 0 0
0.324391 0.476250 0.587411 0.8 0 0
0.378011 0.858938 0.631096 0.8 0 0
0.052970 0.253911 0.264258 0.8 0 0
0.513926 0.025000 0.041007 0.8 0 0
0.664238 0.801218 0.525757 0.8 0 0
0.263579 0.513519 0.639806 0.8 0 0
0.261629 0.729230 0.692001 0.8 0 0
0.426891 0.500000 0.067088 0.8 0 0
0.582654 0.470645 0.559444 0.8 0 0
0.501216 0.052543 0.027780 0.8 0 0
0.696369 0.074693 0.481316 0.8 0 0
0.230877 0.523750 0.545977 0.8 0 0
0.087952 0.452500 0.233446 0.8 0 0
0.255370 0.483155 0.657872 0.8 0 0
0.532490 0.512676 0.208890 0.8 0 0
0.659861 0.500000 0.476062 0.8 0 0
0.589554 0.737473 0.543747 0.8 0 0
0.505295 0.942936 0.552844 0.8 0 0
0.208946 0.641991 0.669897 0.8 0 0
0.694474 0.246561 0.476727 0.8 0 0
0.625658 0.799191 0.503144 0.8 0 0
0.147100 0.452500 0.448895 0.8 0 0
0.218822 0.523750 0.457202 0.8 0 0
0.517121 0.500391 0.535114 0.8 0 0
0.074401 0.368171 0.219601 0.8 0 0
0.611837 0.457185 0.276592 0.8 0 0
0.210719 0.480808 0.147731 0.8 0 0
0.194058 0.498116 0.206001 0.8 0 0
0.419983 0.809752 0.588071 0.8 0 0
0.667979 0.975000 0.521338 0.8 0 0
0.242114 0.932120 0.700059 0.8 0 0
0.200274 0.523750 0.389274 0.8 0 0
0.105581 0.452500 0.225273 0.8 0 0
0.343087 0.817957 0.619823 0.8 0 0
0.459676 0.458132 0.610224 0.8 0 0
0.525468 0.523750 0.267432 0.8 0 0
0.162025 0.479069 0.167838 0.8 0 0
0.603186 0.500000 0.510308 0.8 0 0
0.395300 0.472406 0.585416 0.8 0 0
0.271019 0.471877 0.174222 0.8 0 0
0.482684 0.869919 0.587875 0.8 0 0
0.161543 0.523750 0.335199 0.8 0 0
0.463246 0.476250 0.214954 0.8 0 0
0.270679 0.720889 0.649721 0.8 0 0
0.196578 0.514175 0.204960 0.8 0 0
0.601476 0.500000 0.368705 0.8 0 0
0.472607 0.294211 0.039593 0.8 0 0
0.430120 0.851987 0.609580 0.8 0 0
0.621115 0.500000 0.378815 0.8 0 0
0.683526 0.473215 0.450108 0.8 0 0
0.345210 0.476250 0.297188 0.8 0 0
0.301678 0.795197 0.662616 0.8 0 0
0.583210 0.452500 0.237333 0.8 0 0
0.484074 0.476250 0.385447 0.8 0 0
0.648368 0.461686 0.489522 0.8 0 0
0.477820 0.523750 0.162328 0.8 0 0
0.329710 0.523750 0.264024 0.8 0 0
0.072336 0.192780 0.256262 0.8 0 0
0.521357 0.082289 0.070854 0.8 0 0
0.240824 0.523750 0.261797 0.8 0 0
0.463043 0.493678 0.043542 0.8 0 0
0.254332 0.264653 0.655357 0.8 0 0
0.206630 0.841518 0.664287 0.8 0 0
0.170763 0.452500 0.550130 0.8 0 0
0.675834 0.564378 0.520968 0.8 0 0
0.665271 0.929105 0.525330 0.8 0 0
0.685015 0.655676 0.465787 0.8 0 0
0.461512 0.500000 0.067693 0.8 0 0
0.232900 0.902229 0.652474 0.8 0 0
0.540751 0.500000 0.202447 0.8 0 0
0.220550 0.476250 0.251804 0.8 0 0
0.490999 0.500000 0.091367 0.8 0 0
0.208934 0.522384 0.545411 0.8 0 0
0.361103 0.523750 0.454023 0.8 0 0
0.217523 0.930670 0.690668 0.8 0 0
0.319867 0.452500 0.115074 0.8 0 0
0.456207 0.500000 0.607123 0.8 0 0
0.650781 0.813129 0.492770 0.8 0 0
0.029472 0.468427 0.235248 0.8 0 0
0.242893 0.476250 0.513547 0.8 0 0
0.033400 0.183386 0.244760 0.8 0 0
0.247303 0.360154 0.697916 0.8 0 0
0.513434 0.951250 0.563744 0.8 0 0
0.322004 0.800648 0.654223 0.8 0 0
0.223361 0.484334 0.193901 0.8 0 0
0.470891 0.110876 0.059710 0.8 0 0
0.458538 0.500000 0.071944 0.8 0 0
0.214977 0.476250 0.207131 0.8 0 0
0.285284 0.742148 0.643690 0.8 0 0
0.496598 0.476250 0.538704 0.8 0 0
0.649413 0.881905 0.492055 0.8 0 0
0.705978 0.423967 0.504588 0.8 0 0
0.605080 0.462246 0.498794 0.8 0 0
0.659209 0.146566 0.476443 0.8 0 0
0.642741 0.944415 0.496090 0.8 0 0
0.240967 0.758222 0.700533 0.8 0 0
0.270465 0.713750 0.664435 0.8 0 0
0.462827 0.858800 0.596075 0.8 0 0
0.251868 0.732448 0.649389 0.8 0 0
0.348212 0.866940 0.643401 0.8 0 0
0.095455 0.523750 0.255650 0.8 0 0
0.254761 0.523750 0.232752 0.8 0 0
0.351339 0.476250 0.442204 0.8 0 0
0.284508 0.523750 0.313784 0.8 0 0
0.285076 0.782441 0.669471 0.8 0 0
0.070762 0.498991 0.210787 0.8 0 0
0.222389 0.343947 0.702451 0.8 0 0
0.694524 0.728360 0.476847 0.8 0 0
0.229878 0.750887 0.705111 0.8 0 0
0.473948 0.335786 0.067114 0.8 0 0
0.616841 0.757920 0.506785 0.8 0 0
0.530448 0.476250 0.457214 0.8 0 0
0.325369 0.489375 0.151780 0.8 0 0
0.469307 0.505699 0.554857 0.8 0 0
0.362665 0.476250 0.231883 0.8 0 0
0.616640 0.876036 0.506868 0.8 0 0
0.436826 0.920590 0.581116 0.8 0 0
0.384697 0.865635 0.628336 0.8 0 0
0.260141 0.908218 0.679767 0.8 0 0
0.255355 0.415733 0.694592 0.8 0 0
0.221624 0.552143 0.700600 0.8 0 0
0.454158 0.922721 0.599654 0.8 0 0
0.308192 0.951250 0.640790 0.8 0 0
0.278364 0.899295 0.672243 0.8 0 0
0.225976 0.382305 0.655333 0.8 0 0
0.070511 0.224310 0.210180 0.8 0 0
0.440445 0.523750 0.253842 0.8 0 0
0.135362 0.470945 0.367282 0.8 0 0
0.663545 0.141144 0.474653 0.8 0 0
0.108057 0.452500 0.314659 0.8 0 0
0.327696 0.476250 0.338353 0.8 0 0
0.418390 0.523750 0.503880 0.8 0 0
0.572288 0.500000 0.202348 0.8 0 0
0.487577 0.476250 0.137141 0.8 0 0
0.226648 0.974768 0.706445 0.8 0 0
0.666266 0.963664 0.524919 0.8 0 0
0.412640 0.473979 0.115744 0.8 0 0
0.179229 0.500000 0.569627 0.8 0 0
0.235630 0.319710 0.651347 0.8 0 0
0.655397 0.975000 0.480831 0.8 0 0
0.651233 0.796725 0.496462 0.8 0 0
0.525671 0.523750 0.483761 0.8 0 0
0.660123 0.828413 0.517991 0.8 0 0
0.545564 0.452500 0.552482 0.8 0 0
0.230903 0.536603 0.653298 0.8 0 0
0.518342 0.377782 0.072098 0.8 0 0
0.106880 0.498230 0.422740 0.8 0 0
0.693579 0.437883 0.474559 0.8 0 0
0.578856 0.523750 0.428997 0.8 0 0
0.344333 0.882364 0.619308 0.8 0 0
0.478108 0.500000 0.042554 0.8 0 0
0.534899 0.523750 0.480642 0.8 0 0
0.619322 0.499357 0.492914 0.8 0 0
0.076679 0.436564 0.254469 0.8 0 0
0.253760 0.051383 0.653971 0.8 0 0
0.341649 0.497434 0.607569 0.8 0 0
0.578314 0.523750 0.432298 0.8 0 0
0.579165 0.493743 0.509495 0.8 0 0
0.107902 0.519324 0.300733 0.8 0 0
0.130480 0.470336 0.355465 0.8 0 0
0.672959 0.945457 0.522155 0.8 0 0
0.238362 0.804845 0.678907 0.8 0 0
0.634373 0.786347 0.525240 0.8 0 0
0.640164 0.478114 0.345155 0.8 0 0
0.702634 0.881760 0.496488 0.8 0 0
0.375794 0.948032 0.606317 0.8 0 0
0.028903 0.207247 0.233871 0.8 0 0
0.610868 0.477944 0.496404 0.8 0 0
0.692270 0.223889 0.514182 0.8 0 0
0.510739 0.038105 0.031758 0.8 0 0
0.224063 0.776952 0.706506 0.8 0 0
0.363621 0.777215 0.637039 0.8 0 0
0.059021 0.260318 0.210370 0.8 0 0
0.318785 0.508609 0.617010 0.8 0 0
0.514137 0.025159 0.039989 0.8 0 0
0.193358 0.457471 0.206290 0.8 0 0
0.580477 0.500000 0.284213 0.8 0 0
0.553245 0.460850 0.259171 0.8 0 0
0.701109 0.113572 0.510532 0.8 0 0
0.154935 0.476250 0.246179 0.8 0 0
0.281958 0.476250 0.218868 0.8 0 0
0.374832 0.523750 0.304182 0.8 0 0
0.289547 0.523750 0.600895 0.8 0 0
0.352941 0.480297 0.654297 0.8 0 0
0.031338 0.327871 0.239766 0.8 0 0
0.029097 0.163164 0.234341 0.8 0 0
0.033390 0.090538 0.244737 0.8 0 0
0.368159 0.523750 0.590412 0.8 0 0
0.400047 0.951250 0.598167 0.8 0 0
0.274625 0.813506 0.673787 0.8 0 0
0.517500 0.145580 0.048132 0.8 0 0
0.211686 0.451829 0.676531 0.8 0 0
0.431901 0.476250 0.190421 0.8 0 0
0.328072 0.476250 0.508371 0.8 0 0
0.132672 0.476250 0.270235 0.8 0 0
0.682791 0.914550 0.518095 0.8 0 0
0.663074 0.786548 0.525138 0.8 0 0
0.192801 0.476250 0.309645 0.8 0 0
0.681183 0.931047 0.518759 0.8 0 0
0.479689 0.903398 0.563417 0.8 0 0
0.461135 0.523750 0.305556 0.8 0 0
0.493676 0.500000 0.104872 0.8 0 0
0.659436 0.830133 0.489196 0.8 0 0
0.388337 0.485710 0.074390 0.8 0 0
0.081442 0.090813 0.236652 0.8 0 0
0.211919 0.720445 0.677097 0.8 0 0
0.388173 0.508503 0.125848 0.8 0 0
0.645562 0.937861 0.482728 0.8 0 0
0.650492 0.836676 0.494667 0.8 0 0
0.470947 0.447060 0.040278 0.8 0 0
0.391946 0.861127 0.625342 0.8 0 0
0.032102 0.191026 0.241618 0.8 0 0
0.284914 0.452500 0.167641 0.8 0 0
0.194498 0.476250 0.468643 0.8 0 0
0.162005 0.461385 0.219236 0.8 0 0
0.508785 0.927041 0.577098 0.8 0 0
0.616074 0.492990 0.411314 0.8 0 0
0.692151 0.478676 0.471101 0.8 0 0
0.219252 0.452500 0.144605 0.8 0 0
0.085672 0.102062 0.250755 0.8 0 0
0.706720 0.968738 0.506383 0.8 0 0
0.528676 0.901716 0.543190 0.8 0 0
0.241658 0.493435 0.624664 0.8 0 0
0.284533 0.912712 0.644000 0.8 0 0
0.148914 0.500000 0.488279 0.8 0 0
0.301925 0.895758 0.636819 0.8 0 0
0.067882 0.479038 0.206711 0.8 0 0
0.231995 0.495595 0.190336 0.8 0 0
0.062025 0.352515 0.260519 0.8 0 0
0.071849 0.477048 0.213421 0.8 0 0
0.223909 0.523750 0.359415 0.8 0 0
0.447733 0.476250 0.510029 0.8 0 0
0.471160 0.482257 0.060363 0.8 0 0
0.654777 0.635874 0.505043 0.8 0 0
0.445101 0.951250 0.601270 0.8 0 0
0.675768 0.367779 0.469605 0.8 0 0
0.569208 0.752774 0.526453 0.8 0 0
0.523057 0.432766 0.070151 0.8 0 0
0.664228 0.579686 0.474371 0.8 0 0
0.251043 0.947974 0.683524 0.8 0 0
0.651055 0.460324 0.496030 0.8 0 0
0.500651 0.306402 0.028013 0.8 0 0
0.299671 0.464162 0.624903 0.8 0 0
0.692431 0.118472 0.471779 0.8 0 0
0.509143 0.500000 0.075883 0.8 0 0
0.639271 0.770003 0.497523 0.8 0 0
0.490623 0.180777 0.032154 0.8 0 0
0.254334 0.920088 0.655361 0.8 0 0
0.470053 0.523750 0.429842 0.8 0 0
0.456347 0.476250 0.269860 0.8 0 0
0.522976 0.072055 0.070185 0.8 0 0
0.025320 0.309185 0.225192 0.8 0 0
0.380637 0.523750 0.477674 0.8 0 0
0.663307 0.335598 0.525702 0.8 0 0
0.214639 0.471544 0.559162 0.8 0 0
0.189465 0.500000 0.157619 0.8 0 0
0.511736 0.196404 0.034173 0.8 0 0
0.397181 0.519494 0.122128 0.8 0 0
0.649989 0.471766 0.493449 0.8 0 0
0.576104 0.500000 0.221791 0.8 0 0
0.286370 0.497067 0.630395 0.8 0 0
0.686117 0.464146 0.456378 0.8 0 0
0.523928 0.476250 0.201077 0.8 0 0
0.274170 0.476250 0.241916 0.8 0 0
0.222197 0.393467 0.701988 0.8 0 0
0.449234 0.476250 0.382260 0.8 0 0
0.471730 0.844680 0.566703 0.8 0 0
0.650245 0.922431 0.492992 0.8 0 0
0.288336 0.467466 0.629583 0.8 0 0
0.255985 0.249722 0.659360 0.8 0 0
0.645958 0.475453 0.359178 0.8 0 0
0.119878 0.469453 0.185241 0.8 0 0
0.475056 0.052862 0.069797 0.8 0 0
0.702359 0.855522 0.495822 0.8 0 0
0.272044 0.523750 0.345369 0.8 0 0
0.144361 0.476250 0.362775 0.8 0 0
0.210422 0.523750 0.522763 0.8 0 0
0.268462 0.519130 0.175278 0.8 0 0
0.071340 0.280613 0.212189 0.8 0 0
0.613913 0.816253 0.533688 0.8 0 0
0.419318 0.523750 0.530330 0.8 0 0
0.330852 0.713750 0.647052 0.8 0 0
0.676986 0.581165 0.469103 0.8 0 0
0.335060 0.496602 0.096389 0.8 0 0
0.333039 0.452500 0.638472 0.8 0 0
0.468953 0.491404 0.055018 0.8 0 0
0.236229 0.316404 0.651099 0.8 0 0
0.487491 0.512726 0.099912 0.8 0 0
0.448697 0.767720 0.576214 0.8 0 0
0.222438 0.852477 0.702572 0.8 0 0
0.397516 0.476250 0.273487 0.8 0 0
0.485153 0.322725 0.085803 0.8 0 0
0.366535 0.721737 0.610140 0.8 0 0
0.252255 0.222903 0.695871 0.8 0 0
0.467292 0.163498 0.050994 0.8 0 0
0.511217 0.820022 0.550399 0.8 0 0
0.580143 0.491905 0.199879 0.8 0 0
0.256359 0.828645 0.660266 0.8 0 0
0.387373 0.523750 0.355097 0.8 0 0
0.280388 0.523750 0.391454 0.8 0 0
0.267584 0.934804 0.650999 0.8 0 0
0.238860 0.902948 0.680112 0.8 0 0
0.208189 0.523750 0.285210 0.8 0 0
0.206806 0.504305 0.664713 0.8 0 0
0.071324 0.094974 0.212150 0.8 0 0
0.667507 0.506973 0.473017 0.8 0 0
0.444468 0.452500 0.585188 0.8 0 0
0.216680 0.711573 0.688626 0.8 0 0
0.656432 0.483189 0.528980 0.8 0 0
0.248490 0.939320 0.658883 0.8 0 0
0.481439 0.446422 0.085257 0.8 0 0
0.537311 0.936819 0.565319 0.8 0 0
0.251036 0.135230 0.647374 0.8 0 0
0.297471 0.476250 0.244984 0.8 0 0
0.423196 0.523750 0.185406 0.8 0 0
0.441708 0.476250 0.153597 0.8 0 0
0.469988 0.476250 0.361452 0.8 0 0
0.209215 0.120444 0.670549 0.8 0 0
0.677015 0.497425 0.434348 0.8 0 0
0.420666 0.713750 0.602486 0.8 0 0
0.470483 0.330582 0.058723 0.8 0 0
0.610496 0.476250 0.460635 0.8 0 0
0.405069 0.523750 0.383699 0.8 0 0
0.248419 0.713750 0.660192 0.8 0 0
0.342738 0.878769 0.619966 0.8 0 0
0.698459 0.330205 0.486377 0.8 0 0
0.214310 0.752772 0.682888 0.8 0 0
0.220647 0.523750 0.250636 0.8 0 0
0.454071 0.951250 0.582087 0.8 0 0
0.172894 0.476250 0.369286 0.8 0 0
0.314780 0.523750 0.270838 0.8 0 0
0.328895 0.453542 0.664225 0.8 0 0
0.245782 0.025000 0.654948 0.8 0 0
0.458988 0.523750 0.303295 0.8 0 0
0.500563 0.500000 0.564750 0.8 0 0
0.081075 0.452500 0.300087 0.8 0 0
0.364157 0.796915 0.636817 0.8 0 0
0.327358 0.476250 0.350900 0.8 0 0
0.468046 0.272539 0.052822 0.8 0 0
0.465510 0.471902 0.046678 0.8 0 0
0.395156 0.476250 0.294025 0.8 0 0
0.262329 0.801450 0.674723 0.8 0 0
0.280375 0.523750 0.535885 0.8 0 0
0.219813 0.169035 0.696213 0.8 0 0
0.559343 0.452500 0.163865 0.8 0 0
0.242576 0.481024 0.699868 0.8 0 0
0.167075 0.523750 0.319266 0.8 0 0
0.685153 0.444552 0.465730 0.8 0 0
0.338468 0.476250 0.157353 0.8 0 0
0.261703 0.800871 0.673207 0.8 0 0
0.336642 0.950547 0.622484 0.8 0 0
0.638473 0.895519 0.523547 0.8 0 0
0.511168 0.484369 0.588962 0.8 0 0
0.700806 0.604069 0.510657 0.8 0 0
0.339295 0.923598 0.621388 0.8 0 0
0.463687 0.511744 0.557178 0.8 0 0
0.501637 0.814789 0.554354 0.8 0 0
0.083989 0.410094 0.251450 0.8 0 0
0.323786 0.452500 0.659989 0.8 0 0
0.501205 0.523750 0.212944 0.8 0 0
0.668064 0.066981 0.472787 0.8 0 0
