0.288467 0.388100 0.054671 0.8 0 0
0.516340 0.442043 0.089084 0.8 0 0
0.727094 0.406465 0.084343 0.8 0 0
0.800897 0.453545 0.060513 0.8 0 0
0.250554 0.393236 0.061734 0.8 0 0
0.628543 0.569809 0.092609 0.8 0 0
0.758066 0.319108 0.184107 0.8 0 0
0.598406 0.156354 0.092280 0.8 0 0
0.393795 0.416138 0.113600 0.8 0 0
0.733332 0.359312 0.085767 0.8 0 0
0.878342 0.435040 0.084055 0.8 0 0
0.879012 0.452798 0.061930 0.8 0 0
0.563473 0.401867 0.086573 0.8 0 0
0.790219 0.392782 0.088418 0.8 0 0
0.619717 0.667633 0.077501 0.8 0 0
0.700726 0.364303 0.076417 0.8 0 0
0.676929 0.062309 0.079419 0.8 0 0
0.561699 0.306970 0.098372 0.8 0 0
0.762628 0.365738 0.032547 0.8 0 0
0.343745 0.347498 0.095086 0.8 0 0
0.873054 0.409359 0.034512 0.8 0 0
0.819256 0.411445 0.086065 0.8 0 0
0.350770 0.302991 0.083539 0.8 0 0
0.697952 0.100209 0.084501 0.8 0 0
0.490787 0.347945 0.101010 0.8 0 0
0.148074 0.359663 0.106032 0.8 0 0
0.585692 0.396293 0.078464 0.8 0 0
0.278739 0.393215 0.124196 0.8 0 0
0.540744 0.447341 0.082855 0.8 0 0
0.166743 0.387392 0.042455 0.8 0 0
0.792356 0.456548 0.084003 0.8 0 0
0.689353 0.407644 0.087591 0.8 0 0
0.693850 0.086287 0.085420 0.8 0 0
0.629428 0.526667 0.091534 0.8 0 0
0.526035 0.372340 0.049838 0.8 0 0
0.744169 0.323525 0.070603 0.8 0 0
0.508137 0.485704 0.098341 0.8 0 0
0.610344 0.393414 0.072349 0.8 0 0
0.862718 0.317188 0.073645 0.8 0 0
0.548179 0.556944 0.094898 0.8 0 0
0.303112 0.378718 0.104197 0.8 0 0
0.790098 0.326773 0.044282 0.8 0 0
0.570816 0.461064 0.068692 0.8 0 0
0.134500 0.369801 0.109531 0.8 0 0
0.798427 0.382969 0.057211 0.8 0 0
0.708739 0.378328 0.094784 0.8 0 0
0.542296 0.392489 0.069623 0.8 0 0
0.652294 0.164713 0.089940 0.8 0 0
0.798265 0.327658 0.043160 0.8 0 0
0.568768 0.148646 0.082097 0.8 0 0
0.510961 0.356129 0.096281 0.8 0 0
0.537645 0.293807 0.098305 0.8 0 0
0.195331 0.368210 0.116422 0.8 0 0
0.758422 0.325313 0.140046 0.8 0 0
0.570933 0.359623 0.027811 0.8 0 0
0.790701 0.482380 0.082187 0.8 0 0
0.724519 0.329869 0.081130 0.8 0 0
0.806714 0.371057 0.072067 0.8 0 0
0.271309 0.360337 0.124475 0.8 0 0
0.453386 0.323870 0.098435 0.8 0 0
0.703724 0.750378 0.087234 0.8 0 0
0.816587 0.452519 0.067577 0.8 0 0
0.734759 0.447352 0.116216 0.8 0 0
0.684413 0.397439 0.043114 0.8 0 0
0.703501 0.459263 0.137401 0.8 0 0
0.497006 0.348286 0.100919 0.8 0 0
0.576308 0.250356 0.096116 0.8 0 0
0.671737 0.460930 0.096420 0.8 0 0
0.813556 0.430838 0.066448 0.8 0 0
0.626934 0.113746 0.090335 0.8 0 0
0.525952 0.467063 0.099015 0.8 0 0
0.760420 0.371297 0.064232 0.8 0 0
0.748924 0.379033 0.044385 0.8 0 0
0.602983 0.395597 0.076913 0.8 0 0
0.152284 0.350611 0.071363 0.8 0 0
0.485113 0.468547 0.068499 0.8 0 0
0.873457 0.490148 0.075158 0.8 0 0
0.318396 0.376914 0.074095 0.8 0 0
0.721845 0.409572 0.076354 0.8 0 0
0.612139 0.404902 0.054979 0.8 0 0
0.595488 0.640313 0.076739 0.8 0 0
0.724681 0.434822 0.031158 0.8 0 0
0.373341 0.450751 0.087230 0.8 0 0
0.256933 0.388648 0.104120 0.8 0 0
0.791139 0.349878 0.065809 0.8 0 0
0.777834 0.452425 0.052095 0.8 0 0
0.693792 0.639256 0.084340 0.8 0 0
0.541042 0.494298 0.069377 0.8 0 0
0.682674 0.549354 0.084043 0.8 0 0
0.647385 0.453474 0.054971 0.8 0 0
0.528738 0.390116 0.112727 0.8 0 0
0.709002 0.033402 0.088140 0.8 0 0
0.444127 0.338987 0.099487 0.8 0 0
0.726429 0.316366 0.136099 0.8 0 0
0.494140 0.493454 0.069886 0.8 0 0
0.155112 0.358393 0.105099 0.8 0 0
0.689275 0.410672 0.082356 0.8 0 0
0.782565 0.452796 0.217527 0.8 0 0
0.634516 0.292632 0.077362 0.8 0 0
0.581824 0.160325 0.075202 0.8 0 0
0.554573 0.377782 0.080962 0.8 0 0
0.762892 0.320393 0.243694 0.8 0 0
0.299403 0.440918 0.085462 0.8 0 0
0.738450 0.408034 0.069582 0.8 0 0
0.618177 0.326921 0.079599 0.8 0 0
0.661957 0.457435 0.128431 0.8 0 0
0.296167 0.356790 0.110950 0.8 0 0
0.694319 0.318309 0.165562 0.8 0 0
0.502894 0.528995 0.093389 0.8 0 0
0.569729 0.357473 0.094320 0.8 0 0
0.369410 0.423941 0.104762 0.8 0 0
0.746079 0.373907 0.087424 0.8 0 0
0.750890 0.318288 0.172891 0.8 0 0
0.775693 0.483442 0.072888 0.8 0 0
0.326649 0.353539 0.090496 0.8 0 0
0.200383 0.380855 0.103055 0.8 0 0
0.843901 0.372281 0.080387 0.8 0 0
0.721255 0.396828 0.044315 0.8 0 0
0.682855 0.399726 0.095749 0.8 0 0
0.681210 0.444115 0.036742 0.8 0 0
0.814936 0.340154 0.085806 0.8 0 0
0.560320 0.420491 0.026684 0.8 0 0
0.129366 0.390068 0.074695 0.8 0 0
0.437704 0.397965 0.070874 0.8 0 0
0.868602 0.263463 0.077013 0.8 0 0
0.293524 0.394665 0.064118 0.8 0 0
0.750637 0.453888 0.060218 0.8 0 0
0.222886 0.353203 0.101860 0.8 0 0
0.480709 0.360628 0.065544 0.8 0 0
0.695303 0.124059 0.082796 0.8 0 0
0.286140 0.408220 0.119099 0.8 0 0
0.713238 0.030026 0.092871 0.8 0 0
0.301478 0.376779 0.075964 0.8 0 0
0.568053 0.369222 0.032056 0.8 0 0
0.685270 0.725197 0.079989 0.8 0 0
0.459014 0.403851 0.102219 0.8 0 0
0.729867 0.351912 0.067876 0.8 0 0
0.835099 0.527667 0.079754 0.8 0 0
0.841856 0.275989 0.070390 0.8 0 0
0.204330 0.421970 0.063929 0.8 0 0
0.328295 0.418892 0.112081 0.8 0 0
0.826468 0.341417 0.083096 0.8 0 0
0.686870 0.411763 0.077967 0.8 0 0
0.397493 0.351981 0.102740 0.8 0 0
0.473368 0.277942 0.093572 0.8 0 0
0.596252 0.406297 0.055138 0.8 0 0
0.212425 0.395232 0.080730 0.8 0 0
0.438618 0.348510 0.080559 0.8 0 0
0.681228 0.690511 0.079829 0.8 0 0
0.778080 0.342020 0.085394 0.8 0 0
0.723266 0.358364 0.029823 0.8 0 0
0.870511 0.317333 0.076563 0.8 0 0
0.576885 0.496273 0.097128 0.8 0 0
0.581335 0.393589 0.073977 0.8 0 0
0.664058 0.544336 0.080448 0.8 0 0
0.828027 0.437822 0.082874 0.8 0 0
0.662749 0.651800 0.077903 0.8 0 0
0.704348 0.442698 0.035941 0.8 0 0
0.925419 0.384985 0.076544 0.8 0 0
0.214742 0.426396 0.087551 0.8 0 0
0.635560 0.355140 0.088288 0.8 0 0
0.775880 0.455419 0.083963 0.8 0 0
0.748248 0.323887 0.239171 0.8 0 0
0.288177 0.386787 0.041598 0.8 0 0
0.402576 0.279305 0.082714 0.8 0 0
0.669222 0.445670 0.102022 0.8 0 0
0.665729 0.297447 0.082149 0.8 0 0
0.790386 0.465178 0.067820 0.8 0 0
0.683117 0.693468 0.087126 0.8 0 0
0.317868 0.451105 0.086612 0.8 0 0
0.847365 0.514624 0.080198 0.8 0 0
0.622711 0.219022 0.093190 0.8 0 0
0.492458 0.409821 0.028408 0.8 0 0
0.811833 0.359786 0.086990 0.8 0 0
0.310868 0.348817 0.097994 0.8 0 0
0.678558 0.460032 0.116438 0.8 0 0
0.551784 0.286974 0.097826 0.8 0 0
0.877907 0.427931 0.032169 0.8 0 0
0.598081 0.470693 0.095012 0.8 0 0
0.767704 0.449766 0.045018 0.8 0 0
0.852486 0.362820 0.085329 0.8 0 0
0.611422 0.532657 0.072808 0.8 0 0
0.552459 0.319013 0.068219 0.8 0 0
0.840783 0.453930 0.070367 0.8 0 0
0.673954 0.328788 0.121239 0.8 0 0
0.671745 0.201662 0.080959 0.8 0 0
0.858838 0.306880 0.078345 0.8 0 0
0.771466 0.359381 0.030784 0.8 0 0
0.271804 0.413858 0.127134 0.8 0 0
0.672359 0.171652 0.086778 0.8 0 0
0.469143 0.372440 0.115594 0.8 0 0
0.829807 0.466617 0.068682 0.8 0 0
0.512800 0.403798 0.065690 0.8 0 0
0.640247 0.555994 0.090552 0.8 0 0
0.369856 0.476324 0.087682 0.8 0 0
0.579829 0.218456 0.094923 0.8 0 0
0.858561 0.466252 0.072997 0.8 0 0
0.565347 0.445610 0.085116 0.8 0 0
0.880664 0.376568 0.066509 0.8 0 0
0.328732 0.375347 0.082548 0.8 0 0
0.683183 0.624694 0.081560 0.8 0 0
0.083484 0.383986 0.093190 0.8 0 0
0.533967 0.320717 0.060097 0.8 0 0
0.371766 0.346688 0.079472 0.8 0 0
0.811307 0.382067 0.086384 0.8 0 0
0.227605 0.364343 0.114983 0.8 0 0
0.712677 0.376898 0.040915 0.8 0 0
0.233318 0.402397 0.045035 0.8 0 0
0.547883 0.446416 0.067789 0.8 0 0
0.478291 0.328021 0.044714 0.8 0 0
0.510891 0.326225 0.041895 0.8 0 0
0.590136 0.410552 0.029383 0.8 0 0
0.300567 0.427336 0.074536 0.8 0 0
0.469956 0.373935 0.046787 0.8 0 0
0.577096 0.410097 0.070337 0.8 0 0
0.078954 0.365585 0.079506 0.8 0 0
0.624987 0.454538 0.090403 0.8 0 0
0.790756 0.422307 0.030007 0.8 0 0
0.539809 0.227231 0.095237 0.8 0 0
0.605096 0.426644 0.092998 0.8 0 0
0.212503 0.388035 0.042359 0.8 0 0
0.297550 0.379145 0.144366 0.8 0 0
0.831188 0.294421 0.069235 0.8 0 0
0.868823 0.309220 0.074536 0.8 0 0
0.794356 0.341718 0.066269 0.8 0 0
0.287718 0.418715 0.056701 0.8 0 0
0.707212 0.025000 0.085609 0.8 0 0
0.221743 0.375273 0.044699 0.8 0 0
0.545238 0.379883 0.044073 0.8 0 0
0.779907 0.397487 0.043861 0.8 0 0
0.632650 0.305315 0.077360 0.8 0 0
0.084452 0.360822 0.075793 0.8 0 0
0.348456 0.470264 0.082644 0.8 0 0
0.182036 0.349210 0.084393 0.8 0 0
0.577444 0.362073 0.095461 0.8 0 0
0.733182 0.317018 0.153210 0.8 0 0
0.755341 0.431774 0.088278 0.8 0 0
0.714959 0.458363 0.160181 0.8 0 0
0.720174 0.372751 0.065230 0.8 0 0
0.682661 0.187389 0.084889 0.8 0 0
0.859377 0.464653 0.073124 0.8 0 0
0.267603 0.404352 0.045557 0.8 0 0
0.479296 0.377610 0.085270 0.8 0 0
0.725599 0.323135 0.069451 0.8 0 0
0.528232 0.367171 0.092086 0.8 0 0
0.586581 0.647871 0.082395 0.8 0 0
0.338598 0.398328 0.108832 0.8 0 0
0.255313 0.418574 0.105737 0.8 0 0
0.550140 0.210385 0.072866 0.8 0 0
0.090784 0.404573 0.092437 0.8 0 0
0.594705 0.358579 0.085714 0.8 0 0
0.360305 0.346360 0.080287 0.8 0 0
0.487349 0.409229 0.030576 0.8 0 0
0.418623 0.494028 0.084582 0.8 0 0
0.215167 0.377326 0.125699 0.8 0 0
0.499854 0.361745 0.105639 0.8 0 0
0.584376 0.399529 0.038128 0.8 0 0
0.249645 0.417877 0.115009 0.8 0 0
0.477274 0.382779 0.057589 0.8 0 0
0.327435 0.399873 0.081164 0.8 0 0
0.308759 0.395032 0.124834 0.8 0 0
0.602404 0.555204 0.072565 0.8 0 0
0.244825 0.362190 0.051924 0.8 0 0
0.643712 0.106443 0.089877 0.8 0 0
0.313116 0.360304 0.111069 0.8 0 0
0.423605 0.359053 0.094228 0.8 0 0
0.651048 0.633651 0.090629 0.8 0 0
0.655992 0.750368 0.092871 0.8 0 0
0.643462 0.381768 0.071947 0.8 0 0
0.531236 0.333095 0.088638 0.8 0 0
0.449159 0.383374 0.044316 0.8 0 0
0.673330 0.205250 0.085898 0.8 0 0
0.182662 0.349119 0.080189 0.8 0 0
0.167964 0.413454 0.052695 0.8 0 0
0.783130 0.471218 0.068567 0.8 0 0
0.776893 0.413021 0.086426 0.8 0 0
0.645312 0.676301 0.089588 0.8 0 0
0.775696 0.452001 0.220616 0.8 0 0
0.898282 0.419188 0.084069 0.8 0 0
0.452124 0.301355 0.073334 0.8 0 0
0.544828 0.399183 0.084237 0.8 0 0
0.534054 0.434745 0.028316 0.8 0 0
0.702225 0.701027 0.082748 0.8 0 0
0.796458 0.350254 0.065879 0.8 0 0
0.502114 0.500479 0.097243 0.8 0 0
0.459995 0.350259 0.048681 0.8 0 0
0.588414 0.224253 0.072187 0.8 0 0
0.586036 0.372393 0.052549 0.8 0 0
0.212845 0.390682 0.126552 0.8 0 0
0.529759 0.447601 0.082715 0.8 0 0
0.601171 0.334825 0.033543 0.8 0 0
0.681624 0.325635 0.155810 0.8 0 0
0.292808 0.399039 0.043675 0.8 0 0
0.502115 0.429140 0.026581 0.8 0 0
0.599625 0.420324 0.073493 0.8 0 0
0.785468 0.322516 0.064765 0.8 0 0
0.249085 0.426405 0.074679 0.8 0 0
0.905265 0.443804 0.053020 0.8 0 0
0.467206 0.362821 0.053203 0.8 0 0
0.515898 0.334525 0.067058 0.8 0 0
0.642706 0.623135 0.091522 0.8 0 0
0.544957 0.310589 0.098779 0.8 0 0
0.899887 0.373284 0.074296 0.8 0 0
0.856423 0.329263 0.078640 0.8 0 0
0.846419 0.271317 0.071060 0.8 0 0
0.637829 0.116735 0.076832 0.8 0 0
0.113127 0.403676 0.104167 0.8 0 0
0.692233 0.335894 0.086737 0.8 0 0
0.535735 0.407438 0.100972 0.8 0 0
0.089777 0.385914 0.066111 0.8 0 0
0.513498 0.326124 0.080498 0.8 0 0
0.522813 0.317636 0.099399 0.8 0 0
0.519309 0.518906 0.070771 0.8 0 0
0.509516 0.451711 0.067338 0.8 0 0
0.629839 0.092735 0.078180 0.8 0 0
0.128660 0.409486 0.105600 0.8 0 0
0.812131 0.351791 0.088284 0.8 0 0
0.502661 0.424918 0.025638 0.8 0 0
0.579101 0.193495 0.094048 0.8 0 0
0.420573 0.416577 0.055003 0.8 0 0
0.585956 0.570802 0.094328 0.8 0 0
0.672890 0.328976 0.117660 0.8 0 0
0.424920 0.340893 0.093811 0.8 0 0
0.686644 0.689113 0.086502 0.8 0 0
0.664642 0.671412 0.077758 0.8 0 0
0.658455 0.365802 0.089456 0.8 0 0
0.106147 0.386368 0.054491 0.8 0 0
0.278900 0.362240 0.128556 0.8 0 0
0.598220 0.407518 0.056005 0.8 0 0
0.782541 0.452857 0.128527 0.8 0 0
0.248222 0.400456 0.044471 0.8 0 0
0.657515 0.270320 0.080324 0.8 0 0
0.521740 0.390836 0.046559 0.8 0 0
0.532752 0.393261 0.047397 0.8 0 0
0.816681 0.372136 0.069215 0.8 0 0
0.647861 0.454641 0.118286 0.8 0 0
0.744132 0.382721 0.063573 0.8 0 0
0.894926 0.372751 0.078784 0.8 0 0
0.379210 0.326923 0.086129 0.8 0 0
0.482268 0.438431 0.036035 0.8 0 0
0.270090 0.358267 0.115171 0.8 0 0
0.619724 0.663725 0.077236 0.8 0 0
0.869330 0.399465 0.076181 0.8 0 0
0.489397 0.408424 0.029826 0.8 0 0
0.834497 0.253069 0.080030 0.8 0 0
0.594258 0.243373 0.071605 0.8 0 0
0.313784 0.399262 0.079157 0.8 0 0
0.213907 0.365068 0.050427 0.8 0 0
0.623972 0.670099 0.077526 0.8 0 0
0.274783 0.426579 0.093670 0.8 0 0
0.119949 0.356852 0.093635 0.8 0 0
0.671566 0.393113 0.069043 0.8 0 0
0.865718 0.275757 0.077408 0.8 0 0
0.675392 0.157581 0.080542 0.8 0 0
0.650863 0.413868 0.072159 0.8 0 0
0.535377 0.387109 0.112469 0.8 0 0
0.754795 0.430655 0.030666 0.8 0 0
0.651480 0.357147 0.081317 0.8 0 0
0.766099 0.320084 0.115187 0.8 0 0
0.499260 0.328463 0.084765 0.8 0 0
0.524187 0.338326 0.067061 0.8 0 0
0.722518 0.345704 0.073758 0.8 0 0
0.558507 0.258768 0.096712 0.8 0 0
0.349869 0.406698 0.122477 0.8 0 0
0.849916 0.382081 0.063829 0.8 0 0
0.318351 0.425497 0.101463 0.8 0 0
0.658047 0.565528 0.079083 0.8 0 0
0.798005 0.443483 0.080960 0.8 0 0
0.658096 0.506607 0.080378 0.8 0 0
0.574979 0.504803 0.070316 0.8 0 0
0.461155 0.423798 0.096285 0.8 0 0
0.325367 0.429012 0.080792 0.8 0 0
0.754915 0.393935 0.055167 0.8 0 0
0.287579 0.389820 0.148524 0.8 0 0
0.504835 0.407022 0.101502 0.8 0 0
0.612950 0.670665 0.088072 0.8 0 0
0.234614 0.357988 0.097173 0.8 0 0
0.822527 0.342102 0.067692 0.8 0 0
0.528816 0.354659 0.069616 0.8 0 0
0.701709 0.328334 0.139466 0.8 0 0
0.662019 0.206488 0.087568 0.8 0 0
0.280626 0.356186 0.109255 0.8 0 0
0.160293 0.417438 0.056678 0.8 0 0
0.187571 0.361597 0.111584 0.8 0 0
0.809015 0.314511 0.083511 0.8 0 0
0.762479 0.400536 0.038995 0.8 0 0
0.664254 0.410964 0.090249 0.8 0 0
0.899821 0.379258 0.061810 0.8 0 0
0.806110 0.345386 0.031504 0.8 0 0
0.609277 0.452873 0.069496 0.8 0 0
0.721405 0.741976 0.092839 0.8 0 0
0.372483 0.409994 0.119760 0.8 0 0
0.846987 0.427412 0.079998 0.8 0 0
0.114543 0.399913 0.106514 0.8 0 0
0.794155 0.402145 0.081140 0.8 0 0
0.655508 0.546151 0.079125 0.8 0 0
0.582596 0.448893 0.070314 0.8 0 0
0.657973 0.396719 0.043951 0.8 0 0
0.589020 0.134884 0.089106 0.8 0 0
0.583963 0.544336 0.095302 0.8 0 0
0.470270 0.403488 0.064970 0.8 0 0
0.762323 0.455730 0.114788 0.8 0 0
0.528009 0.432377 0.094531 0.8 0 0
0.680615 0.397911 0.079067 0.8 0 0
0.412621 0.346941 0.094733 0.8 0 0
0.035569 0.389596 0.061220 0.8 0 0
0.427633 0.324589 0.088698 0.8 0 0
0.475626 0.350895 0.072253 0.8 0 0
0.770760 0.320569 0.189134 0.8 0 0
0.684906 0.316302 0.137139 0.8 0 0
0.375783 0.384798 0.041543 0.8 0 0
0.419475 0.453923 0.086452 0.8 0 0
0.555630 0.593883 0.091419 0.8 0 0
0.253569 0.410282 0.135810 0.8 0 0
0.637540 0.339938 0.088323 0.8 0 0
0.766574 0.471320 0.071076 0.8 0 0
0.704584 0.383203 0.056969 0.8 0 0
0.330297 0.422584 0.076800 0.8 0 0
0.536896 0.355243 0.026321 0.8 0 0
0.161144 0.358001 0.105063 0.8 0 0
0.227779 0.387427 0.123546 0.8 0 0
0.168085 0.417804 0.104931 0.8 0 0
0.801653 0.404167 0.069366 0.8 0 0
0.218196 0.414709 0.112137 0.8 0 0
0.728939 0.026611 0.079320 0.8 0 0
0.389183 0.373038 0.122913 0.8 0 0
0.742208 0.365511 0.087237 0.8 0 0
0.520073 0.372563 0.101397 0.8 0 0
0.659800 0.033402 0.084093 0.8 0 0
0.231002 0.406830 0.117987 0.8 0 0
0.415319 0.487989 0.084500 0.8 0 0
0.416497 0.415531 0.069176 0.8 0 0
0.893380 0.386328 0.079720 0.8 0 0
0.695336 0.400120 0.055752 0.8 0 0
0.696143 0.322659 0.052915 0.8 0 0
0.723471 0.329314 0.094941 0.8 0 0
0.671245 0.650338 0.079209 0.8 0 0
0.795584 0.452805 0.063958 0.8 0 0
0.204465 0.363033 0.113235 0.8 0 0
0.671919 0.314469 0.096899 0.8 0 0
0.758708 0.325255 0.104238 0.8 0 0
0.817183 0.425024 0.030671 0.8 0 0
0.836373 0.330518 0.039325 0.8 0 0
0.691897 0.675223 0.085410 0.8 0 0
0.766393 0.320124 0.107161 0.8 0 0
0.123823 0.384306 0.058783 0.8 0 0
0.840209 0.439486 0.035703 0.8 0 0
0.145877 0.411707 0.108872 0.8 0 0
0.709348 0.368988 0.083154 0.8 0 0
0.479277 0.420023 0.033748 0.8 0 0
0.392764 0.320336 0.083373 0.8 0 0
0.676403 0.272391 0.083203 0.8 0 0
0.707250 0.025000 0.087508 0.8 0 0
0.607769 0.109230 0.087907 0.8 0 0
0.518722 0.443929 0.099958 0.8 0 0
0.715743 0.338652 0.032442 0.8 0 0
0.762585 0.392646 0.090959 0.8 0 0
0.818250 0.396670 0.073793 0.8 0 0
0.792295 0.448959 0.044126 0.8 0 0
0.741896 0.327220 0.139667 0.8 0 0
0.209847 0.403911 0.106695 0.8 0 0
0.238680 0.396594 0.076433 0.8 0 0
0.659394 0.141194 0.089389 0.8 0 0
0.684497 0.686935 0.080397 0.8 0 0
0.601922 0.396068 0.104937 0.8 0 0
0.450499 0.374221 0.090729 0.8 0 0
0.642400 0.430616 0.079684 0.8 0 0
0.857103 0.340853 0.084985 0.8 0 0
0.579579 0.446726 0.069909 0.8 0 0
0.426806 0.363521 0.066602 0.8 0 0
0.694455 0.337079 0.087380 0.8 0 0
0.807242 0.484583 0.082361 0.8 0 0
0.350072 0.470181 0.086763 0.8 0 0
0.242977 0.425856 0.093636 0.8 0 0
0.224305 0.362948 0.086445 0.8 0 0
0.753780 0.319641 0.070193 0.8 0 0
0.491999 0.424445 0.066077 0.8 0 0
0.670716 0.476202 0.084238 0.8 0 0
0.464386 0.329522 0.088653 0.8 0 0
0.558458 0.339184 0.092479 0.8 0 0
0.681815 0.329308 0.114545 0.8 0 0
0.478397 0.496668 0.072447 0.8 0 0
0.890756 0.389819 0.079826 0.8 0 0
0.385048 0.298399 0.087508 0.8 0 0
0.671405 0.514828 0.082194 0.8 0 0
0.431873 0.372713 0.119042 0.8 0 0
0.765259 0.419597 0.086292 0.8 0 0
0.787652 0.329142 0.040951 0.8 0 0
0.732174 0.438100 0.078681 0.8 0 0
0.706533 0.351880 0.028637 0.8 0 0
0.636759 0.254156 0.090315 0.8 0 0
0.625687 0.362337 0.029234 0.8 0 0
0.410054 0.426440 0.091962 0.8 0 0
0.484542 0.364813 0.065459 0.8 0 0
0.744740 0.392248 0.057765 0.8 0 0
0.693977 0.314865 0.103299 0.8 0 0
0.788240 0.330599 0.066720 0.8 0 0
0.657620 0.592356 0.088741 0.8 0 0
0.232140 0.406346 0.118359 0.8 0 0
0.631481 0.440053 0.077840 0.8 0 0
0.764625 0.440236 0.066594 0.8 0 0
0.498713 0.313664 0.067583 0.8 0 0
0.522543 0.509105 0.069999 0.8 0 0
0.282514 0.373605 0.061168 0.8 0 0
0.313208 0.356834 0.111861 0.8 0 0
0.661064 0.395506 0.075512 0.8 0 0
0.322559 0.362558 0.117291 0.8 0 0
0.536611 0.418115 0.095393 0.8 0 0
0.564279 0.240085 0.095951 0.8 0 0
0.474327 0.420570 0.037404 0.8 0 0
0.370851 0.321155 0.087937 0.8 0 0
0.855481 0.410638 0.078673 0.8 0 0
0.743694 0.340668 0.067584 0.8 0 0
0.696637 0.447643 0.150671 0.8 0 0
0.828826 0.336991 0.035153 0.8 0 0
0.646963 0.396333 0.044437 0.8 0 0
0.493352 0.255533 0.093246 0.8 0 0
0.634162 0.289963 0.077251 0.8 0 0
0.665904 0.359197 0.083648 0.8 0 0
0.771368 0.451540 0.166874 0.8 0 0
0.575949 0.570321 0.094512 0.8 0 0
0.115619 0.422926 0.074708 0.8 0 0
0.538228 0.518244 0.070182 0.8 0 0
0.661647 0.356573 0.028508 0.8 0 0
0.625093 0.473864 0.076143 0.8 0 0
0.795212 0.326424 0.074678 0.8 0 0
0.665123 0.433881 0.090396 0.8 0 0
0.769737 0.310725 0.082414 0.8 0 0
0.762603 0.302561 0.074868 0.8 0 0
0.592768 0.406298 0.032641 0.8 0 0
0.595977 0.473458 0.095389 0.8 0 0
0.602766 0.444078 0.093728 0.8 0 0
0.395352 0.353934 0.079502 0.8 0 0
0.244694 0.395895 0.089581 0.8 0 0
0.698812 0.449115 0.075777 0.8 0 0
0.804621 0.395016 0.057506 0.8 0 0
0.294005 0.374260 0.123095 0.8 0 0
0.538113 0.379523 0.078463 0.8 0 0
0.664925 0.427596 0.028662 0.8 0 0
0.283581 0.384150 0.059320 0.8 0 0
0.769070 0.349786 0.089180 0.8 0 0
0.212527 0.402966 0.045446 0.8 0 0
0.709896 0.748442 0.092871 0.8 0 0
0.680041 0.329686 0.106520 0.8 0 0
0.528527 0.554649 0.093567 0.8 0 0
0.596611 0.660597 0.083197 0.8 0 0
0.802107 0.265736 0.072386 0.8 0 0
0.649099 0.025000 0.079338 0.8 0 0
0.401302 0.365946 0.117591 0.8 0 0
0.561166 0.199442 0.073240 0.8 0 0
0.749557 0.452275 0.050883 0.8 0 0
0.632153 0.621939 0.075433 0.8 0 0
0.442012 0.477739 0.080840 0.8 0 0
0.877174 0.528435 0.075777 0.8 0 0
0.727585 0.455397 0.212742 0.8 0 0
0.666844 0.408048 0.090496 0.8 0 0
0.279805 0.405818 0.046374 0.8 0 0
0.338413 0.362299 0.050452 0.8 0 0
0.446839 0.339252 0.093528 0.8 0 0
0.373363 0.321079 0.080514 0.8 0 0
0.550290 0.329418 0.037056 0.8 0 0
0.385804 0.405730 0.090479 0.8 0 0
0.749354 0.450041 0.211576 0.8 0 0
0.420192 0.354909 0.080206 0.8 0 0
0.617233 0.541688 0.093691 0.8 0 0
0.632464 0.415598 0.092172 0.8 0 0
0.742801 0.319316 0.217693 0.8 0 0
0.826844 0.296651 0.069052 0.8 0 0
0.111266 0.389747 0.045984 0.8 0 0
0.477840 0.411933 0.036655 0.8 0 0
0.296705 0.349152 0.090457 0.8 0 0
0.533224 0.509052 0.069771 0.8 0 0
0.610982 0.542308 0.072531 0.8 0 0
0.687485 0.142688 0.085142 0.8 0 0
0.399673 0.381038 0.123627 0.8 0 0
0.768834 0.451276 0.241362 0.8 0 0
0.667433 0.153033 0.079249 0.8 0 0
0.356509 0.467108 0.080269 0.8 0 0
0.501367 0.409509 0.101471 0.8 0 0
0.560481 0.382790 0.052206 0.8 0 0
0.499633 0.448915 0.081312 0.8 0 0
0.291255 0.425938 0.098894 0.8 0 0
0.327840 0.396946 0.061406 0.8 0 0
0.685034 0.329309 0.081422 0.8 0 0
0.700647 0.410962 0.072659 0.8 0 0
0.656194 0.207790 0.088413 0.8 0 0
0.527922 0.285084 0.069016 0.8 0 0
0.648308 0.633651 0.076133 0.8 0 0
0.682603 0.110564 0.080597 0.8 0 0
0.703093 0.328268 0.140924 0.8 0 0
0.382545 0.384453 0.041846 0.8 0 0
0.314500 0.324861 0.083044 0.8 0 0
0.651767 0.453658 0.056090 0.8 0 0
0.713447 0.452862 0.065754 0.8 0 0
0.412081 0.403455 0.045484 0.8 0 0
0.772501 0.451687 0.143549 0.8 0 0
0.484593 0.362661 0.107787 0.8 0 0
0.771676 0.430807 0.085628 0.8 0 0
0.679918 0.574624 0.082165 0.8 0 0
0.806518 0.450242 0.084081 0.8 0 0
0.225767 0.359341 0.102201 0.8 0 0
0.859770 0.494126 0.073093 0.8 0 0
0.721429 0.408344 0.033107 0.8 0 0
0.720485 0.418403 0.090266 0.8 0 0
0.155569 0.425980 0.076730 0.8 0 0
0.747036 0.452565 0.241947 0.8 0 0
0.563797 0.371218 0.098701 0.8 0 0
0.550593 0.438356 0.067548 0.8 0 0
0.778291 0.421412 0.085985 0.8 0 0
0.589742 0.582705 0.093842 0.8 0 0
0.601360 0.186300 0.093421 0.8 0 0
0.632376 0.186887 0.092443 0.8 0 0
0.552228 0.212829 0.072631 0.8 0 0
0.660570 0.139165 0.077917 0.8 0 0
0.692805 0.025000 0.090290 0.8 0 0
0.383238 0.326476 0.082365 0.8 0 0
0.283545 0.417280 0.112337 0.8 0 0
0.184047 0.403622 0.118157 0.8 0 0
0.557262 0.413623 0.097845 0.8 0 0
0.645345 0.625794 0.075861 0.8 0 0
0.664577 0.452743 0.068216 0.8 0 0
0.664652 0.460925 0.093865 0.8 0 0
0.232951 0.394148 0.043367 0.8 0 0
0.270223 0.407584 0.138964 0.8 0 0
0.641163 0.404625 0.056134 0.8 0 0
0.507852 0.401004 0.048007 0.8 0 0
0.843821 0.395562 0.071644 0.8 0 0
0.594575 0.488650 0.095931 0.8 0 0
0.249626 0.419743 0.059319 0.8 0 0
0.271270 0.398844 0.122799 0.8 0 0
0.544506 0.402100 0.066158 0.8 0 0
0.331123 0.349868 0.090287 0.8 0 0
0.637206 0.326573 0.078602 0.8 0 0
0.627885 0.308945 0.076724 0.8 0 0
0.610785 0.743095 0.078867 0.8 0 0
0.859350 0.331755 0.038616 0.8 0 0
0.467956 0.421458 0.063691 0.8 0 0
0.490074 0.320692 0.059233 0.8 0 0
0.419709 0.362323 0.093937 0.8 0 0
0.527562 0.404224 0.089239 0.8 0 0
0.605651 0.530148 0.071997 0.8 0 0
0.603617 0.540813 0.072074 0.8 0 0
0.254861 0.417865 0.056296 0.8 0 0
0.241959 0.420346 0.105607 0.8 0 0
0.625849 0.143169 0.075693 0.8 0 0
0.381441 0.425720 0.066941 0.8 0 0
0.616183 0.033402 0.087404 0.8 0 0
0.503266 0.247121 0.093606 0.8 0 0
0.674350 0.203008 0.081379 0.8 0 0
0.657762 0.393787 0.072504 0.8 0 0
0.573286 0.373706 0.097223 0.8 0 0
0.382825 0.426092 0.067751 0.8 0 0
0.559451 0.378648 0.042104 0.8 0 0
0.856731 0.400984 0.039597 0.8 0 0
0.678950 0.530447 0.084188 0.8 0 0
0.233616 0.383996 0.139178 0.8 0 0
0.645784 0.452173 0.048446 0.8 0 0
0.506010 0.410235 0.065805 0.8 0 0
0.782332 0.322517 0.086733 0.8 0 0
0.462535 0.285341 0.092832 0.8 0 0
0.055564 0.377908 0.073109 0.8 0 0
0.543013 0.544037 0.071684 0.8 0 0
0.775690 0.321194 0.109972 0.8 0 0
0.732327 0.374285 0.058037 0.8 0 0
0.324970 0.337013 0.089920 0.8 0 0
0.659264 0.335861 0.033669 0.8 0 0
0.345434 0.457966 0.079445 0.8 0 0
0.659575 0.326838 0.043004 0.8 0 0
0.096346 0.408080 0.053521 0.8 0 0
0.407881 0.410996 0.115740 0.8 0 0
0.201291 0.386389 0.056491 0.8 0 0
0.726133 0.380474 0.046630 0.8 0 0
0.651433 0.118486 0.090176 0.8 0 0
0.664093 0.369842 0.086190 0.8 0 0
0.494469 0.450305 0.043583 0.8 0 0
0.606869 0.359438 0.028302 0.8 0 0
0.555124 0.267330 0.070101 0.8 0 0
0.599147 0.309031 0.072415 0.8 0 0
0.496653 0.320729 0.063546 0.8 0 0
0.212214 0.395188 0.081129 0.8 0 0
0.493794 0.363408 0.107319 0.8 0 0
0.228929 0.393246 0.061696 0.8 0 0
0.466879 0.394906 0.080490 0.8 0 0
0.345832 0.330896 0.089349 0.8 0 0
0.116091 0.366798 0.102478 0.8 0 0
0.474394 0.391542 0.062593 0.8 0 0
0.255478 0.368091 0.047736 0.8 0 0
0.353346 0.426168 0.101857 0.8 0 0
0.539764 0.341666 0.093957 0.8 0 0
0.330935 0.372236 0.044070 0.8 0 0
0.641637 0.440064 0.079363 0.8 0 0
0.448863 0.427861 0.066951 0.8 0 0
0.658040 0.460480 0.099044 0.8 0 0
0.665599 0.325267 0.137053 0.8 0 0
0.841326 0.397314 0.044537 0.8 0 0
0.676599 0.064455 0.087836 0.8 0 0
0.574652 0.230872 0.095451 0.8 0 0
0.314110 0.359134 0.101779 0.8 0 0
0.300248 0.393551 0.124850 0.8 0 0
0.391384 0.280044 0.083049 0.8 0 0
0.690238 0.725838 0.080408 0.8 0 0
0.692618 0.395857 0.075429 0.8 0 0
0.423466 0.387893 0.122728 0.8 0 0
0.771928 0.454612 0.101154 0.8 0 0
0.593028 0.392133 0.056054 0.8 0 0
0.584240 0.374569 0.085205 0.8 0 0
0.458782 0.413844 0.050615 0.8 0 0
0.706350 0.741510 0.082482 0.8 0 0
0.797471 0.322346 0.055912 0.8 0 0
0.658444 0.690458 0.078307 0.8 0 0
0.725988 0.316524 0.141061 0.8 0 0
0.556449 0.512639 0.070286 0.8 0 0
0.634992 0.360808 0.070894 0.8 0 0
0.578039 0.444046 0.097436 0.8 0 0
0.755523 0.455635 0.226956 0.8 0 0
0.322469 0.375838 0.079098 0.8 0 0
0.458957 0.402927 0.089620 0.8 0 0
0.660189 0.379962 0.099749 0.8 0 0
0.495521 0.525835 0.092524 0.8 0 0
0.425595 0.404823 0.101095 0.8 0 0
0.537173 0.378423 0.110661 0.8 0 0
0.736982 0.374955 0.089729 0.8 0 0
0.612174 0.535934 0.072849 0.8 0 0
0.715050 0.379127 0.054233 0.8 0 0
0.888421 0.380714 0.069003 0.8 0 0
0.657174 0.361892 0.072121 0.8 0 0
0.610437 0.629156 0.075328 0.8 0 0
0.463145 0.410731 0.111251 0.8 0 0
0.801058 0.394311 0.048581 0.8 0 0
0.671956 0.317117 0.133378 0.8 0 0
0.177485 0.349260 0.083791 0.8 0 0
0.744433 0.388845 0.093331 0.8 0 0
0.606181 0.364706 0.092486 0.8 0 0
0.448110 0.352202 0.098195 0.8 0 0
0.635337 0.113842 0.090280 0.8 0 0
0.719803 0.453478 0.056204 0.8 0 0
0.503108 0.321931 0.052493 0.8 0 0
0.588391 0.270949 0.096646 0.8 0 0
0.671885 0.686198 0.088652 0.8 0 0
0.609475 0.393566 0.048286 0.8 0 0
0.761337 0.331219 0.081556 0.8 0 0
0.596584 0.337653 0.072656 0.8 0 0
0.198086 0.382565 0.043493 0.8 0 0
0.573147 0.574485 0.094410 0.8 0 0
0.635820 0.374171 0.099604 0.8 0 0
0.689180 0.369309 0.085878 0.8 0 0
0.697163 0.136325 0.083343 0.8 0 0
0.581338 0.606086 0.092661 0.8 0 0
0.954287 0.387107 0.060932 0.8 0 0
0.775859 0.460201 0.083590 0.8 0 0
0.794330 0.370249 0.082703 0.8 0 0
0.670561 0.371814 0.094542 0.8 0 0
0.645045 0.324842 0.079646 0.8 0 0
0.774363 0.384158 0.090145 0.8 0 0
0.208904 0.417486 0.056966 0.8 0 0
0.858716 0.334715 0.073098 0.8 0 0
0.222293 0.409448 0.115879 0.8 0 0
0.137757 0.350597 0.083410 0.8 0 0
0.502463 0.416297 0.095930 0.8 0 0
0.457703 0.428285 0.095962 0.8 0 0
0.195312 0.387707 0.122503 0.8 0 0
0.560762 0.573545 0.094177 0.8 0 0
0.668957 0.289387 0.082458 0.8 0 0
0.628494 0.251573 0.091611 0.8 0 0
0.134611 0.389523 0.055528 0.8 0 0
0.732046 0.373748 0.089468 0.8 0 0
0.858433 0.526663 0.078583 0.8 0 0
0.742675 0.317352 0.156350 0.8 0 0
0.478282 0.356273 0.061193 0.8 0 0
0.695937 0.451108 0.176293 0.8 0 0
0.478390 0.441174 0.066869 0.8 0 0
0.577764 0.585481 0.073333 0.8 0 0
0.591925 0.332368 0.095331 0.8 0 0
0.432293 0.329817 0.095364 0.8 0 0
0.825959 0.323070 0.065952 0.8 0 0
0.698306 0.666843 0.084266 0.8 0 0
0.685651 0.367342 0.062607 0.8 0 0
0.857593 0.364963 0.073021 0.8 0 0
0.658728 0.084825 0.078315 0.8 0 0
0.630673 0.699137 0.082494 0.8 0 0
0.748167 0.408158 0.072987 0.8 0 0
0.765773 0.409466 0.064589 0.8 0 0
0.477445 0.434376 0.037227 0.8 0 0
0.439083 0.351833 0.095056 0.8 0 0
0.831665 0.313280 0.068975 0.8 0 0
0.447500 0.384561 0.077679 0.8 0 0
0.572149 0.384894 0.108701 0.8 0 0
0.467675 0.353903 0.063691 0.8 0 0
0.852473 0.440226 0.036332 0.8 0 0
0.168531 0.350112 0.087475 0.8 0 0
0.758527 0.321859 0.082622 0.8 0 0
0.756884 0.325476 0.118902 0.8 0 0
0.597521 0.492654 0.071597 0.8 0 0
0.162578 0.350426 0.089814 0.8 0 0
0.540727 0.265761 0.097257 0.8 0 0
0.570796 0.367584 0.030850 0.8 0 0
0.667952 0.071458 0.088229 0.8 0 0
0.567323 0.241815 0.095962 0.8 0 0
0.580724 0.541560 0.071719 0.8 0 0
0.305321 0.413396 0.077290 0.8 0 0
0.762714 0.452272 0.051119 0.8 0 0
0.614863 0.332054 0.035680 0.8 0 0
0.313573 0.399909 0.088296 0.8 0 0
0.428913 0.334349 0.091975 0.8 0 0
0.615614 0.353998 0.075868 0.8 0 0
0.865532 0.446779 0.042198 0.8 0 0
0.456267 0.323693 0.063634 0.8 0 0
0.488486 0.412059 0.028587 0.8 0 0
0.294001 0.404477 0.139042 0.8 0 0
0.444770 0.416478 0.108187 0.8 0 0
0.587666 0.131852 0.088162 0.8 0 0
0.271256 0.380091 0.099595 0.8 0 0
0.386378 0.476402 0.087507 0.8 0 0
0.724596 0.328993 0.110664 0.8 0 0
0.641091 0.383889 0.060885 0.8 0 0
0.527127 0.363804 0.028103 0.8 0 0
0.444399 0.403158 0.090695 0.8 0 0
0.535829 0.392764 0.071380 0.8 0 0
0.118544 0.373088 0.048079 0.8 0 0
0.577834 0.160122 0.091737 0.8 0 0
0.695479 0.330140 0.087278 0.8 0 0
0.153229 0.383064 0.061543 0.8 0 0
0.309493 0.362190 0.119062 0.8 0 0
0.296762 0.398927 0.081780 0.8 0 0
0.624146 0.165471 0.092301 0.8 0 0
0.278963 0.407287 0.138764 0.8 0 0
0.686894 0.110426 0.081237 0.8 0 0
0.499405 0.510322 0.070880 0.8 0 0
0.645303 0.592997 0.076571 0.8 0 0
0.891078 0.399982 0.076299 0.8 0 0
0.424868 0.326465 0.091742 0.8 0 0
0.685820 0.447709 0.145866 0.8 0 0
0.335552 0.409767 0.048229 0.8 0 0
0.642155 0.229986 0.077139 0.8 0 0
0.155326 0.426320 0.082899 0.8 0 0
0.525019 0.518137 0.070529 0.8 0 0
0.900859 0.448543 0.062500 0.8 0 0
0.567395 0.384128 0.059936 0.8 0 0
0.413684 0.426432 0.074385 0.8 0 0
0.439653 0.377149 0.045215 0.8 0 0
0.302143 0.436646 0.078605 0.8 0 0
0.540682 0.446571 0.084161 0.8 0 0
0.568736 0.454494 0.059460 0.8 0 0
0.291555 0.377020 0.076937 0.8 0 0
0.451937 0.294394 0.075853 0.8 0 0
0.656006 0.308123 0.086249 0.8 0 0
0.734711 0.354606 0.029342 0.8 0 0
0.538572 0.431305 0.094465 0.8 0 0
0.230870 0.407370 0.073438 0.8 0 0
0.177032 0.414008 0.110422 0.8 0 0
0.609650 0.434043 0.092476 0.8 0 0
0.592465 0.488426 0.096242 0.8 0 0
0.536106 0.405421 0.101037 0.8 0 0
0.862843 0.322255 0.073679 0.8 0 0
0.152336 0.392407 0.062088 0.8 0 0
0.713799 0.327012 0.171170 0.8 0 0
0.499024 0.363762 0.027678 0.8 0 0
0.674606 0.557991 0.081731 0.8 0 0
0.740470 0.452802 0.065333 0.8 0 0
0.581428 0.174001 0.092957 0.8 0 0
0.526004 0.375739 0.111170 0.8 0 0
0.762752 0.455710 0.155739 0.8 0 0
0.687791 0.366609 0.086506 0.8 0 0
0.838553 0.271646 0.070490 0.8 0 0
0.874059 0.377147 0.043411 0.8 0 0
0.044553 0.395207 0.054595 0.8 0 0
0.403647 0.299518 0.085096 0.8 0 0
0.618823 0.452209 0.048092 0.8 0 0
0.128830 0.352783 0.068506 0.8 0 0
0.823315 0.348865 0.031140 0.8 0 0
0.776704 0.403330 0.082430 0.8 0 0
0.595747 0.371071 0.087210 0.8 0 0
0.820886 0.491273 0.069576 0.8 0 0
0.360685 0.477788 0.082988 0.8 0 0
0.872111 0.375076 0.040621 0.8 0 0
0.491400 0.284262 0.069819 0.8 0 0
0.537223 0.336201 0.099819 0.8 0 0
0.611765 0.243747 0.072881 0.8 0 0
0.229810 0.411007 0.050673 0.8 0 0
0.852622 0.397307 0.073741 0.8 0 0
0.644082 0.081430 0.078472 0.8 0 0
0.618837 0.566681 0.073247 0.8 0 0
0.539673 0.407495 0.105471 0.8 0 0
0.868574 0.251873 0.077053 0.8 0 0
0.692118 0.041907 0.080523 0.8 0 0
0.246362 0.361223 0.126737 0.8 0 0
0.816351 0.330513 0.079577 0.8 0 0
0.866383 0.429862 0.074281 0.8 0 0
0.362002 0.306841 0.080273 0.8 0 0
0.614671 0.540130 0.073132 0.8 0 0
0.668925 0.445413 0.096919 0.8 0 0
0.449503 0.342233 0.100017 0.8 0 0
0.703153 0.458649 0.152544 0.8 0 0
0.832625 0.395847 0.072318 0.8 0 0
0.717908 0.447211 0.138199 0.8 0 0
0.774964 0.314221 0.067998 0.8 0 0
0.293325 0.374517 0.058794 0.8 0 0
0.574545 0.429094 0.093917 0.8 0 0
0.509456 0.517048 0.070974 0.8 0 0
0.746888 0.378405 0.043384 0.8 0 0
0.618267 0.484508 0.074886 0.8 0 0
0.857770 0.418112 0.073025 0.8 0 0
0.290512 0.357060 0.099405 0.8 0 0
0.888943 0.393004 0.061603 0.8 0 0
0.510630 0.361749 0.066003 0.8 0 0
0.585658 0.457637 0.070582 0.8 0 0
0.653107 0.392589 0.054879 0.8 0 0
0.617271 0.403565 0.086533 0.8 0 0
0.227970 0.403445 0.130486 0.8 0 0
0.561275 0.363297 0.099252 0.8 0 0
0.843658 0.399224 0.063207 0.8 0 0
0.560214 0.355987 0.085242 0.8 0 0
0.663423 0.370316 0.094321 0.8 0 0
0.697989 0.445617 0.097747 0.8 0 0
0.027079 0.388669 0.053571 0.8 0 0
0.628094 0.325254 0.091024 0.8 0 0
0.347150 0.350390 0.078589 0.8 0 0
0.450982 0.374908 0.061550 0.8 0 0
0.385069 0.427165 0.073535 0.8 0 0
0.393155 0.280212 0.086506 0.8 0 0
0.334909 0.379186 0.066652 0.8 0 0
0.778433 0.420636 0.065356 0.8 0 0
0.053311 0.388806 0.055284 0.8 0 0
0.463334 0.394282 0.059687 0.8 0 0
0.635867 0.743342 0.092871 0.8 0 0
0.279168 0.352575 0.103652 0.8 0 0
0.607080 0.392449 0.067481 0.8 0 0
0.675673 0.655248 0.087407 0.8 0 0
0.620051 0.391751 0.063122 0.8 0 0
0.667569 0.383492 0.057993 0.8 0 0
0.601746 0.746729 0.092871 0.8 0 0
0.389676 0.385301 0.125376 0.8 0 0
0.735344 0.448057 0.157036 0.8 0 0
0.644039 0.503874 0.078329 0.8 0 0
0.549910 0.213758 0.072645 0.8 0 0
0.295877 0.417458 0.105907 0.8 0 0
0.557075 0.328205 0.099204 0.8 0 0
0.655306 0.605445 0.077799 0.8 0 0
0.785644 0.441369 0.066507 0.8 0 0
0.847033 0.527298 0.071804 0.8 0 0
0.507267 0.450597 0.044188 0.8 0 0
0.615778 0.528536 0.073551 0.8 0 0
0.472143 0.373038 0.047032 0.8 0 0
0.748257 0.325692 0.201299 0.8 0 0
0.676816 0.418748 0.028963 0.8 0 0
0.713096 0.314548 0.086304 0.8 0 0
0.694796 0.446828 0.134130 0.8 0 0
0.771802 0.323771 0.142646 0.8 0 0
0.640918 0.379710 0.075541 0.8 0 0
0.657017 0.400887 0.037121 0.8 0 0
0.496321 0.453900 0.099977 0.8 0 0
0.557297 0.448669 0.068026 0.8 0 0
0.654676 0.067145 0.079086 0.8 0 0
0.656023 0.438623 0.085621 0.8 0 0
0.293301 0.346612 0.082577 0.8 0 0
0.625064 0.144567 0.091543 0.8 0 0
0.591043 0.608808 0.074471 0.8 0 0
0.910040 0.365974 0.068864 0.8 0 0
0.380295 0.381833 0.042311 0.8 0 0
0.845142 0.482866 0.070933 0.8 0 0
0.327007 0.389007 0.126674 0.8 0 0
0.872929 0.331328 0.076157 0.8 0 0
0.439197 0.339380 0.093486 0.8 0 0
0.866562 0.393646 0.065197 0.8 0 0
0.684295 0.151453 0.081744 0.8 0 0
0.331815 0.353152 0.090396 0.8 0 0
0.426678 0.374460 0.119866 0.8 0 0
0.736273 0.457271 0.184934 0.8 0 0
0.402508 0.428043 0.085542 0.8 0 0
0.389686 0.355563 0.109119 0.8 0 0
0.770895 0.403082 0.082386 0.8 0 0
0.677711 0.241131 0.082716 0.8 0 0
0.800947 0.393705 0.051898 0.8 0 0
0.621980 0.416466 0.076238 0.8 0 0
0.667377 0.026627 0.078867 0.8 0 0
0.486827 0.386261 0.116731 0.8 0 0
0.333323 0.413638 0.117138 0.8 0 0
0.484243 0.338721 0.100791 0.8 0 0
0.499952 0.237320 0.076712 0.8 0 0
0.328992 0.399685 0.100681 0.8 0 0
0.586659 0.531568 0.095711 0.8 0 0
0.687988 0.433762 0.030375 0.8 0 0
0.598348 0.497287 0.095554 0.8 0 0
0.524969 0.349183 0.100484 0.8 0 0
0.676034 0.453323 0.064590 0.8 0 0
0.749509 0.449028 0.152887 0.8 0 0
0.478709 0.492632 0.071606 0.8 0 0
0.580429 0.391444 0.059423 0.8 0 0
0.321635 0.406492 0.069786 0.8 0 0
0.525910 0.362094 0.056846 0.8 0 0
0.444026 0.378905 0.089636 0.8 0 0
0.679236 0.229025 0.082680 0.8 0 0
0.313275 0.375483 0.088246 0.8 0 0
0.784434 0.453005 0.226880 0.8 0 0
0.404961 0.373422 0.121587 0.8 0 0
0.485702 0.404491 0.048919 0.8 0 0
0.480137 0.326309 0.082045 0.8 0 0
0.828571 0.274343 0.070190 0.8 0 0
0.601182 0.146489 0.075494 0.8 0 0
0.782253 0.410590 0.086719 0.8 0 0
0.292848 0.383273 0.055165 0.8 0 0
0.741651 0.402196 0.064179 0.8 0 0
0.444447 0.356680 0.059245 0.8 0 0
0.667500 0.405529 0.093622 0.8 0 0
0.711317 0.385093 0.096064 0.8 0 0
0.648343 0.220751 0.077865 0.8 0 0
0.590453 0.560563 0.072556 0.8 0 0
0.465550 0.480900 0.095198 0.8 0 0
0.452061 0.474441 0.073427 0.8 0 0
0.790669 0.383268 0.059972 0.8 0 0
0.515872 0.238783 0.072655 0.8 0 0
0.426782 0.449861 0.090777 0.8 0 0
0.575153 0.327161 0.041237 0.8 0 0
0.547046 0.416231 0.095554 0.8 0 0
0.745495 0.448579 0.133287 0.8 0 0
0.684316 0.082924 0.086924 0.8 0 0
0.780098 0.453697 0.140051 0.8 0 0
0.330607 0.376125 0.124705 0.8 0 0
0.616760 0.138140 0.075720 0.8 0 0
0.687765 0.383551 0.061244 0.8 0 0
0.543562 0.372452 0.087654 0.8 0 0
0.421296 0.384321 0.088099 0.8 0 0
0.806892 0.368809 0.035058 0.8 0 0
0.779509 0.417164 0.065201 0.8 0 0
0.672537 0.459998 0.114843 0.8 0 0
0.751623 0.334820 0.084092 0.8 0 0
0.720423 0.374345 0.037720 0.8 0 0
0.863606 0.379422 0.060793 0.8 0 0
0.737348 0.327715 0.096823 0.8 0 0
0.620634 0.453793 0.091260 0.8 0 0
0.345467 0.345970 0.080900 0.8 0 0
0.547634 0.452952 0.071296 0.8 0 0
0.457943 0.433727 0.094741 0.8 0 0
0.657030 0.297308 0.080842 0.8 0 0
0.580727 0.331269 0.086040 0.8 0 0
0.669780 0.407228 0.091255 0.8 0 0
0.635227 0.464330 0.089302 0.8 0 0
0.396392 0.314883 0.083544 0.8 0 0
0.645358 0.701155 0.088297 0.8 0 0
0.811110 0.301021 0.068572 0.8 0 0
0.544406 0.432631 0.027993 0.8 0 0
0.737919 0.368117 0.065877 0.8 0 0
0.639108 0.568538 0.090997 0.8 0 0
0.498726 0.441167 0.032370 0.8 0 0
0.576879 0.345057 0.093692 0.8 0 0
0.117538 0.416177 0.058768 0.8 0 0
0.557619 0.296647 0.098073 0.8 0 0
0.303150 0.384378 0.059632 0.8 0 0
0.238085 0.420392 0.060620 0.8 0 0
0.427362 0.432449 0.074994 0.8 0 0
0.593994 0.459996 0.071781 0.8 0 0
0.775743 0.440342 0.066291 0.8 0 0
0.739465 0.378572 0.075077 0.8 0 0
0.562288 0.444142 0.099224 0.8 0 0
0.903767 0.437459 0.041910 0.8 0 0
0.598667 0.312735 0.072424 0.8 0 0
0.487076 0.423396 0.070363 0.8 0 0
0.465291 0.438249 0.067107 0.8 0 0
0.587395 0.374879 0.051029 0.8 0 0
0.847460 0.365602 0.071503 0.8 0 0
0.508782 0.419491 0.066180 0.8 0 0
0.708066 0.411202 0.079991 0.8 0 0
0.643521 0.362971 0.087508 0.8 0 0
0.284220 0.368128 0.047273 0.8 0 0
0.721009 0.449226 0.190588 0.8 0 0
0.329411 0.315608 0.084675 0.8 0 0
0.758122 0.319177 0.096440 0.8 0 0
0.832712 0.346679 0.031667 0.8 0 0
0.609215 0.399196 0.075393 0.8 0 0
0.658174 0.370514 0.057045 0.8 0 0
0.358301 0.461419 0.079755 0.8 0 0
0.681254 0.679184 0.087093 0.8 0 0
0.649944 0.345841 0.086334 0.8 0 0
0.652436 0.710465 0.087904 0.8 0 0
0.547046 0.373196 0.108086 0.8 0 0
0.527959 0.376258 0.084270 0.8 0 0
0.661560 0.025807 0.078867 0.8 0 0
0.583036 0.453984 0.064132 0.8 0 0
0.781046 0.452619 0.219642 0.8 0 0
0.940696 0.389782 0.060770 0.8 0 0
0.766466 0.451020 0.102860 0.8 0 0
0.601963 0.533297 0.095394 0.8 0 0
0.618462 0.324041 0.075641 0.8 0 0
0.672450 0.070081 0.079068 0.8 0 0
0.628744 0.348436 0.077716 0.8 0 0
0.680100 0.460889 0.097308 0.8 0 0
0.570573 0.323245 0.047397 0.8 0 0
0.295428 0.352973 0.105059 0.8 0 0
0.869537 0.316165 0.074664 0.8 0 0
0.281060 0.391329 0.042239 0.8 0 0
0.649908 0.297437 0.079776 0.8 0 0
0.208967 0.387403 0.093905 0.8 0 0
0.240999 0.403236 0.120808 0.8 0 0
0.088086 0.411686 0.084631 0.8 0 0
0.749408 0.318134 0.149091 0.8 0 0
0.510840 0.311572 0.099383 0.8 0 0
0.747722 0.448867 0.088596 0.8 0 0
0.626952 0.119276 0.090612 0.8 0 0
0.901275 0.412126 0.080060 0.8 0 0
0.316993 0.414913 0.109172 0.8 0 0
0.612279 0.127603 0.076403 0.8 0 0
0.166035 0.381788 0.068547 0.8 0 0
0.709711 0.435208 0.088738 0.8 0 0
0.492367 0.524030 0.074932 0.8 0 0
0.632779 0.539564 0.075860 0.8 0 0
0.747757 0.453723 0.058065 0.8 0 0
0.723055 0.392976 0.054246 0.8 0 0
0.614405 0.177567 0.074280 0.8 0 0
0.861580 0.483085 0.077978 0.8 0 0
0.422336 0.438954 0.072526 0.8 0 0
0.149510 0.391111 0.117374 0.8 0 0
0.776632 0.315965 0.083670 0.8 0 0
0.775652 0.452047 0.148672 0.8 0 0
0.614455 0.364236 0.075918 0.8 0 0
0.786329 0.394085 0.056276 0.8 0 0
0.489361 0.473362 0.098641 0.8 0 0
0.721191 0.033402 0.081799 0.8 0 0
0.433044 0.357654 0.057430 0.8 0 0
0.665883 0.316549 0.122940 0.8 0 0
0.287389 0.357092 0.105902 0.8 0 0
0.521318 0.205250 0.086047 0.8 0 0
0.835611 0.281891 0.069932 0.8 0 0
0.423023 0.348468 0.097108 0.8 0 0
0.614726 0.365293 0.075982 0.8 0 0
0.591151 0.268804 0.070649 0.8 0 0
0.480139 0.467224 0.098794 0.8 0 0
0.555981 0.381518 0.109534 0.8 0 0
0.817692 0.323118 0.083794 0.8 0 0
0.692926 0.457922 0.158152 0.8 0 0
0.563448 0.364287 0.100576 0.8 0 0
0.748082 0.413186 0.064883 0.8 0 0
0.485031 0.491437 0.070111 0.8 0 0
0.507217 0.397820 0.039909 0.8 0 0
0.453599 0.403723 0.065158 0.8 0 0
0.292186 0.380418 0.056139 0.8 0 0
0.522055 0.249662 0.096193 0.8 0 0
0.451982 0.415125 0.065984 0.8 0 0
0.609289 0.741976 0.080712 0.8 0 0
0.808332 0.349433 0.030819 0.8 0 0
0.635419 0.669149 0.077166 0.8 0 0
0.566550 0.225416 0.071781 0.8 0 0
0.566755 0.256644 0.096499 0.8 0 0
0.726096 0.417955 0.029939 0.8 0 0
0.577081 0.574047 0.094360 0.8 0 0
0.617876 0.153653 0.075187 0.8 0 0
0.640210 0.340424 0.029937 0.8 0 0
0.506919 0.322376 0.050050 0.8 0 0
0.547160 0.560489 0.072660 0.8 0 0
0.294206 0.386680 0.147419 0.8 0 0
0.479032 0.376558 0.087107 0.8 0 0
0.535978 0.301419 0.068570 0.8 0 0
0.600491 0.201769 0.073187 0.8 0 0
0.669690 0.169410 0.079946 0.8 0 0
0.554300 0.377792 0.080952 0.8 0 0
0.756693 0.324227 0.241382 0.8 0 0
0.522474 0.370490 0.108884 0.8 0 0
0.776331 0.397873 0.058037 0.8 0 0
0.809648 0.381531 0.050728 0.8 0 0
0.889615 0.396120 0.076403 0.8 0 0
0.614417 0.669885 0.088516 0.8 0 0
0.794256 0.359278 0.031134 0.8 0 0
0.397436 0.281178 0.082508 0.8 0 0
0.305469 0.409181 0.119158 0.8 0 0
0.518401 0.433403 0.094579 0.8 0 0
0.745285 0.457716 0.143544 0.8 0 0
0.615924 0.256484 0.073783 0.8 0 0
0.534200 0.362101 0.066383 0.8 0 0
0.815933 0.296388 0.082494 0.8 0 0
0.496952 0.408164 0.101592 0.8 0 0
0.122963 0.419486 0.093455 0.8 0 0
0.451066 0.351388 0.055676 0.8 0 0
0.856321 0.452138 0.052305 0.8 0 0
0.742854 0.457987 0.129335 0.8 0 0
0.677164 0.392723 0.054686 0.8 0 0
0.538800 0.565474 0.073640 0.8 0 0
0.226972 0.358784 0.101309 0.8 0 0
0.728467 0.317493 0.169398 0.8 0 0
0.589070 0.152265 0.075506 0.8 0 0
0.459554 0.394501 0.061305 0.8 0 0
0.602828 0.029452 0.078867 0.8 0 0
0.415117 0.434097 0.084290 0.8 0 0
0.623448 0.413893 0.065824 0.8 0 0
0.800395 0.488725 0.081979 0.8 0 0
0.724740 0.450410 0.206533 0.8 0 0
0.499297 0.404549 0.090181 0.8 0 0
0.288097 0.434375 0.082421 0.8 0 0
0.640694 0.377375 0.040645 0.8 0 0
0.646753 0.066505 0.087462 0.8 0 0
0.647954 0.664857 0.077222 0.8 0 0
0.510233 0.354612 0.025784 0.8 0 0
0.688075 0.338563 0.032076 0.8 0 0
0.598002 0.630075 0.091581 0.8 0 0
0.601815 0.370321 0.093018 0.8 0 0
0.777759 0.452266 0.183481 0.8 0 0
0.589587 0.580100 0.073236 0.8 0 0
0.659792 0.055775 0.079686 0.8 0 0
0.418533 0.448679 0.087450 0.8 0 0
0.280133 0.383422 0.107458 0.8 0 0
0.687861 0.458723 0.144437 0.8 0 0
0.157402 0.411740 0.051260 0.8 0 0
0.198694 0.418641 0.059001 0.8 0 0
0.475682 0.440032 0.100379 0.8 0 0
0.620616 0.561866 0.093625 0.8 0 0
0.330721 0.375432 0.080750 0.8 0 0
0.511961 0.559741 0.081402 0.8 0 0
0.746776 0.365438 0.032124 0.8 0 0
0.628666 0.366572 0.089674 0.8 0 0
0.426068 0.353667 0.068454 0.8 0 0
0.538117 0.284593 0.069204 0.8 0 0
0.897014 0.394228 0.051887 0.8 0 0
0.576907 0.353283 0.097127 0.8 0 0
0.788149 0.323358 0.068451 0.8 0 0
0.137536 0.395280 0.045317 0.8 0 0
0.595627 0.411502 0.060106 0.8 0 0
0.578394 0.514988 0.096438 0.8 0 0
0.638585 0.380383 0.051359 0.8 0 0
0.574530 0.146756 0.079205 0.8 0 0
0.835182 0.474655 0.069464 0.8 0 0
0.663443 0.613730 0.078839 0.8 0 0
0.652453 0.486067 0.087193 0.8 0 0
0.338925 0.402174 0.043782 0.8 0 0
0.714912 0.362922 0.089111 0.8 0 0
0.385599 0.323606 0.082523 0.8 0 0
0.748378 0.450238 0.070063 0.8 0 0
0.844408 0.387391 0.084390 0.8 0 0
0.634914 0.447473 0.090115 0.8 0 0
0.509493 0.353596 0.091353 0.8 0 0
0.741116 0.397903 0.043026 0.8 0 0
0.420591 0.364353 0.093810 0.8 0 0
0.354952 0.350117 0.103244 0.8 0 0
0.582079 0.205175 0.094414 0.8 0 0
0.866777 0.399267 0.075050 0.8 0 0
0.355811 0.425263 0.103277 0.8 0 0
0.663502 0.193474 0.087630 0.8 0 0
0.684433 0.033402 0.080992 0.8 0 0
0.770125 0.350461 0.089269 0.8 0 0
0.800745 0.341801 0.066371 0.8 0 0
0.146197 0.392534 0.071412 0.8 0 0
0.125217 0.375354 0.046921 0.8 0 0
0.663998 0.403638 0.083660 0.8 0 0
0.226794 0.426925 0.086250 0.8 0 0
0.660138 0.286312 0.086106 0.8 0 0
0.752138 0.420562 0.065365 0.8 0 0
0.165833 0.393245 0.064669 0.8 0 0
0.609733 0.464437 0.093128 0.8 0 0
0.666255 0.035480 0.082204 0.8 0 0
0.439144 0.370396 0.065725 0.8 0 0
0.608557 0.453939 0.056967 0.8 0 0
0.598593 0.174695 0.093055 0.8 0 0
0.558830 0.328512 0.038713 0.8 0 0
0.886957 0.429878 0.084979 0.8 0 0
0.500427 0.343288 0.027234 0.8 0 0
0.565724 0.355567 0.068419 0.8 0 0
0.591246 0.594801 0.093387 0.8 0 0
0.516069 0.369946 0.050905 0.8 0 0
0.483904 0.384186 0.062144 0.8 0 0
0.837305 0.257051 0.080181 0.8 0 0
0.490150 0.318500 0.067541 0.8 0 0
0.670014 0.033402 0.088042 0.8 0 0
0.690816 0.459963 0.121173 0.8 0 0
0.555876 0.427405 0.094840 0.8 0 0
0.453663 0.411513 0.052101 0.8 0 0
0.730887 0.330712 0.037789 0.8 0 0
0.586842 0.249213 0.095900 0.8 0 0
0.390715 0.426492 0.071006 0.8 0 0
0.175131 0.385005 0.043004 0.8 0 0
0.508508 0.355872 0.096460 0.8 0 0
0.775018 0.323443 0.203333 0.8 0 0
0.705962 0.433714 0.089298 0.8 0 0
0.514210 0.396143 0.112908 0.8 0 0
0.699546 0.714596 0.082050 0.8 0 0
0.725624 0.396095 0.075123 0.8 0 0
0.715165 0.460562 0.093613 0.8 0 0
0.580740 0.419131 0.077057 0.8 0 0
0.801753 0.364057 0.032230 0.8 0 0
0.570055 0.325952 0.098752 0.8 0 0
0.504119 0.386091 0.115124 0.8 0 0
0.647588 0.267864 0.088391 0.8 0 0
0.587064 0.236231 0.071739 0.8 0 0
0.845387 0.424434 0.071148 0.8 0 0
0.394427 0.394468 0.124013 0.8 0 0
0.655819 0.429890 0.085460 0.8 0 0
0.468229 0.436237 0.044973 0.8 0 0
0.418602 0.380224 0.084759 0.8 0 0
0.549686 0.380169 0.048345 0.8 0 0
0.609091 0.424838 0.027269 0.8 0 0
0.149812 0.355248 0.099855 0.8 0 0
0.470018 0.363025 0.109514 0.8 0 0
0.918983 0.392830 0.075944 0.8 0 0
0.539180 0.321740 0.054432 0.8 0 0
0.264548 0.410284 0.073963 0.8 0 0
0.632044 0.365336 0.088593 0.8 0 0
0.738521 0.346179 0.089428 0.8 0 0
0.470487 0.426428 0.082611 0.8 0 0
0.608186 0.102013 0.084504 0.8 0 0
0.657329 0.445487 0.081598 0.8 0 0
0.736358 0.327836 0.107317 0.8 0 0
0.784028 0.445487 0.079351 0.8 0 0
0.478174 0.522514 0.082926 0.8 0 0
0.263167 0.375039 0.146169 0.8 0 0
0.651872 0.465345 0.080346 0.8 0 0
0.472296 0.401293 0.088497 0.8 0 0
0.840507 0.403162 0.080648 0.8 0 0
0.554185 0.460380 0.068391 0.8 0 0
0.129241 0.391122 0.058836 0.8 0 0
0.676317 0.201983 0.085522 0.8 0 0
0.830989 0.278438 0.081350 0.8 0 0
0.516055 0.429029 0.095632 0.8 0 0
0.863843 0.345085 0.032408 0.8 0 0
0.770688 0.454821 0.193990 0.8 0 0
0.125004 0.383725 0.045410 0.8 0 0
0.834698 0.322245 0.056803 0.8 0 0
0.333184 0.456546 0.079955 0.8 0 0
0.711645 0.410326 0.076277 0.8 0 0
0.635932 0.226900 0.076138 0.8 0 0
0.206260 0.401060 0.120165 0.8 0 0
0.795358 0.403322 0.079273 0.8 0 0
0.725645 0.457554 0.180508 0.8 0 0
0.763054 0.406322 0.077660 0.8 0 0
0.824116 0.399333 0.080966 0.8 0 0
0.567092 0.505486 0.070209 0.8 0 0
0.784948 0.331281 0.066631 0.8 0 0
0.307780 0.387491 0.115615 0.8 0 0
0.248085 0.394639 0.146179 0.8 0 0
0.704119 0.698347 0.083091 0.8 0 0
0.813702 0.332485 0.084326 0.8 0 0
0.731280 0.409225 0.073211 0.8 0 0
0.188789 0.381689 0.121071 0.8 0 0
0.771565 0.451600 0.114752 0.8 0 0
0.781322 0.321854 0.096995 0.8 0 0
0.089197 0.405495 0.052676 0.8 0 0
0.360626 0.346069 0.087433 0.8 0 0
0.819102 0.396238 0.084012 0.8 0 0
0.486925 0.329027 0.100265 0.8 0 0
0.244588 0.396718 0.075625 0.8 0 0
0.823991 0.402329 0.075694 0.8 0 0
0.735257 0.330558 0.037929 0.8 0 0
0.522443 0.404140 0.050380 0.8 0 0
0.704907 0.434753 0.089143 0.8 0 0
0.818166 0.246739 0.073715 0.8 0 0
0.592581 0.379988 0.076187 0.8 0 0
0.810455 0.333450 0.081939 0.8 0 0
0.617294 0.371980 0.100110 0.8 0 0
0.342770 0.440782 0.078174 0.8 0 0
0.590580 0.156909 0.092119 0.8 0 0
0.670408 0.684543 0.088837 0.8 0 0
0.795348 0.451995 0.067697 0.8 0 0
0.659136 0.452042 0.085447 0.8 0 0
0.140240 0.351671 0.069516 0.8 0 0
0.790461 0.427585 0.085475 0.8 0 0
0.686070 0.100764 0.086271 0.8 0 0
0.594746 0.417015 0.072833 0.8 0 0
0.782294 0.453490 0.205438 0.8 0 0
0.084533 0.370865 0.089255 0.8 0 0
0.748949 0.365191 0.086816 0.8 0 0
0.676481 0.356256 0.091491 0.8 0 0
0.205507 0.382750 0.067932 0.8 0 0
0.221226 0.356802 0.107267 0.8 0 0
0.882500 0.430590 0.084976 0.8 0 0
0.594880 0.305315 0.071694 0.8 0 0
0.588677 0.480302 0.070540 0.8 0 0
0.737045 0.394255 0.054612 0.8 0 0
0.205153 0.385040 0.057213 0.8 0 0
0.778514 0.323011 0.163114 0.8 0 0
0.908508 0.404806 0.062323 0.8 0 0
0.337855 0.322416 0.089029 0.8 0 0
0.287033 0.389288 0.041754 0.8 0 0
0.282560 0.375824 0.043892 0.8 0 0
0.615439 0.025000 0.085314 0.8 0 0
0.446566 0.449860 0.089115 0.8 0 0
0.654890 0.684906 0.078050 0.8 0 0
