0.531410 0.082418 0.658605 0.8 0 0
0.352144 0.041333 0.815771 0.8 0 0
0.332603 0.134960 0.254385 0.8 0 0
0.461764 0.082418 0.573443 0.8 0 0
0.322527 0.031710 0.491609 0.8 0 0
0.113575 0.082418 0.750009 0.8 0 0
0.052965 0.082418 0.752875 0.8 0 0
0.191664 0.082418 0.577852 0.8 0 0
0.608617 0.082418 0.661347 0.8 0 0
0.421703 0.146754 0.885986 0.8 0 0
0.304208 0.040459 0.875892 0.8 0 0
0.400824 0.033759 0.588608 0.8 0 0
0.309797 0.071371 0.400383 0.8 0 0
0.149680 0.061517 0.929772 0.8 0 0
0.164712 0.060743 0.927882 0.8 0 0
0.086257 0.082418 0.637788 0.8 0 0
0.065252 0.082418 0.779958 0.8 0 0
0.235391 0.082418 0.644914 0.8 0 0
0.421703 0.070603 0.842798 0.8 0 0
0.489024 0.082418 0.541378 0.8 0 0
0.209023 0.082418 0.710197 0.8 0 0
0.468920 0.082418 0.642715 0.8 0 0
0.300509 0.034805 0.392588 0.8 0 0
0.318099 0.116862 0.398310 0.8 0 0
0.561548 0.082418 0.618064 0.8 0 0
0.392524 0.094984 0.756389 0.8 0 0
0.272769 0.055130 0.603590 0.8 0 0
0.479022 0.063291 0.944992 0.8 0 0
0.053819 0.082418 0.742380 0.8 0 0
0.312150 0.044210 0.278188 0.8 0 0
0.614963 0.082418 0.780073 0.8 0 0
0.296249 0.025000 0.654066 0.8 0 0
0.286995 0.086133 0.295077 0.8 0 0
0.315441 0.098077 0.613011 0.8 0 0
0.202468 0.063760 0.946045 0.8 0 0
0.317492 0.050784 0.087929 0.8 0 0
0.311577 0.060639 0.134156 0.8 0 0
0.464820 0.082418 0.553176 0.8 0 0
0.384930 0.098064 0.652475 0.8 0 0
0.421703 0.106595 0.818415 0.8 0 0
0.398491 0.037982 0.802762 0.8 0 0
0.400824 0.047501 0.635344 0.8 0 0
0.259928 0.066758 0.906610 0.8 0 0
0.424702 0.056717 0.716287 0.8 0 0
0.214640 0.082418 0.673005 0.8 0 0
0.416164 0.060765 0.563230 0.8 0 0
0.447543 0.082418 0.588733 0.8 0 0
0.275549 0.050836 0.754227 0.8 0 0
0.159518 0.082418 0.644364 0.8 0 0
0.396611 0.098077 0.559769 0.8 0 0
0.304759 0.025000 0.694198 0.8 0 0
0.336879 0.139376 0.270400 0.8 0 0
0.421703 0.091112 0.845031 0.8 0 0
0.331398 0.085669 0.738195 0.8 0 0
0.421703 0.068012 0.941604 0.8 0 0
0.306868 0.074935 0.191634 0.8 0 0
0.275549 0.035612 0.474108 0.8 0 0
0.287297 0.025000 0.702520 0.8 0 0
0.368982 0.096378 0.794315 0.8 0 0
0.359027 0.119817 0.295047 0.8 0 0
0.066290 0.082418 0.695351 0.8 0 0
0.517230 0.082418 0.689750 0.8 0 0
0.352630 0.036055 0.795689 0.8 0 0
0.359724 0.116314 0.265139 0.8 0 0
0.355393 0.111520 0.449880 0.8 0 0
0.381258 0.083921 0.906920 0.8 0 0
0.105210 0.082418 0.654893 0.8 0 0
0.250326 0.073662 0.837431 0.8 0 0
0.444921 0.062400 0.851653 0.8 0 0
0.490692 0.082418 0.641607 0.8 0 0
0.619533 0.082418 0.703835 0.8 0 0
0.325436 0.040471 0.795193 0.8 0 0
0.301648 0.045250 0.430752 0.8 0 0
0.355272 0.036619 0.466439 0.8 0 0
0.494999 0.058329 0.948652 0.8 0 0
0.426611 0.057166 0.696392 0.8 0 0
0.456973 0.082418 0.657925 0.8 0 0
0.432399 0.076344 0.795465 0.8 0 0
0.421703 0.144031 0.852414 0.8 0 0
0.398848 0.098077 0.446648 0.8 0 0
0.131565 0.082418 0.761691 0.8 0 0
0.307868 0.058428 0.424983 0.8 0 0
0.242844 0.084063 0.609020 0.8 0 0
0.383965 0.025000 0.699473 0.8 0 0
0.358730 0.025000 0.631508 0.8 0 0
0.245658 0.083372 0.458299 0.8 0 0
0.294943 0.032940 0.825563 0.8 0 0
0.242334 0.074022 0.700158 0.8 0 0
0.251836 0.066209 0.895501 0.8 0 0
0.275875 0.095943 0.676617 0.8 0 0
0.065499 0.082418 0.773611 0.8 0 0
0.201648 0.061194 0.919553 0.8 0 0
0.306868 0.071025 0.231175 0.8 0 0
0.422542 0.066665 0.913953 0.8 0 0
0.427510 0.086638 0.636073 0.8 0 0
0.371810 0.098077 0.390233 0.8 0 0
0.127036 0.082418 0.752284 0.8 0 0
0.318278 0.120118 0.235506 0.8 0 0
0.421703 0.087332 0.823101 0.8 0 0
0.348146 0.115490 0.207114 0.8 0 0
0.246224 0.064757 0.583774 0.8 0 0
0.323801 0.093804 0.162880 0.8 0 0
0.436213 0.079599 0.533401 0.8 0 0
0.392855 0.025000 0.570203 0.8 0 0
0.306868 0.065488 0.299861 0.8 0 0
0.429390 0.085831 0.672346 0.8 0 0
0.254670 0.241058 0.884899 0.8 0 0
0.275549 0.093309 0.389081 0.8 0 0
0.275549 0.045075 0.539790 0.8 0 0
0.161834 0.082418 0.746799 0.8 0 0
0.254670 0.235350 0.861814 0.8 0 0
0.600356 0.082418 0.704358 0.8 0 0
0.049842 0.082418 0.729619 0.8 0 0
0.266740 0.054572 0.775001 0.8 0 0
0.421703 0.103318 0.817284 0.8 0 0
0.400824 0.075966 0.802982 0.8 0 0
0.131027 0.082418 0.646714 0.8 0 0
0.429367 0.066084 0.528629 0.8 0 0
0.312262 0.067786 0.403142 0.8 0 0
0.373651 0.096453 0.788049 0.8 0 0
0.266640 0.084859 0.739530 0.8 0 0
0.294884 0.071655 0.332307 0.8 0 0
0.354122 0.097769 0.677001 0.8 0 0
0.254670 0.221771 0.889845 0.8 0 0
0.320938 0.077271 0.891342 0.8 0 0
0.285786 0.097439 0.702993 0.8 0 0
0.483048 0.082418 0.622278 0.8 0 0
0.292534 0.025000 0.621429 0.8 0 0
0.400824 0.083210 0.345435 0.8 0 0
0.249210 0.080336 0.453933 0.8 0 0
0.170603 0.082418 0.684389 0.8 0 0
0.497196 0.059627 0.916108 0.8 0 0
0.306948 0.056927 0.180634 0.8 0 0
0.121656 0.082418 0.731997 0.8 0 0
0.421703 0.129465 0.815921 0.8 0 0
0.577362 0.082418 0.649501 0.8 0 0
0.393455 0.094296 0.341147 0.8 0 0
0.323135 0.028038 0.703527 0.8 0 0
0.430247 0.084550 0.471787 0.8 0 0
0.421703 0.167659 0.832507 0.8 0 0
0.324859 0.036943 0.108155 0.8 0 0
0.429944 0.064922 0.913031 0.8 0 0
0.313211 0.049123 0.132653 0.8 0 0
0.421703 0.191323 0.884044 0.8 0 0
0.213661 0.082418 0.702440 0.8 0 0
0.317226 0.115596 0.316983 0.8 0 0
0.400824 0.048067 0.449132 0.8 0 0
0.358862 0.114244 0.325898 0.8 0 0
0.341946 0.139648 0.330482 0.8 0 0
0.086387 0.082418 0.773826 0.8 0 0
0.435633 0.082377 0.756153 0.8 0 0
0.412768 0.054595 0.765316 0.8 0 0
0.510360 0.082418 0.586612 0.8 0 0
0.121275 0.082418 0.657030 0.8 0 0
0.435148 0.065274 0.923812 0.8 0 0
0.347707 0.035440 0.683949 0.8 0 0
0.633988 0.082418 0.695332 0.8 0 0
0.390009 0.095519 0.350317 0.8 0 0
0.270449 0.052299 0.651572 0.8 0 0
0.373512 0.097208 0.724606 0.8 0 0
0.278820 0.082835 0.852164 0.8 0 0
0.421049 0.070232 0.869547 0.8 0 0
0.207572 0.061538 0.851349 0.8 0 0
0.557491 0.082418 0.658775 0.8 0 0
0.425910 0.087341 0.515237 0.8 0 0
0.254670 0.172986 0.882629 0.8 0 0
0.220580 0.082418 0.625674 0.8 0 0
0.265695 0.083822 0.746425 0.8 0 0
0.343692 0.084366 0.115927 0.8 0 0
0.397549 0.025000 0.611144 0.8 0 0
0.404887 0.055237 0.606337 0.8 0 0
0.184787 0.060660 0.948386 0.8 0 0
0.345482 0.130396 0.369736 0.8 0 0
0.313231 0.042780 0.869832 0.8 0 0
0.121755 0.082418 0.714991 0.8 0 0
0.571338 0.082418 0.646339 0.8 0 0
0.332279 0.131768 0.366889 0.8 0 0
0.310401 0.092772 0.851809 0.8 0 0
0.421703 0.153346 0.842286 0.8 0 0
0.404068 0.070633 0.865809 0.8 0 0
0.341707 0.118782 0.468964 0.8 0 0
0.325820 0.035440 0.270855 0.8 0 0
0.411127 0.093670 0.523331 0.8 0 0
0.235760 0.082418 0.491059 0.8 0 0
0.319924 0.090726 0.817705 0.8 0 0
0.306868 0.100551 0.371902 0.8 0 0
0.310199 0.066380 0.390142 0.8 0 0
0.421703 0.079431 0.890641 0.8 0 0
0.094581 0.082418 0.633744 0.8 0 0
0.254670 0.126059 0.883770 0.8 0 0
0.274027 0.062116 0.846012 0.8 0 0
0.401013 0.079832 0.803239 0.8 0 0
0.400527 0.025000 0.638913 0.8 0 0
0.346454 0.053927 0.796063 0.8 0 0
0.144349 0.082418 0.630284 0.8 0 0
0.399784 0.057129 0.861538 0.8 0 0
0.379267 0.034424 0.396849 0.8 0 0
0.326795 0.074216 0.871595 0.8 0 0
0.319176 0.110898 0.440615 0.8 0 0
0.421703 0.086722 0.893650 0.8 0 0
0.204583 0.082418 0.575355 0.8 0 0
0.365706 0.062056 0.393191 0.8 0 0
0.369694 0.059084 0.907143 0.8 0 0
0.558305 0.082418 0.755347 0.8 0 0
0.613101 0.082418 0.694992 0.8 0 0
0.301066 0.032699 0.416797 0.8 0 0
0.345731 0.035440 0.332349 0.8 0 0
0.275549 0.058047 0.380711 0.8 0 0
0.388670 0.025000 0.550670 0.8 0 0
0.162473 0.082418 0.695967 0.8 0 0
0.254670 0.139620 0.875834 0.8 0 0
0.347463 0.090372 0.705350 0.8 0 0
0.057787 0.082418 0.733536 0.8 0 0
0.421703 0.191049 0.904680 0.8 0 0
0.464035 0.082418 0.586171 0.8 0 0
0.306868 0.075668 0.204562 0.8 0 0
0.351666 0.036103 0.704339 0.8 0 0
0.253614 0.088687 0.600601 0.8 0 0
0.306217 0.025000 0.709994 0.8 0 0
0.337399 0.035440 0.539985 0.8 0 0
0.563153 0.082418 0.644032 0.8 0 0
0.417184 0.091067 0.580805 0.8 0 0
0.277490 0.051470 0.818778 0.8 0 0
0.607891 0.082418 0.732337 0.8 0 0
0.395252 0.098077 0.411313 0.8 0 0
0.461295 0.082418 0.598060 0.8 0 0
0.316651 0.039230 0.387736 0.8 0 0
0.424783 0.064660 0.534603 0.8 0 0
0.395063 0.098077 0.539786 0.8 0 0
0.406024 0.095848 0.621857 0.8 0 0
0.332928 0.089256 0.713121 0.8 0 0
0.357848 0.096090 0.745256 0.8 0 0
0.108884 0.082418 0.648074 0.8 0 0
0.187712 0.062667 0.936372 0.8 0 0
0.494724 0.082418 0.722595 0.8 0 0
0.314650 0.045161 0.877104 0.8 0 0
0.250945 0.065626 0.837331 0.8 0 0
0.471728 0.082418 0.721082 0.8 0 0
0.421703 0.182083 0.873154 0.8 0 0
0.578338 0.082418 0.684132 0.8 0 0
0.480338 0.061538 0.863506 0.8 0 0
0.275549 0.068857 0.848536 0.8 0 0
0.365062 0.045304 0.346480 0.8 0 0
0.275549 0.057854 0.422858 0.8 0 0
0.486742 0.082418 0.685822 0.8 0 0
0.298720 0.098077 0.590211 0.8 0 0
0.079549 0.082418 0.717676 0.8 0 0
0.361345 0.097823 0.673432 0.8 0 0
0.548273 0.082418 0.758498 0.8 0 0
0.374725 0.079534 0.369798 0.8 0 0
0.400910 0.055124 0.802885 0.8 0 0
0.068560 0.082418 0.702143 0.8 0 0
0.145100 0.082418 0.602471 0.8 0 0
0.232045 0.061435 0.897125 0.8 0 0
0.323820 0.098077 0.601423 0.8 0 0
0.291699 0.031078 0.435200 0.8 0 0
0.316670 0.113946 0.257620 0.8 0 0
0.322562 0.025173 0.662770 0.8 0 0
0.187165 0.082418 0.583488 0.8 0 0
0.193330 0.082418 0.613472 0.8 0 0
0.232803 0.082418 0.677954 0.8 0 0
0.367410 0.025000 0.571579 0.8 0 0
0.433866 0.073845 0.551898 0.8 0 0
0.254670 0.066801 0.896169 0.8 0 0
0.266837 0.066758 0.902134 0.8 0 0
0.245761 0.064673 0.928818 0.8 0 0
0.275549 0.041730 0.639352 0.8 0 0
0.400824 0.047764 0.435826 0.8 0 0
0.254670 0.082708 0.807445 0.8 0 0
0.226524 0.082418 0.635942 0.8 0 0
0.421703 0.180993 0.879818 0.8 0 0
0.400824 0.078296 0.359651 0.8 0 0
0.423039 0.075975 0.816012 0.8 0 0
0.531802 0.082418 0.663584 0.8 0 0
0.293651 0.098077 0.596020 0.8 0 0
0.152013 0.062126 0.936108 0.8 0 0
0.316928 0.096005 0.757295 0.8 0 0
0.254670 0.203306 0.853059 0.8 0 0
0.306868 0.096192 0.358607 0.8 0 0
0.330990 0.070130 0.846990 0.8 0 0
0.275046 0.056962 0.810595 0.8 0 0
0.429995 0.064842 0.762419 0.8 0 0
0.304415 0.096516 0.782785 0.8 0 0
0.544186 0.082418 0.659040 0.8 0 0
0.350254 0.119833 0.218251 0.8 0 0
0.254670 0.195709 0.881788 0.8 0 0
0.252117 0.077126 0.805084 0.8 0 0
0.275549 0.094619 0.408416 0.8 0 0
0.301648 0.047767 0.437407 0.8 0 0
0.360229 0.025000 0.715492 0.8 0 0
0.254670 0.148341 0.813666 0.8 0 0
0.350171 0.110110 0.495678 0.8 0 0
0.068900 0.082418 0.778343 0.8 0 0
0.380826 0.098077 0.518835 0.8 0 0
0.482242 0.082418 0.639021 0.8 0 0
0.424699 0.064016 0.839071 0.8 0 0
0.400824 0.046879 0.445244 0.8 0 0
0.369505 0.076048 0.262417 0.8 0 0
0.369505 0.061690 0.200048 0.8 0 0
0.254670 0.181171 0.874260 0.8 0 0
0.275549 0.060932 0.474241 0.8 0 0
0.421703 0.104377 0.838472 0.8 0 0
0.468555 0.082418 0.699358 0.8 0 0
0.254670 0.102248 0.888724 0.8 0 0
0.472993 0.063666 0.939062 0.8 0 0
0.400824 0.049269 0.745379 0.8 0 0
0.415251 0.066758 0.932098 0.8 0 0
0.369505 0.080277 0.284939 0.8 0 0
0.306868 0.070963 0.275388 0.8 0 0
0.275549 0.056481 0.573374 0.8 0 0
0.050584 0.082418 0.736452 0.8 0 0
0.602065 0.082418 0.743291 0.8 0 0
0.280934 0.025000 0.592781 0.8 0 0
0.323770 0.031214 0.687541 0.8 0 0
0.379608 0.094101 0.858648 0.8 0 0
0.244492 0.084767 0.505017 0.8 0 0
0.254670 0.090060 0.806745 0.8 0 0
0.389942 0.028505 0.464913 0.8 0 0
0.483009 0.082418 0.733032 0.8 0 0
0.358138 0.063645 0.084038 0.8 0 0
0.254670 0.176795 0.818656 0.8 0 0
0.462692 0.082418 0.607346 0.8 0 0
0.359533 0.112018 0.308391 0.8 0 0
0.048185 0.082418 0.758717 0.8 0 0
0.146687 0.082418 0.676374 0.8 0 0
0.373645 0.025000 0.577475 0.8 0 0
0.304743 0.025000 0.685407 0.8 0 0
0.383714 0.059709 0.363026 0.8 0 0
0.323414 0.029526 0.740898 0.8 0 0
0.329914 0.035440 0.471491 0.8 0 0
0.421703 0.131746 0.814046 0.8 0 0
0.276565 0.035215 0.776551 0.8 0 0
0.209968 0.082418 0.583880 0.8 0 0
0.569772 0.082418 0.770025 0.8 0 0
0.399138 0.025000 0.590335 0.8 0 0
0.276686 0.076918 0.318773 0.8 0 0
0.364144 0.086653 0.163903 0.8 0 0
0.275549 0.050473 0.680925 0.8 0 0
0.400824 0.066037 0.868122 0.8 0 0
0.383283 0.025000 0.599722 0.8 0 0
0.262971 0.054059 0.689655 0.8 0 0
0.327334 0.056007 0.852193 0.8 0 0
0.421703 0.176959 0.894569 0.8 0 0
0.063506 0.082418 0.779704 0.8 0 0
0.402563 0.056633 0.579346 0.8 0 0
0.311775 0.050694 0.135506 0.8 0 0
0.367965 0.093250 0.858261 0.8 0 0
0.270412 0.067516 0.894845 0.8 0 0
0.300020 0.035480 0.847950 0.8 0 0
0.511343 0.082418 0.610348 0.8 0 0
0.254670 0.205326 0.870480 0.8 0 0
0.277638 0.025000 0.541325 0.8 0 0
0.254998 0.060127 0.590723 0.8 0 0
0.275549 0.070457 0.758659 0.8 0 0
0.327710 0.035440 0.582373 0.8 0 0
0.386451 0.035652 0.835812 0.8 0 0
0.324077 0.033194 0.772526 0.8 0 0
0.292732 0.025000 0.663926 0.8 0 0
0.306868 0.081569 0.356239 0.8 0 0
0.531246 0.082418 0.651134 0.8 0 0
0.400824 0.040288 0.422132 0.8 0 0
0.357961 0.053410 0.896332 0.8 0 0
0.176070 0.063351 0.947474 0.8 0 0
0.412846 0.090668 0.466098 0.8 0 0
0.434130 0.074250 0.676617 0.8 0 0
0.156839 0.061128 0.944461 0.8 0 0
0.402562 0.084604 0.741172 0.8 0 0
0.630486 0.082418 0.688999 0.8 0 0
0.099359 0.082418 0.697618 0.8 0 0
0.254670 0.085331 0.878305 0.8 0 0
0.254670 0.190824 0.854440 0.8 0 0
0.411858 0.054721 0.769940 0.8 0 0
0.200859 0.060431 0.914626 0.8 0 0
0.333055 0.124623 0.219770 0.8 0 0
0.340483 0.095864 0.666883 0.8 0 0
0.400112 0.053872 0.811460 0.8 0 0
0.344109 0.084640 0.745412 0.8 0 0
0.421703 0.097103 0.843691 0.8 0 0
0.082787 0.082418 0.667040 0.8 0 0
0.583281 0.082418 0.656109 0.8 0 0
0.552043 0.082418 0.641564 0.8 0 0
0.352903 0.097682 0.683877 0.8 0 0
0.421703 0.144604 0.826867 0.8 0 0
0.318057 0.126304 0.314230 0.8 0 0
0.507268 0.082418 0.753812 0.8 0 0
0.311215 0.025000 0.576876 0.8 0 0
0.249206 0.065309 0.883030 0.8 0 0
0.081580 0.082418 0.747397 0.8 0 0
0.175753 0.082418 0.594371 0.8 0 0
0.324550 0.037964 0.795971 0.8 0 0
0.351145 0.047138 0.832722 0.8 0 0
0.228001 0.082418 0.550310 0.8 0 0
0.304473 0.025000 0.570710 0.8 0 0
0.276369 0.032469 0.772654 0.8 0 0
0.400824 0.035308 0.459536 0.8 0 0
0.192284 0.058938 0.899529 0.8 0 0
0.508341 0.059437 0.931360 0.8 0 0
0.367504 0.064239 0.161180 0.8 0 0
0.275549 0.073219 0.809642 0.8 0 0
0.400824 0.078438 0.784944 0.8 0 0
0.304622 0.096538 0.780896 0.8 0 0
0.385452 0.025000 0.703821 0.8 0 0
0.400824 0.051354 0.616274 0.8 0 0
0.366011 0.046541 0.314973 0.8 0 0
0.419346 0.055949 0.762619 0.8 0 0
0.238674 0.082418 0.728729 0.8 0 0
0.342785 0.072600 0.829693 0.8 0 0
0.326185 0.108292 0.506175 0.8 0 0
0.157819 0.060988 0.905764 0.8 0 0
0.414461 0.077101 0.805514 0.8 0 0
0.374725 0.036113 0.442592 0.8 0 0
0.427141 0.082180 0.758030 0.8 0 0
0.400824 0.025680 0.625098 0.8 0 0
0.189454 0.082418 0.720020 0.8 0 0
0.275549 0.032536 0.688716 0.8 0 0
0.583162 0.082418 0.689820 0.8 0 0
0.358906 0.025000 0.635143 0.8 0 0
0.421703 0.109569 0.827620 0.8 0 0
0.400824 0.065704 0.795351 0.8 0 0
0.488792 0.082418 0.585715 0.8 0 0
0.404069 0.051862 0.665380 0.8 0 0
0.481986 0.082418 0.533838 0.8 0 0
0.362432 0.109612 0.345433 0.8 0 0
0.297335 0.041415 0.385165 0.8 0 0
0.156188 0.082418 0.628312 0.8 0 0
0.423944 0.066509 0.936969 0.8 0 0
0.398716 0.080924 0.843372 0.8 0 0
0.369505 0.062833 0.206406 0.8 0 0
0.617714 0.082418 0.731068 0.8 0 0
0.180965 0.082418 0.582461 0.8 0 0
0.076327 0.082418 0.681985 0.8 0 0
0.421703 0.076699 0.812743 0.8 0 0
0.364021 0.066214 0.126623 0.8 0 0
0.148918 0.082418 0.657692 0.8 0 0
0.408936 0.094605 0.508337 0.8 0 0
0.421703 0.161709 0.902687 0.8 0 0
0.421703 0.128989 0.866404 0.8 0 0
0.225554 0.082418 0.531481 0.8 0 0
0.273260 0.070058 0.848408 0.8 0 0
0.254670 0.071157 0.863384 0.8 0 0
0.254670 0.153533 0.811520 0.8 0 0
0.383709 0.045864 0.886368 0.8 0 0
0.304499 0.098077 0.613874 0.8 0 0
0.184922 0.082418 0.761131 0.8 0 0
0.540342 0.082418 0.627640 0.8 0 0
0.213113 0.082418 0.706850 0.8 0 0
0.323808 0.101265 0.543303 0.8 0 0
0.278255 0.086803 0.805688 0.8 0 0
0.254670 0.177724 0.842868 0.8 0 0
0.275549 0.044496 0.731819 0.8 0 0
0.284924 0.085835 0.295843 0.8 0 0
0.326704 0.091081 0.731414 0.8 0 0
0.369505 0.095358 0.274217 0.8 0 0
0.264538 0.054546 0.639291 0.8 0 0
0.400824 0.046667 0.529379 0.8 0 0
0.592839 0.082418 0.673139 0.8 0 0
0.355992 0.025000 0.744359 0.8 0 0
0.060089 0.082418 0.744466 0.8 0 0
0.315263 0.047196 0.126610 0.8 0 0
0.432326 0.084503 0.481728 0.8 0 0
0.421703 0.183588 0.897093 0.8 0 0
0.239797 0.080473 0.612153 0.8 0 0
0.471244 0.082418 0.766144 0.8 0 0
0.357141 0.075204 0.113806 0.8 0 0
0.065577 0.082418 0.729918 0.8 0 0
0.254670 0.169932 0.850983 0.8 0 0
0.322527 0.034111 0.612720 0.8 0 0
0.400824 0.054210 0.474953 0.8 0 0
0.323668 0.132778 0.307400 0.8 0 0
0.342814 0.035440 0.275621 0.8 0 0
0.334522 0.081482 0.104987 0.8 0 0
0.199553 0.059537 0.899564 0.8 0 0
0.374725 0.097110 0.382567 0.8 0 0
0.421703 0.155093 0.831587 0.8 0 0
0.421703 0.211639 0.868866 0.8 0 0
0.254670 0.167415 0.833292 0.8 0 0
0.275549 0.076104 0.390840 0.8 0 0
0.366822 0.051206 0.154912 0.8 0 0
0.271224 0.091365 0.436547 0.8 0 0
0.107161 0.082418 0.756049 0.8 0 0
0.268212 0.052867 0.756345 0.8 0 0
0.162853 0.082418 0.754145 0.8 0 0
0.429532 0.063180 0.583706 0.8 0 0
0.347655 0.037234 0.698888 0.8 0 0
0.347882 0.102375 0.183818 0.8 0 0
0.594420 0.082418 0.658361 0.8 0 0
0.434233 0.065939 0.944385 0.8 0 0
0.278066 0.098077 0.539419 0.8 0 0
0.329755 0.073171 0.826956 0.8 0 0
0.462482 0.062383 0.902406 0.8 0 0
0.414629 0.086888 0.423989 0.8 0 0
0.275549 0.033102 0.583991 0.8 0 0
0.333008 0.035440 0.496726 0.8 0 0
0.375467 0.096530 0.781562 0.8 0 0
0.437389 0.082418 0.515989 0.8 0 0
0.364776 0.092409 0.199368 0.8 0 0
0.101046 0.082418 0.770482 0.8 0 0
0.480370 0.082418 0.649454 0.8 0 0
0.099307 0.082418 0.646737 0.8 0 0
0.210066 0.082418 0.566467 0.8 0 0
0.298029 0.030755 0.806300 0.8 0 0
0.273911 0.075088 0.824291 0.8 0 0
0.423160 0.059481 0.604939 0.8 0 0
0.144384 0.082418 0.752238 0.8 0 0
0.503941 0.082418 0.634271 0.8 0 0
0.275549 0.034993 0.752327 0.8 0 0
0.369505 0.087766 0.330097 0.8 0 0
0.383718 0.098077 0.573204 0.8 0 0
0.254670 0.130028 0.839778 0.8 0 0
0.363263 0.043273 0.375906 0.8 0 0
0.254670 0.163223 0.835552 0.8 0 0
0.421703 0.220695 0.868803 0.8 0 0
0.421703 0.076795 0.897217 0.8 0 0
0.314502 0.048855 0.892018 0.8 0 0
0.274667 0.054318 0.608842 0.8 0 0
0.296232 0.098077 0.568479 0.8 0 0
0.372719 0.025000 0.519592 0.8 0 0
0.432904 0.071153 0.620534 0.8 0 0
0.366284 0.096446 0.788619 0.8 0 0
0.312892 0.034722 0.828249 0.8 0 0
0.299612 0.098077 0.581526 0.8 0 0
0.248313 0.061077 0.598790 0.8 0 0
0.307837 0.049835 0.269425 0.8 0 0
0.372659 0.025000 0.725207 0.8 0 0
0.275549 0.091333 0.411300 0.8 0 0
0.139323 0.082418 0.695557 0.8 0 0
0.209367 0.064623 0.954451 0.8 0 0
0.378482 0.096866 0.753149 0.8 0 0
0.429112 0.061984 0.599666 0.8 0 0
0.394667 0.095279 0.737188 0.8 0 0
0.560111 0.082418 0.751712 0.8 0 0
0.277912 0.093130 0.743202 0.8 0 0
0.409397 0.084090 0.744602 0.8 0 0
0.509760 0.082418 0.635335 0.8 0 0
0.498082 0.082418 0.588663 0.8 0 0
0.101967 0.082418 0.758579 0.8 0 0
0.447737 0.082418 0.554696 0.8 0 0
0.336753 0.035440 0.461130 0.8 0 0
0.275549 0.025849 0.742862 0.8 0 0
0.242243 0.074254 0.692108 0.8 0 0
0.169273 0.082418 0.570340 0.8 0 0
0.232503 0.082418 0.740099 0.8 0 0
0.278904 0.038149 0.823094 0.8 0 0
0.436571 0.080417 0.609704 0.8 0 0
0.491351 0.058874 0.924464 0.8 0 0
0.169353 0.082418 0.677035 0.8 0 0
0.477659 0.082418 0.744685 0.8 0 0
0.470983 0.082418 0.741571 0.8 0 0
0.185835 0.059958 0.918357 0.8 0 0
0.413948 0.066758 0.921615 0.8 0 0
0.524976 0.082418 0.690365 0.8 0 0
0.535457 0.060882 0.934050 0.8 0 0
0.502707 0.059641 0.908435 0.8 0 0
0.282399 0.060470 0.896648 0.8 0 0
0.370467 0.056228 0.429166 0.8 0 0
0.631559 0.082418 0.709795 0.8 0 0
0.399710 0.083001 0.802547 0.8 0 0
0.352128 0.101480 0.541710 0.8 0 0
0.369159 0.025000 0.661315 0.8 0 0
0.421703 0.104615 0.831163 0.8 0 0
0.318373 0.119199 0.341640 0.8 0 0
0.458229 0.082418 0.541123 0.8 0 0
0.421703 0.180944 0.904631 0.8 0 0
0.358496 0.049088 0.887373 0.8 0 0
0.400824 0.042169 0.556101 0.8 0 0
0.540349 0.061538 0.952142 0.8 0 0
0.184847 0.082418 0.700899 0.8 0 0
0.187877 0.061963 0.928588 0.8 0 0
0.149533 0.082418 0.608971 0.8 0 0
0.373458 0.028004 0.494706 0.8 0 0
0.312747 0.101738 0.491602 0.8 0 0
0.421703 0.068031 0.918122 0.8 0 0
0.364543 0.097022 0.243123 0.8 0 0
0.275549 0.053449 0.527897 0.8 0 0
0.374273 0.097791 0.676355 0.8 0 0
0.313357 0.090922 0.859926 0.8 0 0
0.288485 0.079579 0.907143 0.8 0 0
0.274195 0.067284 0.897012 0.8 0 0
0.233526 0.082418 0.684204 0.8 0 0
0.249462 0.057237 0.688447 0.8 0 0
0.093780 0.082418 0.767144 0.8 0 0
0.254670 0.151700 0.809803 0.8 0 0
0.451924 0.082418 0.656807 0.8 0 0
0.293321 0.028253 0.467880 0.8 0 0
0.072684 0.082418 0.705723 0.8 0 0
0.349533 0.035440 0.513528 0.8 0 0
0.511627 0.059458 0.950528 0.8 0 0
0.401199 0.063473 0.871301 0.8 0 0
0.114371 0.082418 0.649976 0.8 0 0
0.254670 0.148887 0.885249 0.8 0 0
0.377115 0.025000 0.732644 0.8 0 0
0.485203 0.082418 0.743718 0.8 0 0
0.120300 0.082418 0.610462 0.8 0 0
0.588544 0.082418 0.747786 0.8 0 0
0.422012 0.088992 0.639267 0.8 0 0
0.433398 0.072698 0.569984 0.8 0 0
0.450305 0.082418 0.610244 0.8 0 0
0.275549 0.075105 0.775216 0.8 0 0
0.254670 0.217795 0.880725 0.8 0 0
0.074707 0.082418 0.752789 0.8 0 0
0.332756 0.035440 0.491391 0.8 0 0
0.220442 0.082418 0.550192 0.8 0 0
0.178770 0.082418 0.738536 0.8 0 0
0.333325 0.131566 0.370699 0.8 0 0
0.254670 0.178796 0.893032 0.8 0 0
0.234681 0.082418 0.755467 0.8 0 0
0.312797 0.064553 0.123164 0.8 0 0
0.152301 0.060997 0.911942 0.8 0 0
0.351526 0.061269 0.068749 0.8 0 0
0.254670 0.145660 0.856002 0.8 0 0
0.349086 0.035440 0.303555 0.8 0 0
0.343021 0.035440 0.426825 0.8 0 0
0.228545 0.082418 0.671249 0.8 0 0
0.388574 0.025000 0.555216 0.8 0 0
0.475508 0.082418 0.587051 0.8 0 0
0.457104 0.063347 0.899468 0.8 0 0
0.276316 0.094351 0.699542 0.8 0 0
0.174292 0.082418 0.703761 0.8 0 0
0.273747 0.059425 0.540369 0.8 0 0
0.554355 0.082418 0.653044 0.8 0 0
0.400824 0.049424 0.723472 0.8 0 0
0.414053 0.075575 0.819737 0.8 0 0
0.352608 0.035440 0.403342 0.8 0 0
0.400824 0.086088 0.316486 0.8 0 0
0.301706 0.098077 0.462184 0.8 0 0
0.294222 0.030301 0.802298 0.8 0 0
0.580746 0.082418 0.702096 0.8 0 0
0.254670 0.169440 0.839560 0.8 0 0
0.570587 0.082418 0.616972 0.8 0 0
0.381432 0.098077 0.389863 0.8 0 0
0.617455 0.082418 0.691574 0.8 0 0
0.552377 0.082418 0.645830 0.8 0 0
0.280044 0.098077 0.375586 0.8 0 0
0.337592 0.121014 0.457646 0.8 0 0
0.615953 0.082418 0.734332 0.8 0 0
0.400544 0.054440 0.805461 0.8 0 0
0.400824 0.075513 0.805984 0.8 0 0
0.270884 0.067453 0.477079 0.8 0 0
0.341283 0.126754 0.403152 0.8 0 0
0.640379 0.082418 0.690484 0.8 0 0
0.493051 0.082418 0.702881 0.8 0 0
0.129221 0.082418 0.710902 0.8 0 0
0.388863 0.097776 0.677658 0.8 0 0
0.479140 0.059739 0.880724 0.8 0 0
0.275549 0.063204 0.433209 0.8 0 0
0.254670 0.137984 0.857825 0.8 0 0
0.254670 0.168470 0.866359 0.8 0 0
0.314547 0.025000 0.641447 0.8 0 0
0.240327 0.079570 0.480877 0.8 0 0
0.368523 0.025000 0.669742 0.8 0 0
0.226672 0.082418 0.631753 0.8 0 0
0.178536 0.082418 0.676866 0.8 0 0
0.340833 0.035440 0.294173 0.8 0 0
0.165223 0.082418 0.575171 0.8 0 0
0.277251 0.093397 0.727195 0.8 0 0
0.313218 0.048880 0.443134 0.8 0 0
0.369505 0.082637 0.287427 0.8 0 0
0.275549 0.071366 0.342377 0.8 0 0
0.309863 0.047193 0.252039 0.8 0 0
0.184794 0.082418 0.576338 0.8 0 0
0.456458 0.082418 0.705105 0.8 0 0
0.511906 0.082418 0.620030 0.8 0 0
0.302163 0.096316 0.799496 0.8 0 0
0.386598 0.075505 0.907143 0.8 0 0
0.421703 0.140471 0.818767 0.8 0 0
0.400824 0.070071 0.866490 0.8 0 0
0.328719 0.053648 0.794447 0.8 0 0
0.287138 0.078216 0.907143 0.8 0 0
0.522019 0.082418 0.635801 0.8 0 0
0.275549 0.063607 0.371874 0.8 0 0
0.267448 0.053005 0.708905 0.8 0 0
0.332389 0.088959 0.715193 0.8 0 0
0.400824 0.069587 0.869152 0.8 0 0
0.345565 0.104194 0.562995 0.8 0 0
0.322527 0.031911 0.515522 0.8 0 0
0.282376 0.079612 0.886915 0.8 0 0
0.254670 0.154934 0.828842 0.8 0 0
0.362402 0.043743 0.409139 0.8 0 0
0.325202 0.035440 0.162403 0.8 0 0
0.348668 0.035440 0.599676 0.8 0 0
0.194677 0.082418 0.740358 0.8 0 0
0.306868 0.081934 0.319702 0.8 0 0
0.421703 0.102950 0.808993 0.8 0 0
0.610538 0.082418 0.703635 0.8 0 0
0.306868 0.054770 0.279818 0.8 0 0
0.421703 0.198809 0.842190 0.8 0 0
0.399226 0.041726 0.788136 0.8 0 0
0.353162 0.038638 0.112697 0.8 0 0
0.443222 0.082418 0.704202 0.8 0 0
0.029280 0.082418 0.706866 0.8 0 0
0.262855 0.054086 0.735690 0.8 0 0
0.359048 0.113390 0.322199 0.8 0 0
0.289993 0.027994 0.470865 0.8 0 0
0.400824 0.036081 0.518202 0.8 0 0
0.365373 0.096004 0.798161 0.8 0 0
0.461764 0.082418 0.506920 0.8 0 0
0.369505 0.086255 0.317653 0.8 0 0
0.421703 0.072241 0.855560 0.8 0 0
0.374725 0.087885 0.328540 0.8 0 0
0.400824 0.028774 0.701029 0.8 0 0
0.254670 0.107486 0.776052 0.8 0 0
0.148519 0.061890 0.962858 0.8 0 0
0.370778 0.104627 0.403259 0.8 0 0
0.469592 0.062459 0.892567 0.8 0 0
0.282693 0.054332 0.888379 0.8 0 0
0.069106 0.082418 0.675703 0.8 0 0
0.275549 0.066816 0.866302 0.8 0 0
0.439211 0.082418 0.645697 0.8 0 0
0.421703 0.159489 0.815585 0.8 0 0
0.079213 0.082418 0.774099 0.8 0 0
0.310067 0.050999 0.150371 0.8 0 0
0.570441 0.082418 0.705843 0.8 0 0
0.421703 0.206901 0.857419 0.8 0 0
0.255407 0.060797 0.579513 0.8 0 0
0.488104 0.082418 0.725255 0.8 0 0
0.409003 0.091862 0.462695 0.8 0 0
0.203898 0.082418 0.764088 0.8 0 0
0.646846 0.082418 0.697616 0.8 0 0
0.354833 0.098077 0.645330 0.8 0 0
0.314049 0.025000 0.526825 0.8 0 0
0.278666 0.026393 0.489243 0.8 0 0
0.254670 0.176569 0.881406 0.8 0 0
0.331943 0.137994 0.322723 0.8 0 0
0.400824 0.067417 0.452216 0.8 0 0
0.433769 0.082585 0.754652 0.8 0 0
0.224906 0.060379 0.887032 0.8 0 0
0.313962 0.098077 0.596849 0.8 0 0
0.366412 0.087332 0.890019 0.8 0 0
0.319215 0.129303 0.274843 0.8 0 0
0.287812 0.032480 0.419126 0.8 0 0
0.254670 0.155760 0.894157 0.8 0 0
0.369238 0.105636 0.407026 0.8 0 0
0.421703 0.123041 0.797204 0.8 0 0
0.421703 0.118376 0.782138 0.8 0 0
0.275549 0.038001 0.431115 0.8 0 0
0.275549 0.039593 0.581752 0.8 0 0
0.400824 0.063955 0.354899 0.8 0 0
0.254670 0.132394 0.803294 0.8 0 0
0.421114 0.062851 0.850758 0.8 0 0
0.432365 0.084570 0.553461 0.8 0 0
0.103526 0.082418 0.698904 0.8 0 0
0.422599 0.065929 0.883072 0.8 0 0
0.086187 0.082418 0.688216 0.8 0 0
0.275549 0.068867 0.866780 0.8 0 0
0.062927 0.082418 0.723717 0.8 0 0
0.448309 0.082418 0.570784 0.8 0 0
0.369505 0.058400 0.201621 0.8 0 0
0.035739 0.082418 0.702016 0.8 0 0
0.601520 0.082418 0.687517 0.8 0 0
0.400824 0.061366 0.449089 0.8 0 0
0.110241 0.082418 0.664537 0.8 0 0
0.327904 0.053987 0.836145 0.8 0 0
0.543340 0.082418 0.708361 0.8 0 0
0.400824 0.050015 0.519082 0.8 0 0
0.271376 0.068446 0.886157 0.8 0 0
0.405265 0.063445 0.498533 0.8 0 0
0.254670 0.090338 0.890028 0.8 0 0
0.345113 0.035440 0.216873 0.8 0 0
0.511583 0.082418 0.601705 0.8 0 0
0.421703 0.084804 0.766694 0.8 0 0
0.254562 0.063239 0.546760 0.8 0 0
0.282040 0.071680 0.332241 0.8 0 0
0.395843 0.096142 0.715739 0.8 0 0
0.421703 0.122889 0.815495 0.8 0 0
0.254670 0.100264 0.838368 0.8 0 0
0.398020 0.089116 0.786208 0.8 0 0
0.493018 0.082418 0.542974 0.8 0 0
0.406403 0.052412 0.679801 0.8 0 0
0.421703 0.127649 0.833561 0.8 0 0
0.360500 0.025000 0.699600 0.8 0 0
0.340218 0.035440 0.138260 0.8 0 0
0.275549 0.063875 0.863140 0.8 0 0
0.421703 0.175663 0.862993 0.8 0 0
0.293354 0.056570 0.907143 0.8 0 0
0.325368 0.078694 0.863854 0.8 0 0
0.275549 0.028871 0.617263 0.8 0 0
0.528441 0.082418 0.687238 0.8 0 0
0.342240 0.099819 0.612113 0.8 0 0
0.301648 0.075774 0.364470 0.8 0 0
0.479496 0.082418 0.606641 0.8 0 0
0.262266 0.092387 0.655079 0.8 0 0
0.369384 0.091474 0.877655 0.8 0 0
0.284801 0.092373 0.804225 0.8 0 0
0.421703 0.097000 0.807184 0.8 0 0
0.254670 0.107847 0.854638 0.8 0 0
0.253707 0.056238 0.724613 0.8 0 0
0.365508 0.106969 0.403258 0.8 0 0
0.301648 0.057041 0.383340 0.8 0 0
0.252688 0.088284 0.658805 0.8 0 0
0.135013 0.082418 0.738243 0.8 0 0
0.265763 0.083333 0.400683 0.8 0 0
0.155448 0.082418 0.689493 0.8 0 0
0.247568 0.060801 0.749312 0.8 0 0
0.300240 0.050511 0.385165 0.8 0 0
0.548248 0.082418 0.645080 0.8 0 0
0.319040 0.025000 0.575318 0.8 0 0
0.250121 0.066341 0.828957 0.8 0 0
0.342736 0.039672 0.713093 0.8 0 0
0.210365 0.082418 0.663773 0.8 0 0
0.421703 0.232015 0.886845 0.8 0 0
0.273284 0.066856 0.478349 0.8 0 0
0.275549 0.025971 0.661225 0.8 0 0
0.123423 0.082418 0.729949 0.8 0 0
0.447951 0.082418 0.747139 0.8 0 0
0.254670 0.127155 0.836654 0.8 0 0
0.401223 0.066171 0.480515 0.8 0 0
0.263640 0.092991 0.619584 0.8 0 0
0.279234 0.082989 0.859410 0.8 0 0
0.274418 0.090941 0.414618 0.8 0 0
0.400824 0.061364 0.496767 0.8 0 0
0.077999 0.082418 0.740016 0.8 0 0
0.498679 0.082418 0.556045 0.8 0 0
0.228263 0.082418 0.517543 0.8 0 0
0.458885 0.082418 0.568056 0.8 0 0
0.311849 0.045568 0.883400 0.8 0 0
0.074395 0.082418 0.660068 0.8 0 0
0.177748 0.082418 0.542584 0.8 0 0
0.399940 0.098077 0.383969 0.8 0 0
0.319079 0.053430 0.893488 0.8 0 0
0.421703 0.125764 0.868557 0.8 0 0
0.174337 0.060549 0.890817 0.8 0 0
0.301648 0.048138 0.401466 0.8 0 0
0.400824 0.051421 0.518321 0.8 0 0
0.264187 0.087248 0.416648 0.8 0 0
0.254670 0.238945 0.892738 0.8 0 0
0.306868 0.055893 0.201190 0.8 0 0
0.365865 0.025000 0.513159 0.8 0 0
0.167617 0.082418 0.678508 0.8 0 0
0.084347 0.082418 0.683892 0.8 0 0
0.254670 0.207645 0.858010 0.8 0 0
0.089549 0.082418 0.645733 0.8 0 0
0.310618 0.064406 0.143681 0.8 0 0
0.323496 0.040687 0.820773 0.8 0 0
0.336461 0.081485 0.767464 0.8 0 0
0.295890 0.095875 0.824861 0.8 0 0
0.134308 0.082418 0.764443 0.8 0 0
0.421703 0.218113 0.894089 0.8 0 0
0.447713 0.064863 0.937782 0.8 0 0
0.171388 0.061969 0.963700 0.8 0 0
0.278761 0.061573 0.884705 0.8 0 0
0.325138 0.133956 0.319264 0.8 0 0
0.333400 0.035440 0.289356 0.8 0 0
0.301770 0.095019 0.872428 0.8 0 0
0.231570 0.063905 0.911247 0.8 0 0
0.426631 0.057171 0.717344 0.8 0 0
0.379729 0.098077 0.516134 0.8 0 0
0.265026 0.064725 0.496573 0.8 0 0
0.421703 0.200062 0.870922 0.8 0 0
0.269830 0.052444 0.732354 0.8 0 0
0.556772 0.082418 0.653974 0.8 0 0
0.317488 0.115559 0.323654 0.8 0 0
0.421703 0.179891 0.844853 0.8 0 0
0.421703 0.219914 0.846914 0.8 0 0
0.087158 0.082418 0.721541 0.8 0 0
0.435244 0.077064 0.599118 0.8 0 0
0.374725 0.044511 0.395995 0.8 0 0
0.350787 0.124656 0.397407 0.8 0 0
0.316542 0.058719 0.093300 0.8 0 0
0.387425 0.072623 0.329819 0.8 0 0
0.254670 0.083743 0.831694 0.8 0 0
0.314388 0.025000 0.700767 0.8 0 0
0.159122 0.082418 0.653807 0.8 0 0
0.255379 0.075452 0.820720 0.8 0 0
0.377650 0.098077 0.485520 0.8 0 0
0.487940 0.082418 0.696344 0.8 0 0
0.418693 0.066758 0.941714 0.8 0 0
0.497151 0.082418 0.754114 0.8 0 0
0.254670 0.135671 0.857753 0.8 0 0
0.393092 0.030786 0.438680 0.8 0 0
0.326064 0.046088 0.071892 0.8 0 0
0.421703 0.239436 0.867364 0.8 0 0
0.529291 0.082418 0.719191 0.8 0 0
0.214707 0.082418 0.608830 0.8 0 0
0.303929 0.097802 0.673428 0.8 0 0
0.312438 0.094995 0.803652 0.8 0 0
0.407035 0.090245 0.703509 0.8 0 0
0.275311 0.085601 0.755084 0.8 0 0
0.107679 0.082418 0.712902 0.8 0 0
0.226347 0.082418 0.601241 0.8 0 0
0.357778 0.098077 0.631407 0.8 0 0
0.413332 0.066758 0.921722 0.8 0 0
0.534569 0.061374 0.960254 0.8 0 0
0.136409 0.082418 0.741131 0.8 0 0
0.319628 0.090400 0.824756 0.8 0 0
0.479589 0.082418 0.560406 0.8 0 0
0.249433 0.086584 0.728058 0.8 0 0
0.471851 0.063502 0.937860 0.8 0 0
0.254670 0.144818 0.863131 0.8 0 0
0.374725 0.044478 0.419298 0.8 0 0
0.315559 0.045038 0.139144 0.8 0 0
0.431329 0.065689 0.912535 0.8 0 0
0.467911 0.082418 0.751620 0.8 0 0
0.589719 0.082418 0.769792 0.8 0 0
0.314336 0.057011 0.907143 0.8 0 0
0.347591 0.080007 0.786816 0.8 0 0
0.308233 0.035126 0.469779 0.8 0 0
0.372210 0.099920 0.444184 0.8 0 0
0.409159 0.056204 0.798695 0.8 0 0
0.213678 0.082418 0.607565 0.8 0 0
0.232882 0.082418 0.605151 0.8 0 0
0.325841 0.035440 0.330698 0.8 0 0
0.431987 0.073320 0.783407 0.8 0 0
0.374725 0.073238 0.330651 0.8 0 0
0.500989 0.059609 0.920783 0.8 0 0
0.381303 0.025000 0.562517 0.8 0 0
0.338904 0.039367 0.711317 0.8 0 0
0.157457 0.082418 0.603760 0.8 0 0
0.546530 0.082418 0.634105 0.8 0 0
0.369505 0.057188 0.221060 0.8 0 0
0.307621 0.088989 0.888243 0.8 0 0
0.323992 0.035440 0.371133 0.8 0 0
0.322527 0.032011 0.480735 0.8 0 0
0.309741 0.047351 0.335710 0.8 0 0
0.472931 0.062327 0.894242 0.8 0 0
0.275549 0.037709 0.443428 0.8 0 0
0.362160 0.090776 0.856381 0.8 0 0
0.211914 0.082418 0.733485 0.8 0 0
0.275549 0.043037 0.562638 0.8 0 0
0.481694 0.061538 0.864971 0.8 0 0
0.229748 0.063989 0.885534 0.8 0 0
0.275549 0.047380 0.642387 0.8 0 0
0.246415 0.064471 0.565270 0.8 0 0
0.256941 0.084873 0.422975 0.8 0 0
0.083273 0.082418 0.764140 0.8 0 0
0.254670 0.096173 0.865199 0.8 0 0
0.298349 0.095831 0.840151 0.8 0 0
0.094260 0.082418 0.729769 0.8 0 0
0.317590 0.112927 0.237544 0.8 0 0
0.446691 0.082418 0.572705 0.8 0 0
0.233233 0.082418 0.562347 0.8 0 0
0.272999 0.066531 0.899803 0.8 0 0
0.406759 0.083808 0.746489 0.8 0 0
0.440637 0.082418 0.507203 0.8 0 0
0.400824 0.052197 0.398809 0.8 0 0
0.360644 0.033111 0.813511 0.8 0 0
0.353156 0.028451 0.661927 0.8 0 0
0.369505 0.088181 0.271070 0.8 0 0
0.312317 0.066736 0.403512 0.8 0 0
0.500036 0.082418 0.723946 0.8 0 0
0.312761 0.092985 0.832264 0.8 0 0
0.398862 0.025000 0.521373 0.8 0 0
0.363212 0.104322 0.452113 0.8 0 0
0.309208 0.025000 0.659782 0.8 0 0
0.262895 0.092606 0.495540 0.8 0 0
0.275549 0.046255 0.573749 0.8 0 0
0.212301 0.082418 0.573513 0.8 0 0
0.300268 0.098077 0.555892 0.8 0 0
0.421703 0.079390 0.896216 0.8 0 0
0.369505 0.094875 0.359023 0.8 0 0
0.375632 0.098077 0.392591 0.8 0 0
0.372568 0.093421 0.875358 0.8 0 0
0.301648 0.034898 0.450335 0.8 0 0
0.408918 0.066758 0.902190 0.8 0 0
0.067071 0.082418 0.714074 0.8 0 0
0.402522 0.082536 0.754977 0.8 0 0
0.273636 0.070662 0.850944 0.8 0 0
0.625509 0.082418 0.718685 0.8 0 0
0.334448 0.035440 0.286305 0.8 0 0
0.547909 0.082418 0.700999 0.8 0 0
0.150059 0.061395 0.966619 0.8 0 0
0.360895 0.039868 0.314600 0.8 0 0
0.640918 0.082418 0.726933 0.8 0 0
0.421703 0.157454 0.821067 0.8 0 0
0.328349 0.094871 0.156704 0.8 0 0
0.265548 0.053452 0.754738 0.8 0 0
0.305098 0.103284 0.436508 0.8 0 0
0.259923 0.066758 0.929135 0.8 0 0
0.418511 0.081543 0.764075 0.8 0 0
0.369505 0.101778 0.353187 0.8 0 0
0.282616 0.098077 0.500362 0.8 0 0
0.544300 0.082418 0.702967 0.8 0 0
0.371243 0.025000 0.647449 0.8 0 0
0.314560 0.042021 0.389136 0.8 0 0
0.358035 0.050914 0.892072 0.8 0 0
0.271098 0.066635 0.900771 0.8 0 0
0.485386 0.062503 0.952034 0.8 0 0
0.049080 0.082418 0.748298 0.8 0 0
0.071376 0.082418 0.777028 0.8 0 0
0.404282 0.096589 0.657541 0.8 0 0
0.254670 0.104050 0.774095 0.8 0 0
0.403008 0.072356 0.849744 0.8 0 0
0.290308 0.025000 0.507066 0.8 0 0
0.254670 0.069659 0.868460 0.8 0 0
0.322788 0.131571 0.282023 0.8 0 0
0.287764 0.034026 0.401226 0.8 0 0
0.432113 0.084665 0.697398 0.8 0 0
0.421703 0.128078 0.819310 0.8 0 0
0.306868 0.067832 0.325915 0.8 0 0
0.275755 0.082366 0.792650 0.8 0 0
0.531380 0.082418 0.599568 0.8 0 0
0.429708 0.072375 0.812765 0.8 0 0
0.534643 0.082418 0.609637 0.8 0 0
0.250821 0.065945 0.519194 0.8 0 0
0.218860 0.082418 0.598989 0.8 0 0
0.399512 0.090736 0.740811 0.8 0 0
0.495178 0.058955 0.920305 0.8 0 0
0.399381 0.032286 0.785059 0.8 0 0
0.172372 0.082418 0.647858 0.8 0 0
0.209791 0.082418 0.758503 0.8 0 0
0.075953 0.082418 0.674761 0.8 0 0
0.400824 0.088483 0.329327 0.8 0 0
0.306868 0.097152 0.312738 0.8 0 0
0.585658 0.082418 0.765991 0.8 0 0
0.335260 0.082487 0.106473 0.8 0 0
0.282761 0.025000 0.639626 0.8 0 0
0.323154 0.028240 0.751950 0.8 0 0
0.350946 0.089241 0.771879 0.8 0 0
0.275890 0.077478 0.838153 0.8 0 0
0.322527 0.031430 0.508054 0.8 0 0
0.369505 0.056585 0.337837 0.8 0 0
0.306832 0.097306 0.714917 0.8 0 0
0.459035 0.082418 0.547738 0.8 0 0
0.117865 0.082418 0.683463 0.8 0 0
0.488767 0.059287 0.892784 0.8 0 0
0.336873 0.039976 0.714866 0.8 0 0
0.400824 0.068462 0.767946 0.8 0 0
0.202911 0.082418 0.602155 0.8 0 0
0.430735 0.064328 0.870119 0.8 0 0
0.385608 0.043818 0.875582 0.8 0 0
0.401987 0.065946 0.894352 0.8 0 0
0.398905 0.051983 0.824466 0.8 0 0
0.110087 0.082418 0.687617 0.8 0 0
0.071434 0.082418 0.700656 0.8 0 0
0.374346 0.095308 0.870438 0.8 0 0
0.275549 0.025737 0.558863 0.8 0 0
0.254670 0.201629 0.857154 0.8 0 0
0.404688 0.091437 0.434878 0.8 0 0
0.250163 0.065132 0.922006 0.8 0 0
0.254670 0.203804 0.874009 0.8 0 0
0.454384 0.082418 0.724210 0.8 0 0
0.312296 0.063076 0.907143 0.8 0 0
0.288214 0.097939 0.368465 0.8 0 0
0.175814 0.061164 0.921716 0.8 0 0
0.319061 0.034127 0.473275 0.8 0 0
0.421703 0.105495 0.834013 0.8 0 0
0.297671 0.025000 0.523477 0.8 0 0
0.359893 0.113169 0.407906 0.8 0 0
0.301648 0.034537 0.461635 0.8 0 0
0.447018 0.082418 0.522421 0.8 0 0
0.361386 0.025000 0.740765 0.8 0 0
0.351113 0.088570 0.780867 0.8 0 0
0.429710 0.063318 0.611779 0.8 0 0
0.362273 0.062418 0.112624 0.8 0 0
0.345651 0.072077 0.086171 0.8 0 0
0.408290 0.054739 0.623954 0.8 0 0
0.275549 0.047988 0.619252 0.8 0 0
0.276901 0.028808 0.461527 0.8 0 0
0.254670 0.103737 0.810594 0.8 0 0
0.462479 0.082418 0.626311 0.8 0 0
0.359480 0.112657 0.413857 0.8 0 0
0.276882 0.025000 0.716295 0.8 0 0
0.307854 0.098077 0.634982 0.8 0 0
0.254670 0.242151 0.896192 0.8 0 0
0.421703 0.084223 0.823094 0.8 0 0
0.356216 0.102937 0.502172 0.8 0 0
0.267171 0.094498 0.667301 0.8 0 0
0.265949 0.066259 0.897266 0.8 0 0
0.419640 0.090005 0.655515 0.8 0 0
0.348662 0.094026 0.687024 0.8 0 0
0.215434 0.082418 0.722358 0.8 0 0
0.503622 0.082418 0.576160 0.8 0 0
0.315534 0.042944 0.865599 0.8 0 0
0.328658 0.035440 0.538324 0.8 0 0
0.254670 0.241521 0.874095 0.8 0 0
0.606749 0.082418 0.773368 0.8 0 0
0.372397 0.047839 0.445111 0.8 0 0
0.289848 0.098077 0.529638 0.8 0 0
0.326219 0.035440 0.511840 0.8 0 0
0.261668 0.056801 0.616397 0.8 0 0
0.142422 0.082418 0.650108 0.8 0 0
0.275549 0.040453 0.636165 0.8 0 0
0.400824 0.049118 0.448910 0.8 0 0
0.338150 0.035440 0.387877 0.8 0 0
0.243673 0.071153 0.579683 0.8 0 0
0.475230 0.082418 0.655506 0.8 0 0
0.275549 0.047634 0.624979 0.8 0 0
0.403005 0.079915 0.407723 0.8 0 0
0.353846 0.032901 0.602166 0.8 0 0
0.400824 0.049090 0.740946 0.8 0 0
0.181169 0.063492 0.952468 0.8 0 0
0.285144 0.025000 0.532717 0.8 0 0
0.585324 0.082418 0.698414 0.8 0 0
0.252107 0.088040 0.575725 0.8 0 0
0.306868 0.066532 0.233379 0.8 0 0
0.309387 0.025000 0.561271 0.8 0 0
0.347420 0.049368 0.056333 0.8 0 0
0.369516 0.067384 0.407961 0.8 0 0
0.360009 0.095265 0.195674 0.8 0 0
0.275549 0.042312 0.696606 0.8 0 0
0.239953 0.080073 0.627103 0.8 0 0
0.392090 0.025000 0.531212 0.8 0 0
0.421703 0.130097 0.878005 0.8 0 0
0.306868 0.095110 0.345076 0.8 0 0
0.444120 0.064505 0.914498 0.8 0 0
0.422783 0.088658 0.701431 0.8 0 0
0.245262 0.085097 0.540759 0.8 0 0
0.326709 0.072560 0.875231 0.8 0 0
0.320747 0.131053 0.306205 0.8 0 0
0.548086 0.082418 0.659493 0.8 0 0
0.301648 0.032966 0.416985 0.8 0 0
0.306868 0.082288 0.288856 0.8 0 0
0.440504 0.082418 0.758817 0.8 0 0
0.341388 0.035440 0.345402 0.8 0 0
0.355284 0.033965 0.473841 0.8 0 0
0.369505 0.052475 0.219425 0.8 0 0
0.340173 0.103737 0.169901 0.8 0 0
0.277990 0.025000 0.566391 0.8 0 0
0.139005 0.082418 0.747403 0.8 0 0
0.440434 0.082418 0.761268 0.8 0 0
0.156558 0.082418 0.732763 0.8 0 0
0.302032 0.025000 0.608572 0.8 0 0
0.332579 0.035440 0.234496 0.8 0 0
0.383968 0.095207 0.811510 0.8 0 0
0.450420 0.082418 0.578048 0.8 0 0
0.421703 0.177502 0.853067 0.8 0 0
0.421703 0.091338 0.840395 0.8 0 0
0.308057 0.025000 0.510034 0.8 0 0
0.275549 0.069788 0.843871 0.8 0 0
0.400010 0.042840 0.772529 0.8 0 0
0.062652 0.082418 0.736348 0.8 0 0
0.356449 0.028322 0.779068 0.8 0 0
0.352604 0.043262 0.830161 0.8 0 0
0.291216 0.025000 0.731300 0.8 0 0
0.561647 0.082418 0.676981 0.8 0 0
0.313047 0.094943 0.800258 0.8 0 0
0.202188 0.060832 0.940518 0.8 0 0
0.629519 0.082418 0.678808 0.8 0 0
0.254670 0.148677 0.887482 0.8 0 0
0.336936 0.035440 0.274835 0.8 0 0
0.325785 0.088195 0.773737 0.8 0 0
0.481778 0.082418 0.667517 0.8 0 0
0.314209 0.053065 0.907143 0.8 0 0
0.176844 0.082418 0.657108 0.8 0 0
0.275549 0.067247 0.368403 0.8 0 0
0.331938 0.136111 0.259893 0.8 0 0
0.434546 0.075302 0.664603 0.8 0 0
0.389923 0.095187 0.771018 0.8 0 0
0.254670 0.072287 0.851620 0.8 0 0
0.470472 0.082418 0.695215 0.8 0 0
0.093785 0.082418 0.632899 0.8 0 0
0.351506 0.087393 0.798574 0.8 0 0
0.254670 0.187559 0.858082 0.8 0 0
0.374662 0.098077 0.515824 0.8 0 0
0.317720 0.127879 0.287006 0.8 0 0
0.254670 0.104897 0.846278 0.8 0 0
0.351058 0.039557 0.745223 0.8 0 0
0.571977 0.082418 0.688210 0.8 0 0
0.257276 0.055398 0.728323 0.8 0 0
0.307466 0.028029 0.782263 0.8 0 0
0.186727 0.082418 0.654280 0.8 0 0
0.359986 0.108081 0.322046 0.8 0 0
0.336635 0.058456 0.044906 0.8 0 0
0.263739 0.093015 0.541251 0.8 0 0
0.327899 0.052408 0.787239 0.8 0 0
0.358406 0.125998 0.309889 0.8 0 0
0.481845 0.061886 0.939410 0.8 0 0
0.420265 0.066758 0.925334 0.8 0 0
0.316125 0.040999 0.410436 0.8 0 0
0.497251 0.082418 0.566545 0.8 0 0
0.432020 0.084705 0.704862 0.8 0 0
0.181606 0.082418 0.729887 0.8 0 0
0.500910 0.061329 0.885334 0.8 0 0
0.487987 0.060354 0.940630 0.8 0 0
0.254660 0.066748 0.934439 0.8 0 0
0.400447 0.076167 0.849314 0.8 0 0
0.251941 0.060444 0.596143 0.8 0 0
0.222409 0.082418 0.699004 0.8 0 0
0.362878 0.025000 0.731915 0.8 0 0
0.357148 0.126184 0.354959 0.8 0 0
0.304869 0.092481 0.877763 0.8 0 0
0.421703 0.213789 0.884953 0.8 0 0
0.309610 0.098077 0.595045 0.8 0 0
0.198054 0.082418 0.616131 0.8 0 0
0.475844 0.082418 0.605532 0.8 0 0
0.436361 0.079887 0.612013 0.8 0 0
0.434820 0.075992 0.595337 0.8 0 0
0.275549 0.082968 0.387044 0.8 0 0
0.455259 0.082418 0.760492 0.8 0 0
0.271958 0.096538 0.517410 0.8 0 0
0.254670 0.092810 0.800444 0.8 0 0
0.099004 0.082418 0.628026 0.8 0 0
0.387635 0.098077 0.475370 0.8 0 0
0.285576 0.068096 0.341457 0.8 0 0
0.370745 0.027634 0.778783 0.8 0 0
0.349978 0.035440 0.679034 0.8 0 0
0.221223 0.060194 0.881338 0.8 0 0
0.371277 0.025000 0.676279 0.8 0 0
0.474220 0.082418 0.739989 0.8 0 0
0.545145 0.082418 0.752081 0.8 0 0
0.295398 0.029524 0.453088 0.8 0 0
0.279116 0.082763 0.858936 0.8 0 0
0.305944 0.095709 0.837375 0.8 0 0
0.319728 0.025000 0.544816 0.8 0 0
0.421703 0.223648 0.864170 0.8 0 0
0.358860 0.080742 0.132379 0.8 0 0
0.165969 0.082418 0.655249 0.8 0 0
0.329938 0.099812 0.169953 0.8 0 0
0.251610 0.066273 0.851588 0.8 0 0
0.568621 0.082418 0.769675 0.8 0 0
0.362465 0.098796 0.247244 0.8 0 0
0.337281 0.061135 0.837938 0.8 0 0
0.314312 0.041389 0.357450 0.8 0 0
0.269601 0.088444 0.716213 0.8 0 0
0.339393 0.059414 0.827942 0.8 0 0
0.367875 0.051423 0.165461 0.8 0 0
0.310908 0.102636 0.470024 0.8 0 0
0.302589 0.098077 0.637074 0.8 0 0
0.495410 0.082418 0.615081 0.8 0 0
0.306868 0.086563 0.368126 0.8 0 0
0.200834 0.082418 0.628094 0.8 0 0
0.564775 0.082418 0.654495 0.8 0 0
0.313954 0.098077 0.591561 0.8 0 0
0.430844 0.075904 0.816669 0.8 0 0
0.255890 0.089049 0.483044 0.8 0 0
0.451705 0.062135 0.877490 0.8 0 0
0.349022 0.050670 0.820930 0.8 0 0
0.213292 0.082418 0.545642 0.8 0 0
0.371775 0.092837 0.876364 0.8 0 0
0.444150 0.063762 0.903675 0.8 0 0
0.421703 0.214433 0.884297 0.8 0 0
0.421703 0.077737 0.871896 0.8 0 0
0.378504 0.098077 0.585184 0.8 0 0
0.400824 0.063325 0.805208 0.8 0 0
0.555525 0.082418 0.749091 0.8 0 0
0.400944 0.090804 0.706563 0.8 0 0
0.303468 0.098077 0.564955 0.8 0 0
0.138428 0.082418 0.672225 0.8 0 0
0.348447 0.061563 0.871304 0.8 0 0
0.355563 0.035440 0.169220 0.8 0 0
0.275549 0.029144 0.514882 0.8 0 0
0.254670 0.181450 0.884050 0.8 0 0
0.358820 0.085761 0.149431 0.8 0 0
0.205266 0.082418 0.638831 0.8 0 0
0.425771 0.058353 0.774805 0.8 0 0
0.360580 0.039458 0.334070 0.8 0 0
0.380204 0.097843 0.671765 0.8 0 0
0.250911 0.058241 0.631703 0.8 0 0
0.428607 0.064177 0.891543 0.8 0 0
0.280640 0.033274 0.410239 0.8 0 0
0.439966 0.064593 0.883429 0.8 0 0
0.317192 0.088843 0.865532 0.8 0 0
0.254670 0.153307 0.813172 0.8 0 0
0.298729 0.098077 0.431986 0.8 0 0
0.369505 0.073995 0.191683 0.8 0 0
0.335887 0.037932 0.702959 0.8 0 0
0.313229 0.087424 0.164200 0.8 0 0
0.251210 0.056826 0.692784 0.8 0 0
0.369505 0.060474 0.329964 0.8 0 0
0.533188 0.082418 0.743119 0.8 0 0
0.318288 0.095294 0.758837 0.8 0 0
0.254670 0.195562 0.873453 0.8 0 0
0.430090 0.064044 0.634457 0.8 0 0
0.254670 0.208593 0.845798 0.8 0 0
0.515136 0.061041 0.907367 0.8 0 0
0.489749 0.082418 0.748958 0.8 0 0
0.207368 0.082418 0.595583 0.8 0 0
0.452247 0.062710 0.888122 0.8 0 0
0.267547 0.052982 0.729266 0.8 0 0
0.303667 0.098053 0.653289 0.8 0 0
0.185342 0.082418 0.667727 0.8 0 0
0.286693 0.027623 0.778684 0.8 0 0
0.396519 0.098077 0.466476 0.8 0 0
0.317630 0.092218 0.170920 0.8 0 0
0.288640 0.025000 0.601167 0.8 0 0
0.214124 0.082418 0.755978 0.8 0 0
0.275549 0.029018 0.526508 0.8 0 0
0.337945 0.035440 0.466119 0.8 0 0
0.254670 0.090946 0.782447 0.8 0 0
0.194497 0.082418 0.728107 0.8 0 0
0.421703 0.135889 0.803361 0.8 0 0
0.444046 0.062345 0.866427 0.8 0 0
0.421703 0.097812 0.873238 0.8 0 0
0.469372 0.082418 0.705454 0.8 0 0
0.434588 0.075833 0.523951 0.8 0 0
0.425849 0.056987 0.692241 0.8 0 0
0.397097 0.098077 0.540074 0.8 0 0
0.306868 0.074653 0.267148 0.8 0 0
0.424620 0.057255 0.643108 0.8 0 0
0.510593 0.059585 0.957987 0.8 0 0
0.312233 0.029127 0.791949 0.8 0 0
0.243364 0.084283 0.535849 0.8 0 0
0.421703 0.147577 0.834522 0.8 0 0
0.275549 0.042352 0.458206 0.8 0 0
0.400824 0.047107 0.538108 0.8 0 0
0.320891 0.025000 0.695126 0.8 0 0
0.254670 0.170137 0.813346 0.8 0 0
0.140041 0.082418 0.746858 0.8 0 0
0.383307 0.091073 0.873315 0.8 0 0
0.308414 0.062345 0.378891 0.8 0 0
0.346209 0.068058 0.863131 0.8 0 0
0.400824 0.057069 0.500920 0.8 0 0
0.161601 0.082418 0.581775 0.8 0 0
0.184529 0.082418 0.556415 0.8 0 0
0.400824 0.037577 0.504781 0.8 0 0
0.359629 0.080809 0.134258 0.8 0 0
0.275549 0.026243 0.621605 0.8 0 0
0.389125 0.087116 0.879209 0.8 0 0
0.369505 0.053388 0.240260 0.8 0 0
0.500900 0.082418 0.735396 0.8 0 0
0.311834 0.025000 0.604661 0.8 0 0
0.075277 0.082418 0.719607 0.8 0 0
0.353665 0.025904 0.636779 0.8 0 0
0.346504 0.135101 0.262204 0.8 0 0
0.337124 0.090858 0.125785 0.8 0 0
0.301648 0.072318 0.346336 0.8 0 0
0.226746 0.082418 0.724819 0.8 0 0
0.288786 0.025000 0.675891 0.8 0 0
0.401767 0.059091 0.826106 0.8 0 0
0.289711 0.072163 0.331000 0.8 0 0
0.230481 0.062923 0.927157 0.8 0 0
0.408580 0.067855 0.477409 0.8 0 0
0.390911 0.079502 0.899019 0.8 0 0
0.606088 0.082418 0.666905 0.8 0 0
0.320267 0.035440 0.332906 0.8 0 0
0.421703 0.159781 0.829649 0.8 0 0
0.316395 0.025000 0.614301 0.8 0 0
0.402233 0.051430 0.745690 0.8 0 0
0.224198 0.082418 0.602065 0.8 0 0
0.400824 0.060099 0.469645 0.8 0 0
0.353358 0.035440 0.213616 0.8 0 0
0.493653 0.082418 0.634420 0.8 0 0
0.449271 0.082418 0.756825 0.8 0 0
0.411164 0.062515 0.523006 0.8 0 0
0.389608 0.043102 0.865519 0.8 0 0
0.421703 0.080793 0.844778 0.8 0 0
0.254670 0.210172 0.905729 0.8 0 0
0.416710 0.091262 0.637010 0.8 0 0
0.254670 0.128638 0.881153 0.8 0 0
0.343315 0.035440 0.608069 0.8 0 0
0.407385 0.080849 0.406259 0.8 0 0
0.412967 0.088093 0.717878 0.8 0 0
0.400824 0.025460 0.739226 0.8 0 0
0.292773 0.096893 0.750585 0.8 0 0
0.450635 0.082418 0.741978 0.8 0 0
0.291361 0.066775 0.344855 0.8 0 0
0.409414 0.072709 0.846455 0.8 0 0
0.496487 0.082418 0.578886 0.8 0 0
0.331366 0.035440 0.656127 0.8 0 0
0.245038 0.064367 0.871345 0.8 0 0
0.353511 0.033277 0.639783 0.8 0 0
0.213792 0.059850 0.912103 0.8 0 0
0.093436 0.082418 0.641757 0.8 0 0
0.275549 0.085766 0.303194 0.8 0 0
0.463511 0.082418 0.727597 0.8 0 0
0.168065 0.082418 0.619858 0.8 0 0
0.421703 0.144994 0.855782 0.8 0 0
0.421703 0.201876 0.898806 0.8 0 0
0.312711 0.086118 0.160885 0.8 0 0
0.195640 0.082418 0.587448 0.8 0 0
0.421703 0.166927 0.858668 0.8 0 0
0.038891 0.082418 0.751416 0.8 0 0
0.254670 0.090988 0.844400 0.8 0 0
0.421703 0.085318 0.797340 0.8 0 0
0.301648 0.057053 0.387679 0.8 0 0
0.502394 0.058970 0.955778 0.8 0 0
0.328797 0.099552 0.590108 0.8 0 0
0.306868 0.075453 0.233666 0.8 0 0
0.358469 0.047107 0.439230 0.8 0 0
0.587771 0.082418 0.765135 0.8 0 0
0.315320 0.025000 0.664143 0.8 0 0
0.391611 0.098077 0.611491 0.8 0 0
0.325852 0.079152 0.850605 0.8 0 0
0.423298 0.088465 0.527687 0.8 0 0
0.172709 0.059876 0.898443 0.8 0 0
0.212279 0.082418 0.704474 0.8 0 0
0.254670 0.107542 0.815462 0.8 0 0
0.298355 0.025000 0.660063 0.8 0 0
0.180973 0.082418 0.743171 0.8 0 0
0.148133 0.082418 0.659390 0.8 0 0
0.389405 0.098077 0.539097 0.8 0 0
0.317203 0.039150 0.841976 0.8 0 0
