0.678996 0.045892 0.511102 0.8 0 0
0.374299 0.034010 0.369677 0.8 0 0
0.539720 0.076911 0.317757 0.8 0 0
0.520698 0.128161 0.204393 0.8 0 0
0.481069 0.040650 0.756429 0.8 0 0
0.472574 0.115914 0.312309 0.8 0 0
0.406014 0.043521 0.405161 0.8 0 0
0.349656 0.128883 0.881427 0.8 0 0
0.852702 0.064645 0.531901 0.8 0 0
0.650344 0.087710 0.835248 0.8 0 0
0.349656 0.051505 0.819306 0.8 0 0
0.969118 0.077244 0.458471 0.8 0 0
0.360657 0.043521 0.467354 0.8 0 0
0.460573 0.083711 0.331475 0.8 0 0
0.398102 0.090116 0.576411 0.8 0 0
0.233339 0.055341 0.440122 0.8 0 0
0.481185 0.070873 0.846301 0.8 0 0
0.463656 0.102752 0.382663 0.8 0 0
0.385790 0.043521 0.556317 0.8 0 0
0.454150 0.062586 0.821294 0.8 0 0
0.533295 0.050834 0.506082 0.8 0 0
0.398271 0.125280 0.684854 0.8 0 0
0.765160 0.055201 0.557047 0.8 0 0
0.349656 0.165257 0.826056 0.8 0 0
0.196361 0.059371 0.515030 0.8 0 0
0.373118 0.062586 0.882052 0.8 0 0
0.477406 0.093775 0.593659 0.8 0 0
0.583230 0.062586 0.817761 0.8 0 0
0.229384 0.055790 0.458638 0.8 0 0
0.886271 0.068271 0.550619 0.8 0 0
0.762828 0.054951 0.558784 0.8 0 0
0.370299 0.043521 0.524204 0.8 0 0
0.406439 0.062586 0.839690 0.8 0 0
0.459382 0.060765 0.348213 0.8 0 0
0.592146 0.084741 0.572366 0.8 0 0
0.444657 0.043521 0.411883 0.8 0 0
0.583729 0.062586 0.836842 0.8 0 0
0.726171 0.050995 0.514367 0.8 0 0
0.604537 0.043521 0.397994 0.8 0 0
0.901186 0.069875 0.541092 0.8 0 0
0.519537 0.117743 0.164963 0.8 0 0
0.530926 0.073221 0.110187 0.8 0 0
0.467964 0.065986 0.706083 0.8 0 0
0.148226 0.064415 0.452377 0.8 0 0
0.467968 0.042634 0.425040 0.8 0 0
0.650367 0.043521 0.425495 0.8 0 0
0.367486 0.043521 0.406578 0.8 0 0
0.614082 0.062586 0.879611 0.8 0 0
0.443525 0.043521 0.550456 0.8 0 0
0.641636 0.043521 0.474837 0.8 0 0
0.434566 0.109942 0.554827 0.8 0 0
0.543322 0.043521 0.414090 0.8 0 0
0.399802 0.098230 0.731409 0.8 0 0
0.515780 0.089201 0.689725 0.8 0 0
0.209437 0.057853 0.473527 0.8 0 0
0.810626 0.060080 0.460530 0.8 0 0
0.679705 0.045981 0.553120 0.8 0 0
0.494653 0.086281 0.736330 0.8 0 0
0.250412 0.053460 0.449584 0.8 0 0
0.583134 0.132488 0.557194 0.8 0 0
0.732103 0.051643 0.542523 0.8 0 0
0.837421 0.062904 0.487417 0.8 0 0
0.088206 0.071028 0.541871 0.8 0 0
0.701325 0.048292 0.405262 0.8 0 0
0.597763 0.087991 0.569947 0.8 0 0
0.776583 0.056445 0.533901 0.8 0 0
0.532367 0.105207 0.253287 0.8 0 0
0.409025 0.062586 0.804268 0.8 0 0
0.481179 0.135656 0.207501 0.8 0 0
0.497530 0.040245 0.792235 0.8 0 0
0.315706 0.046459 0.422740 0.8 0 0
0.650344 0.125539 0.882762 0.8 0 0
0.582421 0.078138 0.590425 0.8 0 0
0.647562 0.043521 0.527996 0.8 0 0
0.568624 0.068486 0.692549 0.8 0 0
0.502394 0.094504 0.648976 0.8 0 0
0.792194 0.058065 0.435930 0.8 0 0
0.213140 0.057525 0.453463 0.8 0 0
0.090063 0.070848 0.488032 0.8 0 0
0.426854 0.062586 0.816075 0.8 0 0
0.765410 0.055237 0.523169 0.8 0 0
0.520991 0.037729 0.635940 0.8 0 0
0.522831 0.063759 0.835890 0.8 0 0
0.519266 0.087845 0.695659 0.8 0 0
0.496614 0.086111 0.740899 0.8 0 0
0.115337 0.068059 0.494649 0.8 0 0
0.383974 0.026801 0.474886 0.8 0 0
0.479422 0.115749 0.249415 0.8 0 0
0.685829 0.046626 0.400629 0.8 0 0
0.468088 0.089825 0.536360 0.8 0 0
0.381770 0.043521 0.546400 0.8 0 0
0.585509 0.043521 0.474272 0.8 0 0
0.569462 0.062586 0.840418 0.8 0 0
0.559732 0.043521 0.523395 0.8 0 0
0.421956 0.133410 0.557358 0.8 0 0
0.476584 0.073988 0.788192 0.8 0 0
0.479709 0.032145 0.461728 0.8 0 0
0.493729 0.047530 0.043727 0.8 0 0
0.537991 0.111563 0.601604 0.8 0 0
0.383974 0.037256 0.455678 0.8 0 0
0.606309 0.043521 0.421818 0.8 0 0
0.707407 0.048938 0.435471 0.8 0 0
0.396274 0.100644 0.720417 0.8 0 0
0.291314 0.049104 0.419798 0.8 0 0
0.650344 0.060551 0.785541 0.8 0 0
0.493129 0.031354 0.452340 0.8 0 0
0.346788 0.043521 0.397730 0.8 0 0
0.533594 0.072382 0.730648 0.8 0 0
0.740777 0.052559 0.432363 0.8 0 0
0.634591 0.043521 0.440342 0.8 0 0
0.795798 0.058424 0.420440 0.8 0 0
0.345408 0.032118 0.377863 0.8 0 0
0.714181 0.049702 0.477674 0.8 0 0
0.510686 0.031633 0.352447 0.8 0 0
0.497392 0.032775 0.026633 0.8 0 0
0.144917 0.064910 0.540837 0.8 0 0
0.873682 0.066934 0.497481 0.8 0 0
0.478101 0.032306 0.338547 0.8 0 0
0.524556 0.047715 0.709631 0.8 0 0
0.436935 0.109782 0.554807 0.8 0 0
0.497554 0.031121 0.462734 0.8 0 0
0.619046 0.043521 0.504756 0.8 0 0
0.455245 0.084207 0.608982 0.8 0 0
0.408671 0.075133 0.650861 0.8 0 0
0.419824 0.146325 0.596023 0.8 0 0
0.540282 0.066582 0.304688 0.8 0 0
0.349656 0.089224 0.829239 0.8 0 0
0.540443 0.063618 0.359369 0.8 0 0
0.349656 0.163343 0.837265 0.8 0 0
0.428040 0.043521 0.491044 0.8 0 0
0.351926 0.062586 0.871520 0.8 0 0
0.650344 0.066081 0.833578 0.8 0 0
0.464214 0.090456 0.225782 0.8 0 0
0.484397 0.031865 0.460000 0.8 0 0
0.771775 0.055838 0.433433 0.8 0 0
0.650344 0.081413 0.857198 0.8 0 0
0.222438 0.056556 0.519897 0.8 0 0
0.451164 0.062586 0.855862 0.8 0 0
0.470325 0.089532 0.559744 0.8 0 0
0.343119 0.043456 0.403246 0.8 0 0
0.800645 0.058933 0.481339 0.8 0 0
0.462386 0.056982 0.472372 0.8 0 0
0.510827 0.141769 0.224934 0.8 0 0
0.477698 0.040740 0.106207 0.8 0 0
0.650344 0.111778 0.823351 0.8 0 0
0.464931 0.105696 0.353622 0.8 0 0
0.559810 0.043521 0.513135 0.8 0 0
0.210137 0.057863 0.513156 0.8 0 0
0.496413 0.077963 0.063352 0.8 0 0
0.469041 0.051102 0.575545 0.8 0 0
0.410146 0.043521 0.462739 0.8 0 0
0.541136 0.102226 0.600206 0.8 0 0
0.505639 0.065496 0.906255 0.8 0 0
0.030172 0.077296 0.480420 0.8 0 0
0.552320 0.080420 0.624510 0.8 0 0
0.312927 0.046757 0.480446 0.8 0 0
0.528351 0.038111 0.447633 0.8 0 0
0.558403 0.126994 0.556587 0.8 0 0
0.618094 0.062586 0.826316 0.8 0 0
0.208491 0.058061 0.517856 0.8 0 0
0.504293 0.076957 0.060843 0.8 0 0
0.595665 0.043521 0.503052 0.8 0 0
0.529514 0.052387 0.108858 0.8 0 0
0.630998 0.043521 0.431570 0.8 0 0
0.693108 0.047404 0.405201 0.8 0 0
0.533573 0.073020 0.568880 0.8 0 0
0.460080 0.074728 0.368574 0.8 0 0
0.475035 0.032475 0.410514 0.8 0 0
0.640693 0.043521 0.462849 0.8 0 0
0.513830 0.031822 0.470246 0.8 0 0
0.566339 0.128348 0.709529 0.8 0 0
0.383051 0.062586 0.826607 0.8 0 0
0.395635 0.126438 0.618862 0.8 0 0
0.537574 0.090658 0.260774 0.8 0 0
0.469471 0.078796 0.107618 0.8 0 0
0.697501 0.047903 0.536667 0.8 0 0
0.160239 0.063177 0.449221 0.8 0 0
0.525142 0.042280 0.139569 0.8 0 0
0.538626 0.058261 0.446235 0.8 0 0
0.383974 0.026568 0.466855 0.8 0 0
0.650344 0.113289 0.867954 0.8 0 0
0.909529 0.070622 0.438952 0.8 0 0
0.534766 0.092947 0.207314 0.8 0 0
0.880293 0.067472 0.455707 0.8 0 0
0.635654 0.062586 0.870673 0.8 0 0
0.515600 0.119127 0.265716 0.8 0 0
0.349656 0.136708 0.855146 0.8 0 0
0.770948 0.055750 0.445269 0.8 0 0
0.460597 0.083975 0.325890 0.8 0 0
0.429174 0.135132 0.692553 0.8 0 0
0.127505 0.066636 0.451984 0.8 0 0
0.650344 0.054662 0.784178 0.8 0 0
0.462086 0.105827 0.651934 0.8 0 0
0.467819 0.106453 0.393484 0.8 0 0
0.463289 0.043521 0.500342 0.8 0 0
0.514415 0.031857 0.464491 0.8 0 0
0.676541 0.045641 0.539796 0.8 0 0
0.506850 0.036797 0.726470 0.8 0 0
0.540505 0.043521 0.490613 0.8 0 0
0.514290 0.080733 0.076555 0.8 0 0
0.856177 0.065020 0.526683 0.8 0 0
0.349656 0.035216 0.794690 0.8 0 0
0.437697 0.139350 0.557948 0.8 0 0
0.445332 0.078508 0.632527 0.8 0 0
0.602827 0.043521 0.470639 0.8 0 0
0.206379 0.058180 0.439346 0.8 0 0
0.343119 0.038414 0.471146 0.8 0 0
0.495658 0.098028 0.113227 0.8 0 0
0.496950 0.074765 0.896979 0.8 0 0
0.512696 0.053470 0.877514 0.8 0 0
0.664562 0.044344 0.507636 0.8 0 0
0.365783 0.043521 0.520853 0.8 0 0
0.650344 0.107471 0.871080 0.8 0 0
0.343119 0.030499 0.510820 0.8 0 0
0.350576 0.062586 0.846089 0.8 0 0
0.514180 0.123359 0.290980 0.8 0 0
0.759085 0.054478 0.497720 0.8 0 0
0.296217 0.048580 0.426482 0.8 0 0
0.619988 0.062586 0.887142 0.8 0 0
0.483678 0.118254 0.261182 0.8 0 0
0.538238 0.081481 0.628829 0.8 0 0
0.520407 0.036927 0.639462 0.8 0 0
0.553662 0.062586 0.889274 0.8 0 0
0.398676 0.043521 0.434989 0.8 0 0
0.172891 0.061816 0.493497 0.8 0 0
0.468125 0.067034 0.713374 0.8 0 0
0.675415 0.045520 0.448599 0.8 0 0
0.395314 0.043521 0.397855 0.8 0 0
0.391069 0.109189 0.674321 0.8 0 0
0.534187 0.075992 0.687654 0.8 0 0
0.533320 0.049460 0.486836 0.8 0 0
0.349656 0.125725 0.850608 0.8 0 0
0.523160 0.086348 0.667839 0.8 0 0
0.451767 0.080897 0.634839 0.8 0 0
0.474070 0.107972 0.233040 0.8 0 0
0.626568 0.043521 0.424322 0.8 0 0
0.650344 0.104985 0.835422 0.8 0 0
0.448914 0.123224 0.556288 0.8 0 0
0.519236 0.125503 0.169627 0.8 0 0
0.095969 0.070078 0.464276 0.8 0 0
0.486300 0.092082 0.107010 0.8 0 0
0.383272 0.062586 0.858502 0.8 0 0
0.822819 0.061421 0.489358 0.8 0 0
0.616026 0.032558 0.513508 0.8 0 0
0.532987 0.079572 0.576225 0.8 0 0
0.240627 0.054509 0.443760 0.8 0 0
0.329178 0.045025 0.553509 0.8 0 0
0.071037 0.072909 0.468562 0.8 0 0
0.529874 0.052583 0.631997 0.8 0 0
0.510674 0.031659 0.176540 0.8 0 0
0.522256 0.060711 0.068570 0.8 0 0
0.388920 0.102790 0.685274 0.8 0 0
0.650344 0.082661 0.793399 0.8 0 0
0.855871 0.064954 0.480054 0.8 0 0
0.530164 0.065480 0.774393 0.8 0 0
0.748231 0.053381 0.547044 0.8 0 0
0.650344 0.072951 0.801830 0.8 0 0
0.340349 0.043818 0.442779 0.8 0 0
0.971330 0.077412 0.542203 0.8 0 0
0.650344 0.031198 0.826443 0.8 0 0
0.349656 0.105088 0.850718 0.8 0 0
0.467270 0.105880 0.393572 0.8 0 0
0.464770 0.058359 0.180935 0.8 0 0
0.510097 0.031623 0.137938 0.8 0 0
0.423245 0.119511 0.555916 0.8 0 0
0.623255 0.037362 0.378748 0.8 0 0
0.115342 0.067949 0.431929 0.8 0 0
0.639935 0.043521 0.491044 0.8 0 0
0.558459 0.074333 0.698761 0.8 0 0
0.471097 0.110283 0.260795 0.8 0 0
0.212049 0.057661 0.558741 0.8 0 0
0.402211 0.043521 0.396739 0.8 0 0
0.526269 0.118339 0.290364 0.8 0 0
0.805382 0.059540 0.499757 0.8 0 0
0.389040 0.043521 0.401182 0.8 0 0
0.541961 0.115692 0.563842 0.8 0 0
0.570006 0.145964 0.565811 0.8 0 0
0.357163 0.062586 0.852179 0.8 0 0
0.457552 0.113325 0.682709 0.8 0 0
0.941231 0.074006 0.440745 0.8 0 0
0.384458 0.062586 0.864402 0.8 0 0
0.480090 0.084178 0.728061 0.8 0 0
0.404016 0.078323 0.639807 0.8 0 0
0.737113 0.052181 0.549538 0.8 0 0
0.215763 0.057259 0.544429 0.8 0 0
0.650344 0.048420 0.875230 0.8 0 0
0.839187 0.063158 0.474080 0.8 0 0
0.559022 0.043521 0.471596 0.8 0 0
0.840077 0.063264 0.480014 0.8 0 0
0.478888 0.058423 0.830492 0.8 0 0
0.533991 0.048795 0.461733 0.8 0 0
0.529661 0.090449 0.162811 0.8 0 0
0.693385 0.047459 0.505555 0.8 0 0
0.461073 0.043521 0.436511 0.8 0 0
0.642427 0.062586 0.839161 0.8 0 0
0.442550 0.043521 0.500634 0.8 0 0
0.789897 0.057870 0.509959 0.8 0 0
0.515019 0.116433 0.145450 0.8 0 0
0.471051 0.074760 0.727859 0.8 0 0
0.950469 0.075030 0.455455 0.8 0 0
0.560366 0.071919 0.670175 0.8 0 0
0.288382 0.049425 0.433393 0.8 0 0
0.514385 0.047971 0.836525 0.8 0 0
0.357565 0.062586 0.865880 0.8 0 0
0.650344 0.056689 0.862847 0.8 0 0
0.489161 0.035484 0.676413 0.8 0 0
0.205201 0.058307 0.448773 0.8 0 0
0.616026 0.029664 0.507808 0.8 0 0
0.535490 0.046824 0.295835 0.8 0 0
0.918241 0.071565 0.445813 0.8 0 0
0.500801 0.037325 0.055974 0.8 0 0
0.496781 0.031185 0.169380 0.8 0 0
0.415436 0.122908 0.730284 0.8 0 0
0.760743 0.054725 0.461850 0.8 0 0
0.747510 0.053237 0.434242 0.8 0 0
0.070627 0.072934 0.515798 0.8 0 0
0.461995 0.043521 0.412280 0.8 0 0
0.349656 0.101257 0.888526 0.8 0 0
0.459740 0.117662 0.595794 0.8 0 0
0.474880 0.036475 0.506461 0.8 0 0
0.650344 0.176420 0.875444 0.8 0 0
0.479397 0.100062 0.549129 0.8 0 0
0.349656 0.092982 0.818759 0.8 0 0
0.351404 0.043521 0.397400 0.8 0 0
0.718569 0.050175 0.441826 0.8 0 0
0.349656 0.108547 0.801603 0.8 0 0
0.613089 0.043521 0.515945 0.8 0 0
0.247732 0.053747 0.477132 0.8 0 0
0.460827 0.083559 0.285004 0.8 0 0
0.650344 0.129052 0.865639 0.8 0 0
0.461044 0.114543 0.595438 0.8 0 0
0.809294 0.059969 0.545222 0.8 0 0
0.459483 0.112197 0.650817 0.8 0 0
0.244102 0.054202 0.499796 0.8 0 0
0.531914 0.055171 0.615741 0.8 0 0
0.704249 0.048630 0.452612 0.8 0 0
0.529303 0.075062 0.720642 0.8 0 0
0.369045 0.062586 0.863980 0.8 0 0
0.158181 0.063381 0.440269 0.8 0 0
0.535725 0.080512 0.491781 0.8 0 0
0.534828 0.055640 0.175276 0.8 0 0
0.084897 0.071260 0.463237 0.8 0 0
0.285120 0.049777 0.509633 0.8 0 0
0.487913 0.102575 0.544169 0.8 0 0
0.523557 0.075645 0.774707 0.8 0 0
0.383261 0.043142 0.394388 0.8 0 0
0.214850 0.057358 0.521872 0.8 0 0
0.451828 0.084110 0.612564 0.8 0 0
0.033927 0.076800 0.513805 0.8 0 0
0.349656 0.177525 0.841444 0.8 0 0
0.913224 0.071197 0.503861 0.8 0 0
0.499238 0.036444 0.050628 0.8 0 0
0.208580 0.057961 0.423402 0.8 0 0
0.424637 0.043521 0.400775 0.8 0 0
0.150592 0.064186 0.436204 0.8 0 0
0.521820 0.083642 0.712312 0.8 0 0
0.343119 0.038600 0.515843 0.8 0 0
0.950498 0.075075 0.479981 0.8 0 0
0.466553 0.043521 0.504885 0.8 0 0
0.464170 0.050316 0.256357 0.8 0 0
0.349656 0.174898 0.859891 0.8 0 0
0.756572 0.054223 0.417509 0.8 0 0
0.487989 0.048577 0.859403 0.8 0 0
0.616026 0.037179 0.545793 0.8 0 0
0.471234 0.043378 0.198413 0.8 0 0
0.186676 0.060397 0.530041 0.8 0 0
0.644349 0.062586 0.843905 0.8 0 0
0.592591 0.076816 0.640404 0.8 0 0
0.536656 0.048622 0.352400 0.8 0 0
0.330877 0.044841 0.552339 0.8 0 0
0.593488 0.062586 0.852253 0.8 0 0
0.582201 0.043521 0.434912 0.8 0 0
0.285674 0.049718 0.488986 0.8 0 0
0.516615 0.034925 0.643422 0.8 0 0
0.265752 0.051867 0.531206 0.8 0 0
0.656881 0.026425 0.429810 0.8 0 0
0.490983 0.031546 0.131817 0.8 0 0
0.421775 0.111173 0.554977 0.8 0 0
0.430719 0.069561 0.697706 0.8 0 0
0.349656 0.173552 0.845441 0.8 0 0
0.340646 0.043786 0.466619 0.8 0 0
0.552507 0.094620 0.552958 0.8 0 0
0.509803 0.031597 0.218014 0.8 0 0
0.483085 0.044933 0.800228 0.8 0 0
0.570274 0.043521 0.496196 0.8 0 0
0.520999 0.046826 0.775238 0.8 0 0
0.309333 0.047165 0.495475 0.8 0 0
0.522622 0.062586 0.862527 0.8 0 0
0.966883 0.076987 0.500560 0.8 0 0
0.186957 0.060367 0.481609 0.8 0 0
0.817427 0.060733 0.483747 0.8 0 0
0.393874 0.089413 0.673073 0.8 0 0
0.437144 0.075814 0.625841 0.8 0 0
0.359628 0.027345 0.351644 0.8 0 0
0.429511 0.062586 0.877146 0.8 0 0
0.579474 0.043521 0.553905 0.8 0 0
0.520844 0.044004 0.757949 0.8 0 0
0.236558 0.055016 0.519262 0.8 0 0
0.476387 0.039078 0.147360 0.8 0 0
0.616026 0.041145 0.526292 0.8 0 0
0.539944 0.061250 0.276153 0.8 0 0
0.179020 0.061113 0.423806 0.8 0 0
0.625125 0.043521 0.542345 0.8 0 0
0.362644 0.062586 0.883664 0.8 0 0
0.383974 0.025947 0.449838 0.8 0 0
0.465150 0.054390 0.190247 0.8 0 0
0.343119 0.025854 0.488662 0.8 0 0
0.142124 0.065203 0.533794 0.8 0 0
0.117377 0.067873 0.514698 0.8 0 0
0.062689 0.073797 0.500191 0.8 0 0
0.467853 0.068511 0.686836 0.8 0 0
0.493515 0.082525 0.077335 0.8 0 0
0.838384 0.063117 0.520236 0.8 0 0
0.485000 0.069384 0.885783 0.8 0 0
0.519505 0.114733 0.166916 0.8 0 0
0.415841 0.043521 0.502559 0.8 0 0
0.881915 0.067797 0.544103 0.8 0 0
0.349656 0.163814 0.865242 0.8 0 0
0.434534 0.043521 0.558084 0.8 0 0
0.455153 0.088951 0.640557 0.8 0 0
0.564019 0.137176 0.657728 0.8 0 0
0.385479 0.062586 0.823365 0.8 0 0
0.650344 0.140729 0.823458 0.8 0 0
0.538152 0.110268 0.592048 0.8 0 0
0.606511 0.062586 0.835190 0.8 0 0
0.499295 0.041627 0.048780 0.8 0 0
0.390491 0.062586 0.798028 0.8 0 0
0.383974 0.027599 0.469425 0.8 0 0
0.088940 0.070771 0.433971 0.8 0 0
0.438362 0.140143 0.622672 0.8 0 0
0.108749 0.068669 0.440344 0.8 0 0
0.473652 0.062586 0.820425 0.8 0 0
0.541959 0.099950 0.699755 0.8 0 0
0.533180 0.043521 0.509946 0.8 0 0
0.700491 0.048196 0.408071 0.8 0 0
0.349092 0.031880 0.363914 0.8 0 0
0.680240 0.046040 0.421933 0.8 0 0
0.391660 0.062586 0.861625 0.8 0 0
0.349656 0.093208 0.807893 0.8 0 0
0.483442 0.037450 0.728427 0.8 0 0
0.474691 0.062586 0.852381 0.8 0 0
0.658824 0.043729 0.473989 0.8 0 0
0.530386 0.103199 0.232603 0.8 0 0
0.596214 0.132452 0.658668 0.8 0 0
0.506320 0.035269 0.677243 0.8 0 0
0.349656 0.132633 0.865524 0.8 0 0
0.405457 0.138007 0.615987 0.8 0 0
0.486734 0.036945 0.719254 0.8 0 0
0.459679 0.066714 0.322710 0.8 0 0
0.478727 0.119012 0.347942 0.8 0 0
0.030546 0.077249 0.539174 0.8 0 0
0.454567 0.062586 0.876185 0.8 0 0
0.763213 0.054920 0.417724 0.8 0 0
0.522650 0.033967 0.185999 0.8 0 0
0.471037 0.101448 0.215459 0.8 0 0
0.399453 0.081173 0.698118 0.8 0 0
0.390362 0.100477 0.649104 0.8 0 0
0.343119 0.033921 0.511356 0.8 0 0
0.678550 0.045858 0.436582 0.8 0 0
0.532945 0.108729 0.338692 0.8 0 0
0.522454 0.120535 0.320934 0.8 0 0
0.558947 0.043521 0.427247 0.8 0 0
0.349656 0.057285 0.806069 0.8 0 0
0.343119 0.041637 0.522867 0.8 0 0
0.529100 0.077617 0.695205 0.8 0 0
0.357698 0.043521 0.432308 0.8 0 0
0.343119 0.040704 0.426151 0.8 0 0
0.650344 0.133758 0.824391 0.8 0 0
0.349656 0.162528 0.832195 0.8 0 0
0.488606 0.074951 0.873803 0.8 0 0
0.473035 0.047319 0.635177 0.8 0 0
0.542949 0.099379 0.587232 0.8 0 0
0.540605 0.102938 0.605094 0.8 0 0
0.500376 0.105885 0.527493 0.8 0 0
0.475707 0.042925 0.116155 0.8 0 0
0.501981 0.033208 0.619984 0.8 0 0
0.808299 0.059754 0.453474 0.8 0 0
0.682443 0.046278 0.412244 0.8 0 0
0.487599 0.031736 0.341458 0.8 0 0
0.319250 0.046080 0.462553 0.8 0 0
0.442518 0.062586 0.848405 0.8 0 0
0.310159 0.047076 0.431893 0.8 0 0
0.764306 0.055109 0.559315 0.8 0 0
0.282654 0.050043 0.495844 0.8 0 0
0.461182 0.094380 0.315320 0.8 0 0
0.650344 0.172083 0.819941 0.8 0 0
0.473602 0.086307 0.631414 0.8 0 0
0.650344 0.060466 0.819203 0.8 0 0
0.353719 0.062586 0.858823 0.8 0 0
0.485555 0.034279 0.627740 0.8 0 0
0.650344 0.082941 0.864097 0.8 0 0
0.349656 0.087666 0.801865 0.8 0 0
0.634333 0.062586 0.828372 0.8 0 0
0.958144 0.075886 0.464805 0.8 0 0
0.550348 0.043521 0.533689 0.8 0 0
0.650344 0.046355 0.789678 0.8 0 0
0.463611 0.081121 0.629397 0.8 0 0
0.444363 0.043521 0.534148 0.8 0 0
0.514213 0.058033 0.886622 0.8 0 0
0.616026 0.031453 0.460086 0.8 0 0
0.062736 0.073793 0.496909 0.8 0 0
0.466231 0.070351 0.750266 0.8 0 0
0.465155 0.078041 0.194349 0.8 0 0
0.080350 0.071802 0.495060 0.8 0 0
0.462398 0.054885 0.238414 0.8 0 0
0.512082 0.132219 0.160422 0.8 0 0
0.439736 0.141410 0.561858 0.8 0 0
0.613915 0.043521 0.521288 0.8 0 0
0.613898 0.062586 0.812613 0.8 0 0
0.650344 0.135193 0.880998 0.8 0 0
0.491632 0.031432 0.543240 0.8 0 0
0.676002 0.045571 0.494218 0.8 0 0
0.427092 0.062586 0.800203 0.8 0 0
0.727743 0.051165 0.495362 0.8 0 0
0.079533 0.071990 0.473785 0.8 0 0
0.749552 0.053456 0.472801 0.8 0 0
0.462841 0.051356 0.420434 0.8 0 0
0.608412 0.110772 0.670892 0.8 0 0
0.349656 0.039750 0.851852 0.8 0 0
0.451715 0.104757 0.717777 0.8 0 0
0.650344 0.054918 0.830564 0.8 0 0
0.493320 0.031393 0.235509 0.8 0 0
0.608337 0.062586 0.803442 0.8 0 0
0.428239 0.141542 0.647828 0.8 0 0
0.035119 0.076778 0.481106 0.8 0 0
0.656881 0.034740 0.402102 0.8 0 0
0.468448 0.090422 0.534503 0.8 0 0
0.349656 0.118791 0.802048 0.8 0 0
0.349656 0.095178 0.835746 0.8 0 0
0.495342 0.079203 0.831102 0.8 0 0
0.392872 0.043521 0.401407 0.8 0 0
0.124042 0.067008 0.457114 0.8 0 0
0.200763 0.058878 0.499511 0.8 0 0
0.314557 0.046602 0.471714 0.8 0 0
0.677477 0.045729 0.473573 0.8 0 0
0.479224 0.084753 0.712013 0.8 0 0
0.665497 0.044444 0.460656 0.8 0 0
0.650344 0.068195 0.867415 0.8 0 0
0.591292 0.062586 0.793476 0.8 0 0
0.116103 0.067988 0.501329 0.8 0 0
0.650344 0.179594 0.860792 0.8 0 0
0.521959 0.094028 0.141360 0.8 0 0
0.968572 0.077138 0.484603 0.8 0 0
0.528508 0.063146 0.788616 0.8 0 0
0.198851 0.058987 0.473920 0.8 0 0
0.650239 0.043521 0.448026 0.8 0 0
0.571650 0.090702 0.733687 0.8 0 0
0.349656 0.118075 0.821775 0.8 0 0
0.546103 0.084043 0.656712 0.8 0 0
0.349656 0.158185 0.846526 0.8 0 0
0.708220 0.049059 0.490714 0.8 0 0
0.633770 0.043521 0.409800 0.8 0 0
0.518005 0.032072 0.420214 0.8 0 0
0.783116 0.057054 0.499764 0.8 0 0
0.466315 0.107436 0.348108 0.8 0 0
0.562882 0.132844 0.688581 0.8 0 0
0.433455 0.143705 0.609571 0.8 0 0
0.349656 0.078658 0.876039 0.8 0 0
0.483905 0.031958 0.377802 0.8 0 0
0.964986 0.076718 0.468290 0.8 0 0
0.527100 0.062586 0.821936 0.8 0 0
0.444092 0.043521 0.508294 0.8 0 0
0.471227 0.093247 0.535044 0.8 0 0
0.034699 0.076792 0.559246 0.8 0 0
0.861982 0.065509 0.451206 0.8 0 0
0.400579 0.043521 0.448567 0.8 0 0
0.691399 0.047249 0.549605 0.8 0 0
0.742303 0.052679 0.519305 0.8 0 0
0.898867 0.069550 0.466863 0.8 0 0
0.592575 0.043521 0.494084 0.8 0 0
0.212613 0.057600 0.559114 0.8 0 0
0.460242 0.057878 0.420161 0.8 0 0
0.405700 0.141655 0.577625 0.8 0 0
0.452429 0.085887 0.591582 0.8 0 0
0.571589 0.076585 0.586466 0.8 0 0
0.539727 0.070696 0.404893 0.8 0 0
0.349656 0.139566 0.855359 0.8 0 0
0.433570 0.075160 0.618359 0.8 0 0
0.650344 0.060372 0.814274 0.8 0 0
0.360363 0.043521 0.495387 0.8 0 0
0.537995 0.062586 0.853981 0.8 0 0
0.556469 0.133113 0.557233 0.8 0 0
0.499156 0.091422 0.685246 0.8 0 0
0.383974 0.026332 0.450087 0.8 0 0
0.050918 0.075061 0.515212 0.8 0 0
0.499862 0.122674 0.143988 0.8 0 0
0.650344 0.062549 0.789902 0.8 0 0
0.344986 0.043521 0.415402 0.8 0 0
0.751539 0.053732 0.538512 0.8 0 0
0.513397 0.031796 0.305132 0.8 0 0
0.343310 0.043521 0.498374 0.8 0 0
0.349656 0.085167 0.805095 0.8 0 0
0.584757 0.080373 0.579280 0.8 0 0
0.103840 0.069364 0.483174 0.8 0 0
0.251671 0.053325 0.417481 0.8 0 0
0.648971 0.043521 0.434007 0.8 0 0
0.067727 0.073229 0.546498 0.8 0 0
0.474038 0.040341 0.539281 0.8 0 0
0.520577 0.097576 0.575395 0.8 0 0
0.401314 0.062586 0.850644 0.8 0 0
0.547553 0.077953 0.680248 0.8 0 0
0.507034 0.087379 0.722478 0.8 0 0
0.421255 0.043521 0.537648 0.8 0 0
0.566354 0.143463 0.611142 0.8 0 0
0.349656 0.071700 0.850531 0.8 0 0
0.333136 0.044591 0.486948 0.8 0 0
0.775724 0.056262 0.434563 0.8 0 0
0.398222 0.096473 0.720964 0.8 0 0
0.273114 0.051078 0.547128 0.8 0 0
0.548447 0.136822 0.602572 0.8 0 0
0.320168 0.045996 0.426637 0.8 0 0
0.650344 0.042906 0.839698 0.8 0 0
0.585662 0.080492 0.581618 0.8 0 0
0.572854 0.076743 0.731150 0.8 0 0
0.704394 0.048646 0.540118 0.8 0 0
0.358562 0.043521 0.408201 0.8 0 0
0.330132 0.044913 0.527720 0.8 0 0
0.383974 0.041108 0.493830 0.8 0 0
0.460859 0.090141 0.367372 0.8 0 0
0.462989 0.072885 0.722887 0.8 0 0
0.114806 0.068152 0.556274 0.8 0 0
0.610538 0.108393 0.646122 0.8 0 0
0.635484 0.043521 0.551226 0.8 0 0
0.098584 0.069814 0.473437 0.8 0 0
0.527685 0.105845 0.438613 0.8 0 0
0.212355 0.057627 0.539769 0.8 0 0
0.510460 0.036538 0.710268 0.8 0 0
0.395905 0.124982 0.637403 0.8 0 0
0.533580 0.079618 0.549531 0.8 0 0
0.478989 0.036639 0.617911 0.8 0 0
0.611874 0.043521 0.436325 0.8 0 0
0.366446 0.043521 0.490460 0.8 0 0
0.382086 0.062586 0.831146 0.8 0 0
0.899339 0.069600 0.478307 0.8 0 0
0.084263 0.071385 0.496246 0.8 0 0
0.740801 0.052518 0.435857 0.8 0 0
0.521290 0.082457 0.731136 0.8 0 0
0.680434 0.046061 0.555995 0.8 0 0
0.538089 0.058340 0.236626 0.8 0 0
0.656612 0.037628 0.393351 0.8 0 0
0.607057 0.043521 0.476015 0.8 0 0
0.633839 0.062586 0.815883 0.8 0 0
0.650344 0.031003 0.815649 0.8 0 0
0.650344 0.153436 0.816691 0.8 0 0
0.969401 0.077231 0.491904 0.8 0 0
0.901914 0.069954 0.550564 0.8 0 0
0.498338 0.085197 0.082799 0.8 0 0
0.662522 0.044129 0.487234 0.8 0 0
0.520730 0.071182 0.828640 0.8 0 0
0.741669 0.052627 0.527049 0.8 0 0
0.524594 0.037181 0.527594 0.8 0 0
0.539559 0.056317 0.426170 0.8 0 0
0.434453 0.062586 0.867966 0.8 0 0
0.209356 0.057861 0.484293 0.8 0 0
0.485934 0.134327 0.244846 0.8 0 0
0.888712 0.068401 0.442506 0.8 0 0
0.163798 0.062778 0.438995 0.8 0 0
0.583163 0.144482 0.601072 0.8 0 0
0.569752 0.043521 0.559968 0.8 0 0
0.528238 0.035799 0.272621 0.8 0 0
0.479517 0.032221 0.308533 0.8 0 0
0.442821 0.043521 0.520374 0.8 0 0
0.509471 0.082789 0.771991 0.8 0 0
0.559548 0.138186 0.632382 0.8 0 0
0.432923 0.043521 0.485265 0.8 0 0
0.897696 0.069420 0.476035 0.8 0 0
0.516518 0.139330 0.209916 0.8 0 0
0.447041 0.043521 0.516410 0.8 0 0
0.524219 0.093490 0.150317 0.8 0 0
0.656881 0.028140 0.475855 0.8 0 0
0.430052 0.062586 0.867792 0.8 0 0
0.464188 0.103641 0.376609 0.8 0 0
0.616911 0.043521 0.504627 0.8 0 0
0.583029 0.043521 0.456074 0.8 0 0
0.502405 0.085034 0.754757 0.8 0 0
0.343119 0.030329 0.431124 0.8 0 0
0.478163 0.034642 0.558897 0.8 0 0
0.329341 0.044998 0.518677 0.8 0 0
0.425462 0.065673 0.673070 0.8 0 0
0.321906 0.045809 0.444574 0.8 0 0
0.473154 0.042339 0.172947 0.8 0 0
0.440544 0.143760 0.579707 0.8 0 0
0.632662 0.043521 0.407483 0.8 0 0
0.316955 0.046343 0.464362 0.8 0 0
0.616026 0.026684 0.511276 0.8 0 0
0.842897 0.063463 0.426388 0.8 0 0
0.650344 0.089374 0.890626 0.8 0 0
0.798626 0.058828 0.519036 0.8 0 0
0.650344 0.080336 0.844750 0.8 0 0
0.469284 0.043538 0.469020 0.8 0 0
0.168880 0.062317 0.546186 0.8 0 0
0.544219 0.043521 0.478778 0.8 0 0
0.474517 0.032846 0.253115 0.8 0 0
0.541745 0.043521 0.538472 0.8 0 0
0.528142 0.035175 0.277845 0.8 0 0
0.107425 0.068947 0.544222 0.8 0 0
0.551410 0.062586 0.873692 0.8 0 0
0.652956 0.043521 0.455825 0.8 0 0
0.358988 0.062586 0.820245 0.8 0 0
0.718316 0.050148 0.499186 0.8 0 0
0.068173 0.072997 0.443300 0.8 0 0
0.686587 0.046705 0.506176 0.8 0 0
0.511138 0.055628 0.897651 0.8 0 0
0.497378 0.034962 0.676315 0.8 0 0
0.599361 0.120825 0.703642 0.8 0 0
0.476606 0.062982 0.831380 0.8 0 0
0.926603 0.072617 0.546826 0.8 0 0
0.650344 0.153007 0.808371 0.8 0 0
0.539975 0.072218 0.352589 0.8 0 0
0.460221 0.076810 0.318542 0.8 0 0
0.525489 0.042115 0.148092 0.8 0 0
0.496052 0.033925 0.639830 0.8 0 0
0.601382 0.083196 0.627263 0.8 0 0
0.452154 0.108530 0.554655 0.8 0 0
0.474083 0.090692 0.143841 0.8 0 0
0.923522 0.072305 0.510804 0.8 0 0
0.349656 0.070183 0.894926 0.8 0 0
0.661171 0.043981 0.467383 0.8 0 0
0.602171 0.094022 0.715088 0.8 0 0
0.368491 0.062586 0.858395 0.8 0 0
0.554967 0.133070 0.660475 0.8 0 0
0.463930 0.071373 0.737721 0.8 0 0
0.527916 0.088986 0.585221 0.8 0 0
0.349656 0.061392 0.845086 0.8 0 0
0.473867 0.034495 0.451612 0.8 0 0
0.496491 0.047584 0.868770 0.8 0 0
0.343119 0.029578 0.541769 0.8 0 0
0.163794 0.062889 0.502512 0.8 0 0
0.507751 0.143993 0.189196 0.8 0 0
0.461213 0.094626 0.304988 0.8 0 0
0.478959 0.035697 0.598867 0.8 0 0
0.484744 0.140182 0.214779 0.8 0 0
0.461781 0.071803 0.442922 0.8 0 0
0.768214 0.055456 0.502662 0.8 0 0
0.494577 0.112940 0.133296 0.8 0 0
0.157049 0.063469 0.426780 0.8 0 0
0.515294 0.031937 0.175321 0.8 0 0
0.648328 0.043521 0.543614 0.8 0 0
0.501554 0.047374 0.867853 0.8 0 0
0.852973 0.064692 0.517859 0.8 0 0
0.604881 0.120159 0.662587 0.8 0 0
0.420990 0.062586 0.841455 0.8 0 0
0.460997 0.090780 0.308816 0.8 0 0
0.479744 0.062586 0.882490 0.8 0 0
0.486349 0.044546 0.825989 0.8 0 0
0.592849 0.129193 0.692418 0.8 0 0
0.460438 0.056393 0.426136 0.8 0 0
0.204549 0.058469 0.496236 0.8 0 0
0.498938 0.122018 0.343156 0.8 0 0
0.696637 0.047809 0.484435 0.8 0 0
0.503673 0.100024 0.585444 0.8 0 0
0.630118 0.043521 0.537801 0.8 0 0
0.459365 0.060433 0.316946 0.8 0 0
0.438588 0.043521 0.558680 0.8 0 0
0.414121 0.069088 0.684387 0.8 0 0
0.435558 0.139846 0.635652 0.8 0 0
0.582893 0.069490 0.693571 0.8 0 0
0.402685 0.074261 0.680986 0.8 0 0
0.703115 0.048509 0.560045 0.8 0 0
0.650344 0.087094 0.869874 0.8 0 0
0.451009 0.136885 0.604611 0.8 0 0
0.623336 0.035513 0.373746 0.8 0 0
0.438091 0.043521 0.498470 0.8 0 0
0.385309 0.043521 0.458683 0.8 0 0
0.465911 0.060489 0.564154 0.8 0 0
0.513211 0.105329 0.127394 0.8 0 0
0.650344 0.133702 0.802617 0.8 0 0
0.943614 0.074300 0.457543 0.8 0 0
0.438297 0.125889 0.712064 0.8 0 0
0.427657 0.144770 0.621665 0.8 0 0
0.343119 0.039937 0.419477 0.8 0 0
0.655475 0.030922 0.384634 0.8 0 0
0.632511 0.034261 0.370358 0.8 0 0
0.484271 0.054271 0.855496 0.8 0 0
0.591050 0.062586 0.850533 0.8 0 0
0.933401 0.073166 0.443295 0.8 0 0
0.145968 0.064789 0.516561 0.8 0 0
0.162805 0.062852 0.459832 0.8 0 0
0.650344 0.054538 0.848535 0.8 0 0
0.292524 0.048958 0.409906 0.8 0 0
0.534084 0.062934 0.551973 0.8 0 0
0.650344 0.090997 0.853689 0.8 0 0
0.650344 0.066119 0.890258 0.8 0 0
0.474812 0.036971 0.511641 0.8 0 0
0.349656 0.167725 0.820197 0.8 0 0
0.847935 0.064131 0.549596 0.8 0 0
0.517945 0.066044 0.875512 0.8 0 0
0.646774 0.042750 0.393327 0.8 0 0
0.496346 0.124253 0.296741 0.8 0 0
0.500500 0.096115 0.633467 0.8 0 0
0.446405 0.114579 0.721588 0.8 0 0
0.598222 0.062586 0.799059 0.8 0 0
0.396948 0.062586 0.800298 0.8 0 0
0.859206 0.065347 0.542006 0.8 0 0
0.349656 0.120520 0.801348 0.8 0 0
0.467457 0.063285 0.681405 0.8 0 0
0.519323 0.034995 0.637741 0.8 0 0
0.896728 0.069406 0.533748 0.8 0 0
0.457542 0.083195 0.616607 0.8 0 0
0.223044 0.056394 0.478861 0.8 0 0
0.635233 0.043521 0.453570 0.8 0 0
0.469533 0.062586 0.881113 0.8 0 0
0.250826 0.053415 0.416934 0.8 0 0
0.561405 0.062586 0.871649 0.8 0 0
0.871308 0.066509 0.438256 0.8 0 0
0.349656 0.109486 0.854518 0.8 0 0
0.550225 0.043521 0.422521 0.8 0 0
0.849566 0.064307 0.554168 0.8 0 0
0.571791 0.066870 0.691408 0.8 0 0
0.471476 0.054973 0.096882 0.8 0 0
0.918603 0.071754 0.539904 0.8 0 0
0.812344 0.060227 0.439263 0.8 0 0
0.463638 0.060776 0.499169 0.8 0 0
0.422032 0.043521 0.398257 0.8 0 0
0.830234 0.062106 0.487753 0.8 0 0
0.460767 0.111427 0.629807 0.8 0 0
0.554735 0.124648 0.705293 0.8 0 0
0.533752 0.081977 0.175234 0.8 0 0
0.601063 0.085630 0.598745 0.8 0 0
0.753374 0.053930 0.501058 0.8 0 0
0.468327 0.071080 0.710561 0.8 0 0
0.656881 0.030571 0.456273 0.8 0 0
0.520506 0.032238 0.223941 0.8 0 0
0.474294 0.038703 0.191958 0.8 0 0
0.528351 0.077159 0.708700 0.8 0 0
0.538414 0.079631 0.265573 0.8 0 0
0.650344 0.137543 0.822629 0.8 0 0
0.588028 0.062586 0.871120 0.8 0 0
0.364894 0.043521 0.541981 0.8 0 0
0.655160 0.029081 0.382223 0.8 0 0
0.343119 0.037378 0.552301 0.8 0 0
0.348175 0.026238 0.356653 0.8 0 0
0.650344 0.118946 0.865448 0.8 0 0
0.411679 0.072886 0.698335 0.8 0 0
0.266844 0.051698 0.494237 0.8 0 0
0.507604 0.119432 0.372582 0.8 0 0
0.189317 0.060112 0.529509 0.8 0 0
0.546410 0.085391 0.693645 0.8 0 0
0.527485 0.062586 0.847573 0.8 0 0
0.483260 0.031996 0.251958 0.8 0 0
0.512664 0.074076 0.869949 0.8 0 0
0.526863 0.033707 0.269786 0.8 0 0
0.605511 0.043521 0.465544 0.8 0 0
0.650344 0.109401 0.835927 0.8 0 0
0.620561 0.043521 0.455169 0.8 0 0
0.514453 0.098793 0.582409 0.8 0 0
0.663878 0.044271 0.483477 0.8 0 0
0.097455 0.070022 0.537919 0.8 0 0
0.149800 0.064400 0.499875 0.8 0 0
0.383974 0.025679 0.409265 0.8 0 0
0.656881 0.031522 0.422398 0.8 0 0
0.349656 0.119464 0.838658 0.8 0 0
0.534636 0.101405 0.415546 0.8 0 0
0.533577 0.043532 0.306158 0.8 0 0
0.551167 0.043521 0.470141 0.8 0 0
0.650682 0.043521 0.502434 0.8 0 0
0.600803 0.043521 0.503459 0.8 0 0
0.488151 0.031703 0.308415 0.8 0 0
0.540895 0.094294 0.677273 0.8 0 0
0.421617 0.073418 0.717551 0.8 0 0
0.574518 0.076618 0.575121 0.8 0 0
0.475018 0.043247 0.622649 0.8 0 0
0.456080 0.043521 0.435932 0.8 0 0
0.625734 0.043521 0.528791 0.8 0 0
0.474857 0.093589 0.566771 0.8 0 0
0.564192 0.143112 0.562633 0.8 0 0
0.554348 0.080605 0.714188 0.8 0 0
0.349098 0.043521 0.552460 0.8 0 0
0.343119 0.033264 0.517969 0.8 0 0
0.433070 0.043521 0.461719 0.8 0 0
0.906468 0.070322 0.454818 0.8 0 0
0.045242 0.075600 0.448615 0.8 0 0
0.961489 0.076336 0.528649 0.8 0 0
0.476434 0.120573 0.285263 0.8 0 0
0.462959 0.060238 0.483350 0.8 0 0
0.244412 0.054169 0.463185 0.8 0 0
0.377277 0.042030 0.391378 0.8 0 0
0.464083 0.088669 0.480420 0.8 0 0
0.454417 0.080954 0.638344 0.8 0 0
0.653778 0.043521 0.498197 0.8 0 0
0.907710 0.070579 0.527939 0.8 0 0
0.349656 0.158628 0.853734 0.8 0 0
0.215911 0.057226 0.452088 0.8 0 0
0.650344 0.108564 0.801024 0.8 0 0
0.455083 0.043521 0.495138 0.8 0 0
0.528033 0.115201 0.313850 0.8 0 0
0.436421 0.086661 0.733687 0.8 0 0
0.559577 0.062586 0.862790 0.8 0 0
0.918126 0.071707 0.467476 0.8 0 0
0.178903 0.061235 0.502072 0.8 0 0
0.064720 0.073486 0.502277 0.8 0 0
0.460870 0.071243 0.271048 0.8 0 0
0.349656 0.094823 0.809300 0.8 0 0
0.693987 0.047523 0.421835 0.8 0 0
0.275415 0.050779 0.418230 0.8 0 0
0.662609 0.044139 0.518650 0.8 0 0
0.522613 0.112870 0.240673 0.8 0 0
0.080552 0.071846 0.545100 0.8 0 0
0.445686 0.043521 0.444205 0.8 0 0
0.631709 0.032435 0.365416 0.8 0 0
0.582730 0.062586 0.808376 0.8 0 0
0.350413 0.043521 0.461288 0.8 0 0
0.551279 0.139490 0.590153 0.8 0 0
0.161582 0.062983 0.468348 0.8 0 0
0.570841 0.062586 0.819538 0.8 0 0
0.184812 0.060598 0.504615 0.8 0 0
0.250873 0.053479 0.543613 0.8 0 0
0.494389 0.146983 0.208672 0.8 0 0
0.270179 0.051389 0.435613 0.8 0 0
0.532721 0.091274 0.517113 0.8 0 0
0.927489 0.072637 0.493082 0.8 0 0
0.389578 0.114710 0.591606 0.8 0 0
0.369704 0.025600 0.346921 0.8 0 0
0.568215 0.043521 0.491269 0.8 0 0
0.031575 0.077112 0.548408 0.8 0 0
0.551244 0.084763 0.709509 0.8 0 0
0.496359 0.031210 0.312957 0.8 0 0
0.738115 0.052262 0.530082 0.8 0 0
0.349656 0.055481 0.790558 0.8 0 0
0.534708 0.072761 0.184301 0.8 0 0
0.389229 0.112928 0.600103 0.8 0 0
0.484296 0.094692 0.626349 0.8 0 0
0.366542 0.062586 0.879764 0.8 0 0
0.073384 0.072653 0.473462 0.8 0 0
0.408961 0.133577 0.667967 0.8 0 0
0.504602 0.032162 0.579920 0.8 0 0
0.460399 0.043521 0.473751 0.8 0 0
0.498016 0.124454 0.297405 0.8 0 0
0.349656 0.169556 0.843541 0.8 0 0
0.650344 0.071705 0.829177 0.8 0 0
0.727277 0.051115 0.534431 0.8 0 0
0.475730 0.066608 0.822531 0.8 0 0
0.650344 0.106116 0.874726 0.8 0 0
0.559594 0.043521 0.468642 0.8 0 0
0.180651 0.061037 0.474433 0.8 0 0
0.515583 0.057456 0.872410 0.8 0 0
0.467667 0.042297 0.413195 0.8 0 0
0.530952 0.100134 0.458157 0.8 0 0
0.793587 0.058268 0.509856 0.8 0 0
0.216879 0.057093 0.434870 0.8 0 0
0.254435 0.053045 0.417160 0.8 0 0
0.490630 0.031886 0.095331 0.8 0 0
0.476686 0.032391 0.344660 0.8 0 0
0.601196 0.086897 0.590300 0.8 0 0
0.411572 0.141724 0.559740 0.8 0 0
0.462280 0.089281 0.262623 0.8 0 0
0.498879 0.121604 0.350389 0.8 0 0
0.188743 0.060071 0.425393 0.8 0 0
0.579668 0.111345 0.554806 0.8 0 0
0.707776 0.048977 0.512080 0.8 0 0
0.689862 0.047080 0.557305 0.8 0 0
0.481576 0.054958 0.836175 0.8 0 0
0.656881 0.025079 0.426469 0.8 0 0
0.248830 0.053670 0.432098 0.8 0 0
0.459580 0.062586 0.803987 0.8 0 0
0.506121 0.034229 0.643800 0.8 0 0
0.253954 0.053100 0.419357 0.8 0 0
0.650344 0.107353 0.799140 0.8 0 0
0.308979 0.047181 0.512845 0.8 0 0
0.178116 0.061341 0.503807 0.8 0 0
0.462598 0.096153 0.432604 0.8 0 0
0.648001 0.062586 0.817369 0.8 0 0
0.551309 0.043521 0.519014 0.8 0 0
0.219471 0.056859 0.507235 0.8 0 0
0.574702 0.043521 0.435851 0.8 0 0
0.349656 0.055732 0.831129 0.8 0 0
0.463671 0.051251 0.255475 0.8 0 0
0.354195 0.062586 0.868979 0.8 0 0
0.529724 0.058353 0.745195 0.8 0 0
0.430682 0.068526 0.693790 0.8 0 0
0.538881 0.082815 0.613825 0.8 0 0
0.458771 0.043521 0.519143 0.8 0 0
0.482076 0.088628 0.692630 0.8 0 0
0.869357 0.066300 0.432667 0.8 0 0
0.407996 0.083777 0.576162 0.8 0 0
0.481968 0.118373 0.364921 0.8 0 0
0.619104 0.062586 0.859658 0.8 0 0
0.518336 0.036822 0.703098 0.8 0 0
0.586273 0.102458 0.733741 0.8 0 0
0.047581 0.075361 0.450796 0.8 0 0
0.490575 0.130132 0.268900 0.8 0 0
0.485738 0.083735 0.753425 0.8 0 0
0.185424 0.060427 0.434742 0.8 0 0
0.524450 0.086912 0.117290 0.8 0 0
0.930429 0.072965 0.456413 0.8 0 0
0.411669 0.062586 0.807107 0.8 0 0
0.650344 0.111231 0.853783 0.8 0 0
0.523720 0.041141 0.125199 0.8 0 0
0.514768 0.043916 0.066526 0.8 0 0
0.649139 0.043521 0.480075 0.8 0 0
0.336581 0.044222 0.491617 0.8 0 0
0.461041 0.114359 0.597167 0.8 0 0
0.599727 0.137676 0.570267 0.8 0 0
0.739731 0.052403 0.426947 0.8 0 0
0.441039 0.130966 0.689468 0.8 0 0
0.204561 0.058476 0.541126 0.8 0 0
0.540233 0.080547 0.644414 0.8 0 0
0.793257 0.058232 0.477218 0.8 0 0
0.537778 0.075252 0.446192 0.8 0 0
0.461990 0.051158 0.360819 0.8 0 0
0.488608 0.100870 0.563338 0.8 0 0
0.392776 0.123220 0.584968 0.8 0 0
0.072518 0.072604 0.474719 0.8 0 0
0.929435 0.072782 0.449641 0.8 0 0
0.397748 0.043521 0.511555 0.8 0 0
0.326535 0.045299 0.549509 0.8 0 0
0.635588 0.043521 0.520671 0.8 0 0
0.515350 0.080471 0.795152 0.8 0 0
0.366676 0.028612 0.355073 0.8 0 0
0.083782 0.071413 0.482372 0.8 0 0
0.521879 0.042538 0.697595 0.8 0 0
0.534915 0.045834 0.292626 0.8 0 0
0.349656 0.100033 0.845156 0.8 0 0
0.093929 0.070376 0.510146 0.8 0 0
0.508930 0.115230 0.422675 0.8 0 0
0.349656 0.042383 0.859091 0.8 0 0
0.403603 0.077963 0.644559 0.8 0 0
0.707433 0.048974 0.433837 0.8 0 0
0.813642 0.060379 0.447235 0.8 0 0
0.557129 0.043521 0.499777 0.8 0 0
0.378937 0.062586 0.879792 0.8 0 0
0.708540 0.049093 0.528734 0.8 0 0
0.539619 0.056107 0.264505 0.8 0 0
0.517635 0.037348 0.722375 0.8 0 0
0.512817 0.122341 0.280753 0.8 0 0
0.521509 0.107671 0.208372 0.8 0 0
0.492212 0.031459 0.210398 0.8 0 0
0.467171 0.082380 0.574112 0.8 0 0
0.534013 0.080491 0.537208 0.8 0 0
0.411410 0.075315 0.707970 0.8 0 0
0.380844 0.043521 0.457204 0.8 0 0
0.520716 0.071113 0.829251 0.8 0 0
0.447260 0.043521 0.533047 0.8 0 0
0.515975 0.069544 0.876663 0.8 0 0
0.961942 0.076460 0.483291 0.8 0 0
0.737860 0.052202 0.474856 0.8 0 0
0.505179 0.148045 0.198985 0.8 0 0
0.415543 0.077819 0.601049 0.8 0 0
0.491696 0.039153 0.776908 0.8 0 0
0.185856 0.060381 0.425175 0.8 0 0
0.527409 0.062586 0.865843 0.8 0 0
0.650344 0.047191 0.786662 0.8 0 0
0.580865 0.062586 0.870199 0.8 0 0
0.525272 0.050194 0.733438 0.8 0 0
0.166560 0.062567 0.546015 0.8 0 0
0.087586 0.071051 0.508225 0.8 0 0
0.408247 0.139198 0.615849 0.8 0 0
0.436345 0.043521 0.483025 0.8 0 0
0.413151 0.075267 0.710751 0.8 0 0
0.349656 0.064967 0.859391 0.8 0 0
0.343110 0.043522 0.541684 0.8 0 0
0.361993 0.031891 0.363943 0.8 0 0
0.481315 0.038406 0.722929 0.8 0 0
0.479311 0.071057 0.830732 0.8 0 0
0.497669 0.115663 0.427601 0.8 0 0
0.533363 0.080812 0.559729 0.8 0 0
0.034359 0.076830 0.557474 0.8 0 0
0.580593 0.143069 0.622975 0.8 0 0
0.319547 0.046064 0.475308 0.8 0 0
0.219287 0.056879 0.476934 0.8 0 0
0.507058 0.031649 0.558692 0.8 0 0
0.230190 0.055703 0.517571 0.8 0 0
0.658644 0.043710 0.397873 0.8 0 0
0.770964 0.055775 0.424901 0.8 0 0
0.650344 0.133338 0.827068 0.8 0 0
0.756704 0.054289 0.546352 0.8 0 0
0.117008 0.067913 0.543426 0.8 0 0
0.473156 0.042592 0.548962 0.8 0 0
0.486610 0.103885 0.125907 0.8 0 0
0.417748 0.140504 0.639502 0.8 0 0
0.547995 0.095071 0.567420 0.8 0 0
0.440757 0.043521 0.466588 0.8 0 0
0.140132 0.065283 0.444357 0.8 0 0
0.650344 0.149848 0.812067 0.8 0 0
0.645592 0.043521 0.457668 0.8 0 0
0.423963 0.062586 0.852479 0.8 0 0
0.418609 0.043521 0.559853 0.8 0 0
0.286828 0.049556 0.424097 0.8 0 0
0.068279 0.073187 0.517307 0.8 0 0
0.228442 0.055892 0.504585 0.8 0 0
0.285480 0.049739 0.547432 0.8 0 0
0.505470 0.089324 0.702803 0.8 0 0
0.514225 0.138748 0.183671 0.8 0 0
0.162392 0.062922 0.435127 0.8 0 0
0.290149 0.049235 0.437000 0.8 0 0
0.249012 0.053656 0.435156 0.8 0 0
0.458721 0.085280 0.588616 0.8 0 0
0.650344 0.100988 0.876637 0.8 0 0
0.759762 0.054619 0.486661 0.8 0 0
0.544250 0.121037 0.652945 0.8 0 0
0.513530 0.031829 0.182563 0.8 0 0
0.520320 0.094104 0.133114 0.8 0 0
0.349656 0.108306 0.854034 0.8 0 0
0.812742 0.060334 0.532408 0.8 0 0
0.528263 0.041639 0.500557 0.8 0 0
0.349656 0.058333 0.878071 0.8 0 0
0.548487 0.128022 0.680904 0.8 0 0
0.474829 0.032502 0.286986 0.8 0 0
0.411378 0.142553 0.566740 0.8 0 0
0.504573 0.031489 0.558058 0.8 0 0
0.629437 0.031632 0.363243 0.8 0 0
0.461818 0.112201 0.599860 0.8 0 0
0.475946 0.034303 0.501237 0.8 0 0
0.892245 0.068911 0.542924 0.8 0 0
0.472959 0.034207 0.424307 0.8 0 0
0.461607 0.071299 0.439101 0.8 0 0
0.467686 0.078039 0.658689 0.8 0 0
0.463887 0.062586 0.807997 0.8 0 0
0.431541 0.089156 0.552276 0.8 0 0
0.419111 0.138032 0.666199 0.8 0 0
0.942551 0.074322 0.535781 0.8 0 0
0.405279 0.062586 0.819409 0.8 0 0
0.459007 0.043521 0.439073 0.8 0 0
0.696813 0.047802 0.527647 0.8 0 0
0.409013 0.062586 0.835212 0.8 0 0
0.544089 0.043521 0.411462 0.8 0 0
0.579076 0.136114 0.688065 0.8 0 0
0.487420 0.075652 0.859473 0.8 0 0
0.941492 0.074210 0.536447 0.8 0 0
0.399004 0.062586 0.844033 0.8 0 0
0.945171 0.074622 0.557770 0.8 0 0
0.558299 0.075513 0.645933 0.8 0 0
0.462820 0.050237 0.283124 0.8 0 0
0.147017 0.064676 0.561553 0.8 0 0
0.582702 0.106045 0.733854 0.8 0 0
0.535069 0.049293 0.442611 0.8 0 0
0.391175 0.110038 0.669084 0.8 0 0
0.032910 0.077013 0.489575 0.8 0 0
0.549999 0.062586 0.850374 0.8 0 0
0.477495 0.106374 0.479448 0.8 0 0
0.464220 0.073281 0.207602 0.8 0 0
0.349656 0.060177 0.889042 0.8 0 0
0.521131 0.128483 0.225419 0.8 0 0
0.354036 0.043521 0.397007 0.8 0 0
0.965755 0.076807 0.472566 0.8 0 0
0.372917 0.062586 0.858618 0.8 0 0
0.349656 0.062625 0.856377 0.8 0 0
0.400988 0.094987 0.556706 0.8 0 0
0.510979 0.081626 0.786028 0.8 0 0
0.533127 0.070198 0.609014 0.8 0 0
0.466611 0.063192 0.150018 0.8 0 0
0.349656 0.167019 0.873393 0.8 0 0
0.349656 0.074572 0.847550 0.8 0 0
0.834805 0.062675 0.465681 0.8 0 0
0.929449 0.072947 0.465205 0.8 0 0
0.467410 0.075270 0.146098 0.8 0 0
0.563341 0.062586 0.889286 0.8 0 0
0.552419 0.062586 0.842146 0.8 0 0
0.583144 0.062586 0.850555 0.8 0 0
0.753617 0.053956 0.553003 0.8 0 0
0.320032 0.046011 0.504815 0.8 0 0
0.158618 0.063424 0.545949 0.8 0 0
0.349656 0.092040 0.859331 0.8 0 0
0.515386 0.116482 0.146275 0.8 0 0
0.401820 0.043521 0.524266 0.8 0 0
0.576319 0.043521 0.441012 0.8 0 0
0.650344 0.172233 0.831031 0.8 0 0
0.466632 0.044212 0.277345 0.8 0 0
0.536676 0.099689 0.252664 0.8 0 0
0.612130 0.043521 0.422962 0.8 0 0
0.468566 0.050413 0.545036 0.8 0 0
0.090382 0.070795 0.535830 0.8 0 0
0.891307 0.068750 0.483280 0.8 0 0
0.516289 0.068764 0.879946 0.8 0 0
0.201145 0.058742 0.419780 0.8 0 0
0.537859 0.060433 0.234074 0.8 0 0
0.650344 0.078662 0.833025 0.8 0 0
0.652374 0.029963 0.360862 0.8 0 0
0.629140 0.043521 0.432734 0.8 0 0
0.425703 0.064689 0.682782 0.8 0 0
0.538969 0.066346 0.262235 0.8 0 0
0.538160 0.043521 0.527627 0.8 0 0
0.121647 0.067345 0.472426 0.8 0 0
0.571940 0.062586 0.864638 0.8 0 0
0.393974 0.093701 0.631947 0.8 0 0
0.650344 0.128396 0.879440 0.8 0 0
0.420652 0.086528 0.552011 0.8 0 0
0.310693 0.047019 0.457851 0.8 0 0
0.628463 0.062586 0.837270 0.8 0 0
0.397475 0.127002 0.652816 0.8 0 0
0.455661 0.097283 0.576504 0.8 0 0
0.599071 0.043521 0.547430 0.8 0 0
0.426305 0.138263 0.683751 0.8 0 0
0.091988 0.070617 0.548757 0.8 0 0
0.770290 0.055768 0.527837 0.8 0 0
0.080541 0.071878 0.483131 0.8 0 0
0.527450 0.064488 0.797001 0.8 0 0
0.102645 0.069488 0.495223 0.8 0 0
0.530917 0.062586 0.792427 0.8 0 0
0.655230 0.043521 0.459306 0.8 0 0
0.557618 0.043521 0.436061 0.8 0 0
0.475080 0.037609 0.526809 0.8 0 0
0.704008 0.048573 0.434914 0.8 0 0
0.650344 0.041993 0.812429 0.8 0 0
0.467126 0.043521 0.490714 0.8 0 0
0.536713 0.072432 0.223894 0.8 0 0
0.195297 0.059467 0.543632 0.8 0 0
0.515175 0.031916 0.233197 0.8 0 0
0.165719 0.062540 0.458835 0.8 0 0
0.463621 0.062586 0.797233 0.8 0 0
0.508440 0.108842 0.487013 0.8 0 0
0.332552 0.044656 0.398561 0.8 0 0
0.433625 0.070492 0.660375 0.8 0 0
0.383974 0.040442 0.559319 0.8 0 0
0.485205 0.099092 0.577917 0.8 0 0
0.483217 0.083851 0.748712 0.8 0 0
0.415693 0.043521 0.491844 0.8 0 0
0.140069 0.065289 0.435878 0.8 0 0
0.343119 0.036212 0.558985 0.8 0 0
0.478320 0.035472 0.572419 0.8 0 0
0.675336 0.045499 0.508911 0.8 0 0
0.403425 0.043521 0.555741 0.8 0 0
0.371548 0.062586 0.883490 0.8 0 0
0.523309 0.062586 0.852072 0.8 0 0
0.751845 0.053702 0.480304 0.8 0 0
0.538327 0.103654 0.323554 0.8 0 0
0.593912 0.125360 0.705515 0.8 0 0
0.467743 0.079856 0.628897 0.8 0 0
0.349656 0.076229 0.890299 0.8 0 0
0.651754 0.043521 0.538237 0.8 0 0
0.466853 0.042586 0.368131 0.8 0 0
0.528310 0.049533 0.624543 0.8 0 0
0.361925 0.062586 0.834263 0.8 0 0
0.538991 0.052977 0.398448 0.8 0 0
0.384923 0.043521 0.439944 0.8 0 0
0.436183 0.043521 0.528891 0.8 0 0
0.641836 0.041252 0.389274 0.8 0 0
0.411511 0.043521 0.490939 0.8 0 0
0.167783 0.062436 0.560789 0.8 0 0
0.321840 0.045802 0.406526 0.8 0 0
0.486569 0.097408 0.598841 0.8 0 0
0.598605 0.083776 0.600952 0.8 0 0
0.534273 0.044731 0.317097 0.8 0 0
0.537963 0.084074 0.431168 0.8 0 0
0.416649 0.043521 0.499906 0.8 0 0
0.432594 0.137097 0.670794 0.8 0 0
0.673357 0.045287 0.450039 0.8 0 0
0.591950 0.043521 0.548617 0.8 0 0
0.664337 0.044325 0.558771 0.8 0 0
0.638758 0.043521 0.537035 0.8 0 0
0.650344 0.109433 0.870941 0.8 0 0
0.083632 0.071428 0.482139 0.8 0 0
0.825481 0.061713 0.550915 0.8 0 0
0.277722 0.050575 0.451040 0.8 0 0
0.520809 0.032253 0.238352 0.8 0 0
0.539032 0.059167 0.435401 0.8 0 0
0.466759 0.080336 0.560230 0.8 0 0
0.469505 0.043521 0.509812 0.8 0 0
0.461909 0.080917 0.635434 0.8 0 0
0.619243 0.062586 0.887301 0.8 0 0
0.265153 0.051879 0.490653 0.8 0 0
0.592228 0.116733 0.734162 0.8 0 0
0.415006 0.043521 0.500907 0.8 0 0
0.432834 0.062586 0.846358 0.8 0 0
0.263246 0.052084 0.522009 0.8 0 0
0.525985 0.102027 0.485505 0.8 0 0
0.453398 0.043521 0.469260 0.8 0 0
0.288087 0.049421 0.463816 0.8 0 0
0.529557 0.036618 0.360112 0.8 0 0
0.516561 0.056524 0.859783 0.8 0 0
0.814334 0.060506 0.547345 0.8 0 0
0.711724 0.049400 0.451519 0.8 0 0
0.051667 0.074998 0.468791 0.8 0 0
0.278421 0.050500 0.557220 0.8 0 0
0.715375 0.049831 0.546652 0.8 0 0
0.480165 0.032600 0.564936 0.8 0 0
0.650344 0.064190 0.876978 0.8 0 0
0.513480 0.031801 0.343082 0.8 0 0
0.463340 0.075724 0.477973 0.8 0 0
0.505813 0.144953 0.190291 0.8 0 0
0.532415 0.079658 0.639064 0.8 0 0
0.045959 0.075617 0.461982 0.8 0 0
0.457214 0.043521 0.401762 0.8 0 0
0.323789 0.045606 0.447277 0.8 0 0
0.519443 0.082148 0.755381 0.8 0 0
0.349656 0.158962 0.819577 0.8 0 0
0.891866 0.068747 0.447520 0.8 0 0
0.343119 0.027721 0.413322 0.8 0 0
0.349656 0.128261 0.828639 0.8 0 0
0.496653 0.141424 0.238089 0.8 0 0
0.527974 0.033896 0.297140 0.8 0 0
0.210734 0.057802 0.531696 0.8 0 0
0.441218 0.043521 0.552059 0.8 0 0
0.349656 0.166586 0.813545 0.8 0 0
0.837712 0.063028 0.490505 0.8 0 0
0.332110 0.044708 0.550235 0.8 0 0
0.124506 0.067123 0.513144 0.8 0 0
0.483712 0.069895 0.872399 0.8 0 0
0.482415 0.111067 0.149931 0.8 0 0
0.744715 0.052963 0.422264 0.8 0 0
0.242937 0.054328 0.526560 0.8 0 0
0.650344 0.071530 0.817392 0.8 0 0
0.735763 0.052030 0.519132 0.8 0 0
0.533375 0.071902 0.736067 0.8 0 0
0.546829 0.082940 0.651189 0.8 0 0
0.890374 0.068648 0.482320 0.8 0 0
0.485956 0.031809 0.422023 0.8 0 0
0.526190 0.090948 0.583555 0.8 0 0
0.054292 0.074624 0.514759 0.8 0 0
0.615796 0.043521 0.484882 0.8 0 0
0.449755 0.043521 0.435903 0.8 0 0
0.435216 0.069331 0.689626 0.8 0 0
0.349656 0.136540 0.833378 0.8 0 0
0.469710 0.081631 0.638018 0.8 0 0
0.841755 0.063341 0.448118 0.8 0 0
0.498215 0.032764 0.606400 0.8 0 0
0.504985 0.116642 0.414210 0.8 0 0
0.606439 0.125000 0.585941 0.8 0 0
0.689123 0.046977 0.418390 0.8 0 0
0.533656 0.045149 0.272027 0.8 0 0
0.349656 0.108597 0.882944 0.8 0 0
0.521490 0.091577 0.630061 0.8 0 0
0.045043 0.075537 0.440504 0.8 0 0
0.374387 0.043521 0.530634 0.8 0 0
0.460639 0.085655 0.354263 0.8 0 0
0.461785 0.063537 0.244925 0.8 0 0
0.078373 0.071965 0.454819 0.8 0 0
0.422057 0.062586 0.865234 0.8 0 0
0.288024 0.049427 0.467450 0.8 0 0
0.538339 0.043521 0.541416 0.8 0 0
0.463710 0.052549 0.239760 0.8 0 0
0.564648 0.062586 0.861579 0.8 0 0
0.509610 0.031590 0.201193 0.8 0 0
0.618391 0.028754 0.377280 0.8 0 0
0.650344 0.073649 0.829811 0.8 0 0
0.890028 0.068696 0.500317 0.8 0 0
0.533193 0.076162 0.575920 0.8 0 0
0.623937 0.043521 0.470452 0.8 0 0
0.364459 0.029230 0.356743 0.8 0 0
0.490674 0.031545 0.402202 0.8 0 0
0.530214 0.062586 0.833226 0.8 0 0
0.501975 0.101578 0.570403 0.8 0 0
0.650344 0.112170 0.830027 0.8 0 0
0.474569 0.032514 0.399430 0.8 0 0
0.288091 0.049457 0.535434 0.8 0 0
0.581948 0.139246 0.651499 0.8 0 0
0.574601 0.072419 0.612411 0.8 0 0
0.594233 0.043521 0.420343 0.8 0 0
0.311353 0.046926 0.486698 0.8 0 0
0.300741 0.048064 0.432694 0.8 0 0
0.460693 0.072846 0.719763 0.8 0 0
0.343119 0.031685 0.460243 0.8 0 0
0.535805 0.043521 0.520020 0.8 0 0
0.671910 0.045142 0.410616 0.8 0 0
0.533224 0.074526 0.703614 0.8 0 0
0.275801 0.050738 0.492539 0.8 0 0
0.496410 0.031207 0.282746 0.8 0 0
0.457674 0.080988 0.642972 0.8 0 0
0.601664 0.102506 0.726619 0.8 0 0
0.433025 0.062586 0.819621 0.8 0 0
0.349656 0.039456 0.850307 0.8 0 0
0.573081 0.062586 0.830244 0.8 0 0
0.317032 0.046335 0.542099 0.8 0 0
0.385929 0.062586 0.795969 0.8 0 0
0.966515 0.076964 0.458258 0.8 0 0
0.335808 0.044309 0.551276 0.8 0 0
0.492906 0.031418 0.307477 0.8 0 0
0.616026 0.034343 0.556245 0.8 0 0
0.524783 0.062586 0.888399 0.8 0 0
0.631663 0.043521 0.398846 0.8 0 0
0.549156 0.101501 0.555856 0.8 0 0
0.566584 0.043521 0.409345 0.8 0 0
0.539651 0.073450 0.403404 0.8 0 0
0.525380 0.062586 0.853660 0.8 0 0
0.393835 0.062586 0.818577 0.8 0 0
0.136975 0.065655 0.443202 0.8 0 0
0.383974 0.036947 0.445356 0.8 0 0
0.423029 0.043521 0.492772 0.8 0 0
0.350196 0.062586 0.834098 0.8 0 0
0.633124 0.034819 0.371867 0.8 0 0
0.344943 0.026028 0.381428 0.8 0 0
