0.548849 0.406681 0.042018 0.8 0 0
0.322194 0.561311 0.069502 0.8 0 0
0.614976 0.366277 0.127928 0.8 0 0
0.542668 0.623802 0.118555 0.8 0 0
0.825540 0.345234 0.045697 0.8 0 0
0.712338 0.321723 0.026064 0.8 0 0
0.736552 0.353832 0.197104 0.8 0 0
0.376200 0.688290 0.148966 0.8 0 0
0.734952 0.326040 0.122612 0.8 0 0
0.676974 0.306469 0.035419 0.8 0 0
0.328168 0.581809 0.151895 0.8 0 0
0.331237 0.618427 0.093044 0.8 0 0
0.829693 0.587488 0.057749 0.8 0 0
0.363969 0.316338 0.112849 0.8 0 0
0.682964 0.546090 0.102370 0.8 0 0
0.395527 0.100876 0.078790 0.8 0 0
0.719980 0.279863 0.100148 0.8 0 0
0.245306 0.643780 0.137526 0.8 0 0
0.609445 0.266692 0.094829 0.8 0 0
0.396819 0.088717 0.075699 0.8 0 0
0.611877 0.396071 0.035778 0.8 0 0
0.296829 0.657923 0.125452 0.8 0 0
0.472450 0.372240 0.120169 0.8 0 0
0.836490 0.291859 0.040700 0.8 0 0
0.446325 0.650023 0.144284 0.8 0 0
0.493573 0.557887 0.138480 0.8 0 0
0.681111 0.293836 0.118628 0.8 0 0
0.614889 0.266591 0.075351 0.8 0 0
0.217646 0.738578 0.099366 0.8 0 0
0.520827 0.275661 0.104413 0.8 0 0
0.810602 0.290224 0.041819 0.8 0 0
0.474471 0.408115 0.134804 0.8 0 0
0.808672 0.292724 0.042263 0.8 0 0
0.478530 0.423813 0.043188 0.8 0 0
0.756606 0.635373 0.074187 0.8 0 0
0.511108 0.369190 0.125076 0.8 0 0
0.743428 0.566293 0.078611 0.8 0 0
0.644879 0.334157 0.038614 0.8 0 0
0.706957 0.352837 0.126288 0.8 0 0
0.515318 0.428068 0.044105 0.8 0 0
0.459341 0.421290 0.063585 0.8 0 0
0.428621 0.659835 0.068789 0.8 0 0
0.488288 0.468004 0.047672 0.8 0 0
0.727422 0.302540 0.026873 0.8 0 0
0.313349 0.622522 0.066177 0.8 0 0
0.447359 0.233955 0.103148 0.8 0 0
0.267017 0.618884 0.098564 0.8 0 0
0.534383 0.344182 0.078352 0.8 0 0
0.711449 0.357172 0.149675 0.8 0 0
0.736574 0.473453 0.085070 0.8 0 0
0.693304 0.550362 0.099514 0.8 0 0
0.494663 0.601857 0.136232 0.8 0 0
0.569960 0.337534 0.136918 0.8 0 0
0.623132 0.235343 0.066758 0.8 0 0
0.361478 0.174206 0.095163 0.8 0 0
0.741550 0.249390 0.109272 0.8 0 0
0.348171 0.338502 0.113767 0.8 0 0
0.740717 0.459947 0.081690 0.8 0 0
0.288097 0.621059 0.070233 0.8 0 0
0.721175 0.360421 0.154487 0.8 0 0
0.452197 0.168439 0.086415 0.8 0 0
0.457382 0.450530 0.138090 0.8 0 0
0.453453 0.432630 0.057112 0.8 0 0
0.207840 0.805772 0.095366 0.8 0 0
0.206840 0.821399 0.153022 0.8 0 0
0.359575 0.188219 0.092079 0.8 0 0
0.708047 0.256754 0.034788 0.8 0 0
0.438533 0.532239 0.145857 0.8 0 0
0.588523 0.456732 0.035784 0.8 0 0
0.424985 0.276018 0.113061 0.8 0 0
0.298033 0.657960 0.144295 0.8 0 0
0.562462 0.628802 0.113488 0.8 0 0
0.367570 0.174221 0.089567 0.8 0 0
0.836821 0.639332 0.054110 0.8 0 0
0.351888 0.534489 0.150239 0.8 0 0
0.217859 0.734519 0.146980 0.8 0 0
0.675601 0.277865 0.031730 0.8 0 0
0.223290 0.813317 0.115105 0.8 0 0
0.278765 0.605945 0.085629 0.8 0 0
0.426675 0.287240 0.115265 0.8 0 0
0.438599 0.645337 0.144781 0.8 0 0
0.530701 0.609410 0.123193 0.8 0 0
0.480855 0.398215 0.089819 0.8 0 0
0.453710 0.462770 0.138913 0.8 0 0
0.420418 0.461524 0.106653 0.8 0 0
0.489991 0.372627 0.119560 0.8 0 0
0.613991 0.207317 0.063762 0.8 0 0
0.347134 0.637650 0.073612 0.8 0 0
0.767005 0.306066 0.064318 0.8 0 0
0.565299 0.443117 0.040750 0.8 0 0
0.490198 0.619965 0.129522 0.8 0 0
0.533508 0.379701 0.039027 0.8 0 0
0.351183 0.523721 0.142042 0.8 0 0
0.373220 0.510839 0.117905 0.8 0 0
0.490861 0.510635 0.143563 0.8 0 0
0.415297 0.386797 0.121608 0.8 0 0
0.608203 0.442025 0.122722 0.8 0 0
0.547524 0.330479 0.112665 0.8 0 0
0.249189 0.662512 0.121578 0.8 0 0
0.453172 0.266722 0.109735 0.8 0 0
0.410222 0.303292 0.109417 0.8 0 0
0.500727 0.340921 0.113598 0.8 0 0
0.597707 0.504452 0.114913 0.8 0 0
0.366456 0.621560 0.166087 0.8 0 0
0.729465 0.518301 0.089404 0.8 0 0
0.406478 0.617510 0.146830 0.8 0 0
0.625749 0.495671 0.108473 0.8 0 0
0.517812 0.569227 0.087024 0.8 0 0
0.615590 0.277917 0.173401 0.8 0 0
0.830148 0.629762 0.056226 0.8 0 0
0.644140 0.537693 0.111349 0.8 0 0
0.525889 0.494587 0.132896 0.8 0 0
0.438176 0.597362 0.144708 0.8 0 0
0.649808 0.552845 0.107989 0.8 0 0
0.815290 0.521775 0.063244 0.8 0 0
0.330876 0.633242 0.156878 0.8 0 0
0.149735 0.882267 0.118839 0.8 0 0
0.355755 0.405983 0.123662 0.8 0 0
0.776149 0.526658 0.071584 0.8 0 0
0.759425 0.316848 0.158587 0.8 0 0
0.353497 0.330185 0.112624 0.8 0 0
0.519423 0.318711 0.108991 0.8 0 0
0.540017 0.333082 0.110114 0.8 0 0
0.628983 0.381679 0.118399 0.8 0 0
0.511675 0.365370 0.072653 0.8 0 0
0.304753 0.650712 0.119876 0.8 0 0
0.440881 0.407857 0.124983 0.8 0 0
0.674945 0.390616 0.144811 0.8 0 0
0.748692 0.344195 0.060117 0.8 0 0
0.492054 0.596042 0.140054 0.8 0 0
0.231032 0.670343 0.142459 0.8 0 0
0.569083 0.317131 0.039673 0.8 0 0
0.642846 0.539064 0.111403 0.8 0 0
0.195055 0.829757 0.155844 0.8 0 0
0.215813 0.795654 0.167771 0.8 0 0
0.385224 0.143431 0.084211 0.8 0 0
0.676350 0.185413 0.051363 0.8 0 0
0.652393 0.242107 0.103018 0.8 0 0
0.721020 0.621326 0.080137 0.8 0 0
0.759253 0.338181 0.058145 0.8 0 0
0.093406 0.917286 0.155178 0.8 0 0
0.769875 0.543087 0.072674 0.8 0 0
0.187941 0.847116 0.119450 0.8 0 0
0.665586 0.265929 0.109478 0.8 0 0
0.665574 0.115476 0.050811 0.8 0 0
0.492338 0.414343 0.133253 0.8 0 0
0.568924 0.465249 0.038633 0.8 0 0
0.322897 0.563054 0.124314 0.8 0 0
0.681490 0.361770 0.112416 0.8 0 0
0.479273 0.596659 0.053114 0.8 0 0
0.859557 0.306739 0.038767 0.8 0 0
0.421186 0.171566 0.087609 0.8 0 0
0.173596 0.834825 0.098251 0.8 0 0
0.394382 0.675770 0.060075 0.8 0 0
0.670353 0.464424 0.098303 0.8 0 0
0.750017 0.522064 0.083736 0.8 0 0
0.749442 0.477928 0.081630 0.8 0 0
0.360650 0.206122 0.094692 0.8 0 0
0.539502 0.342981 0.086363 0.8 0 0
0.387038 0.609224 0.068570 0.8 0 0
0.684323 0.187754 0.196368 0.8 0 0
0.655317 0.458043 0.107449 0.8 0 0
0.256092 0.715558 0.174397 0.8 0 0
0.182276 0.852918 0.130540 0.8 0 0
0.204040 0.760627 0.159110 0.8 0 0
0.386989 0.507566 0.054678 0.8 0 0
0.386569 0.176854 0.089295 0.8 0 0
0.735405 0.570884 0.087844 0.8 0 0
0.443391 0.400685 0.123972 0.8 0 0
0.375782 0.679768 0.062080 0.8 0 0
0.674933 0.222225 0.102040 0.8 0 0
0.235947 0.760862 0.089048 0.8 0 0
0.344574 0.156555 0.087294 0.8 0 0
0.740068 0.350862 0.059534 0.8 0 0
0.610056 0.570813 0.113198 0.8 0 0
0.646414 0.240685 0.144694 0.8 0 0
0.814519 0.562777 0.061938 0.8 0 0
0.381519 0.501433 0.104710 0.8 0 0
0.429170 0.502019 0.050469 0.8 0 0
0.422951 0.328437 0.113226 0.8 0 0
0.322676 0.714801 0.129624 0.8 0 0
0.482491 0.395620 0.075890 0.8 0 0
0.712058 0.264452 0.114030 0.8 0 0
0.803284 0.293123 0.042827 0.8 0 0
0.678153 0.392201 0.146367 0.8 0 0
0.532352 0.254112 0.098427 0.8 0 0
0.420354 0.495337 0.143456 0.8 0 0
0.668386 0.179309 0.055392 0.8 0 0
0.384423 0.106550 0.078674 0.8 0 0
0.332743 0.763373 0.142955 0.8 0 0
0.669525 0.443927 0.102672 0.8 0 0
0.663995 0.075578 0.051441 0.8 0 0
0.605988 0.604879 0.105888 0.8 0 0
0.696825 0.174214 0.200967 0.8 0 0
0.252374 0.770526 0.095125 0.8 0 0
0.696180 0.219607 0.063546 0.8 0 0
0.601883 0.285812 0.106415 0.8 0 0
0.629613 0.309862 0.032128 0.8 0 0
0.520241 0.527769 0.042618 0.8 0 0
0.375185 0.595973 0.157551 0.8 0 0
0.156483 0.831869 0.100052 0.8 0 0
0.662673 0.224491 0.164773 0.8 0 0
0.270658 0.694646 0.168372 0.8 0 0
0.843783 0.613210 0.053759 0.8 0 0
0.286585 0.682913 0.171487 0.8 0 0
0.731297 0.324987 0.109953 0.8 0 0
0.391889 0.626551 0.061117 0.8 0 0
0.345307 0.568561 0.060977 0.8 0 0
0.477241 0.257743 0.099951 0.8 0 0
0.592844 0.468654 0.125206 0.8 0 0
0.525977 0.370885 0.122846 0.8 0 0
0.526730 0.322834 0.109431 0.8 0 0
0.656499 0.061691 0.052692 0.8 0 0
0.549000 0.407392 0.042126 0.8 0 0
0.672329 0.214650 0.156758 0.8 0 0
0.624478 0.541488 0.114678 0.8 0 0
0.581466 0.594348 0.115377 0.8 0 0
0.431914 0.437956 0.135296 0.8 0 0
0.390339 0.166473 0.092334 0.8 0 0
0.482193 0.590020 0.140814 0.8 0 0
0.523446 0.325236 0.115045 0.8 0 0
0.461033 0.254845 0.100069 0.8 0 0
0.638912 0.252155 0.130316 0.8 0 0
0.629786 0.255005 0.153537 0.8 0 0
0.315675 0.570762 0.065275 0.8 0 0
0.453258 0.427966 0.110373 0.8 0 0
0.668034 0.411828 0.046229 0.8 0 0
0.818035 0.514572 0.062906 0.8 0 0
0.414118 0.455061 0.131509 0.8 0 0
0.094713 0.870106 0.148620 0.8 0 0
0.429016 0.216649 0.100833 0.8 0 0
0.839171 0.552773 0.056934 0.8 0 0
0.714714 0.606620 0.087205 0.8 0 0
0.179832 0.845968 0.154266 0.8 0 0
0.703932 0.369047 0.035424 0.8 0 0
0.644998 0.242658 0.142684 0.8 0 0
0.497555 0.496816 0.051055 0.8 0 0
0.619142 0.264968 0.169151 0.8 0 0
0.638003 0.492774 0.114173 0.8 0 0
0.596642 0.561923 0.117165 0.8 0 0
0.788781 0.296737 0.043189 0.8 0 0
0.798111 0.349593 0.052894 0.8 0 0
0.652242 0.532039 0.101275 0.8 0 0
0.826263 0.615818 0.062648 0.8 0 0
0.374105 0.291890 0.110528 0.8 0 0
0.680117 0.439175 0.096442 0.8 0 0
0.621000 0.545773 0.114733 0.8 0 0
0.438456 0.530138 0.142946 0.8 0 0
0.343930 0.232626 0.098336 0.8 0 0
0.230977 0.760450 0.089475 0.8 0 0
0.664053 0.462038 0.099874 0.8 0 0
0.659362 0.208526 0.220093 0.8 0 0
0.352157 0.279734 0.105280 0.8 0 0
0.644302 0.619639 0.096640 0.8 0 0
0.362341 0.728867 0.081203 0.8 0 0
0.662264 0.315476 0.121316 0.8 0 0
0.736354 0.358442 0.055090 0.8 0 0
0.353510 0.530153 0.103034 0.8 0 0
0.290040 0.728778 0.089167 0.8 0 0
0.285853 0.667970 0.132181 0.8 0 0
0.195000 0.841190 0.140031 0.8 0 0
0.643036 0.185038 0.062328 0.8 0 0
0.777411 0.316908 0.047779 0.8 0 0
0.488157 0.391768 0.101520 0.8 0 0
0.397021 0.565142 0.069413 0.8 0 0
0.257843 0.768972 0.096748 0.8 0 0
0.724314 0.332674 0.114154 0.8 0 0
0.428580 0.483288 0.142186 0.8 0 0
0.459681 0.438588 0.137416 0.8 0 0
0.284241 0.639677 0.078053 0.8 0 0
0.325128 0.558412 0.088469 0.8 0 0
0.572987 0.603031 0.113068 0.8 0 0
0.549692 0.372087 0.038310 0.8 0 0
0.397333 0.645089 0.147488 0.8 0 0
0.762242 0.295269 0.100866 0.8 0 0
0.424271 0.253489 0.108518 0.8 0 0
0.508618 0.612570 0.127095 0.8 0 0
0.710033 0.540560 0.087198 0.8 0 0
0.333557 0.591836 0.063017 0.8 0 0
0.867085 0.323608 0.039768 0.8 0 0
0.757650 0.551717 0.082092 0.8 0 0
0.866093 0.352693 0.043977 0.8 0 0
0.273271 0.763566 0.142421 0.8 0 0
0.754453 0.341663 0.209256 0.8 0 0
0.715958 0.350673 0.116415 0.8 0 0
0.350744 0.679028 0.101949 0.8 0 0
0.590646 0.306408 0.162476 0.8 0 0
0.519337 0.295760 0.104979 0.8 0 0
0.584365 0.432809 0.038114 0.8 0 0
0.413151 0.594030 0.070831 0.8 0 0
0.378641 0.379431 0.120087 0.8 0 0
0.541732 0.555233 0.132174 0.8 0 0
0.645599 0.431495 0.084719 0.8 0 0
0.663356 0.411601 0.066649 0.8 0 0
0.532349 0.589097 0.122752 0.8 0 0
0.347619 0.311055 0.110639 0.8 0 0
0.420540 0.671876 0.125696 0.8 0 0
0.322730 0.573300 0.152234 0.8 0 0
0.652549 0.233418 0.184966 0.8 0 0
0.489764 0.459234 0.046830 0.8 0 0
0.676417 0.213103 0.084275 0.8 0 0
0.870822 0.591502 0.050933 0.8 0 0
0.421632 0.460882 0.115946 0.8 0 0
0.326888 0.684151 0.173769 0.8 0 0
0.653852 0.241421 0.140902 0.8 0 0
0.769473 0.550911 0.072617 0.8 0 0
0.772521 0.582185 0.077649 0.8 0 0
0.190030 0.818513 0.165628 0.8 0 0
0.651461 0.290242 0.112747 0.8 0 0
0.684799 0.397198 0.095461 0.8 0 0
0.182455 0.852978 0.136602 0.8 0 0
0.663317 0.476569 0.099765 0.8 0 0
0.658469 0.200395 0.052942 0.8 0 0
0.633218 0.340514 0.125148 0.8 0 0
0.562604 0.289907 0.103047 0.8 0 0
0.471390 0.199100 0.092885 0.8 0 0
0.801366 0.531810 0.069595 0.8 0 0
0.402856 0.286010 0.106816 0.8 0 0
0.369519 0.240009 0.103199 0.8 0 0
0.522784 0.350333 0.120218 0.8 0 0
0.569534 0.420381 0.042477 0.8 0 0
0.677610 0.133312 0.049477 0.8 0 0
0.665550 0.225071 0.148189 0.8 0 0
0.378457 0.280183 0.109370 0.8 0 0
0.413946 0.206086 0.093354 0.8 0 0
0.528806 0.530222 0.041881 0.8 0 0
0.564738 0.549415 0.118704 0.8 0 0
0.666725 0.392157 0.029164 0.8 0 0
0.609374 0.476477 0.109820 0.8 0 0
0.672612 0.236081 0.031062 0.8 0 0
0.573715 0.471598 0.037371 0.8 0 0
0.457868 0.625076 0.143474 0.8 0 0
0.429163 0.483571 0.049864 0.8 0 0
0.614045 0.145248 0.058471 0.8 0 0
0.577386 0.609143 0.113998 0.8 0 0
0.149092 0.806496 0.135079 0.8 0 0
0.802451 0.284743 0.173607 0.8 0 0
0.654911 0.561002 0.105775 0.8 0 0
0.375092 0.198703 0.099542 0.8 0 0
0.719575 0.474909 0.086191 0.8 0 0
0.600556 0.276011 0.056621 0.8 0 0
0.427216 0.577806 0.152966 0.8 0 0
0.225388 0.765813 0.181359 0.8 0 0
0.677838 0.390929 0.152030 0.8 0 0
0.575229 0.576612 0.114498 0.8 0 0
0.442725 0.416605 0.133450 0.8 0 0
0.435609 0.654325 0.094510 0.8 0 0
0.278553 0.682801 0.164849 0.8 0 0
0.454910 0.637024 0.133693 0.8 0 0
0.506376 0.370630 0.069691 0.8 0 0
0.683497 0.620717 0.091298 0.8 0 0
0.664822 0.222974 0.160269 0.8 0 0
0.299048 0.588588 0.139404 0.8 0 0
0.303527 0.581185 0.096717 0.8 0 0
0.597914 0.278715 0.057469 0.8 0 0
0.622755 0.280639 0.151566 0.8 0 0
0.331267 0.699685 0.093115 0.8 0 0
0.555743 0.356545 0.036844 0.8 0 0
0.438982 0.431993 0.135153 0.8 0 0
0.740515 0.326100 0.091612 0.8 0 0
0.338433 0.693723 0.075080 0.8 0 0
0.477742 0.396090 0.123274 0.8 0 0
0.286437 0.660186 0.122356 0.8 0 0
0.266355 0.622178 0.138502 0.8 0 0
0.732066 0.324104 0.025614 0.8 0 0
0.456137 0.466689 0.138817 0.8 0 0
0.315183 0.641773 0.103123 0.8 0 0
0.703647 0.305129 0.027270 0.8 0 0
0.648737 0.111553 0.052973 0.8 0 0
0.467979 0.551129 0.049017 0.8 0 0
0.703910 0.349726 0.109950 0.8 0 0
0.365796 0.292316 0.109819 0.8 0 0
0.382812 0.633859 0.150536 0.8 0 0
0.424207 0.120046 0.079778 0.8 0 0
0.552303 0.358456 0.125369 0.8 0 0
0.511569 0.314289 0.113914 0.8 0 0
0.792072 0.579510 0.072398 0.8 0 0
0.867864 0.570356 0.050060 0.8 0 0
0.494579 0.427701 0.133527 0.8 0 0
0.389626 0.180970 0.089897 0.8 0 0
0.493848 0.386969 0.110730 0.8 0 0
0.736065 0.298354 0.096172 0.8 0 0
0.325008 0.652489 0.076374 0.8 0 0
0.628107 0.579389 0.103007 0.8 0 0
0.252459 0.664477 0.120432 0.8 0 0
0.382318 0.710639 0.116869 0.8 0 0
0.647556 0.488836 0.103334 0.8 0 0
0.373675 0.242018 0.103966 0.8 0 0
0.409550 0.114875 0.081007 0.8 0 0
0.598560 0.286808 0.067899 0.8 0 0
0.320090 0.649719 0.076761 0.8 0 0
0.542761 0.404684 0.041766 0.8 0 0
0.482511 0.397474 0.104523 0.8 0 0
0.654013 0.238010 0.125715 0.8 0 0
0.325546 0.558108 0.069304 0.8 0 0
0.662556 0.179791 0.052114 0.8 0 0
0.384435 0.419695 0.126007 0.8 0 0
0.328541 0.703825 0.127937 0.8 0 0
0.603406 0.633148 0.104476 0.8 0 0
0.298627 0.727658 0.096360 0.8 0 0
0.636233 0.309282 0.032107 0.8 0 0
0.603399 0.540806 0.118948 0.8 0 0
0.490708 0.387678 0.121265 0.8 0 0
0.802490 0.592143 0.063814 0.8 0 0
0.380081 0.180543 0.090191 0.8 0 0
0.540426 0.339020 0.051189 0.8 0 0
0.416660 0.629321 0.146187 0.8 0 0
0.618749 0.259130 0.086062 0.8 0 0
0.415128 0.673510 0.065538 0.8 0 0
0.778257 0.534413 0.076318 0.8 0 0
0.097438 0.863904 0.134763 0.8 0 0
0.458768 0.370361 0.119757 0.8 0 0
0.612589 0.167754 0.061626 0.8 0 0
0.282070 0.605674 0.133451 0.8 0 0
0.738741 0.312525 0.026167 0.8 0 0
0.677039 0.214675 0.133349 0.8 0 0
0.626748 0.455725 0.099290 0.8 0 0
0.404598 0.248957 0.108457 0.8 0 0
0.686195 0.194211 0.171005 0.8 0 0
0.733974 0.620644 0.077421 0.8 0 0
0.618940 0.453655 0.043158 0.8 0 0
0.811959 0.282504 0.191559 0.8 0 0
0.464179 0.265417 0.101797 0.8 0 0
0.415833 0.534209 0.145356 0.8 0 0
0.371235 0.297890 0.111062 0.8 0 0
0.447515 0.454773 0.047166 0.8 0 0
0.425716 0.303051 0.109573 0.8 0 0
0.589170 0.446559 0.036354 0.8 0 0
0.759947 0.466842 0.077259 0.8 0 0
0.666428 0.298052 0.118224 0.8 0 0
0.746989 0.545296 0.078166 0.8 0 0
0.409407 0.661383 0.146730 0.8 0 0
0.519920 0.567639 0.095924 0.8 0 0
0.300917 0.658379 0.152588 0.8 0 0
0.717289 0.453217 0.089529 0.8 0 0
0.715975 0.286245 0.028676 0.8 0 0
0.370006 0.512551 0.093521 0.8 0 0
0.777752 0.605271 0.069183 0.8 0 0
0.697415 0.450214 0.092039 0.8 0 0
0.378739 0.634961 0.083654 0.8 0 0
0.706179 0.621513 0.086694 0.8 0 0
0.703757 0.238927 0.091363 0.8 0 0
0.344594 0.624925 0.161657 0.8 0 0
0.629523 0.339963 0.125496 0.8 0 0
0.355635 0.238638 0.099353 0.8 0 0
0.340231 0.283143 0.105628 0.8 0 0
0.683435 0.304984 0.118812 0.8 0 0
0.782709 0.607718 0.073593 0.8 0 0
0.630540 0.492132 0.107384 0.8 0 0
0.675891 0.204097 0.181779 0.8 0 0
0.389816 0.097913 0.078438 0.8 0 0
0.406384 0.532055 0.146219 0.8 0 0
0.524704 0.356135 0.052619 0.8 0 0
0.441665 0.648681 0.103503 0.8 0 0
0.680617 0.217612 0.096841 0.8 0 0
0.657167 0.558945 0.105632 0.8 0 0
0.739262 0.614668 0.076723 0.8 0 0
0.624000 0.364857 0.039003 0.8 0 0
0.321478 0.585881 0.152342 0.8 0 0
0.658992 0.238167 0.105130 0.8 0 0
0.226925 0.730067 0.097621 0.8 0 0
0.699227 0.579941 0.094210 0.8 0 0
0.608776 0.561714 0.108412 0.8 0 0
0.385371 0.168473 0.092956 0.8 0 0
0.676882 0.387923 0.032007 0.8 0 0
0.677373 0.394039 0.157966 0.8 0 0
0.759106 0.306121 0.125388 0.8 0 0
0.708275 0.355846 0.109449 0.8 0 0
0.362490 0.605493 0.155760 0.8 0 0
0.405172 0.478739 0.129922 0.8 0 0
0.203860 0.823777 0.106924 0.8 0 0
0.934591 0.310824 0.034189 0.8 0 0
0.341258 0.692680 0.143682 0.8 0 0
0.672928 0.210461 0.155019 0.8 0 0
0.493421 0.270793 0.101610 0.8 0 0
0.572351 0.464087 0.127122 0.8 0 0
0.392312 0.494569 0.062229 0.8 0 0
0.625134 0.089084 0.055165 0.8 0 0
0.762000 0.477692 0.076422 0.8 0 0
0.160077 0.827388 0.164956 0.8 0 0
0.724360 0.346797 0.094908 0.8 0 0
0.700159 0.596116 0.091636 0.8 0 0
0.306713 0.578373 0.103858 0.8 0 0
0.312556 0.643828 0.110683 0.8 0 0
0.465670 0.418791 0.058031 0.8 0 0
0.740433 0.546804 0.086817 0.8 0 0
0.419597 0.660106 0.056975 0.8 0 0
0.615461 0.278873 0.118866 0.8 0 0
0.347077 0.644343 0.169507 0.8 0 0
0.548928 0.517821 0.131463 0.8 0 0
0.553587 0.266076 0.098773 0.8 0 0
0.489903 0.515988 0.137787 0.8 0 0
0.767071 0.463463 0.075859 0.8 0 0
0.559745 0.622131 0.115569 0.8 0 0
0.466290 0.380347 0.130793 0.8 0 0
0.497763 0.200928 0.090446 0.8 0 0
0.129058 0.892763 0.154349 0.8 0 0
0.690873 0.382542 0.100233 0.8 0 0
0.199299 0.751345 0.107488 0.8 0 0
0.703573 0.377202 0.074381 0.8 0 0
0.166417 0.793316 0.150847 0.8 0 0
0.555516 0.605158 0.116645 0.8 0 0
0.667282 0.374870 0.029173 0.8 0 0
0.473839 0.348648 0.125544 0.8 0 0
0.636744 0.558198 0.102694 0.8 0 0
0.336050 0.646004 0.075030 0.8 0 0
0.434667 0.619408 0.144985 0.8 0 0
0.682522 0.145110 0.049946 0.8 0 0
0.664140 0.146436 0.051436 0.8 0 0
0.420804 0.625169 0.145907 0.8 0 0
0.732642 0.252766 0.078221 0.8 0 0
0.593485 0.522657 0.114499 0.8 0 0
0.436076 0.469953 0.140941 0.8 0 0
0.678501 0.203824 0.054228 0.8 0 0
0.698238 0.166805 0.224325 0.8 0 0
0.488544 0.408983 0.133432 0.8 0 0
0.686947 0.413752 0.096152 0.8 0 0
0.462400 0.315274 0.119398 0.8 0 0
0.351112 0.701533 0.150608 0.8 0 0
0.836298 0.618567 0.059896 0.8 0 0
0.432205 0.171456 0.091022 0.8 0 0
0.585573 0.447886 0.125199 0.8 0 0
0.485254 0.566695 0.139639 0.8 0 0
0.721108 0.517081 0.084985 0.8 0 0
0.345571 0.605082 0.079121 0.8 0 0
0.589964 0.576710 0.111345 0.8 0 0
0.378857 0.488498 0.137138 0.8 0 0
0.241230 0.767984 0.185146 0.8 0 0
0.432168 0.170431 0.090800 0.8 0 0
0.494004 0.543642 0.045645 0.8 0 0
0.519681 0.316807 0.113594 0.8 0 0
0.660237 0.222328 0.188637 0.8 0 0
0.483726 0.397750 0.060080 0.8 0 0
0.068607 0.939589 0.123382 0.8 0 0
0.445928 0.142888 0.082712 0.8 0 0
0.270129 0.703725 0.176167 0.8 0 0
0.204166 0.765059 0.162238 0.8 0 0
0.478457 0.401186 0.097491 0.8 0 0
0.400071 0.692747 0.122675 0.8 0 0
0.365998 0.402195 0.123238 0.8 0 0
0.787323 0.493680 0.071638 0.8 0 0
0.598326 0.467830 0.122113 0.8 0 0
0.335784 0.702078 0.151727 0.8 0 0
0.534041 0.570475 0.128285 0.8 0 0
0.471792 0.406946 0.080676 0.8 0 0
0.766766 0.306544 0.045606 0.8 0 0
0.696216 0.593727 0.092769 0.8 0 0
0.271109 0.648461 0.092809 0.8 0 0
0.582897 0.574967 0.117957 0.8 0 0
0.546623 0.273577 0.100048 0.8 0 0
0.402631 0.253925 0.102153 0.8 0 0
0.267756 0.688479 0.093857 0.8 0 0
0.660975 0.224847 0.034902 0.8 0 0
0.698145 0.532898 0.098447 0.8 0 0
0.661676 0.319602 0.121528 0.8 0 0
0.725633 0.517766 0.083877 0.8 0 0
0.366340 0.653198 0.103198 0.8 0 0
0.649579 0.071438 0.052209 0.8 0 0
0.165004 0.815215 0.164972 0.8 0 0
0.681525 0.286395 0.036006 0.8 0 0
0.276830 0.735036 0.181792 0.8 0 0
0.644052 0.093807 0.057421 0.8 0 0
0.709376 0.477477 0.093033 0.8 0 0
0.618831 0.416333 0.120704 0.8 0 0
0.836897 0.341154 0.049731 0.8 0 0
0.483604 0.289975 0.111575 0.8 0 0
0.478104 0.555514 0.047553 0.8 0 0
0.760491 0.612677 0.072334 0.8 0 0
0.428584 0.371162 0.119501 0.8 0 0
0.648773 0.255438 0.111718 0.8 0 0
0.650953 0.452697 0.108419 0.8 0 0
0.781707 0.301091 0.168944 0.8 0 0
0.641939 0.124713 0.053958 0.8 0 0
0.645864 0.535948 0.111266 0.8 0 0
0.406942 0.306481 0.109840 0.8 0 0
0.772655 0.480458 0.075141 0.8 0 0
0.622511 0.252917 0.092934 0.8 0 0
0.376138 0.505439 0.081284 0.8 0 0
0.682398 0.568025 0.092236 0.8 0 0
0.264610 0.712799 0.181649 0.8 0 0
0.524542 0.313212 0.107832 0.8 0 0
0.546854 0.458634 0.042927 0.8 0 0
0.551254 0.497946 0.130490 0.8 0 0
0.453384 0.427640 0.107373 0.8 0 0
0.430288 0.634922 0.145305 0.8 0 0
0.287777 0.747700 0.125987 0.8 0 0
0.313762 0.728907 0.153335 0.8 0 0
0.805423 0.292594 0.205008 0.8 0 0
0.506250 0.371667 0.083554 0.8 0 0
0.296929 0.653475 0.147453 0.8 0 0
0.269917 0.684500 0.148363 0.8 0 0
0.344996 0.534711 0.147586 0.8 0 0
0.219985 0.670877 0.153348 0.8 0 0
0.284763 0.721000 0.180378 0.8 0 0
0.188561 0.846363 0.115055 0.8 0 0
0.451519 0.430502 0.062543 0.8 0 0
0.229779 0.728939 0.157532 0.8 0 0
0.734173 0.571188 0.080753 0.8 0 0
0.646681 0.046691 0.052092 0.8 0 0
0.495887 0.596279 0.139680 0.8 0 0
0.468744 0.339995 0.114670 0.8 0 0
0.470344 0.186925 0.088776 0.8 0 0
0.413474 0.139489 0.082958 0.8 0 0
0.393213 0.185380 0.096047 0.8 0 0
0.542615 0.329399 0.113480 0.8 0 0
0.165896 0.864843 0.115344 0.8 0 0
0.825791 0.637354 0.060269 0.8 0 0
0.467670 0.473471 0.137919 0.8 0 0
0.231163 0.793012 0.159184 0.8 0 0
0.895291 0.343578 0.042063 0.8 0 0
0.527251 0.331764 0.110973 0.8 0 0
0.677644 0.547096 0.103332 0.8 0 0
0.403872 0.685810 0.076468 0.8 0 0
0.646368 0.317188 0.119042 0.8 0 0
0.343493 0.750865 0.120903 0.8 0 0
0.175461 0.822281 0.097383 0.8 0 0
0.468347 0.489149 0.049958 0.8 0 0
0.475088 0.425640 0.135395 0.8 0 0
0.426501 0.415809 0.125960 0.8 0 0
0.777625 0.483041 0.073857 0.8 0 0
0.426228 0.450350 0.130438 0.8 0 0
0.475877 0.440542 0.044787 0.8 0 0
0.603519 0.411186 0.036222 0.8 0 0
0.177360 0.829894 0.164826 0.8 0 0
0.569404 0.340573 0.131389 0.8 0 0
0.689524 0.566785 0.090804 0.8 0 0
0.428849 0.411072 0.131435 0.8 0 0
0.677808 0.408247 0.097730 0.8 0 0
0.159178 0.874709 0.125437 0.8 0 0
0.432049 0.448927 0.097100 0.8 0 0
0.647789 0.613671 0.099402 0.8 0 0
0.289740 0.593750 0.071878 0.8 0 0
0.579669 0.296867 0.101748 0.8 0 0
0.487402 0.327070 0.119332 0.8 0 0
0.674107 0.294553 0.036530 0.8 0 0
0.300367 0.672964 0.172913 0.8 0 0
0.384245 0.264136 0.107767 0.8 0 0
0.547823 0.340961 0.040112 0.8 0 0
0.120627 0.911724 0.130923 0.8 0 0
0.801025 0.587420 0.069867 0.8 0 0
0.790902 0.286537 0.149014 0.8 0 0
0.787618 0.636997 0.067768 0.8 0 0
0.360049 0.424520 0.126407 0.8 0 0
0.503395 0.276381 0.102203 0.8 0 0
0.239762 0.773152 0.090848 0.8 0 0
0.251549 0.645969 0.106841 0.8 0 0
0.362385 0.652163 0.078570 0.8 0 0
0.127021 0.850504 0.105504 0.8 0 0
0.311714 0.647621 0.084138 0.8 0 0
0.547891 0.528051 0.051902 0.8 0 0
0.419006 0.400895 0.123702 0.8 0 0
0.735675 0.541437 0.088178 0.8 0 0
0.398036 0.691687 0.074471 0.8 0 0
0.761711 0.473445 0.077901 0.8 0 0
0.393956 0.120939 0.080619 0.8 0 0
0.269154 0.651300 0.096603 0.8 0 0
0.387725 0.493334 0.070799 0.8 0 0
0.301174 0.646655 0.078620 0.8 0 0
0.843253 0.549937 0.056148 0.8 0 0
0.603785 0.271340 0.043816 0.8 0 0
0.502788 0.378585 0.115431 0.8 0 0
0.766238 0.286199 0.070143 0.8 0 0
0.378867 0.174119 0.094386 0.8 0 0
0.570943 0.332439 0.130361 0.8 0 0
0.216655 0.731554 0.127830 0.8 0 0
0.644557 0.151624 0.060230 0.8 0 0
0.506326 0.465622 0.140721 0.8 0 0
0.506022 0.257155 0.101934 0.8 0 0
0.496771 0.383614 0.099538 0.8 0 0
0.271634 0.661781 0.155922 0.8 0 0
0.618048 0.442640 0.119434 0.8 0 0
0.343471 0.706154 0.151125 0.8 0 0
0.212389 0.759800 0.091539 0.8 0 0
0.794021 0.313781 0.228214 0.8 0 0
0.582064 0.454674 0.037049 0.8 0 0
0.342926 0.687797 0.071309 0.8 0 0
0.656512 0.390331 0.029979 0.8 0 0
0.530587 0.436356 0.132279 0.8 0 0
0.848856 0.305135 0.039640 0.8 0 0
0.743062 0.315293 0.098178 0.8 0 0
0.726094 0.502428 0.084069 0.8 0 0
0.519148 0.473799 0.141956 0.8 0 0
0.494935 0.267375 0.105379 0.8 0 0
0.463115 0.328902 0.122134 0.8 0 0
0.771072 0.334337 0.050183 0.8 0 0
0.488120 0.357233 0.116939 0.8 0 0
0.639451 0.445155 0.104255 0.8 0 0
0.775775 0.285784 0.106950 0.8 0 0
0.515089 0.601795 0.125520 0.8 0 0
0.276465 0.677873 0.115644 0.8 0 0
0.336794 0.210996 0.095106 0.8 0 0
0.673970 0.222955 0.103112 0.8 0 0
0.690390 0.381464 0.134451 0.8 0 0
0.587801 0.482914 0.125543 0.8 0 0
0.412027 0.244046 0.100069 0.8 0 0
0.613126 0.469691 0.102336 0.8 0 0
0.568532 0.309219 0.103280 0.8 0 0
0.870770 0.300118 0.038761 0.8 0 0
0.360074 0.414273 0.125527 0.8 0 0
0.633375 0.271582 0.128312 0.8 0 0
0.608740 0.435739 0.122434 0.8 0 0
0.233254 0.803589 0.113790 0.8 0 0
0.605372 0.242382 0.063860 0.8 0 0
0.634654 0.421962 0.118442 0.8 0 0
0.576510 0.388647 0.126615 0.8 0 0
0.493631 0.273644 0.102101 0.8 0 0
0.501194 0.235209 0.097623 0.8 0 0
0.313966 0.583333 0.152830 0.8 0 0
0.452158 0.427060 0.066312 0.8 0 0
0.323028 0.725190 0.152636 0.8 0 0
0.674372 0.193653 0.050364 0.8 0 0
0.297066 0.650271 0.117478 0.8 0 0
0.319472 0.629390 0.101910 0.8 0 0
0.395819 0.485228 0.081986 0.8 0 0
0.454128 0.430740 0.058617 0.8 0 0
0.591430 0.320698 0.034147 0.8 0 0
0.639167 0.246244 0.098977 0.8 0 0
0.639087 0.581437 0.105886 0.8 0 0
0.399258 0.565344 0.145869 0.8 0 0
0.783774 0.624958 0.066475 0.8 0 0
0.656014 0.240899 0.106649 0.8 0 0
0.175914 0.777026 0.137964 0.8 0 0
0.296377 0.586822 0.070399 0.8 0 0
0.454105 0.299360 0.116529 0.8 0 0
0.854238 0.335289 0.042214 0.8 0 0
0.422787 0.682430 0.142638 0.8 0 0
0.341740 0.689974 0.107095 0.8 0 0
0.655128 0.241477 0.107998 0.8 0 0
0.392359 0.698858 0.094773 0.8 0 0
0.446632 0.645064 0.126346 0.8 0 0
0.651395 0.430757 0.091374 0.8 0 0
0.476317 0.331685 0.121543 0.8 0 0
0.767872 0.364718 0.052178 0.8 0 0
0.372387 0.560951 0.148949 0.8 0 0
0.736808 0.232448 0.109902 0.8 0 0
0.211599 0.744265 0.100428 0.8 0 0
0.891255 0.356705 0.039966 0.8 0 0
0.528456 0.472460 0.136820 0.8 0 0
0.272217 0.680878 0.133278 0.8 0 0
0.864674 0.311460 0.038755 0.8 0 0
0.420487 0.465461 0.142329 0.8 0 0
0.392441 0.303697 0.109257 0.8 0 0
0.385137 0.631878 0.147652 0.8 0 0
0.632365 0.283308 0.031112 0.8 0 0
0.674150 0.524481 0.105053 0.8 0 0
0.084270 0.914737 0.115007 0.8 0 0
0.272149 0.692853 0.168222 0.8 0 0
0.054468 0.936147 0.144648 0.8 0 0
0.790508 0.290079 0.158651 0.8 0 0
0.694016 0.330231 0.027194 0.8 0 0
0.561777 0.316115 0.107914 0.8 0 0
0.336804 0.613303 0.070247 0.8 0 0
0.796656 0.615254 0.064426 0.8 0 0
0.638281 0.254817 0.174461 0.8 0 0
0.578154 0.322219 0.151832 0.8 0 0
0.354234 0.267804 0.105491 0.8 0 0
0.414142 0.162306 0.090449 0.8 0 0
0.392883 0.490825 0.121337 0.8 0 0
0.730441 0.276648 0.092554 0.8 0 0
0.415884 0.366592 0.118681 0.8 0 0
0.792745 0.565632 0.072408 0.8 0 0
0.399225 0.693942 0.127633 0.8 0 0
0.828005 0.620655 0.062110 0.8 0 0
0.476722 0.269223 0.107748 0.8 0 0
0.286730 0.679556 0.168306 0.8 0 0
0.582506 0.369861 0.038275 0.8 0 0
0.514773 0.468474 0.142185 0.8 0 0
0.474519 0.571669 0.048425 0.8 0 0
0.721505 0.359188 0.081157 0.8 0 0
0.460621 0.609933 0.051010 0.8 0 0
0.520766 0.550006 0.135473 0.8 0 0
0.410503 0.147846 0.084286 0.8 0 0
0.561577 0.299102 0.103934 0.8 0 0
0.709054 0.324672 0.108282 0.8 0 0
0.700387 0.377464 0.164601 0.8 0 0
0.074284 0.893027 0.130274 0.8 0 0
0.280692 0.665707 0.107492 0.8 0 0
0.650215 0.507418 0.102323 0.8 0 0
0.669782 0.221065 0.143434 0.8 0 0
0.734692 0.324085 0.116058 0.8 0 0
0.625847 0.319325 0.116387 0.8 0 0
0.676443 0.206857 0.077337 0.8 0 0
0.657143 0.425547 0.090329 0.8 0 0
0.807299 0.600067 0.062494 0.8 0 0
0.181532 0.854033 0.139607 0.8 0 0
0.244284 0.792713 0.112801 0.8 0 0
0.412246 0.470856 0.120733 0.8 0 0
0.385847 0.707015 0.116992 0.8 0 0
0.385044 0.656414 0.060285 0.8 0 0
0.482052 0.540928 0.138998 0.8 0 0
0.765169 0.296344 0.030962 0.8 0 0
0.341973 0.744801 0.109593 0.8 0 0
0.439397 0.397855 0.130647 0.8 0 0
0.370923 0.396288 0.122440 0.8 0 0
0.708849 0.562218 0.094925 0.8 0 0
0.433670 0.512380 0.142762 0.8 0 0
0.795524 0.629812 0.067793 0.8 0 0
0.290779 0.670177 0.160274 0.8 0 0
0.393339 0.700002 0.127663 0.8 0 0
0.832275 0.554590 0.061870 0.8 0 0
0.441655 0.314820 0.111310 0.8 0 0
0.296241 0.588579 0.095101 0.8 0 0
0.865891 0.566937 0.052607 0.8 0 0
0.126474 0.888286 0.109484 0.8 0 0
0.472440 0.592316 0.141873 0.8 0 0
0.136176 0.874155 0.161729 0.8 0 0
0.358583 0.386321 0.120841 0.8 0 0
0.162678 0.857538 0.107845 0.8 0 0
0.389553 0.655730 0.148021 0.8 0 0
0.579267 0.296344 0.101763 0.8 0 0
0.677807 0.190164 0.212964 0.8 0 0
0.433006 0.376024 0.127152 0.8 0 0
0.337934 0.573476 0.151236 0.8 0 0
0.341484 0.556192 0.060897 0.8 0 0
0.580157 0.505197 0.089161 0.8 0 0
0.711657 0.366495 0.144687 0.8 0 0
0.370590 0.605195 0.070062 0.8 0 0
0.431023 0.612931 0.145210 0.8 0 0
0.338650 0.696582 0.141575 0.8 0 0
0.517602 0.569089 0.081619 0.8 0 0
0.479023 0.540532 0.047990 0.8 0 0
0.396534 0.563818 0.146978 0.8 0 0
0.695533 0.374213 0.121243 0.8 0 0
0.343677 0.752035 0.141682 0.8 0 0
0.550148 0.604893 0.117810 0.8 0 0
0.504885 0.507961 0.046174 0.8 0 0
0.413305 0.680325 0.141003 0.8 0 0
0.376375 0.506580 0.146065 0.8 0 0
0.299426 0.584261 0.079221 0.8 0 0
0.689721 0.619890 0.090189 0.8 0 0
0.660114 0.077077 0.050990 0.8 0 0
0.180563 0.850823 0.113525 0.8 0 0
0.913523 0.329882 0.039912 0.8 0 0
0.789847 0.301076 0.181985 0.8 0 0
0.296934 0.637690 0.154112 0.8 0 0
0.577374 0.507209 0.076133 0.8 0 0
0.161719 0.791462 0.124317 0.8 0 0
0.623769 0.458157 0.056298 0.8 0 0
0.549459 0.537571 0.101042 0.8 0 0
0.396585 0.429478 0.130914 0.8 0 0
0.434883 0.660394 0.139711 0.8 0 0
0.807966 0.329887 0.051355 0.8 0 0
0.105407 0.922768 0.126559 0.8 0 0
0.566380 0.517983 0.067868 0.8 0 0
0.472818 0.478306 0.048460 0.8 0 0
0.756175 0.339473 0.201897 0.8 0 0
0.287326 0.692827 0.178905 0.8 0 0
0.095686 0.912796 0.156352 0.8 0 0
0.893369 0.566895 0.044635 0.8 0 0
0.646271 0.437858 0.099998 0.8 0 0
0.752150 0.476454 0.080782 0.8 0 0
0.330500 0.552518 0.145935 0.8 0 0
0.413169 0.677279 0.092338 0.8 0 0
0.455437 0.210683 0.097154 0.8 0 0
0.438991 0.443202 0.139653 0.8 0 0
0.694681 0.378094 0.133574 0.8 0 0
0.624092 0.243935 0.067341 0.8 0 0
0.444663 0.509818 0.051150 0.8 0 0
0.678533 0.392684 0.065894 0.8 0 0
0.625165 0.409615 0.119821 0.8 0 0
0.668749 0.202447 0.202405 0.8 0 0
0.585400 0.499382 0.082774 0.8 0 0
0.606488 0.533385 0.119434 0.8 0 0
0.255197 0.764232 0.177660 0.8 0 0
0.445063 0.578712 0.144098 0.8 0 0
0.422170 0.111734 0.078574 0.8 0 0
0.272680 0.626811 0.155681 0.8 0 0
0.763937 0.504263 0.078851 0.8 0 0
0.300916 0.644128 0.073014 0.8 0 0
0.395794 0.325674 0.112490 0.8 0 0
0.487279 0.434222 0.134499 0.8 0 0
0.331023 0.155507 0.089830 0.8 0 0
0.839684 0.291625 0.039142 0.8 0 0
0.242596 0.786540 0.155970 0.8 0 0
0.366290 0.728777 0.141933 0.8 0 0
0.415695 0.196079 0.097238 0.8 0 0
0.702067 0.366631 0.150652 0.8 0 0
0.388843 0.653782 0.148064 0.8 0 0
0.266403 0.749618 0.180780 0.8 0 0
0.648873 0.476377 0.110230 0.8 0 0
0.506476 0.593157 0.127752 0.8 0 0
0.730012 0.340312 0.149763 0.8 0 0
0.468479 0.347289 0.115956 0.8 0 0
0.699574 0.535113 0.098029 0.8 0 0
0.559298 0.320338 0.072154 0.8 0 0
0.807054 0.599173 0.068074 0.8 0 0
0.518225 0.400739 0.041190 0.8 0 0
0.397825 0.287894 0.107028 0.8 0 0
0.671719 0.343748 0.028918 0.8 0 0
0.689684 0.624124 0.089571 0.8 0 0
0.372144 0.136339 0.083448 0.8 0 0
0.443250 0.444802 0.139287 0.8 0 0
0.437730 0.442086 0.081912 0.8 0 0
0.602537 0.466446 0.040773 0.8 0 0
0.222899 0.805826 0.153230 0.8 0 0
0.690450 0.486115 0.093013 0.8 0 0
0.613894 0.171673 0.059334 0.8 0 0
0.372217 0.500083 0.137532 0.8 0 0
0.575679 0.369690 0.123271 0.8 0 0
0.229660 0.685272 0.156358 0.8 0 0
0.459006 0.632793 0.133454 0.8 0 0
0.660576 0.401883 0.115497 0.8 0 0
0.515651 0.529747 0.043121 0.8 0 0
0.067166 0.928037 0.120274 0.8 0 0
0.743677 0.280260 0.027950 0.8 0 0
0.152129 0.835106 0.100718 0.8 0 0
0.471471 0.268997 0.108264 0.8 0 0
0.438997 0.438948 0.139494 0.8 0 0
0.243462 0.706070 0.132436 0.8 0 0
0.650157 0.072831 0.052171 0.8 0 0
0.777879 0.323365 0.221421 0.8 0 0
0.874485 0.575893 0.048420 0.8 0 0
0.685330 0.623443 0.087605 0.8 0 0
0.350976 0.639531 0.073299 0.8 0 0
0.406837 0.334826 0.119258 0.8 0 0
0.417535 0.613303 0.146096 0.8 0 0
0.134099 0.853474 0.163126 0.8 0 0
0.426266 0.583120 0.059580 0.8 0 0
0.730605 0.630668 0.077416 0.8 0 0
0.623767 0.456791 0.091526 0.8 0 0
0.464534 0.407299 0.125011 0.8 0 0
0.383641 0.629772 0.085018 0.8 0 0
0.615779 0.430540 0.121538 0.8 0 0
0.605978 0.283424 0.154803 0.8 0 0
0.340522 0.724974 0.095422 0.8 0 0
0.472875 0.400904 0.134694 0.8 0 0
0.112633 0.907245 0.115537 0.8 0 0
0.328744 0.159077 0.089812 0.8 0 0
0.674763 0.093773 0.049296 0.8 0 0
0.671589 0.394826 0.033269 0.8 0 0
0.784139 0.285407 0.128048 0.8 0 0
0.601105 0.306713 0.140107 0.8 0 0
0.572460 0.289033 0.101773 0.8 0 0
0.475289 0.417542 0.046298 0.8 0 0
0.698827 0.342186 0.109956 0.8 0 0
0.464247 0.412695 0.125240 0.8 0 0
0.610205 0.633004 0.103191 0.8 0 0
0.477507 0.474586 0.048162 0.8 0 0
0.590618 0.570015 0.117161 0.8 0 0
0.329782 0.625662 0.150975 0.8 0 0
0.630725 0.249261 0.171139 0.8 0 0
0.672900 0.204284 0.052826 0.8 0 0
0.185779 0.764370 0.119276 0.8 0 0
0.729060 0.356534 0.188099 0.8 0 0
0.558923 0.370366 0.038183 0.8 0 0
0.657532 0.384760 0.115664 0.8 0 0
0.422589 0.155251 0.085119 0.8 0 0
0.531466 0.287615 0.103086 0.8 0 0
0.357467 0.524762 0.082906 0.8 0 0
0.778367 0.623184 0.072167 0.8 0 0
0.748310 0.322762 0.147262 0.8 0 0
0.080476 0.883398 0.134905 0.8 0 0
0.440737 0.395331 0.123162 0.8 0 0
0.330420 0.163320 0.090443 0.8 0 0
0.478607 0.415477 0.044362 0.8 0 0
0.622091 0.208320 0.058279 0.8 0 0
0.599782 0.549336 0.118404 0.8 0 0
0.634049 0.262098 0.167122 0.8 0 0
0.411560 0.503430 0.144635 0.8 0 0
0.488410 0.391818 0.106639 0.8 0 0
0.408734 0.680258 0.068085 0.8 0 0
0.428682 0.236679 0.098138 0.8 0 0
0.751738 0.318617 0.033938 0.8 0 0
0.295353 0.590630 0.112484 0.8 0 0
0.414082 0.349456 0.116170 0.8 0 0
0.809464 0.301490 0.043087 0.8 0 0
0.640429 0.417400 0.117044 0.8 0 0
0.837134 0.287151 0.039685 0.8 0 0
0.640332 0.422687 0.113173 0.8 0 0
0.494935 0.527976 0.137229 0.8 0 0
0.576313 0.575682 0.119154 0.8 0 0
0.242755 0.720955 0.091545 0.8 0 0
0.707138 0.282621 0.031614 0.8 0 0
0.350224 0.380383 0.120108 0.8 0 0
0.575323 0.346038 0.122425 0.8 0 0
0.643690 0.238942 0.093480 0.8 0 0
0.837543 0.550500 0.060239 0.8 0 0
0.708536 0.373020 0.179292 0.8 0 0
0.445575 0.181343 0.088513 0.8 0 0
0.400675 0.440071 0.132701 0.8 0 0
0.584225 0.622273 0.110705 0.8 0 0
0.261677 0.694588 0.154939 0.8 0 0
0.254916 0.722955 0.085995 0.8 0 0
0.452161 0.327413 0.113108 0.8 0 0
0.409838 0.482646 0.053050 0.8 0 0
0.343791 0.191092 0.092301 0.8 0 0
0.803051 0.288365 0.186069 0.8 0 0
0.411571 0.128333 0.081322 0.8 0 0
0.664043 0.222799 0.164831 0.8 0 0
0.687952 0.529355 0.092761 0.8 0 0
0.861012 0.305323 0.040835 0.8 0 0
0.662908 0.194847 0.057618 0.8 0 0
0.745304 0.351299 0.058798 0.8 0 0
0.318825 0.689387 0.079197 0.8 0 0
0.703419 0.583133 0.092910 0.8 0 0
0.412075 0.676895 0.069248 0.8 0 0
0.398847 0.690562 0.070050 0.8 0 0
0.727197 0.306589 0.100861 0.8 0 0
0.107662 0.910250 0.114932 0.8 0 0
0.700500 0.286813 0.032717 0.8 0 0
0.681001 0.298057 0.118797 0.8 0 0
0.327292 0.743969 0.152253 0.8 0 0
0.777946 0.628179 0.067487 0.8 0 0
0.342207 0.608231 0.077182 0.8 0 0
0.261456 0.624142 0.091445 0.8 0 0
0.167400 0.784581 0.118268 0.8 0 0
0.761962 0.329196 0.199232 0.8 0 0
0.518017 0.350379 0.121159 0.8 0 0
0.811544 0.570079 0.067262 0.8 0 0
0.817906 0.283516 0.210051 0.8 0 0
0.556653 0.615989 0.117088 0.8 0 0
0.318984 0.637966 0.106369 0.8 0 0
0.612636 0.169951 0.059618 0.8 0 0
0.377199 0.652029 0.060905 0.8 0 0
0.598074 0.482578 0.054651 0.8 0 0
0.358711 0.547617 0.149819 0.8 0 0
0.282925 0.610728 0.068774 0.8 0 0
0.248348 0.762963 0.089071 0.8 0 0
0.522462 0.411271 0.042346 0.8 0 0
0.055782 0.947913 0.125319 0.8 0 0
0.734434 0.259187 0.043026 0.8 0 0
0.503261 0.376739 0.127642 0.8 0 0
0.401829 0.655551 0.147215 0.8 0 0
0.640378 0.191956 0.063377 0.8 0 0
0.455774 0.639819 0.143643 0.8 0 0
0.132159 0.892268 0.115894 0.8 0 0
0.890802 0.319942 0.040592 0.8 0 0
0.837914 0.340650 0.049695 0.8 0 0
0.635773 0.443650 0.092562 0.8 0 0
0.345380 0.222674 0.096908 0.8 0 0
0.329614 0.249880 0.100838 0.8 0 0
0.446075 0.460246 0.139581 0.8 0 0
0.281162 0.681401 0.165593 0.8 0 0
0.711710 0.352570 0.110267 0.8 0 0
0.353248 0.251319 0.103206 0.8 0 0
0.680767 0.390580 0.035727 0.8 0 0
0.703479 0.351697 0.114332 0.8 0 0
0.474467 0.612539 0.067140 0.8 0 0
0.775570 0.594095 0.070287 0.8 0 0
0.127754 0.905607 0.142849 0.8 0 0
0.689324 0.180056 0.206352 0.8 0 0
0.334288 0.761657 0.141033 0.8 0 0
0.269753 0.614985 0.082018 0.8 0 0
0.776920 0.603203 0.075405 0.8 0 0
0.280531 0.657822 0.155304 0.8 0 0
0.663536 0.566749 0.103219 0.8 0 0
0.331945 0.621070 0.145432 0.8 0 0
0.334330 0.698925 0.141010 0.8 0 0
0.351065 0.191502 0.096054 0.8 0 0
0.603324 0.593195 0.107301 0.8 0 0
0.443561 0.510450 0.141703 0.8 0 0
0.448997 0.391296 0.122677 0.8 0 0
0.107812 0.891276 0.160501 0.8 0 0
0.268245 0.684978 0.126654 0.8 0 0
0.313916 0.646984 0.153094 0.8 0 0
0.827087 0.315198 0.042785 0.8 0 0
0.610521 0.227877 0.061989 0.8 0 0
0.306966 0.631273 0.067141 0.8 0 0
0.582012 0.571239 0.113438 0.8 0 0
0.702571 0.284042 0.115946 0.8 0 0
0.586415 0.563730 0.113041 0.8 0 0
0.666083 0.354973 0.029330 0.8 0 0
0.629765 0.587606 0.106818 0.8 0 0
0.443494 0.648886 0.135400 0.8 0 0
0.338551 0.544373 0.085067 0.8 0 0
0.372607 0.651682 0.084048 0.8 0 0
0.338562 0.536843 0.144630 0.8 0 0
0.314085 0.690351 0.175707 0.8 0 0
0.585821 0.511053 0.127528 0.8 0 0
0.305227 0.749657 0.145080 0.8 0 0
0.681175 0.202588 0.151988 0.8 0 0
0.534537 0.408405 0.128820 0.8 0 0
0.660029 0.384537 0.115407 0.8 0 0
0.157580 0.858633 0.160905 0.8 0 0
0.362326 0.469408 0.132955 0.8 0 0
0.712938 0.536732 0.086571 0.8 0 0
0.464650 0.339729 0.114781 0.8 0 0
0.838904 0.602738 0.059410 0.8 0 0
0.596711 0.502886 0.125874 0.8 0 0
0.030142 0.970153 0.136836 0.8 0 0
0.524728 0.360135 0.047596 0.8 0 0
0.449094 0.583114 0.143859 0.8 0 0
0.550727 0.438897 0.043459 0.8 0 0
0.449630 0.460332 0.047147 0.8 0 0
0.524183 0.372004 0.038977 0.8 0 0
0.345344 0.538279 0.098766 0.8 0 0
0.752593 0.271291 0.083393 0.8 0 0
0.616565 0.405610 0.034320 0.8 0 0
0.783072 0.315221 0.214157 0.8 0 0
0.329570 0.702023 0.096109 0.8 0 0
0.735891 0.335178 0.150361 0.8 0 0
0.405043 0.477073 0.102440 0.8 0 0
0.771374 0.324607 0.209837 0.8 0 0
0.420862 0.536185 0.055340 0.8 0 0
0.626691 0.532736 0.106680 0.8 0 0
0.666137 0.360656 0.029308 0.8 0 0
0.433525 0.448815 0.118612 0.8 0 0
0.644095 0.238439 0.161488 0.8 0 0
0.630550 0.248852 0.197713 0.8 0 0
0.418686 0.464676 0.127576 0.8 0 0
0.677410 0.266710 0.106106 0.8 0 0
0.084419 0.889942 0.151672 0.8 0 0
0.348617 0.326087 0.112732 0.8 0 0
0.628335 0.243758 0.042901 0.8 0 0
0.415042 0.466330 0.095542 0.8 0 0
0.774920 0.314323 0.191064 0.8 0 0
0.751964 0.325094 0.077553 0.8 0 0
0.398205 0.541767 0.054730 0.8 0 0
0.399027 0.673952 0.059544 0.8 0 0
0.430281 0.658565 0.075497 0.8 0 0
0.544130 0.541496 0.077214 0.8 0 0
0.356035 0.318142 0.110906 0.8 0 0
0.568086 0.508139 0.051684 0.8 0 0
0.808705 0.318859 0.049057 0.8 0 0
0.238783 0.719456 0.157426 0.8 0 0
0.356316 0.570687 0.059957 0.8 0 0
0.399878 0.453965 0.131175 0.8 0 0
0.255100 0.634915 0.095381 0.8 0 0
0.384534 0.526324 0.055529 0.8 0 0
0.281598 0.684211 0.084875 0.8 0 0
0.911522 0.348442 0.039184 0.8 0 0
0.307409 0.754614 0.153745 0.8 0 0
0.239528 0.650624 0.120254 0.8 0 0
0.635909 0.277692 0.113832 0.8 0 0
0.219878 0.770788 0.090715 0.8 0 0
0.676486 0.123272 0.049484 0.8 0 0
0.661463 0.226122 0.164168 0.8 0 0
0.283603 0.605487 0.154715 0.8 0 0
0.799455 0.500995 0.068555 0.8 0 0
0.610872 0.302972 0.032706 0.8 0 0
0.678810 0.268216 0.106052 0.8 0 0
0.613228 0.123276 0.058005 0.8 0 0
0.560957 0.328533 0.111996 0.8 0 0
0.342606 0.698303 0.074993 0.8 0 0
0.390860 0.209394 0.101024 0.8 0 0
0.392127 0.667854 0.147878 0.8 0 0
0.450549 0.321920 0.112209 0.8 0 0
0.510935 0.418398 0.043040 0.8 0 0
0.323011 0.564416 0.146907 0.8 0 0
0.360838 0.667266 0.149929 0.8 0 0
0.687060 0.195048 0.163392 0.8 0 0
0.888839 0.337992 0.043859 0.8 0 0
0.394532 0.297837 0.108431 0.8 0 0
0.597501 0.631421 0.105782 0.8 0 0
0.729976 0.229804 0.097157 0.8 0 0
0.671987 0.432538 0.101384 0.8 0 0
0.436205 0.569215 0.149329 0.8 0 0
0.485329 0.515118 0.053428 0.8 0 0
0.647643 0.412591 0.114591 0.8 0 0
0.692555 0.189523 0.157146 0.8 0 0
0.741954 0.339719 0.178292 0.8 0 0
0.362005 0.247967 0.100787 0.8 0 0
0.737803 0.507012 0.081146 0.8 0 0
0.618057 0.408878 0.033840 0.8 0 0
0.666149 0.388519 0.120228 0.8 0 0
0.440483 0.535651 0.059668 0.8 0 0
0.362275 0.146212 0.089445 0.8 0 0
0.633263 0.212833 0.066305 0.8 0 0
0.562380 0.346255 0.133462 0.8 0 0
0.284546 0.601359 0.106463 0.8 0 0
0.672411 0.509849 0.105239 0.8 0 0
0.720117 0.328426 0.025477 0.8 0 0
0.486845 0.467702 0.047621 0.8 0 0
0.434580 0.229620 0.103223 0.8 0 0
0.473108 0.481218 0.048750 0.8 0 0
0.722656 0.246752 0.112080 0.8 0 0
0.460755 0.541536 0.057649 0.8 0 0
0.509096 0.501265 0.045984 0.8 0 0
0.820909 0.596344 0.064366 0.8 0 0
0.439083 0.211578 0.099113 0.8 0 0
0.521604 0.565389 0.088021 0.8 0 0
0.672543 0.393714 0.123332 0.8 0 0
0.396315 0.696073 0.114431 0.8 0 0
0.385344 0.244638 0.100591 0.8 0 0
0.416541 0.486984 0.143525 0.8 0 0
0.627452 0.516189 0.107654 0.8 0 0
0.344850 0.287958 0.106384 0.8 0 0
0.738710 0.336587 0.161395 0.8 0 0
0.621825 0.582157 0.104148 0.8 0 0
0.669390 0.396436 0.033036 0.8 0 0
0.685072 0.389999 0.038897 0.8 0 0
0.780264 0.646630 0.065659 0.8 0 0
0.252767 0.784325 0.111645 0.8 0 0
0.609841 0.160567 0.060075 0.8 0 0
0.598692 0.485120 0.073886 0.8 0 0
0.547197 0.327951 0.059555 0.8 0 0
0.355693 0.525985 0.073685 0.8 0 0
0.434830 0.280978 0.105652 0.8 0 0
0.571400 0.507760 0.054828 0.8 0 0
0.753995 0.454363 0.079002 0.8 0 0
0.731715 0.639275 0.076557 0.8 0 0
0.585433 0.533538 0.123576 0.8 0 0
0.555515 0.447041 0.129802 0.8 0 0
0.588249 0.302918 0.034629 0.8 0 0
0.493329 0.415516 0.133198 0.8 0 0
0.667914 0.369366 0.029140 0.8 0 0
0.461602 0.440055 0.045338 0.8 0 0
0.470112 0.620803 0.124909 0.8 0 0
0.638255 0.472267 0.105912 0.8 0 0
0.695782 0.301262 0.112839 0.8 0 0
0.588300 0.613117 0.109069 0.8 0 0
0.698548 0.565339 0.088981 0.8 0 0
0.455072 0.647596 0.136357 0.8 0 0
0.658298 0.498827 0.100538 0.8 0 0
0.476813 0.262197 0.106191 0.8 0 0
0.629725 0.193805 0.056476 0.8 0 0
0.716646 0.238388 0.070514 0.8 0 0
0.076918 0.926739 0.118149 0.8 0 0
0.181575 0.770974 0.140313 0.8 0 0
0.861399 0.558970 0.051876 0.8 0 0
0.548381 0.538909 0.104523 0.8 0 0
0.437050 0.445072 0.129161 0.8 0 0
0.776779 0.355610 0.053956 0.8 0 0
0.501111 0.269123 0.101021 0.8 0 0
0.691039 0.178754 0.204623 0.8 0 0
0.294216 0.653088 0.091630 0.8 0 0
0.497187 0.461884 0.134541 0.8 0 0
0.403021 0.334203 0.118823 0.8 0 0
0.401479 0.470513 0.136827 0.8 0 0
0.622391 0.600192 0.106418 0.8 0 0
0.621983 0.254697 0.088970 0.8 0 0
0.391928 0.581475 0.157083 0.8 0 0
0.622506 0.549412 0.106369 0.8 0 0
0.814695 0.571926 0.061571 0.8 0 0
0.384723 0.428611 0.127305 0.8 0 0
0.500985 0.556911 0.045414 0.8 0 0
0.676335 0.208734 0.079365 0.8 0 0
0.554814 0.295924 0.105211 0.8 0 0
0.831403 0.559972 0.062031 0.8 0 0
0.645805 0.051398 0.052268 0.8 0 0
0.651410 0.081132 0.052180 0.8 0 0
0.775210 0.285569 0.104954 0.8 0 0
0.399545 0.238648 0.106584 0.8 0 0
0.620520 0.466120 0.109283 0.8 0 0
0.602231 0.414128 0.122278 0.8 0 0
0.273107 0.680350 0.144824 0.8 0 0
0.208544 0.788097 0.168412 0.8 0 0
0.404403 0.575309 0.065573 0.8 0 0
0.681621 0.528167 0.094316 0.8 0 0
0.514906 0.387094 0.127721 0.8 0 0
0.589923 0.357284 0.121387 0.8 0 0
0.616107 0.351177 0.125598 0.8 0 0
0.479976 0.211175 0.092204 0.8 0 0
0.312764 0.706152 0.169799 0.8 0 0
0.132065 0.900938 0.133404 0.8 0 0
0.606403 0.535218 0.119180 0.8 0 0
0.686863 0.392913 0.051654 0.8 0 0
0.452925 0.637233 0.105677 0.8 0 0
0.709074 0.367613 0.046669 0.8 0 0
0.519363 0.369486 0.043707 0.8 0 0
0.112821 0.883385 0.161048 0.8 0 0
0.729313 0.447786 0.085821 0.8 0 0
0.302421 0.574628 0.150876 0.8 0 0
0.273802 0.757869 0.097839 0.8 0 0
0.639554 0.438197 0.109307 0.8 0 0
0.328111 0.199118 0.093274 0.8 0 0
0.780532 0.316525 0.051548 0.8 0 0
0.351465 0.721152 0.150609 0.8 0 0
0.170564 0.781920 0.127110 0.8 0 0
0.639004 0.226249 0.065482 0.8 0 0
0.734203 0.258298 0.048017 0.8 0 0
0.755454 0.320468 0.071910 0.8 0 0
0.415628 0.152659 0.088426 0.8 0 0
0.743147 0.344001 0.053874 0.8 0 0
0.529850 0.273007 0.102856 0.8 0 0
0.703933 0.299315 0.027776 0.8 0 0
0.840372 0.529030 0.058328 0.8 0 0
0.555115 0.545303 0.127835 0.8 0 0
0.107446 0.912926 0.152197 0.8 0 0
0.474923 0.403424 0.076124 0.8 0 0
0.738503 0.499638 0.081123 0.8 0 0
0.632737 0.355979 0.125772 0.8 0 0
0.164799 0.787622 0.119887 0.8 0 0
0.603831 0.277842 0.101562 0.8 0 0
0.415292 0.246900 0.107573 0.8 0 0
0.702233 0.562898 0.088371 0.8 0 0
0.684736 0.230907 0.031250 0.8 0 0
0.669420 0.212089 0.162882 0.8 0 0
0.295899 0.718843 0.086405 0.8 0 0
0.248788 0.772125 0.169900 0.8 0 0
0.815227 0.534120 0.065761 0.8 0 0
0.415305 0.208555 0.093733 0.8 0 0
0.722982 0.353598 0.062324 0.8 0 0
0.661534 0.102836 0.053298 0.8 0 0
0.092916 0.914836 0.155602 0.8 0 0
0.336233 0.616531 0.098269 0.8 0 0
0.526192 0.355231 0.051592 0.8 0 0
0.507506 0.261860 0.102810 0.8 0 0
0.345490 0.176929 0.090265 0.8 0 0
0.357469 0.541836 0.149889 0.8 0 0
0.421228 0.460644 0.105957 0.8 0 0
0.638968 0.286419 0.113851 0.8 0 0
0.632461 0.248049 0.096113 0.8 0 0
0.130064 0.903327 0.141611 0.8 0 0
0.679688 0.352615 0.112255 0.8 0 0
0.568938 0.617310 0.114463 0.8 0 0
0.203880 0.746792 0.143012 0.8 0 0
0.402305 0.695719 0.147268 0.8 0 0
0.566315 0.541805 0.126137 0.8 0 0
0.772821 0.627839 0.068606 0.8 0 0
0.709072 0.507886 0.094683 0.8 0 0
0.391663 0.704183 0.147939 0.8 0 0
0.354265 0.528865 0.095232 0.8 0 0
0.325478 0.698371 0.103790 0.8 0 0
0.445731 0.639376 0.144301 0.8 0 0
0.581402 0.295525 0.062674 0.8 0 0
0.607026 0.228434 0.063498 0.8 0 0
0.402490 0.510391 0.053291 0.8 0 0
0.453326 0.497506 0.140246 0.8 0 0
0.374075 0.639494 0.080348 0.8 0 0
0.348915 0.203343 0.096799 0.8 0 0
0.432072 0.447132 0.070047 0.8 0 0
0.056605 0.922993 0.136456 0.8 0 0
0.648319 0.122892 0.053188 0.8 0 0
0.482206 0.281451 0.103907 0.8 0 0
0.696412 0.445759 0.092370 0.8 0 0
0.220691 0.787931 0.171981 0.8 0 0
0.685473 0.483589 0.100163 0.8 0 0
0.568722 0.538518 0.126146 0.8 0 0
0.266844 0.686047 0.127791 0.8 0 0
0.076028 0.929173 0.150660 0.8 0 0
0.217378 0.673882 0.158272 0.8 0 0
0.594662 0.407040 0.124203 0.8 0 0
0.156377 0.812513 0.156793 0.8 0 0
0.327702 0.769164 0.152154 0.8 0 0
0.448031 0.430616 0.068666 0.8 0 0
0.496120 0.591924 0.092690 0.8 0 0
0.551630 0.357316 0.037103 0.8 0 0
0.285939 0.748244 0.148015 0.8 0 0
0.222684 0.676709 0.154460 0.8 0 0
0.806736 0.290645 0.202529 0.8 0 0
0.634724 0.226330 0.066608 0.8 0 0
0.634909 0.058495 0.053567 0.8 0 0
0.624317 0.626906 0.101943 0.8 0 0
0.666831 0.525872 0.097938 0.8 0 0
0.754662 0.330852 0.185778 0.8 0 0
0.212819 0.807768 0.160646 0.8 0 0
0.514586 0.516501 0.134841 0.8 0 0
0.700178 0.448915 0.094187 0.8 0 0
0.432369 0.591251 0.145077 0.8 0 0
0.536211 0.314144 0.111227 0.8 0 0
0.488477 0.464835 0.047363 0.8 0 0
0.248979 0.789370 0.138612 0.8 0 0
0.801861 0.285197 0.040356 0.8 0 0
0.509690 0.619607 0.125843 0.8 0 0
0.459286 0.566576 0.142226 0.8 0 0
0.619456 0.355160 0.039964 0.8 0 0
0.378131 0.242188 0.104646 0.8 0 0
0.532433 0.515782 0.133033 0.8 0 0
0.613575 0.322590 0.033394 0.8 0 0
0.651056 0.105310 0.052580 0.8 0 0
0.228112 0.809478 0.136239 0.8 0 0
0.288592 0.598551 0.127188 0.8 0 0
0.328675 0.693764 0.098601 0.8 0 0
0.742250 0.226016 0.109022 0.8 0 0
0.691902 0.543316 0.099991 0.8 0 0
0.934030 0.305462 0.033189 0.8 0 0
0.783685 0.540740 0.069439 0.8 0 0
0.604674 0.513077 0.112802 0.8 0 0
0.776390 0.312128 0.175659 0.8 0 0
0.224097 0.735423 0.096668 0.8 0 0
0.610644 0.119379 0.058973 0.8 0 0
0.742255 0.500571 0.080197 0.8 0 0
0.413902 0.571883 0.064498 0.8 0 0
0.607381 0.347678 0.119287 0.8 0 0
0.672038 0.208151 0.167418 0.8 0 0
0.228478 0.808401 0.117497 0.8 0 0
0.750189 0.649692 0.071859 0.8 0 0
0.531283 0.463482 0.045416 0.8 0 0
0.266277 0.768418 0.147399 0.8 0 0
0.651318 0.111062 0.052627 0.8 0 0
