0.930303 0.390764 0.100988 0.8 0 0
0.583447 0.337206 0.090518 0.8 0 0
0.548231 0.301484 0.094465 0.8 0 0
0.321338 0.369460 0.082574 0.8 0 0
0.530788 0.383681 0.106184 0.8 0 0
0.836221 0.310045 0.067913 0.8 0 0
0.622205 0.286255 0.095035 0.8 0 0
0.813246 0.455161 0.046223 0.8 0 0
0.827205 0.494616 0.094397 0.8 0 0
0.733017 0.372722 0.060149 0.8 0 0
0.483057 0.406261 0.105430 0.8 0 0
0.328509 0.384536 0.063512 0.8 0 0
0.556847 0.375892 0.082863 0.8 0 0
0.424159 0.408854 0.100471 0.8 0 0
0.176680 0.366256 0.090249 0.8 0 0
0.557189 0.374016 0.106504 0.8 0 0
0.506468 0.398087 0.117357 0.8 0 0
0.186364 0.401677 0.126475 0.8 0 0
0.502397 0.350099 0.094525 0.8 0 0
0.470157 0.427384 0.095511 0.8 0 0
0.658108 0.294317 0.097435 0.8 0 0
0.252009 0.372535 0.073992 0.8 0 0
0.370947 0.315625 0.068225 0.8 0 0
0.169870 0.366626 0.087074 0.8 0 0
0.718269 0.471901 0.097740 0.8 0 0
0.685967 0.198739 0.089225 0.8 0 0
0.776958 0.327057 0.074089 0.8 0 0
0.811944 0.363059 0.112671 0.8 0 0
0.822219 0.470509 0.109454 0.8 0 0
0.573975 0.485213 0.092936 0.8 0 0
0.498534 0.406240 0.094284 0.8 0 0
0.768965 0.431088 0.110534 0.8 0 0
0.319134 0.397796 0.119158 0.8 0 0
0.252814 0.387912 0.121321 0.8 0 0
0.791486 0.748709 0.085180 0.8 0 0
0.444694 0.428563 0.088758 0.8 0 0
0.901465 0.439805 0.109870 0.8 0 0
0.283629 0.346100 0.089378 0.8 0 0
0.512839 0.422305 0.073971 0.8 0 0
0.720878 0.448818 0.086199 0.8 0 0
0.438707 0.448468 0.097147 0.8 0 0
0.863361 0.763890 0.085411 0.8 0 0
0.514940 0.492115 0.072784 0.8 0 0
0.840876 0.714439 0.089642 0.8 0 0
0.834002 0.463242 0.153699 0.8 0 0
0.749022 0.542199 0.097860 0.8 0 0
0.405730 0.391977 0.130592 0.8 0 0
0.950149 0.214026 0.071427 0.8 0 0
0.777032 0.338822 0.078234 0.8 0 0
0.551111 0.446362 0.106147 0.8 0 0
0.570722 0.397569 0.115638 0.8 0 0
0.107545 0.412216 0.099022 0.8 0 0
0.746356 0.240713 0.093218 0.8 0 0
0.551187 0.357928 0.094907 0.8 0 0
0.098848 0.383623 0.063586 0.8 0 0
0.196149 0.414954 0.062849 0.8 0 0
0.646497 0.564763 0.090496 0.8 0 0
0.571014 0.422510 0.106406 0.8 0 0
0.731719 0.443518 0.069980 0.8 0 0
0.407578 0.409993 0.128774 0.8 0 0
0.823466 0.655061 0.091652 0.8 0 0
0.297261 0.370291 0.126761 0.8 0 0
0.569537 0.441751 0.103252 0.8 0 0
0.863433 0.462139 0.134634 0.8 0 0
0.557948 0.463511 0.092936 0.8 0 0
0.218671 0.426584 0.119996 0.8 0 0
0.649125 0.309490 0.094696 0.8 0 0
0.886466 0.468955 0.101454 0.8 0 0
0.163178 0.393471 0.056713 0.8 0 0
0.860565 0.459082 0.054413 0.8 0 0
0.536857 0.346568 0.045452 0.8 0 0
0.623365 0.368742 0.110453 0.8 0 0
0.814254 0.689155 0.087214 0.8 0 0
0.568605 0.420868 0.087279 0.8 0 0
0.368517 0.361211 0.064783 0.8 0 0
0.422096 0.366613 0.098427 0.8 0 0
0.657189 0.477302 0.094708 0.8 0 0
0.781062 0.591308 0.092534 0.8 0 0
0.224254 0.392844 0.140600 0.8 0 0
0.804129 0.470058 0.074145 0.8 0 0
0.883240 0.254664 0.070565 0.8 0 0
0.687498 0.162980 0.089277 0.8 0 0
0.757065 0.397327 0.106846 0.8 0 0
0.225459 0.402361 0.057720 0.8 0 0
0.703447 0.474014 0.085322 0.8 0 0
0.190832 0.422349 0.069913 0.8 0 0
0.279831 0.427226 0.117594 0.8 0 0
0.156813 0.399799 0.115823 0.8 0 0
0.724340 0.474307 0.095212 0.8 0 0
0.434930 0.351150 0.104244 0.8 0 0
0.473967 0.495007 0.097879 0.8 0 0
0.903602 0.323373 0.104791 0.8 0 0
0.342592 0.476495 0.100244 0.8 0 0
0.370003 0.344041 0.099761 0.8 0 0
0.625185 0.515994 0.106816 0.8 0 0
0.686040 0.194499 0.089113 0.8 0 0
0.403246 0.415109 0.127563 0.8 0 0
0.836483 0.444360 0.110228 0.8 0 0
0.512719 0.358533 0.105715 0.8 0 0
0.229297 0.422873 0.073377 0.8 0 0
0.292900 0.398083 0.144592 0.8 0 0
0.813810 0.343050 0.106130 0.8 0 0
0.515523 0.424448 0.101963 0.8 0 0
0.680070 0.346503 0.046206 0.8 0 0
0.729520 0.197395 0.089393 0.8 0 0
0.763342 0.612756 0.095838 0.8 0 0
0.729449 0.346640 0.085872 0.8 0 0
0.500642 0.375924 0.105658 0.8 0 0
0.514348 0.434327 0.051640 0.8 0 0
0.949850 0.593501 0.072181 0.8 0 0
0.620750 0.412708 0.108537 0.8 0 0
0.383603 0.389218 0.104007 0.8 0 0
0.419405 0.340783 0.103619 0.8 0 0
0.825745 0.072848 0.085386 0.8 0 0
0.489516 0.285934 0.101856 0.8 0 0
0.394118 0.366738 0.093983 0.8 0 0
0.420771 0.397173 0.099542 0.8 0 0
0.829115 0.447599 0.074141 0.8 0 0
0.471301 0.364879 0.105158 0.8 0 0
0.900212 0.439125 0.079524 0.8 0 0
0.182953 0.376525 0.114540 0.8 0 0
0.510141 0.428981 0.094436 0.8 0 0
0.805329 0.367356 0.097019 0.8 0 0
0.836923 0.394980 0.108508 0.8 0 0
0.601996 0.466880 0.107616 0.8 0 0
0.786662 0.330129 0.087679 0.8 0 0
0.588486 0.522841 0.101247 0.8 0 0
0.454728 0.402559 0.095913 0.8 0 0
0.601049 0.276899 0.104824 0.8 0 0
0.760194 0.301504 0.070650 0.8 0 0
0.559956 0.398200 0.091886 0.8 0 0
0.492016 0.442214 0.094945 0.8 0 0
0.755430 0.570213 0.097016 0.8 0 0
0.477937 0.370990 0.101830 0.8 0 0
0.812470 0.484933 0.106561 0.8 0 0
0.644140 0.440095 0.091066 0.8 0 0
0.713590 0.399104 0.106964 0.8 0 0
0.842477 0.475546 0.092791 0.8 0 0
0.284958 0.392249 0.057846 0.8 0 0
0.843335 0.421953 0.097157 0.8 0 0
0.852200 0.448494 0.106231 0.8 0 0
0.556125 0.479622 0.093422 0.8 0 0
0.720213 0.467639 0.083538 0.8 0 0
0.888451 0.437728 0.098366 0.8 0 0
0.583452 0.473295 0.105904 0.8 0 0
0.430062 0.490225 0.102169 0.8 0 0
0.350144 0.397087 0.118957 0.8 0 0
0.912362 0.346488 0.062033 0.8 0 0
0.821606 0.444711 0.090906 0.8 0 0
0.794990 0.327937 0.114864 0.8 0 0
0.688809 0.396558 0.112478 0.8 0 0
0.499070 0.476527 0.101460 0.8 0 0
0.571135 0.390712 0.091514 0.8 0 0
0.578224 0.337998 0.106244 0.8 0 0
0.867903 0.355004 0.060182 0.8 0 0
0.528360 0.431672 0.106003 0.8 0 0
0.472952 0.351060 0.102157 0.8 0 0
0.517753 0.304811 0.103913 0.8 0 0
0.551656 0.366098 0.092456 0.8 0 0
0.733647 0.327344 0.100063 0.8 0 0
0.491897 0.414030 0.114506 0.8 0 0
0.595992 0.539955 0.099723 0.8 0 0
0.716600 0.620036 0.088410 0.8 0 0
0.704390 0.357604 0.100730 0.8 0 0
0.541574 0.409430 0.106390 0.8 0 0
0.664924 0.339165 0.092734 0.8 0 0
0.212384 0.411536 0.061612 0.8 0 0
0.375915 0.402624 0.062075 0.8 0 0
0.566580 0.401785 0.113417 0.8 0 0
0.799047 0.088173 0.085425 0.8 0 0
0.919393 0.449172 0.105916 0.8 0 0
0.906409 0.336090 0.059335 0.8 0 0
0.482426 0.366526 0.094851 0.8 0 0
0.433971 0.402316 0.067246 0.8 0 0
0.516815 0.401514 0.104213 0.8 0 0
0.856586 0.408722 0.102290 0.8 0 0
0.905012 0.484439 0.088371 0.8 0 0
0.544188 0.450453 0.105927 0.8 0 0
0.445936 0.493988 0.102245 0.8 0 0
0.715265 0.353100 0.095883 0.8 0 0
0.767070 0.437809 0.107322 0.8 0 0
0.206066 0.370067 0.120519 0.8 0 0
0.679196 0.346794 0.107789 0.8 0 0
0.796886 0.390429 0.107318 0.8 0 0
0.926243 0.264310 0.075101 0.8 0 0
0.903879 0.285085 0.076812 0.8 0 0
0.620814 0.357349 0.106457 0.8 0 0
0.456071 0.378002 0.105000 0.8 0 0
0.564671 0.340982 0.106100 0.8 0 0
0.889011 0.350764 0.112932 0.8 0 0
0.741997 0.299066 0.076959 0.8 0 0
0.778421 0.586128 0.092765 0.8 0 0
0.589256 0.498316 0.105190 0.8 0 0
0.521617 0.270186 0.099438 0.8 0 0
0.135258 0.382904 0.106662 0.8 0 0
0.412003 0.349879 0.104153 0.8 0 0
0.282926 0.429410 0.098464 0.8 0 0
0.548854 0.357465 0.103798 0.8 0 0
0.819246 0.487977 0.069687 0.8 0 0
0.467257 0.301567 0.102579 0.8 0 0
0.085177 0.398311 0.096723 0.8 0 0
0.798842 0.474348 0.101941 0.8 0 0
0.533202 0.332581 0.093834 0.8 0 0
0.644927 0.480075 0.048284 0.8 0 0
0.449668 0.485489 0.091078 0.8 0 0
0.838085 0.452863 0.061872 0.8 0 0
0.421282 0.399681 0.129214 0.8 0 0
0.866636 0.363044 0.098115 0.8 0 0
0.862066 0.457899 0.116301 0.8 0 0
0.482399 0.408741 0.101786 0.8 0 0
0.518238 0.513153 0.097370 0.8 0 0
0.240308 0.426137 0.081447 0.8 0 0
0.714625 0.462775 0.096883 0.8 0 0
0.685501 0.354418 0.108304 0.8 0 0
0.377535 0.337964 0.100239 0.8 0 0
0.733978 0.594545 0.089617 0.8 0 0
0.290953 0.383792 0.122708 0.8 0 0
0.417932 0.399024 0.104579 0.8 0 0
0.765467 0.404782 0.109320 0.8 0 0
0.680584 0.392931 0.093488 0.8 0 0
0.550586 0.446613 0.104550 0.8 0 0
0.347386 0.421393 0.125367 0.8 0 0
0.258568 0.403770 0.148383 0.8 0 0
0.670249 0.568827 0.090196 0.8 0 0
0.640560 0.375731 0.079631 0.8 0 0
0.504359 0.287202 0.102254 0.8 0 0
0.761624 0.330043 0.062213 0.8 0 0
0.675267 0.393121 0.092438 0.8 0 0
0.504414 0.364427 0.054707 0.8 0 0
0.469704 0.423259 0.095508 0.8 0 0
0.424646 0.346955 0.101111 0.8 0 0
0.224310 0.402496 0.118010 0.8 0 0
0.745500 0.099962 0.086844 0.8 0 0
0.841941 0.482854 0.111954 0.8 0 0
0.711142 0.514950 0.094146 0.8 0 0
0.342206 0.376876 0.129767 0.8 0 0
0.795474 0.479489 0.109854 0.8 0 0
0.725820 0.489633 0.094195 0.8 0 0
0.557532 0.367381 0.103717 0.8 0 0
0.549313 0.488922 0.095069 0.8 0 0
0.522187 0.446142 0.046283 0.8 0 0
0.442641 0.479829 0.099689 0.8 0 0
0.683584 0.429945 0.108842 0.8 0 0
0.630341 0.442873 0.092138 0.8 0 0
0.530169 0.442563 0.105909 0.8 0 0
0.345540 0.366736 0.093301 0.8 0 0
0.225701 0.367407 0.087331 0.8 0 0
0.480083 0.333430 0.047001 0.8 0 0
0.553332 0.269831 0.101995 0.8 0 0
0.745738 0.377430 0.073778 0.8 0 0
0.320614 0.381515 0.132122 0.8 0 0
0.813482 0.467484 0.082672 0.8 0 0
0.814379 0.427621 0.096996 0.8 0 0
0.331906 0.399903 0.104095 0.8 0 0
0.412518 0.417850 0.104405 0.8 0 0
0.397827 0.417746 0.126601 0.8 0 0
0.567411 0.313323 0.105400 0.8 0 0
0.474852 0.424322 0.095322 0.8 0 0
0.846421 0.334840 0.155678 0.8 0 0
0.612545 0.402387 0.091372 0.8 0 0
0.421220 0.442880 0.050482 0.8 0 0
0.915345 0.236346 0.073789 0.8 0 0
0.554202 0.491331 0.089118 0.8 0 0
0.902528 0.335001 0.112501 0.8 0 0
0.843159 0.337163 0.140195 0.8 0 0
0.353990 0.414723 0.131866 0.8 0 0
0.605195 0.378562 0.070233 0.8 0 0
0.629290 0.533709 0.091516 0.8 0 0
0.916201 0.307827 0.076665 0.8 0 0
0.733362 0.447006 0.087685 0.8 0 0
0.559091 0.388440 0.091985 0.8 0 0
0.775517 0.632093 0.089199 0.8 0 0
0.404711 0.408065 0.129777 0.8 0 0
0.202286 0.428177 0.106728 0.8 0 0
0.860173 0.449423 0.115838 0.8 0 0
0.613589 0.557597 0.092435 0.8 0 0
0.512408 0.398099 0.075250 0.8 0 0
0.896592 0.313806 0.074262 0.8 0 0
0.689653 0.418002 0.075206 0.8 0 0
0.728673 0.325648 0.067704 0.8 0 0
0.618472 0.366975 0.049415 0.8 0 0
0.827745 0.328157 0.075582 0.8 0 0
0.821669 0.463436 0.060139 0.8 0 0
0.814121 0.415071 0.110692 0.8 0 0
0.665900 0.485303 0.103717 0.8 0 0
0.605221 0.480236 0.104637 0.8 0 0
0.389030 0.355128 0.100029 0.8 0 0
0.900027 0.300827 0.071364 0.8 0 0
0.083381 0.412736 0.088757 0.8 0 0
0.531539 0.361099 0.093253 0.8 0 0
0.786846 0.635351 0.094099 0.8 0 0
0.914039 0.480546 0.095803 0.8 0 0
0.850427 0.336844 0.100174 0.8 0 0
0.289877 0.378122 0.066603 0.8 0 0
0.621784 0.481847 0.108830 0.8 0 0
0.641401 0.395919 0.091737 0.8 0 0
0.828966 0.472485 0.086429 0.8 0 0
0.736618 0.429453 0.102213 0.8 0 0
0.482374 0.419826 0.075589 0.8 0 0
0.213925 0.369067 0.119600 0.8 0 0
0.884735 0.421696 0.110621 0.8 0 0
0.704992 0.361600 0.073621 0.8 0 0
0.319072 0.427460 0.114790 0.8 0 0
0.807630 0.370200 0.110556 0.8 0 0
0.370221 0.445513 0.054839 0.8 0 0
0.834430 0.307243 0.070718 0.8 0 0
0.717561 0.374965 0.094876 0.8 0 0
0.435794 0.297574 0.100765 0.8 0 0
0.876941 0.334072 0.161341 0.8 0 0
0.176122 0.406370 0.119407 0.8 0 0
0.540582 0.401059 0.100252 0.8 0 0
0.178671 0.429672 0.089338 0.8 0 0
0.459942 0.484783 0.103298 0.8 0 0
0.388518 0.419999 0.099718 0.8 0 0
0.763927 0.235160 0.096689 0.8 0 0
0.741651 0.496052 0.080034 0.8 0 0
0.911958 0.511062 0.076398 0.8 0 0
0.501646 0.422543 0.094306 0.8 0 0
0.587411 0.376742 0.107094 0.8 0 0
0.410184 0.351249 0.051366 0.8 0 0
0.770444 0.110334 0.094216 0.8 0 0
0.719438 0.361988 0.095379 0.8 0 0
0.684604 0.389378 0.106332 0.8 0 0
0.443104 0.428439 0.088305 0.8 0 0
0.903359 0.470289 0.098969 0.8 0 0
0.836178 0.305254 0.070713 0.8 0 0
0.574553 0.487309 0.105302 0.8 0 0
0.815365 0.349721 0.090665 0.8 0 0
0.891427 0.413383 0.110734 0.8 0 0
0.749975 0.399670 0.107787 0.8 0 0
0.816205 0.451897 0.118483 0.8 0 0
0.751962 0.391745 0.107841 0.8 0 0
0.422781 0.361416 0.100709 0.8 0 0
0.657795 0.480095 0.094954 0.8 0 0
0.515456 0.355346 0.103058 0.8 0 0
0.434558 0.401942 0.127365 0.8 0 0
0.906759 0.367690 0.100138 0.8 0 0
0.611539 0.399068 0.088039 0.8 0 0
0.151341 0.418807 0.065687 0.8 0 0
0.259950 0.410015 0.059934 0.8 0 0
0.708749 0.588620 0.099008 0.8 0 0
0.620903 0.284238 0.092214 0.8 0 0
0.780587 0.099951 0.093668 0.8 0 0
0.767245 0.452561 0.051747 0.8 0 0
0.539529 0.417438 0.103153 0.8 0 0
0.831694 0.404704 0.108457 0.8 0 0
0.608217 0.319882 0.087415 0.8 0 0
0.645791 0.391804 0.106960 0.8 0 0
0.501460 0.305677 0.067131 0.8 0 0
0.208636 0.401464 0.135758 0.8 0 0
0.376320 0.361343 0.091504 0.8 0 0
0.309424 0.413356 0.124620 0.8 0 0
0.384605 0.368456 0.103858 0.8 0 0
0.804643 0.453461 0.052149 0.8 0 0
0.857050 0.463651 0.070617 0.8 0 0
0.923954 0.473818 0.086197 0.8 0 0
0.812477 0.420112 0.087229 0.8 0 0
0.396674 0.424838 0.121415 0.8 0 0
0.842556 0.335250 0.054620 0.8 0 0
0.598045 0.450011 0.107711 0.8 0 0
0.798047 0.300530 0.092382 0.8 0 0
0.455095 0.424908 0.104825 0.8 0 0
0.855308 0.330139 0.106319 0.8 0 0
0.706778 0.310494 0.101263 0.8 0 0
0.182670 0.410985 0.116537 0.8 0 0
0.846089 0.404926 0.101841 0.8 0 0
0.467084 0.354381 0.095787 0.8 0 0
0.627608 0.424923 0.106882 0.8 0 0
0.369221 0.329296 0.102731 0.8 0 0
0.413161 0.397524 0.102916 0.8 0 0
0.814147 0.501963 0.073142 0.8 0 0
0.614264 0.392603 0.107215 0.8 0 0
0.798879 0.070893 0.084675 0.8 0 0
0.492103 0.355683 0.094813 0.8 0 0
0.700797 0.496982 0.066528 0.8 0 0
0.553169 0.424705 0.106135 0.8 0 0
0.933757 0.530732 0.074706 0.8 0 0
0.775569 0.428964 0.105783 0.8 0 0
0.348628 0.339112 0.100758 0.8 0 0
0.452374 0.379046 0.096066 0.8 0 0
0.614550 0.420708 0.109691 0.8 0 0
0.445264 0.386867 0.104907 0.8 0 0
0.735937 0.486705 0.099416 0.8 0 0
0.826989 0.385093 0.102772 0.8 0 0
0.586250 0.491207 0.093099 0.8 0 0
0.404370 0.420561 0.069564 0.8 0 0
0.785854 0.460151 0.046977 0.8 0 0
0.740334 0.319842 0.099486 0.8 0 0
0.876452 0.442901 0.101625 0.8 0 0
0.295501 0.384546 0.061528 0.8 0 0
0.378362 0.365783 0.103725 0.8 0 0
0.742219 0.470143 0.099474 0.8 0 0
0.570891 0.370371 0.096895 0.8 0 0
0.382519 0.411698 0.103979 0.8 0 0
0.611414 0.451974 0.105893 0.8 0 0
0.527825 0.423340 0.102728 0.8 0 0
0.314090 0.408422 0.139837 0.8 0 0
0.659123 0.334763 0.093497 0.8 0 0
0.631739 0.325189 0.091312 0.8 0 0
0.620169 0.391394 0.104120 0.8 0 0
0.867354 0.334826 0.062283 0.8 0 0
0.726312 0.418711 0.064831 0.8 0 0
0.594260 0.432315 0.095262 0.8 0 0
0.606807 0.377334 0.106071 0.8 0 0
0.878640 0.476450 0.103411 0.8 0 0
0.650447 0.436597 0.096438 0.8 0 0
0.880433 0.429023 0.110516 0.8 0 0
0.792158 0.061876 0.084444 0.8 0 0
0.246182 0.405141 0.144463 0.8 0 0
0.862721 0.452083 0.069765 0.8 0 0
0.898366 0.334197 0.157308 0.8 0 0
0.792631 0.398024 0.101295 0.8 0 0
0.813441 0.324492 0.104114 0.8 0 0
0.394941 0.327572 0.102660 0.8 0 0
0.378278 0.315111 0.080158 0.8 0 0
0.659847 0.233485 0.100570 0.8 0 0
0.477021 0.428844 0.102032 0.8 0 0
0.903105 0.276898 0.076338 0.8 0 0
0.463882 0.378326 0.073693 0.8 0 0
0.723563 0.362153 0.082524 0.8 0 0
0.649273 0.495477 0.078033 0.8 0 0
0.248055 0.385783 0.118022 0.8 0 0
0.699365 0.399462 0.108578 0.8 0 0
0.155856 0.408934 0.058489 0.8 0 0
0.464382 0.388234 0.121679 0.8 0 0
0.579315 0.424984 0.104178 0.8 0 0
0.583232 0.532079 0.095802 0.8 0 0
0.462296 0.300915 0.098194 0.8 0 0
0.820297 0.334605 0.108010 0.8 0 0
0.426165 0.401549 0.096987 0.8 0 0
0.369181 0.315776 0.070931 0.8 0 0
0.162488 0.396584 0.117152 0.8 0 0
0.830775 0.410227 0.106185 0.8 0 0
0.466784 0.377502 0.101475 0.8 0 0
0.384898 0.340887 0.100330 0.8 0 0
0.509221 0.467060 0.104925 0.8 0 0
0.232000 0.374031 0.133413 0.8 0 0
0.821021 0.089207 0.091503 0.8 0 0
0.681262 0.568279 0.090289 0.8 0 0
0.904288 0.430302 0.097129 0.8 0 0
0.716975 0.331710 0.081670 0.8 0 0
0.489736 0.394784 0.105572 0.8 0 0
0.513286 0.430510 0.105456 0.8 0 0
0.793852 0.087180 0.092984 0.8 0 0
0.535682 0.377741 0.092954 0.8 0 0
0.400754 0.475964 0.102646 0.8 0 0
0.510714 0.321748 0.102752 0.8 0 0
0.468615 0.415535 0.072375 0.8 0 0
0.671837 0.418613 0.102324 0.8 0 0
0.608294 0.291539 0.092531 0.8 0 0
0.274464 0.395022 0.132653 0.8 0 0
0.430255 0.417127 0.123420 0.8 0 0
0.852716 0.461647 0.128506 0.8 0 0
0.455095 0.343504 0.101997 0.8 0 0
0.493725 0.464462 0.104757 0.8 0 0
0.556387 0.358279 0.103955 0.8 0 0
0.581290 0.402108 0.107042 0.8 0 0
0.411121 0.394153 0.130235 0.8 0 0
0.907816 0.299710 0.076969 0.8 0 0
0.612790 0.498208 0.103767 0.8 0 0
0.137860 0.424120 0.089071 0.8 0 0
0.601613 0.307916 0.092984 0.8 0 0
0.747170 0.327915 0.089272 0.8 0 0
0.689309 0.416239 0.107839 0.8 0 0
0.395353 0.429375 0.104294 0.8 0 0
0.579176 0.521662 0.100645 0.8 0 0
0.538160 0.476468 0.048448 0.8 0 0
0.779519 0.218025 0.093477 0.8 0 0
0.771128 0.480109 0.110241 0.8 0 0
0.106752 0.392339 0.058516 0.8 0 0
0.835206 0.069828 0.085785 0.8 0 0
0.798632 0.456660 0.119720 0.8 0 0
0.637726 0.498260 0.067014 0.8 0 0
0.841857 0.693798 0.089935 0.8 0 0
0.412006 0.348135 0.103791 0.8 0 0
0.506494 0.480170 0.095583 0.8 0 0
0.684344 0.444010 0.046777 0.8 0 0
0.749673 0.601680 0.097042 0.8 0 0
0.435287 0.413778 0.104711 0.8 0 0
0.665414 0.485117 0.051226 0.8 0 0
0.554369 0.302608 0.086627 0.8 0 0
0.682462 0.178677 0.088863 0.8 0 0
0.737925 0.483624 0.094886 0.8 0 0
0.871642 0.463145 0.066215 0.8 0 0
0.495880 0.370273 0.105417 0.8 0 0
0.497379 0.361361 0.105201 0.8 0 0
0.421849 0.379358 0.124842 0.8 0 0
0.853148 0.451294 0.072990 0.8 0 0
0.865989 0.309629 0.073688 0.8 0 0
0.218314 0.403948 0.139061 0.8 0 0
0.523196 0.354067 0.103278 0.8 0 0
0.890097 0.454706 0.057596 0.8 0 0
0.356573 0.397765 0.098938 0.8 0 0
0.767893 0.101182 0.085709 0.8 0 0
0.753130 0.495256 0.086931 0.8 0 0
0.339778 0.399703 0.106675 0.8 0 0
0.829726 0.409890 0.102509 0.8 0 0
0.207776 0.387920 0.135190 0.8 0 0
0.376048 0.339042 0.103183 0.8 0 0
0.297615 0.366752 0.107209 0.8 0 0
0.666113 0.377239 0.107680 0.8 0 0
0.609761 0.300999 0.093587 0.8 0 0
0.669239 0.354691 0.104178 0.8 0 0
0.762456 0.458520 0.099189 0.8 0 0
0.813372 0.449120 0.077529 0.8 0 0
0.925638 0.387063 0.107291 0.8 0 0
0.319629 0.361786 0.091316 0.8 0 0
0.523951 0.445562 0.046287 0.8 0 0
0.709399 0.175358 0.097614 0.8 0 0
0.369405 0.390065 0.103806 0.8 0 0
0.881215 0.466185 0.180560 0.8 0 0
0.455960 0.401207 0.101153 0.8 0 0
0.456962 0.421304 0.095972 0.8 0 0
0.845903 0.340447 0.116585 0.8 0 0
0.926313 0.384443 0.102866 0.8 0 0
0.436420 0.457944 0.104047 0.8 0 0
0.220268 0.421371 0.071315 0.8 0 0
0.695123 0.326324 0.091206 0.8 0 0
0.346250 0.462700 0.071880 0.8 0 0
0.450217 0.399468 0.104719 0.8 0 0
0.815590 0.361888 0.059836 0.8 0 0
0.125700 0.391677 0.108240 0.8 0 0
0.783104 0.689641 0.093902 0.8 0 0
0.753863 0.369756 0.097398 0.8 0 0
0.702505 0.368774 0.084565 0.8 0 0
0.789374 0.655950 0.093855 0.8 0 0
0.647648 0.316151 0.107470 0.8 0 0
0.531650 0.363666 0.097878 0.8 0 0
0.790037 0.607544 0.094386 0.8 0 0
0.954031 0.273662 0.073728 0.8 0 0
0.720577 0.315447 0.097256 0.8 0 0
0.681313 0.420936 0.106500 0.8 0 0
0.773534 0.321571 0.092208 0.8 0 0
0.813437 0.398324 0.109416 0.8 0 0
0.731005 0.492567 0.095366 0.8 0 0
0.558566 0.323823 0.093971 0.8 0 0
0.740371 0.523968 0.095166 0.8 0 0
0.533794 0.445253 0.105909 0.8 0 0
0.742795 0.207870 0.090584 0.8 0 0
0.772824 0.476760 0.054586 0.8 0 0
0.826121 0.460717 0.053743 0.8 0 0
0.554705 0.423031 0.103588 0.8 0 0
0.456192 0.367039 0.104821 0.8 0 0
0.884458 0.459058 0.105581 0.8 0 0
0.725157 0.431864 0.083460 0.8 0 0
0.523541 0.485085 0.055008 0.8 0 0
0.791694 0.409585 0.104925 0.8 0 0
0.424575 0.380791 0.104559 0.8 0 0
0.686405 0.251219 0.101174 0.8 0 0
0.596867 0.391317 0.086459 0.8 0 0
0.083178 0.405876 0.093936 0.8 0 0
0.367131 0.380271 0.130758 0.8 0 0
0.784588 0.640118 0.089129 0.8 0 0
0.743495 0.279233 0.098615 0.8 0 0
0.172115 0.429274 0.086718 0.8 0 0
0.333158 0.462437 0.076613 0.8 0 0
0.288809 0.424808 0.130868 0.8 0 0
0.462161 0.382696 0.071371 0.8 0 0
0.470075 0.459335 0.103335 0.8 0 0
0.637173 0.301897 0.080377 0.8 0 0
0.339931 0.386092 0.136755 0.8 0 0
0.764992 0.478840 0.110343 0.8 0 0
0.853410 0.437141 0.081077 0.8 0 0
0.750725 0.351312 0.094703 0.8 0 0
0.489482 0.364439 0.094801 0.8 0 0
0.712660 0.387140 0.101657 0.8 0 0
0.255569 0.389598 0.057862 0.8 0 0
0.869639 0.417342 0.110678 0.8 0 0
0.285349 0.397594 0.105965 0.8 0 0
0.422208 0.429811 0.087373 0.8 0 0
0.422906 0.355756 0.097452 0.8 0 0
0.400646 0.405202 0.099923 0.8 0 0
0.916032 0.394372 0.099232 0.8 0 0
0.885897 0.310485 0.071004 0.8 0 0
0.909575 0.393987 0.101989 0.8 0 0
0.619599 0.379628 0.091618 0.8 0 0
0.445110 0.399890 0.126151 0.8 0 0
0.493453 0.326950 0.104615 0.8 0 0
0.859529 0.527788 0.075340 0.8 0 0
0.092863 0.395315 0.099608 0.8 0 0
0.709129 0.400957 0.106872 0.8 0 0
0.898327 0.471327 0.111007 0.8 0 0
0.497928 0.469464 0.095372 0.8 0 0
0.552393 0.373541 0.061241 0.8 0 0
0.652993 0.362601 0.109397 0.8 0 0
0.656153 0.298812 0.075086 0.8 0 0
0.386765 0.424783 0.075202 0.8 0 0
0.764614 0.621783 0.095834 0.8 0 0
0.534698 0.400020 0.116413 0.8 0 0
0.740598 0.434763 0.085399 0.8 0 0
0.448636 0.460924 0.104152 0.8 0 0
0.586092 0.367701 0.104398 0.8 0 0
0.875997 0.331070 0.163169 0.8 0 0
0.840661 0.327650 0.071403 0.8 0 0
0.204598 0.372622 0.123979 0.8 0 0
0.515409 0.401422 0.101251 0.8 0 0
0.681585 0.475197 0.090003 0.8 0 0
0.548537 0.493943 0.094511 0.8 0 0
0.460074 0.371610 0.078957 0.8 0 0
0.546549 0.466173 0.093459 0.8 0 0
0.293720 0.352616 0.095678 0.8 0 0
0.791242 0.346115 0.092637 0.8 0 0
0.646168 0.343750 0.108997 0.8 0 0
0.235463 0.394773 0.144293 0.8 0 0
0.846822 0.737820 0.085986 0.8 0 0
0.442972 0.460090 0.105045 0.8 0 0
0.698886 0.326028 0.087865 0.8 0 0
0.418238 0.343923 0.103916 0.8 0 0
0.798032 0.348510 0.115484 0.8 0 0
0.180166 0.367856 0.078376 0.8 0 0
0.133359 0.407415 0.058083 0.8 0 0
0.614488 0.416406 0.091552 0.8 0 0
0.537396 0.365303 0.105794 0.8 0 0
0.344993 0.428834 0.107804 0.8 0 0
0.842094 0.444123 0.110190 0.8 0 0
0.885438 0.492455 0.078046 0.8 0 0
0.502411 0.491797 0.096350 0.8 0 0
0.856024 0.478382 0.085787 0.8 0 0
0.551756 0.391125 0.080645 0.8 0 0
0.776200 0.328655 0.100752 0.8 0 0
0.496292 0.372315 0.094477 0.8 0 0
0.242369 0.377504 0.066859 0.8 0 0
0.739151 0.401287 0.104514 0.8 0 0
0.523577 0.306240 0.061618 0.8 0 0
0.747402 0.372261 0.106592 0.8 0 0
0.745556 0.388329 0.090905 0.8 0 0
0.375297 0.450340 0.102797 0.8 0 0
0.871543 0.412455 0.104170 0.8 0 0
0.087072 0.388000 0.061871 0.8 0 0
0.732836 0.477154 0.098192 0.8 0 0
0.848996 0.333101 0.067310 0.8 0 0
0.275885 0.397027 0.121112 0.8 0 0
0.762658 0.243929 0.094396 0.8 0 0
0.714896 0.472328 0.089554 0.8 0 0
0.552350 0.496388 0.095762 0.8 0 0
0.462532 0.397801 0.118521 0.8 0 0
0.627816 0.508568 0.095237 0.8 0 0
0.691270 0.491580 0.102050 0.8 0 0
0.536334 0.316035 0.104906 0.8 0 0
0.668457 0.440016 0.092916 0.8 0 0
0.615232 0.257623 0.098231 0.8 0 0
0.207975 0.393190 0.115669 0.8 0 0
0.680254 0.456048 0.045668 0.8 0 0
0.351827 0.324442 0.101030 0.8 0 0
0.522914 0.375522 0.093452 0.8 0 0
0.584263 0.468667 0.044471 0.8 0 0
0.534528 0.402027 0.102136 0.8 0 0
0.603261 0.403844 0.106031 0.8 0 0
0.236421 0.374629 0.070835 0.8 0 0
0.318949 0.395642 0.107496 0.8 0 0
0.676419 0.386389 0.097333 0.8 0 0
0.804971 0.329319 0.102788 0.8 0 0
0.429430 0.398542 0.117301 0.8 0 0
0.366507 0.398584 0.116658 0.8 0 0
0.614490 0.535270 0.101634 0.8 0 0
0.440756 0.363147 0.096659 0.8 0 0
0.711518 0.412234 0.107017 0.8 0 0
0.694033 0.357832 0.097535 0.8 0 0
0.851116 0.722081 0.087981 0.8 0 0
0.598757 0.275931 0.094882 0.8 0 0
0.482327 0.330957 0.104559 0.8 0 0
0.601774 0.380032 0.108481 0.8 0 0
0.490311 0.345987 0.105289 0.8 0 0
0.866857 0.332460 0.103277 0.8 0 0
0.516729 0.312898 0.095147 0.8 0 0
0.749700 0.342105 0.094996 0.8 0 0
0.320679 0.414399 0.131805 0.8 0 0
0.561572 0.257625 0.099722 0.8 0 0
0.519908 0.309558 0.104215 0.8 0 0
0.377229 0.397238 0.107764 0.8 0 0
0.683849 0.417159 0.072255 0.8 0 0
0.721306 0.401565 0.107147 0.8 0 0
0.650362 0.418962 0.109708 0.8 0 0
0.466297 0.434628 0.101714 0.8 0 0
0.839235 0.450152 0.077612 0.8 0 0
0.373868 0.480344 0.083661 0.8 0 0
0.223283 0.420882 0.070723 0.8 0 0
0.924611 0.411714 0.104673 0.8 0 0
0.507744 0.280144 0.098012 0.8 0 0
0.823618 0.702723 0.086751 0.8 0 0
0.472035 0.396748 0.099580 0.8 0 0
0.738272 0.312190 0.099475 0.8 0 0
0.903860 0.393766 0.097692 0.8 0 0
0.560959 0.379746 0.108734 0.8 0 0
0.666378 0.483079 0.095702 0.8 0 0
0.503535 0.449574 0.098768 0.8 0 0
0.443700 0.310347 0.064392 0.8 0 0
0.803954 0.344866 0.098571 0.8 0 0
0.588787 0.286483 0.104530 0.8 0 0
0.713225 0.454317 0.045296 0.8 0 0
0.368271 0.381644 0.103750 0.8 0 0
0.598138 0.356523 0.091463 0.8 0 0
0.655397 0.289027 0.103657 0.8 0 0
0.426719 0.456186 0.103568 0.8 0 0
0.559043 0.510876 0.097098 0.8 0 0
0.553851 0.370371 0.106153 0.8 0 0
0.473429 0.395288 0.105409 0.8 0 0
0.815434 0.349665 0.102071 0.8 0 0
0.733832 0.406598 0.107769 0.8 0 0
0.223880 0.372667 0.122436 0.8 0 0
0.157534 0.422279 0.069310 0.8 0 0
0.156278 0.404624 0.114934 0.8 0 0
0.896127 0.335261 0.133229 0.8 0 0
0.373009 0.340913 0.099738 0.8 0 0
0.838419 0.709062 0.089875 0.8 0 0
0.943025 0.576065 0.070347 0.8 0 0
0.810834 0.368996 0.068619 0.8 0 0
0.806491 0.448669 0.098392 0.8 0 0
0.794153 0.309847 0.108872 0.8 0 0
0.641795 0.378526 0.106173 0.8 0 0
0.804868 0.342349 0.076954 0.8 0 0
0.202057 0.379049 0.128527 0.8 0 0
0.393505 0.325420 0.099570 0.8 0 0
0.643078 0.411179 0.091912 0.8 0 0
0.738038 0.428981 0.102791 0.8 0 0
0.529261 0.401384 0.113588 0.8 0 0
0.845279 0.345354 0.107051 0.8 0 0
0.830130 0.421705 0.082084 0.8 0 0
0.745099 0.388644 0.107701 0.8 0 0
0.285036 0.395022 0.128521 0.8 0 0
0.391297 0.436695 0.103797 0.8 0 0
0.739393 0.408710 0.088593 0.8 0 0
0.251628 0.384684 0.133875 0.8 0 0
0.466065 0.401320 0.105210 0.8 0 0
0.282828 0.427988 0.115378 0.8 0 0
0.438098 0.435183 0.053549 0.8 0 0
0.722492 0.388372 0.104266 0.8 0 0
0.615677 0.409436 0.110778 0.8 0 0
0.315419 0.422428 0.132887 0.8 0 0
0.839969 0.081720 0.087467 0.8 0 0
0.790298 0.302725 0.103700 0.8 0 0
0.697249 0.317024 0.049505 0.8 0 0
0.857822 0.406444 0.097037 0.8 0 0
0.417885 0.392269 0.104536 0.8 0 0
0.834219 0.306726 0.109063 0.8 0 0
0.252541 0.407598 0.124503 0.8 0 0
0.261582 0.421844 0.072285 0.8 0 0
0.762693 0.405891 0.107584 0.8 0 0
0.538382 0.446479 0.105947 0.8 0 0
0.733657 0.528745 0.094425 0.8 0 0
0.840870 0.754324 0.090442 0.8 0 0
0.628008 0.282532 0.092190 0.8 0 0
0.916285 0.411851 0.105160 0.8 0 0
0.398769 0.427477 0.100057 0.8 0 0
0.453206 0.424991 0.104799 0.8 0 0
0.835887 0.494513 0.095489 0.8 0 0
0.423220 0.420067 0.104474 0.8 0 0
0.869854 0.457530 0.131484 0.8 0 0
0.810567 0.331149 0.115796 0.8 0 0
0.386811 0.383971 0.104030 0.8 0 0
0.813289 0.322987 0.102142 0.8 0 0
0.462369 0.496352 0.098615 0.8 0 0
0.606976 0.515279 0.094844 0.8 0 0
0.294073 0.408282 0.141934 0.8 0 0
0.879758 0.430086 0.073972 0.8 0 0
0.138831 0.402524 0.056766 0.8 0 0
0.782259 0.201624 0.095063 0.8 0 0
0.604516 0.408360 0.111252 0.8 0 0
0.708396 0.405670 0.109195 0.8 0 0
0.729283 0.359197 0.085161 0.8 0 0
0.610447 0.284967 0.094656 0.8 0 0
0.910006 0.413280 0.104392 0.8 0 0
0.470902 0.453360 0.047168 0.8 0 0
0.368181 0.462575 0.100195 0.8 0 0
0.821520 0.447563 0.105451 0.8 0 0
0.832233 0.058205 0.091006 0.8 0 0
0.630164 0.574153 0.098350 0.8 0 0
0.658907 0.402408 0.109540 0.8 0 0
0.656612 0.300112 0.093088 0.8 0 0
0.754751 0.452750 0.097145 0.8 0 0
0.871668 0.521984 0.076279 0.8 0 0
0.409784 0.428501 0.088013 0.8 0 0
0.134574 0.423959 0.080441 0.8 0 0
0.265026 0.414306 0.140349 0.8 0 0
0.147693 0.400697 0.113737 0.8 0 0
0.473725 0.349687 0.047893 0.8 0 0
0.461312 0.353356 0.049582 0.8 0 0
0.763282 0.437791 0.106441 0.8 0 0
0.827857 0.316155 0.059905 0.8 0 0
0.220321 0.400694 0.057568 0.8 0 0
0.381858 0.397257 0.099486 0.8 0 0
0.633483 0.413075 0.107381 0.8 0 0
0.765701 0.583915 0.096191 0.8 0 0
0.914753 0.557641 0.073898 0.8 0 0
0.611698 0.451231 0.092035 0.8 0 0
0.613050 0.512118 0.094905 0.8 0 0
0.648105 0.454140 0.092874 0.8 0 0
0.838131 0.337347 0.138666 0.8 0 0
0.892911 0.391382 0.102024 0.8 0 0
0.552071 0.462263 0.044649 0.8 0 0
0.691284 0.412786 0.108120 0.8 0 0
0.692023 0.360937 0.108776 0.8 0 0
0.249988 0.421081 0.071047 0.8 0 0
0.327676 0.428429 0.110350 0.8 0 0
0.742010 0.263763 0.098439 0.8 0 0
0.545953 0.388142 0.106356 0.8 0 0
0.179840 0.415863 0.116645 0.8 0 0
0.530893 0.383796 0.078546 0.8 0 0
0.453291 0.396549 0.111055 0.8 0 0
0.588481 0.380757 0.104222 0.8 0 0
0.226303 0.392488 0.120755 0.8 0 0
0.781269 0.344099 0.050023 0.8 0 0
0.494222 0.389278 0.102038 0.8 0 0
0.613669 0.264714 0.091785 0.8 0 0
0.402589 0.423244 0.104211 0.8 0 0
0.430359 0.429162 0.087401 0.8 0 0
0.375950 0.357596 0.103176 0.8 0 0
0.635860 0.403622 0.107629 0.8 0 0
0.221095 0.370420 0.125898 0.8 0 0
0.948965 0.575496 0.072611 0.8 0 0
0.834757 0.745007 0.084268 0.8 0 0
0.680718 0.339130 0.095662 0.8 0 0
0.536640 0.319370 0.105094 0.8 0 0
0.500658 0.348451 0.104680 0.8 0 0
0.841549 0.700685 0.089836 0.8 0 0
0.812594 0.088587 0.092491 0.8 0 0
0.719918 0.363101 0.079362 0.8 0 0
0.834724 0.077284 0.090228 0.8 0 0
0.705667 0.395335 0.106783 0.8 0 0
0.543661 0.395363 0.103125 0.8 0 0
0.568408 0.363496 0.106585 0.8 0 0
0.577965 0.540255 0.097555 0.8 0 0
0.731869 0.497960 0.099599 0.8 0 0
0.386033 0.362642 0.057001 0.8 0 0
0.794567 0.465037 0.100360 0.8 0 0
0.563900 0.487399 0.093491 0.8 0 0
0.751570 0.377615 0.081561 0.8 0 0
0.903666 0.364936 0.098359 0.8 0 0
0.400958 0.398139 0.111553 0.8 0 0
0.939864 0.309162 0.075329 0.8 0 0
0.682890 0.424937 0.109039 0.8 0 0
0.489810 0.310754 0.094180 0.8 0 0
0.830269 0.396099 0.108707 0.8 0 0
0.890101 0.465947 0.191606 0.8 0 0
0.511287 0.406940 0.102431 0.8 0 0
0.798456 0.686859 0.086473 0.8 0 0
0.607441 0.415621 0.089132 0.8 0 0
0.602198 0.365890 0.091439 0.8 0 0
0.320066 0.368908 0.083922 0.8 0 0
0.610447 0.487040 0.104292 0.8 0 0
0.805013 0.398243 0.110670 0.8 0 0
0.147617 0.425069 0.092280 0.8 0 0
0.643559 0.401752 0.110164 0.8 0 0
0.746686 0.619302 0.088679 0.8 0 0
0.558553 0.312063 0.093464 0.8 0 0
0.451438 0.379155 0.104944 0.8 0 0
0.901829 0.367593 0.110362 0.8 0 0
0.403332 0.408371 0.129832 0.8 0 0
0.621331 0.392083 0.105797 0.8 0 0
0.511761 0.389572 0.093749 0.8 0 0
0.714949 0.331771 0.087748 0.8 0 0
0.499390 0.441228 0.104944 0.8 0 0
0.542162 0.365753 0.105864 0.8 0 0
0.678535 0.511734 0.092591 0.8 0 0
0.206789 0.374488 0.115792 0.8 0 0
0.371754 0.480067 0.082175 0.8 0 0
0.535439 0.353245 0.046833 0.8 0 0
0.780694 0.336031 0.078574 0.8 0 0
0.604215 0.411207 0.087928 0.8 0 0
0.215548 0.384897 0.061224 0.8 0 0
0.194023 0.427124 0.079715 0.8 0 0
0.147537 0.422469 0.098677 0.8 0 0
0.705212 0.346044 0.089335 0.8 0 0
0.669008 0.388066 0.110549 0.8 0 0
0.279610 0.369448 0.082310 0.8 0 0
0.526591 0.379495 0.093280 0.8 0 0
0.690259 0.396526 0.111994 0.8 0 0
0.739383 0.496505 0.077322 0.8 0 0
0.316806 0.468697 0.082524 0.8 0 0
0.794405 0.443545 0.051969 0.8 0 0
0.744580 0.599954 0.089790 0.8 0 0
0.652101 0.356594 0.096348 0.8 0 0
0.754655 0.457190 0.029446 0.8 0 0
0.709404 0.618247 0.088436 0.8 0 0
0.839513 0.366059 0.097595 0.8 0 0
0.607319 0.320814 0.087693 0.8 0 0
0.400658 0.421729 0.104149 0.8 0 0
0.473156 0.307146 0.103328 0.8 0 0
0.314265 0.372536 0.131770 0.8 0 0
0.293142 0.412032 0.142554 0.8 0 0
0.475195 0.378402 0.105256 0.8 0 0
0.849889 0.340640 0.115000 0.8 0 0
0.728053 0.440816 0.100788 0.8 0 0
0.801314 0.121430 0.087569 0.8 0 0
0.887062 0.380048 0.110660 0.8 0 0
0.551997 0.393421 0.103244 0.8 0 0
0.141295 0.392494 0.111981 0.8 0 0
0.759916 0.331919 0.100024 0.8 0 0
0.605256 0.496288 0.074175 0.8 0 0
0.705548 0.445537 0.104527 0.8 0 0
0.186112 0.396843 0.056503 0.8 0 0
0.841169 0.446348 0.096274 0.8 0 0
0.686813 0.539200 0.101413 0.8 0 0
0.811816 0.370668 0.110563 0.8 0 0
0.785695 0.429689 0.096725 0.8 0 0
0.635989 0.441695 0.106084 0.8 0 0
0.855780 0.429276 0.110585 0.8 0 0
0.888471 0.456506 0.112010 0.8 0 0
0.774710 0.430773 0.110538 0.8 0 0
0.522674 0.317458 0.104702 0.8 0 0
0.780485 0.328241 0.110124 0.8 0 0
0.335985 0.407582 0.061668 0.8 0 0
0.904251 0.334595 0.142551 0.8 0 0
0.509636 0.401222 0.108923 0.8 0 0
0.736118 0.407359 0.101876 0.8 0 0
0.600362 0.354844 0.088289 0.8 0 0
0.872464 0.472349 0.059905 0.8 0 0
0.672014 0.482685 0.096407 0.8 0 0
0.769292 0.201510 0.091643 0.8 0 0
0.625419 0.379562 0.092762 0.8 0 0
0.622248 0.251209 0.091363 0.8 0 0
0.499352 0.464033 0.095215 0.8 0 0
0.570231 0.358142 0.106566 0.8 0 0
0.693459 0.218014 0.099607 0.8 0 0
0.327407 0.399998 0.106391 0.8 0 0
0.729233 0.508477 0.099573 0.8 0 0
0.750567 0.352880 0.107778 0.8 0 0
0.631317 0.324457 0.093108 0.8 0 0
0.515359 0.465189 0.098966 0.8 0 0
0.452201 0.460078 0.096841 0.8 0 0
0.613058 0.446171 0.109227 0.8 0 0
0.714611 0.429271 0.087845 0.8 0 0
0.294721 0.372479 0.074390 0.8 0 0
0.374251 0.334756 0.053319 0.8 0 0
0.535582 0.472062 0.046906 0.8 0 0
0.405150 0.421219 0.104266 0.8 0 0
0.189965 0.367519 0.081149 0.8 0 0
0.401637 0.364117 0.070846 0.8 0 0
0.695361 0.360948 0.099166 0.8 0 0
0.607447 0.436740 0.105424 0.8 0 0
0.505718 0.396948 0.117356 0.8 0 0
0.540557 0.427408 0.092873 0.8 0 0
0.293975 0.411972 0.131685 0.8 0 0
0.400588 0.316092 0.102277 0.8 0 0
0.617710 0.402601 0.107374 0.8 0 0
0.720186 0.398044 0.100908 0.8 0 0
0.310661 0.378984 0.134455 0.8 0 0
0.694178 0.470299 0.091145 0.8 0 0
0.790832 0.474331 0.112664 0.8 0 0
0.612664 0.371094 0.106861 0.8 0 0
0.591217 0.466254 0.089614 0.8 0 0
0.695135 0.411301 0.109973 0.8 0 0
0.383909 0.370967 0.098709 0.8 0 0
0.629923 0.270279 0.097388 0.8 0 0
0.863467 0.288999 0.070611 0.8 0 0
0.284498 0.405080 0.143993 0.8 0 0
0.205735 0.372376 0.115861 0.8 0 0
0.601454 0.309097 0.106843 0.8 0 0
0.677968 0.482821 0.102966 0.8 0 0
0.747202 0.374580 0.065671 0.8 0 0
0.371435 0.435592 0.102875 0.8 0 0
0.438958 0.343757 0.105081 0.8 0 0
0.885061 0.332398 0.151512 0.8 0 0
0.220683 0.385024 0.139316 0.8 0 0
0.842681 0.408351 0.096853 0.8 0 0
0.845622 0.331349 0.074403 0.8 0 0
0.444156 0.408081 0.124837 0.8 0 0
0.562833 0.317919 0.093776 0.8 0 0
0.127214 0.403727 0.108716 0.8 0 0
0.470123 0.436418 0.105072 0.8 0 0
0.672950 0.303544 0.102510 0.8 0 0
0.495209 0.405275 0.102059 0.8 0 0
0.767823 0.439655 0.080712 0.8 0 0
0.425826 0.438993 0.104347 0.8 0 0
0.419685 0.379399 0.104485 0.8 0 0
0.827278 0.482958 0.063821 0.8 0 0
0.504758 0.356988 0.105539 0.8 0 0
0.427235 0.411197 0.097027 0.8 0 0
0.678431 0.239844 0.100703 0.8 0 0
0.547048 0.530180 0.098004 0.8 0 0
0.593395 0.325660 0.106672 0.8 0 0
0.296777 0.382064 0.137966 0.8 0 0
0.232905 0.428387 0.088696 0.8 0 0
0.811460 0.326628 0.089204 0.8 0 0
0.650540 0.369729 0.052687 0.8 0 0
0.769081 0.371034 0.110538 0.8 0 0
0.593181 0.418828 0.088941 0.8 0 0
0.755877 0.337594 0.035618 0.8 0 0
0.432841 0.405302 0.067403 0.8 0 0
0.251053 0.374210 0.133592 0.8 0 0
0.652960 0.192710 0.091757 0.8 0 0
0.734385 0.412520 0.107550 0.8 0 0
0.478925 0.390682 0.105396 0.8 0 0
0.512463 0.367053 0.088069 0.8 0 0
0.762741 0.454152 0.110478 0.8 0 0
0.668347 0.319467 0.105985 0.8 0 0
0.311334 0.366083 0.101067 0.8 0 0
0.172161 0.415458 0.061564 0.8 0 0
0.555043 0.451424 0.044633 0.8 0 0
0.456248 0.333993 0.104870 0.8 0 0
0.869100 0.478268 0.080780 0.8 0 0
0.411691 0.481920 0.098249 0.8 0 0
0.432642 0.461390 0.103305 0.8 0 0
0.300897 0.371732 0.124969 0.8 0 0
0.465636 0.401425 0.123139 0.8 0 0
0.611328 0.291068 0.106468 0.8 0 0
0.375838 0.479690 0.102339 0.8 0 0
0.282251 0.328093 0.093410 0.8 0 0
0.504169 0.405241 0.116606 0.8 0 0
0.726157 0.359807 0.083865 0.8 0 0
0.603534 0.540710 0.100279 0.8 0 0
0.461604 0.412036 0.105096 0.8 0 0
0.707648 0.312734 0.086985 0.8 0 0
0.638347 0.405658 0.111445 0.8 0 0
0.690038 0.442917 0.047234 0.8 0 0
0.830623 0.375171 0.087694 0.8 0 0
0.727760 0.390644 0.110250 0.8 0 0
0.907863 0.229915 0.073036 0.8 0 0
0.425991 0.364453 0.058535 0.8 0 0
0.452447 0.419841 0.096132 0.8 0 0
0.480638 0.461269 0.104642 0.8 0 0
0.256540 0.413600 0.135787 0.8 0 0
0.427529 0.447485 0.049690 0.8 0 0
0.616589 0.376081 0.091600 0.8 0 0
0.905080 0.343096 0.106599 0.8 0 0
0.535819 0.464715 0.104974 0.8 0 0
0.279086 0.424449 0.077105 0.8 0 0
0.686867 0.353754 0.090724 0.8 0 0
0.452800 0.421526 0.116943 0.8 0 0
0.568885 0.423527 0.100717 0.8 0 0
0.867761 0.490265 0.070819 0.8 0 0
0.484014 0.307772 0.087647 0.8 0 0
0.689574 0.206164 0.089478 0.8 0 0
0.378553 0.477202 0.103310 0.8 0 0
0.146023 0.390961 0.057134 0.8 0 0
0.636729 0.319463 0.108687 0.8 0 0
0.883183 0.336935 0.108648 0.8 0 0
0.745075 0.389980 0.109037 0.8 0 0
0.784011 0.689021 0.086056 0.8 0 0
0.637023 0.273496 0.104288 0.8 0 0
0.806014 0.396558 0.101382 0.8 0 0
0.408914 0.443275 0.098134 0.8 0 0
0.885825 0.346722 0.099272 0.8 0 0
0.395081 0.401383 0.104219 0.8 0 0
0.293527 0.352164 0.089305 0.8 0 0
0.658679 0.203382 0.090006 0.8 0 0
0.449122 0.368430 0.104745 0.8 0 0
0.678583 0.424624 0.083719 0.8 0 0
0.849846 0.339607 0.046694 0.8 0 0
0.641504 0.378478 0.107424 0.8 0 0
0.472549 0.368822 0.106953 0.8 0 0
0.762454 0.470983 0.090712 0.8 0 0
0.435622 0.467879 0.097964 0.8 0 0
0.359028 0.423582 0.123255 0.8 0 0
0.725475 0.416754 0.107969 0.8 0 0
0.628123 0.436802 0.088497 0.8 0 0
0.567404 0.480915 0.093038 0.8 0 0
0.692082 0.380627 0.106807 0.8 0 0
0.878210 0.548239 0.073129 0.8 0 0
0.908208 0.278389 0.070777 0.8 0 0
0.778142 0.409563 0.103461 0.8 0 0
0.391663 0.385184 0.098323 0.8 0 0
0.710141 0.380214 0.108141 0.8 0 0
0.578376 0.380395 0.103995 0.8 0 0
0.801039 0.465286 0.104290 0.8 0 0
0.891449 0.438235 0.098426 0.8 0 0
0.302003 0.317309 0.096781 0.8 0 0
0.683402 0.388853 0.110552 0.8 0 0
0.417952 0.414300 0.097386 0.8 0 0
0.660583 0.476513 0.094071 0.8 0 0
0.509190 0.365274 0.102635 0.8 0 0
0.428193 0.454551 0.101401 0.8 0 0
0.510810 0.312350 0.104180 0.8 0 0
0.319637 0.393311 0.127444 0.8 0 0
0.281482 0.366621 0.106956 0.8 0 0
0.297435 0.415845 0.064776 0.8 0 0
0.431751 0.300406 0.100178 0.8 0 0
0.802076 0.460015 0.110952 0.8 0 0
0.432742 0.370037 0.079492 0.8 0 0
0.386595 0.355614 0.098839 0.8 0 0
0.672276 0.328942 0.094628 0.8 0 0
0.378727 0.318366 0.103323 0.8 0 0
0.912034 0.334921 0.141967 0.8 0 0
0.906918 0.544042 0.074783 0.8 0 0
0.741825 0.441578 0.073913 0.8 0 0
0.115353 0.383354 0.101359 0.8 0 0
0.225083 0.423778 0.123934 0.8 0 0
0.714357 0.406378 0.107967 0.8 0 0
0.880362 0.469502 0.101512 0.8 0 0
0.860108 0.463731 0.082454 0.8 0 0
0.734047 0.496179 0.078078 0.8 0 0
0.667441 0.400118 0.100688 0.8 0 0
0.505302 0.361957 0.105313 0.8 0 0
0.895222 0.474918 0.105966 0.8 0 0
0.920599 0.521575 0.071291 0.8 0 0
0.878628 0.284095 0.076931 0.8 0 0
0.722988 0.302904 0.059691 0.8 0 0
0.329065 0.396142 0.059605 0.8 0 0
0.220867 0.370884 0.118383 0.8 0 0
0.408378 0.322050 0.103530 0.8 0 0
0.670048 0.569923 0.090150 0.8 0 0
0.656060 0.230434 0.090390 0.8 0 0
0.436393 0.425559 0.104692 0.8 0 0
0.763420 0.395607 0.108088 0.8 0 0
0.535129 0.444816 0.103817 0.8 0 0
0.698818 0.403547 0.111991 0.8 0 0
0.768377 0.610398 0.090391 0.8 0 0
0.748513 0.476317 0.051891 0.8 0 0
0.594210 0.453698 0.043969 0.8 0 0
0.691784 0.390517 0.106489 0.8 0 0
0.639855 0.423441 0.110083 0.8 0 0
0.632647 0.498507 0.068943 0.8 0 0
0.486071 0.325998 0.104411 0.8 0 0
0.433891 0.397088 0.110310 0.8 0 0
0.318088 0.368392 0.085169 0.8 0 0
0.592128 0.426921 0.091255 0.8 0 0
0.872366 0.342715 0.065956 0.8 0 0
0.760312 0.365192 0.110512 0.8 0 0
0.223790 0.391056 0.125712 0.8 0 0
0.421343 0.397431 0.104594 0.8 0 0
0.464065 0.399140 0.095530 0.8 0 0
0.616329 0.336319 0.092342 0.8 0 0
0.578009 0.372013 0.100518 0.8 0 0
0.703766 0.405575 0.109466 0.8 0 0
0.504851 0.406227 0.094044 0.8 0 0
0.276286 0.370417 0.123467 0.8 0 0
0.715437 0.368505 0.081193 0.8 0 0
0.257936 0.409209 0.144069 0.8 0 0
0.934733 0.387264 0.106002 0.8 0 0
0.582860 0.335492 0.091859 0.8 0 0
0.786383 0.445333 0.051090 0.8 0 0
0.582595 0.359107 0.046568 0.8 0 0
0.511169 0.354857 0.102741 0.8 0 0
0.563022 0.425789 0.106568 0.8 0 0
0.800378 0.664357 0.088247 0.8 0 0
0.806949 0.354976 0.110231 0.8 0 0
0.852883 0.360150 0.098159 0.8 0 0
0.757267 0.232699 0.093255 0.8 0 0
0.399957 0.425165 0.120710 0.8 0 0
0.791201 0.303523 0.075575 0.8 0 0
0.424010 0.324178 0.098367 0.8 0 0
0.538359 0.365934 0.105824 0.8 0 0
0.609787 0.395247 0.114193 0.8 0 0
0.193399 0.412214 0.126252 0.8 0 0
0.510540 0.312661 0.097067 0.8 0 0
0.520367 0.503058 0.103427 0.8 0 0
0.248794 0.418906 0.067964 0.8 0 0
0.533909 0.400962 0.100289 0.8 0 0
0.657128 0.314437 0.094827 0.8 0 0
0.452399 0.408168 0.069590 0.8 0 0
0.443986 0.358279 0.101961 0.8 0 0
0.897282 0.338444 0.114869 0.8 0 0
0.391102 0.413974 0.099748 0.8 0 0
0.717615 0.430818 0.094685 0.8 0 0
0.858591 0.390977 0.101879 0.8 0 0
0.525709 0.383415 0.077938 0.8 0 0
0.880611 0.465439 0.188187 0.8 0 0
0.837389 0.463203 0.118394 0.8 0 0
0.796831 0.334523 0.109874 0.8 0 0
0.621769 0.417246 0.107162 0.8 0 0
0.530728 0.419528 0.106143 0.8 0 0
0.771149 0.299670 0.089643 0.8 0 0
0.407517 0.402621 0.104403 0.8 0 0
0.531735 0.302109 0.077303 0.8 0 0
0.476369 0.451872 0.047139 0.8 0 0
0.897397 0.434342 0.106081 0.8 0 0
0.415664 0.437365 0.104214 0.8 0 0
0.887432 0.373812 0.097692 0.8 0 0
0.947600 0.203350 0.072468 0.8 0 0
0.767691 0.663582 0.095195 0.8 0 0
0.766325 0.451713 0.102534 0.8 0 0
0.844233 0.394080 0.101635 0.8 0 0
0.432777 0.359007 0.100975 0.8 0 0
0.268344 0.366871 0.109768 0.8 0 0
0.197748 0.367312 0.103516 0.8 0 0
0.822539 0.325746 0.109238 0.8 0 0
0.464033 0.426086 0.080703 0.8 0 0
0.741468 0.319170 0.098737 0.8 0 0
0.492845 0.373895 0.102129 0.8 0 0
0.870998 0.468511 0.115293 0.8 0 0
0.474756 0.374398 0.101706 0.8 0 0
0.548085 0.292247 0.094973 0.8 0 0
0.387920 0.433738 0.099901 0.8 0 0
0.698536 0.371214 0.109414 0.8 0 0
0.850055 0.464185 0.157886 0.8 0 0
0.851650 0.462179 0.115927 0.8 0 0
0.770282 0.434853 0.110532 0.8 0 0
0.757815 0.431954 0.055547 0.8 0 0
0.871654 0.756682 0.087150 0.8 0 0
0.493513 0.336794 0.104794 0.8 0 0
0.845814 0.328135 0.070155 0.8 0 0
0.537677 0.398775 0.099982 0.8 0 0
0.836826 0.448227 0.081194 0.8 0 0
0.750793 0.447428 0.090224 0.8 0 0
0.209399 0.369390 0.122577 0.8 0 0
0.559897 0.387753 0.106556 0.8 0 0
0.899898 0.476392 0.104705 0.8 0 0
0.747000 0.211355 0.097263 0.8 0 0
0.330709 0.423756 0.123648 0.8 0 0
0.550366 0.393813 0.092266 0.8 0 0
0.361409 0.413128 0.064404 0.8 0 0
0.696759 0.412024 0.099786 0.8 0 0
0.402680 0.432364 0.098213 0.8 0 0
0.120273 0.389748 0.058154 0.8 0 0
0.817356 0.326864 0.081257 0.8 0 0
0.826414 0.342002 0.053259 0.8 0 0
0.539301 0.472410 0.103199 0.8 0 0
0.529954 0.333999 0.104018 0.8 0 0
0.435994 0.320780 0.098056 0.8 0 0
0.903052 0.343344 0.068213 0.8 0 0
0.404478 0.389605 0.097817 0.8 0 0
0.407082 0.453995 0.103519 0.8 0 0
0.163703 0.417023 0.063159 0.8 0 0
0.375439 0.395931 0.099327 0.8 0 0
0.431875 0.389897 0.100629 0.8 0 0
0.573217 0.299479 0.104768 0.8 0 0
0.762118 0.417507 0.110546 0.8 0 0
0.310783 0.372463 0.074805 0.8 0 0
0.486389 0.368229 0.084875 0.8 0 0
0.900440 0.544977 0.074758 0.8 0 0
0.270826 0.369084 0.083317 0.8 0 0
0.769997 0.330407 0.105676 0.8 0 0
0.264828 0.366532 0.096770 0.8 0 0
0.384251 0.429197 0.113088 0.8 0 0
0.459596 0.505812 0.100395 0.8 0 0
0.872252 0.280785 0.076770 0.8 0 0
0.452161 0.299019 0.102057 0.8 0 0
0.512034 0.485560 0.104229 0.8 0 0
0.770750 0.216091 0.092805 0.8 0 0
0.712081 0.494227 0.100804 0.8 0 0
0.409663 0.460024 0.103561 0.8 0 0
0.370827 0.334493 0.102896 0.8 0 0
0.751638 0.387518 0.103870 0.8 0 0
0.839655 0.345089 0.067996 0.8 0 0
0.803892 0.447541 0.051625 0.8 0 0
0.532010 0.388361 0.114323 0.8 0 0
0.658909 0.415405 0.096275 0.8 0 0
0.502742 0.452415 0.104210 0.8 0 0
0.419252 0.397659 0.115177 0.8 0 0
0.622573 0.419212 0.103059 0.8 0 0
0.869457 0.307789 0.078424 0.8 0 0
0.380948 0.368383 0.103807 0.8 0 0
0.405570 0.357232 0.100377 0.8 0 0
0.858007 0.427504 0.109832 0.8 0 0
0.914166 0.433510 0.083519 0.8 0 0
0.766821 0.434128 0.110531 0.8 0 0
0.718234 0.308304 0.085048 0.8 0 0
0.704600 0.471581 0.086992 0.8 0 0
0.549610 0.416337 0.103368 0.8 0 0
0.698313 0.399817 0.099241 0.8 0 0
0.662384 0.248696 0.101212 0.8 0 0
0.480352 0.409486 0.095001 0.8 0 0
0.882449 0.430457 0.107115 0.8 0 0
0.845102 0.331385 0.115720 0.8 0 0
0.584828 0.383081 0.091066 0.8 0 0
0.809148 0.468716 0.093074 0.8 0 0
0.557921 0.347872 0.092468 0.8 0 0
0.243799 0.385639 0.059901 0.8 0 0
0.251064 0.374187 0.133457 0.8 0 0
0.835137 0.423119 0.107150 0.8 0 0
0.819197 0.061793 0.091643 0.8 0 0
0.690916 0.459239 0.099495 0.8 0 0
0.866278 0.435040 0.085872 0.8 0 0
0.656079 0.317830 0.106894 0.8 0 0
0.331226 0.370549 0.080046 0.8 0 0
0.503425 0.440196 0.105021 0.8 0 0
0.893883 0.330287 0.173045 0.8 0 0
0.433760 0.397393 0.099361 0.8 0 0
0.435641 0.446280 0.104359 0.8 0 0
0.603470 0.504634 0.094132 0.8 0 0
0.280067 0.371644 0.131960 0.8 0 0
0.781988 0.113436 0.086331 0.8 0 0
0.866876 0.334658 0.157560 0.8 0 0
0.235735 0.394736 0.056931 0.8 0 0
0.422394 0.313212 0.099058 0.8 0 0
0.742724 0.455150 0.048002 0.8 0 0
0.578033 0.388791 0.084149 0.8 0 0
0.776021 0.342185 0.106748 0.8 0 0
0.336204 0.372705 0.124542 0.8 0 0
0.868262 0.487333 0.078467 0.8 0 0
0.898787 0.463980 0.175869 0.8 0 0
0.511013 0.373846 0.105441 0.8 0 0
0.484737 0.339524 0.106064 0.8 0 0
0.871639 0.507242 0.070657 0.8 0 0
0.635424 0.440367 0.092147 0.8 0 0
0.649872 0.477743 0.093771 0.8 0 0
0.267051 0.371937 0.128308 0.8 0 0
0.610578 0.312986 0.085469 0.8 0 0
0.430558 0.408376 0.100613 0.8 0 0
0.823276 0.296200 0.071398 0.8 0 0
0.557788 0.431675 0.092256 0.8 0 0
0.603578 0.466254 0.089106 0.8 0 0
0.089945 0.381005 0.090014 0.8 0 0
0.784720 0.388900 0.110552 0.8 0 0
0.296780 0.361919 0.094831 0.8 0 0
0.639468 0.505309 0.106312 0.8 0 0
0.463747 0.412455 0.071147 0.8 0 0
0.687295 0.464893 0.099010 0.8 0 0
0.432024 0.366540 0.104584 0.8 0 0
0.587902 0.403811 0.114021 0.8 0 0
0.075580 0.385093 0.086785 0.8 0 0
0.563018 0.380507 0.106496 0.8 0 0
0.480066 0.347399 0.104860 0.8 0 0
0.861755 0.458476 0.064880 0.8 0 0
0.717219 0.469590 0.092406 0.8 0 0
0.816156 0.343876 0.078360 0.8 0 0
0.558375 0.423033 0.086626 0.8 0 0
0.514049 0.413899 0.076731 0.8 0 0
0.948443 0.579127 0.070344 0.8 0 0
0.850298 0.319851 0.107822 0.8 0 0
0.560967 0.304005 0.093801 0.8 0 0
0.375670 0.420145 0.103827 0.8 0 0
0.937121 0.483864 0.074023 0.8 0 0
0.578416 0.424749 0.083628 0.8 0 0
0.530791 0.363667 0.097853 0.8 0 0
0.851897 0.361162 0.113127 0.8 0 0
0.880241 0.333438 0.140678 0.8 0 0
0.909136 0.489490 0.077036 0.8 0 0
0.579583 0.373035 0.106542 0.8 0 0
0.840508 0.452409 0.053090 0.8 0 0
0.851962 0.518695 0.070859 0.8 0 0
0.757113 0.332809 0.055456 0.8 0 0
0.491064 0.372966 0.078785 0.8 0 0
0.785207 0.601908 0.094761 0.8 0 0
0.621893 0.392410 0.107147 0.8 0 0
0.906351 0.371790 0.109720 0.8 0 0
0.532350 0.316956 0.104874 0.8 0 0
0.478498 0.464294 0.047279 0.8 0 0
0.757612 0.403439 0.109489 0.8 0 0
0.825226 0.338522 0.051249 0.8 0 0
0.165303 0.368976 0.076806 0.8 0 0
0.212082 0.429280 0.094322 0.8 0 0
0.401560 0.355003 0.100318 0.8 0 0
0.818944 0.373420 0.110568 0.8 0 0
0.881131 0.462341 0.166070 0.8 0 0
0.277954 0.375720 0.137697 0.8 0 0
0.591412 0.300074 0.105465 0.8 0 0
0.357515 0.412045 0.063825 0.8 0 0
0.507212 0.486459 0.104090 0.8 0 0
0.351619 0.434113 0.100757 0.8 0 0
0.361676 0.402612 0.061412 0.8 0 0
0.279164 0.366010 0.101116 0.8 0 0
0.789224 0.325740 0.113505 0.8 0 0
0.804589 0.455400 0.044254 0.8 0 0
0.114855 0.376242 0.071363 0.8 0 0
0.435993 0.334018 0.104144 0.8 0 0
0.491431 0.430382 0.105467 0.8 0 0
0.676641 0.240051 0.100724 0.8 0 0
0.371258 0.474492 0.101313 0.8 0 0
0.796546 0.064647 0.084426 0.8 0 0
0.896624 0.461073 0.100213 0.8 0 0
0.734676 0.493286 0.097106 0.8 0 0
0.030434 0.397336 0.071527 0.8 0 0
0.637591 0.465847 0.093124 0.8 0 0
0.368354 0.454848 0.103056 0.8 0 0
0.540983 0.447281 0.105965 0.8 0 0
0.768420 0.606024 0.095659 0.8 0 0
0.660585 0.289313 0.099885 0.8 0 0
0.392053 0.404534 0.099725 0.8 0 0
0.838871 0.712433 0.089791 0.8 0 0
0.827667 0.442155 0.085487 0.8 0 0
0.465699 0.375651 0.101478 0.8 0 0
0.876161 0.331274 0.181040 0.8 0 0
0.431155 0.398890 0.114554 0.8 0 0
0.777303 0.486659 0.063616 0.8 0 0
0.378486 0.420368 0.099493 0.8 0 0
0.219246 0.372898 0.073050 0.8 0 0
0.599285 0.493561 0.106303 0.8 0 0
0.812720 0.403943 0.096378 0.8 0 0
0.566960 0.311322 0.051618 0.8 0 0
0.638660 0.427072 0.092021 0.8 0 0
0.384495 0.360009 0.103728 0.8 0 0
0.687508 0.452597 0.046191 0.8 0 0
0.936333 0.231816 0.073395 0.8 0 0
0.595255 0.504341 0.103327 0.8 0 0
0.791897 0.338037 0.109958 0.8 0 0
0.598125 0.524041 0.104094 0.8 0 0
0.886447 0.466586 0.185277 0.8 0 0
0.514614 0.286983 0.102565 0.8 0 0
0.248822 0.375218 0.118125 0.8 0 0
0.519904 0.439932 0.048672 0.8 0 0
