0.213052 0.319748 0.737287 0.8 0 0
0.189785 0.108683 0.666567 0.8 0 0
0.135388 0.195729 0.584075 0.8 0 0
0.216125 0.261806 0.899352 0.8 0 0
0.157289 0.229763 0.349449 0.8 0 0
0.152318 0.128153 0.423727 0.8 0 0
0.164231 0.346539 0.667003 0.8 0 0
0.136264 0.151898 0.507596 0.8 0 0
0.173767 0.207923 0.234347 0.8 0 0
0.186890 0.312296 0.255719 0.8 0 0
0.229990 0.248100 0.423399 0.8 0 0
0.154295 0.236457 0.915418 0.8 0 0
0.280564 0.193269 0.657381 0.8 0 0
0.159975 0.314529 0.747540 0.8 0 0
0.226087 0.135272 0.714968 0.8 0 0
0.191931 0.097817 0.364747 0.8 0 0
0.182620 0.375845 0.594196 0.8 0 0
0.140936 0.252652 0.551854 0.8 0 0
0.192704 0.207681 0.116679 0.8 0 0
0.275835 0.158940 0.647266 0.8 0 0
0.139610 0.241002 0.563809 0.8 0 0
0.147720 0.273792 0.742524 0.8 0 0
0.197128 0.203631 0.181889 0.8 0 0
0.194913 0.178790 0.944967 0.8 0 0
0.141083 0.242825 0.652290 0.8 0 0
0.149959 0.283902 0.746062 0.8 0 0
0.214111 0.152324 0.356155 0.8 0 0
0.135450 0.167056 0.779689 0.8 0 0
0.138558 0.241109 0.477651 0.8 0 0
0.140074 0.137893 0.524599 0.8 0 0
0.224212 0.095977 0.657764 0.8 0 0
0.223658 0.182220 0.376405 0.8 0 0
0.229921 0.290126 0.467903 0.8 0 0
0.144812 0.128719 0.532549 0.8 0 0
0.185707 0.307509 0.278158 0.8 0 0
0.177014 0.201076 0.161867 0.8 0 0
0.156238 0.287921 0.401429 0.8 0 0
0.140513 0.147578 0.447465 0.8 0 0
0.201115 0.353013 0.679508 0.8 0 0
0.150982 0.300892 0.629568 0.8 0 0
0.198211 0.253293 0.282947 0.8 0 0
0.175925 0.119502 0.402805 0.8 0 0
0.164849 0.334895 0.731703 0.8 0 0
0.184308 0.273299 0.061897 0.8 0 0
0.196356 0.338724 0.763579 0.8 0 0
0.188145 0.391015 0.578760 0.8 0 0
0.048174 0.212665 0.608132 0.8 0 0
0.180329 0.152362 0.292764 0.8 0 0
0.153750 0.298892 0.714079 0.8 0 0
0.345274 0.199690 0.595022 0.8 0 0
0.162313 0.128661 0.742141 0.8 0 0
0.092643 0.192810 0.646140 0.8 0 0
0.190074 0.143225 0.081358 0.8 0 0
0.230780 0.240765 0.423891 0.8 0 0
0.229448 0.132392 0.555285 0.8 0 0
0.228651 0.086605 0.694651 0.8 0 0
0.189848 0.131882 0.082820 0.8 0 0
0.141678 0.244483 0.856244 0.8 0 0
0.140729 0.194512 0.924858 0.8 0 0
0.237841 0.164413 0.541391 0.8 0 0
0.170665 0.178966 0.942735 0.8 0 0
0.134792 0.209881 0.775210 0.8 0 0
0.186419 0.385478 0.656621 0.8 0 0
0.145195 0.210613 0.942026 0.8 0 0
0.134873 0.180331 0.524841 0.8 0 0
0.202363 0.242995 0.942606 0.8 0 0
0.232231 0.154277 0.788699 0.8 0 0
0.185438 0.072142 0.398312 0.8 0 0
0.170745 0.328982 0.776196 0.8 0 0
0.170061 0.152074 0.335316 0.8 0 0
0.327607 0.182181 0.610737 0.8 0 0
0.220827 0.170268 0.931206 0.8 0 0
0.211226 0.334183 0.722790 0.8 0 0
0.140180 0.204597 0.428652 0.8 0 0
0.173957 0.260219 0.303703 0.8 0 0
0.136844 0.166937 0.585693 0.8 0 0
0.180643 0.178265 0.871578 0.8 0 0
0.186694 0.078831 0.442338 0.8 0 0
0.216886 0.316999 0.466008 0.8 0 0
0.134085 0.170768 0.506771 0.8 0 0
0.183122 0.160542 0.087194 0.8 0 0
0.140041 0.242838 0.567633 0.8 0 0
0.187955 0.073121 0.403603 0.8 0 0
0.138052 0.157639 0.745093 0.8 0 0
0.231992 0.266115 0.781491 0.8 0 0
0.236757 0.182836 0.919941 0.8 0 0
0.138746 0.152693 0.764025 0.8 0 0
0.327620 0.188482 0.614451 0.8 0 0
0.219980 0.188293 0.362299 0.8 0 0
0.235461 0.201803 0.708413 0.8 0 0
0.149531 0.263369 0.877879 0.8 0 0
0.209752 0.118182 0.427831 0.8 0 0
0.143748 0.295673 0.483825 0.8 0 0
0.187652 0.090202 0.051394 0.8 0 0
0.184756 0.308787 0.297878 0.8 0 0
0.142478 0.174612 0.930265 0.8 0 0
0.153769 0.178880 0.903753 0.8 0 0
0.153478 0.297369 0.783203 0.8 0 0
0.183976 0.363075 0.399823 0.8 0 0
0.188783 0.300519 0.295772 0.8 0 0
0.183359 0.090232 0.334602 0.8 0 0
0.196804 0.293256 0.359416 0.8 0 0
0.142790 0.133691 0.478663 0.8 0 0
0.166614 0.120513 0.718395 0.8 0 0
0.201647 0.327566 0.787096 0.8 0 0
0.220495 0.188269 0.364165 0.8 0 0
0.190356 0.151355 0.898840 0.8 0 0
0.218088 0.121767 0.583098 0.8 0 0
0.185666 0.088106 0.302213 0.8 0 0
0.198547 0.107062 0.582479 0.8 0 0
0.144565 0.268674 0.764781 0.8 0 0
0.226089 0.153879 0.820296 0.8 0 0
0.197423 0.162405 0.258346 0.8 0 0
0.313019 0.199520 0.628776 0.8 0 0
0.194723 0.234524 0.183458 0.8 0 0
0.139177 0.250665 0.492652 0.8 0 0
0.218738 0.104359 0.678148 0.8 0 0
0.227982 0.255121 0.713635 0.8 0 0
0.140771 0.178413 0.424028 0.8 0 0
0.181956 0.347726 0.422759 0.8 0 0
0.232549 0.147489 0.758996 0.8 0 0
0.185992 0.129836 0.277312 0.8 0 0
0.140364 0.253425 0.835538 0.8 0 0
0.135767 0.207892 0.535232 0.8 0 0
0.163918 0.253475 0.335540 0.8 0 0
0.136954 0.176699 0.825280 0.8 0 0
0.194289 0.215407 0.138225 0.8 0 0
0.174801 0.353918 0.670375 0.8 0 0
0.141608 0.230774 0.428400 0.8 0 0
0.187743 0.071768 0.404403 0.8 0 0
0.180959 0.138574 0.156411 0.8 0 0
0.225152 0.143915 0.776542 0.8 0 0
0.190342 0.336227 0.352257 0.8 0 0
0.223906 0.259833 0.400961 0.8 0 0
0.164332 0.130515 0.756640 0.8 0 0
0.134925 0.199511 0.563900 0.8 0 0
0.241447 0.252445 0.796093 0.8 0 0
0.136315 0.194023 0.863862 0.8 0 0
0.149729 0.130713 0.639686 0.8 0 0
0.137684 0.232893 0.523243 0.8 0 0
0.198334 0.237201 0.250448 0.8 0 0
0.202146 0.135375 0.801099 0.8 0 0
0.187618 0.091666 0.464518 0.8 0 0
0.235946 0.225482 0.756346 0.8 0 0
0.194346 0.149482 0.146146 0.8 0 0
0.166661 0.321686 0.788810 0.8 0 0
0.138646 0.245058 0.505396 0.8 0 0
0.180977 0.208458 0.116789 0.8 0 0
0.181297 0.159196 0.108723 0.8 0 0
0.186935 0.053406 0.343378 0.8 0 0
0.177139 0.312656 0.386298 0.8 0 0
0.178032 0.232874 0.211528 0.8 0 0
0.154612 0.308170 0.693870 0.8 0 0
0.141246 0.267437 0.514347 0.8 0 0
0.218790 0.117293 0.543109 0.8 0 0
0.151102 0.283633 0.703510 0.8 0 0
0.219194 0.314900 0.467305 0.8 0 0
0.138913 0.211189 0.679950 0.8 0 0
0.192049 0.131566 0.153881 0.8 0 0
0.139571 0.153132 0.770524 0.8 0 0
0.188258 0.379529 0.361955 0.8 0 0
0.180505 0.222404 0.937078 0.8 0 0
0.144830 0.103532 0.668755 0.8 0 0
0.183380 0.261259 0.083918 0.8 0 0
0.235568 0.163450 0.626260 0.8 0 0
0.196861 0.262725 0.300513 0.8 0 0
0.209053 0.246498 0.318618 0.8 0 0
0.235789 0.166605 0.691596 0.8 0 0
0.182531 0.343153 0.387449 0.8 0 0
0.185215 0.148795 0.282124 0.8 0 0
0.233858 0.216801 0.912480 0.8 0 0
0.199649 0.156679 0.914660 0.8 0 0
0.202723 0.277124 0.345873 0.8 0 0
0.190886 0.153631 0.206340 0.8 0 0
0.188246 0.241526 0.051245 0.8 0 0
0.143401 0.165339 0.892309 0.8 0 0
0.192741 0.248265 0.156875 0.8 0 0
0.235759 0.160604 0.593731 0.8 0 0
0.190873 0.364640 0.462750 0.8 0 0
0.202456 0.340387 0.744293 0.8 0 0
0.281269 0.199561 0.646636 0.8 0 0
0.203237 0.173393 0.272783 0.8 0 0
0.137311 0.172823 0.820607 0.8 0 0
0.184941 0.290246 0.084028 0.8 0 0
0.152130 0.293397 0.679143 0.8 0 0
0.207477 0.223039 0.294158 0.8 0 0
0.166129 0.265505 0.909679 0.8 0 0
0.177420 0.265042 0.303664 0.8 0 0
0.182488 0.252499 0.124985 0.8 0 0
0.239548 0.173642 0.501560 0.8 0 0
0.228003 0.143217 0.415731 0.8 0 0
0.127908 0.183874 0.689933 0.8 0 0
0.316936 0.188266 0.624061 0.8 0 0
0.190759 0.080543 0.374045 0.8 0 0
0.140236 0.260496 0.470206 0.8 0 0
0.232710 0.243369 0.441004 0.8 0 0
0.188053 0.225511 0.945877 0.8 0 0
0.164238 0.112249 0.567541 0.8 0 0
0.152927 0.317039 0.634533 0.8 0 0
0.229607 0.292515 0.521387 0.8 0 0
0.212851 0.217892 0.325216 0.8 0 0
0.191940 0.141642 0.308819 0.8 0 0
0.178434 0.230562 0.187471 0.8 0 0
0.261402 0.196083 0.664183 0.8 0 0
0.224623 0.274292 0.681899 0.8 0 0
0.185916 0.379396 0.324815 0.8 0 0
0.235213 0.207386 0.441870 0.8 0 0
0.189575 0.320833 0.814163 0.8 0 0
0.160859 0.308230 0.424626 0.8 0 0
0.230359 0.260136 0.760707 0.8 0 0
0.195214 0.247577 0.260330 0.8 0 0
0.186127 0.382514 0.433715 0.8 0 0
0.148535 0.269493 0.692771 0.8 0 0
0.157650 0.310537 0.444586 0.8 0 0
0.194098 0.348294 0.545681 0.8 0 0
0.133307 0.055994 0.665362 0.8 0 0
0.187055 0.395144 0.384617 0.8 0 0
0.250114 0.191619 0.673911 0.8 0 0
0.158388 0.332406 0.691047 0.8 0 0
0.089571 0.185368 0.653360 0.8 0 0
0.142069 0.078943 0.674520 0.8 0 0
0.143616 0.277544 0.449248 0.8 0 0
0.145972 0.310850 0.529225 0.8 0 0
0.178563 0.239974 0.954206 0.8 0 0
0.135028 0.187092 0.521399 0.8 0 0
0.177077 0.223129 0.177446 0.8 0 0
0.155326 0.223769 0.356568 0.8 0 0
0.129434 0.068899 0.675865 0.8 0 0
0.099521 0.195683 0.663416 0.8 0 0
0.185862 0.091136 0.301952 0.8 0 0
0.185394 0.213782 0.056063 0.8 0 0
0.141769 0.239583 0.430747 0.8 0 0
0.220324 0.223960 0.366562 0.8 0 0
0.188118 0.362987 0.306306 0.8 0 0
0.199068 0.264079 0.920318 0.8 0 0
0.223458 0.321652 0.583018 0.8 0 0
0.195906 0.303427 0.847856 0.8 0 0
0.235293 0.230945 0.460066 0.8 0 0
0.302340 0.217564 0.629529 0.8 0 0
0.233072 0.224626 0.893569 0.8 0 0
0.180262 0.173323 0.120004 0.8 0 0
0.134971 0.201674 0.856978 0.8 0 0
0.221178 0.315325 0.631312 0.8 0 0
0.193928 0.155620 0.283358 0.8 0 0
0.160973 0.113203 0.534767 0.8 0 0
0.142381 0.170720 0.869527 0.8 0 0
0.141752 0.216592 0.700224 0.8 0 0
0.240850 0.256066 0.791925 0.8 0 0
0.236265 0.230333 0.510937 0.8 0 0
0.168526 0.141685 0.365786 0.8 0 0
0.186493 0.275999 0.283390 0.8 0 0
0.187158 0.403144 0.608769 0.8 0 0
0.185700 0.166131 0.059664 0.8 0 0
0.267884 0.154304 0.653947 0.8 0 0
0.215013 0.143208 0.808132 0.8 0 0
0.251630 0.149409 0.669445 0.8 0 0
0.227969 0.174496 0.394523 0.8 0 0
0.153848 0.316862 0.662319 0.8 0 0
0.183281 0.079988 0.352943 0.8 0 0
0.238053 0.203904 0.582041 0.8 0 0
0.235077 0.161653 0.640432 0.8 0 0
0.233716 0.273525 0.807208 0.8 0 0
0.184424 0.366546 0.344721 0.8 0 0
0.161268 0.185171 0.884519 0.8 0 0
0.197224 0.352024 0.615308 0.8 0 0
0.172044 0.218563 0.254420 0.8 0 0
0.225128 0.115551 0.690419 0.8 0 0
0.189716 0.192978 0.075312 0.8 0 0
0.162815 0.335774 0.512850 0.8 0 0
0.235379 0.225477 0.629292 0.8 0 0
0.225779 0.276734 0.641960 0.8 0 0
0.211358 0.247298 0.917924 0.8 0 0
0.187832 0.237707 0.047540 0.8 0 0
0.229210 0.266902 0.432738 0.8 0 0
0.205676 0.242916 0.936700 0.8 0 0
0.075857 0.197272 0.642246 0.8 0 0
0.214408 0.291746 0.840753 0.8 0 0
0.206686 0.121560 0.411519 0.8 0 0
0.185987 0.256063 0.041425 0.8 0 0
0.194906 0.234276 0.157371 0.8 0 0
0.170018 0.142394 0.826858 0.8 0 0
0.196581 0.177173 0.201685 0.8 0 0
0.173800 0.353049 0.666770 0.8 0 0
0.184118 0.259635 0.273811 0.8 0 0
0.142705 0.144072 0.677457 0.8 0 0
0.187103 0.206146 0.044929 0.8 0 0
0.135323 0.196447 0.471448 0.8 0 0
0.211563 0.236857 0.934309 0.8 0 0
0.187934 0.140848 0.278301 0.8 0 0
0.236093 0.156736 0.755547 0.8 0 0
0.188351 0.308067 0.285779 0.8 0 0
0.149896 0.126905 0.447375 0.8 0 0
0.193036 0.107137 0.622341 0.8 0 0
0.148188 0.278038 0.648112 0.8 0 0
0.142492 0.279382 0.464079 0.8 0 0
0.134056 0.178574 0.474136 0.8 0 0
0.211349 0.249522 0.914605 0.8 0 0
0.237465 0.180944 0.629612 0.8 0 0
0.223992 0.288720 0.784862 0.8 0 0
0.190680 0.310606 0.344957 0.8 0 0
0.186389 0.072368 0.424756 0.8 0 0
0.225983 0.130432 0.659068 0.8 0 0
0.089476 0.193116 0.654088 0.8 0 0
0.136747 0.188529 0.676265 0.8 0 0
0.212746 0.190162 0.322269 0.8 0 0
0.174437 0.342187 0.501117 0.8 0 0
0.239414 0.181970 0.479216 0.8 0 0
0.201275 0.328451 0.785011 0.8 0 0
0.148301 0.268140 0.847120 0.8 0 0
0.138976 0.141165 0.509645 0.8 0 0
0.152196 0.290336 0.701420 0.8 0 0
0.159000 0.196375 0.331876 0.8 0 0
0.250363 0.194407 0.781140 0.8 0 0
0.277593 0.219665 0.652063 0.8 0 0
0.241334 0.193355 0.900767 0.8 0 0
0.265863 0.195279 0.670847 0.8 0 0
0.178724 0.256114 0.936770 0.8 0 0
0.231021 0.132657 0.531771 0.8 0 0
0.145456 0.134008 0.577080 0.8 0 0
0.037864 0.197594 0.598224 0.8 0 0
0.230115 0.261217 0.587067 0.8 0 0
0.234850 0.245875 0.485117 0.8 0 0
0.182709 0.114873 0.319658 0.8 0 0
0.217127 0.332720 0.666346 0.8 0 0
0.134317 0.203678 0.893186 0.8 0 0
0.185710 0.059997 0.362875 0.8 0 0
0.189109 0.343654 0.316594 0.8 0 0
0.226080 0.244523 0.403120 0.8 0 0
0.206716 0.127058 0.398456 0.8 0 0
0.154799 0.235141 0.363853 0.8 0 0
0.188077 0.093607 0.057966 0.8 0 0
0.184434 0.257921 0.174264 0.8 0 0
0.240573 0.175320 0.913680 0.8 0 0
0.146700 0.135779 0.603948 0.8 0 0
0.231440 0.238851 0.427442 0.8 0 0
0.138709 0.158737 0.681575 0.8 0 0
0.227486 0.137741 0.627663 0.8 0 0
0.135966 0.210367 0.571323 0.8 0 0
0.300133 0.177689 0.638100 0.8 0 0
0.191274 0.115140 0.706122 0.8 0 0
0.187756 0.265256 0.162050 0.8 0 0
0.153620 0.298330 0.787785 0.8 0 0
0.233160 0.264207 0.469947 0.8 0 0
0.232761 0.265121 0.783513 0.8 0 0
0.182856 0.367826 0.585797 0.8 0 0
0.155995 0.317197 0.699989 0.8 0 0
0.209843 0.178079 0.882092 0.8 0 0
0.181624 0.259754 0.934957 0.8 0 0
0.151382 0.119229 0.651831 0.8 0 0
0.206929 0.141964 0.818450 0.8 0 0
0.142376 0.080227 0.688789 0.8 0 0
0.136622 0.175045 0.679833 0.8 0 0
0.139927 0.227840 0.665054 0.8 0 0
0.141705 0.098449 0.690925 0.8 0 0
0.182439 0.336507 0.446664 0.8 0 0
0.149354 0.283445 0.650347 0.8 0 0
0.183369 0.094425 0.329461 0.8 0 0
0.172541 0.143104 0.834867 0.8 0 0
0.189122 0.138813 0.068797 0.8 0 0
0.236809 0.242597 0.782653 0.8 0 0
0.263147 0.157058 0.669278 0.8 0 0
0.182105 0.119456 0.365877 0.8 0 0
0.163036 0.138535 0.795219 0.8 0 0
0.188798 0.371933 0.543030 0.8 0 0
0.228615 0.244391 0.875216 0.8 0 0
0.232807 0.226100 0.678480 0.8 0 0
0.185333 0.095010 0.465547 0.8 0 0
0.235003 0.168420 0.821535 0.8 0 0
0.134599 0.185840 0.491925 0.8 0 0
0.187453 0.373218 0.304672 0.8 0 0
0.160486 0.155414 0.863055 0.8 0 0
0.238689 0.214596 0.861933 0.8 0 0
0.186569 0.375428 0.525805 0.8 0 0
0.204113 0.165261 0.290629 0.8 0 0
0.130160 0.194691 0.681111 0.8 0 0
0.210109 0.157347 0.900616 0.8 0 0
0.190541 0.324378 0.353448 0.8 0 0
0.207316 0.177391 0.905908 0.8 0 0
0.098337 0.154572 0.647255 0.8 0 0
0.173534 0.193479 0.879242 0.8 0 0
0.182171 0.108720 0.362978 0.8 0 0
0.162838 0.183788 0.312840 0.8 0 0
0.212989 0.280028 0.875760 0.8 0 0
0.123086 0.039361 0.658458 0.8 0 0
0.180342 0.146145 0.125455 0.8 0 0
0.140115 0.155706 0.704550 0.8 0 0
0.194557 0.346694 0.525317 0.8 0 0
0.232326 0.077789 0.687448 0.8 0 0
0.138807 0.232359 0.579105 0.8 0 0
0.238947 0.194556 0.560490 0.8 0 0
0.207049 0.234720 0.298803 0.8 0 0
0.139065 0.087524 0.699684 0.8 0 0
0.173296 0.316579 0.404468 0.8 0 0
0.173268 0.178994 0.872606 0.8 0 0
0.178787 0.153906 0.145076 0.8 0 0
0.225652 0.316531 0.516650 0.8 0 0
0.195797 0.186084 0.150623 0.8 0 0
0.134573 0.176824 0.471638 0.8 0 0
0.221261 0.127975 0.718296 0.8 0 0
0.174552 0.334821 0.772037 0.8 0 0
0.134645 0.234578 0.835565 0.8 0 0
0.186590 0.178404 0.049138 0.8 0 0
0.174383 0.352340 0.626408 0.8 0 0
0.230121 0.270550 0.560717 0.8 0 0
0.189800 0.359768 0.386826 0.8 0 0
0.238842 0.206917 0.886153 0.8 0 0
0.232709 0.270900 0.493307 0.8 0 0
0.241764 0.169884 0.792053 0.8 0 0
0.187353 0.390852 0.368912 0.8 0 0
0.189462 0.281101 0.091560 0.8 0 0
0.180654 0.357300 0.659579 0.8 0 0
0.187338 0.304303 0.266858 0.8 0 0
0.237867 0.178409 0.761321 0.8 0 0
0.305485 0.204598 0.636103 0.8 0 0
0.184999 0.377494 0.371673 0.8 0 0
0.099596 0.178753 0.661703 0.8 0 0
0.280263 0.196170 0.657957 0.8 0 0
0.223107 0.179285 0.915816 0.8 0 0
0.190748 0.378353 0.589205 0.8 0 0
0.188049 0.225874 0.051662 0.8 0 0
0.138246 0.149010 0.471768 0.8 0 0
0.182647 0.092761 0.342849 0.8 0 0
0.143578 0.165512 0.896717 0.8 0 0
0.183326 0.379032 0.646412 0.8 0 0
0.139363 0.174128 0.874946 0.8 0 0
0.194010 0.176440 0.126837 0.8 0 0
0.174513 0.278993 0.339444 0.8 0 0
0.177585 0.356728 0.683576 0.8 0 0
0.213620 0.275669 0.888433 0.8 0 0
0.189270 0.271971 0.059964 0.8 0 0
0.137396 0.223214 0.757726 0.8 0 0
0.238335 0.204561 0.559534 0.8 0 0
0.187581 0.109293 0.290591 0.8 0 0
0.165269 0.190983 0.296392 0.8 0 0
0.174996 0.119819 0.403344 0.8 0 0
0.138630 0.156638 0.445207 0.8 0 0
0.217699 0.185927 0.350232 0.8 0 0
0.184370 0.360031 0.669082 0.8 0 0
0.186379 0.382061 0.316207 0.8 0 0
0.236214 0.259082 0.783293 0.8 0 0
0.176032 0.178721 0.220083 0.8 0 0
0.150658 0.210515 0.947608 0.8 0 0
0.177436 0.145572 0.341628 0.8 0 0
0.229825 0.171082 0.913573 0.8 0 0
0.190684 0.328400 0.361974 0.8 0 0
0.272279 0.161336 0.650724 0.8 0 0
0.155190 0.121974 0.594387 0.8 0 0
0.153545 0.298715 0.795700 0.8 0 0
0.239001 0.081763 0.693742 0.8 0 0
0.340118 0.205650 0.604987 0.8 0 0
0.134677 0.188127 0.488655 0.8 0 0
0.246765 0.044431 0.662951 0.8 0 0
0.036515 0.198186 0.606870 0.8 0 0
0.181800 0.350288 0.527361 0.8 0 0
0.142902 0.138880 0.454771 0.8 0 0
0.140368 0.244870 0.567769 0.8 0 0
0.122318 0.216837 0.776683 0.8 0 0
0.172794 0.108593 0.613322 0.8 0 0
0.228303 0.153557 0.806914 0.8 0 0
0.216656 0.333070 0.620601 0.8 0 0
0.156349 0.323347 0.487475 0.8 0 0
0.148341 0.115437 0.684598 0.8 0 0
0.153949 0.301052 0.708518 0.8 0 0
0.236237 0.230746 0.516385 0.8 0 0
0.112650 0.159189 0.660646 0.8 0 0
0.232963 0.176870 0.925061 0.8 0 0
0.217398 0.333282 0.635478 0.8 0 0
0.162230 0.169142 0.325665 0.8 0 0
0.185568 0.382313 0.384458 0.8 0 0
0.151108 0.291896 0.810386 0.8 0 0
0.236309 0.066606 0.671511 0.8 0 0
0.178514 0.224465 0.150845 0.8 0 0
0.182726 0.371106 0.644885 0.8 0 0
0.221760 0.231471 0.376670 0.8 0 0
0.182825 0.353381 0.539073 0.8 0 0
0.182689 0.105510 0.546383 0.8 0 0
0.234358 0.148324 0.736971 0.8 0 0
0.146405 0.221588 0.928480 0.8 0 0
0.207990 0.160783 0.324467 0.8 0 0
0.108997 0.178394 0.670142 0.8 0 0
0.146453 0.287858 0.574200 0.8 0 0
0.135782 0.181483 0.592847 0.8 0 0
0.155169 0.230476 0.932830 0.8 0 0
0.217139 0.300201 0.811734 0.8 0 0
0.238195 0.225341 0.780668 0.8 0 0
0.189350 0.387388 0.588839 0.8 0 0
0.169786 0.153381 0.330536 0.8 0 0
0.150155 0.253483 0.395484 0.8 0 0
0.231583 0.253110 0.435142 0.8 0 0
0.194766 0.182881 0.136773 0.8 0 0
0.190442 0.335459 0.356050 0.8 0 0
0.277632 0.169239 0.646728 0.8 0 0
0.194179 0.285718 0.340216 0.8 0 0
0.193972 0.147080 0.324443 0.8 0 0
0.208973 0.147140 0.359088 0.8 0 0
0.232405 0.157457 0.421574 0.8 0 0
0.197393 0.192152 0.192493 0.8 0 0
0.230376 0.156965 0.806987 0.8 0 0
0.147371 0.282993 0.436053 0.8 0 0
0.232000 0.247729 0.646414 0.8 0 0
0.165843 0.183079 0.295942 0.8 0 0
0.242065 0.208314 0.696723 0.8 0 0
0.133464 0.072820 0.692132 0.8 0 0
0.252847 0.199563 0.783376 0.8 0 0
0.147337 0.274272 0.627311 0.8 0 0
0.103788 0.187894 0.666444 0.8 0 0
0.144450 0.305215 0.504075 0.8 0 0
0.149824 0.318288 0.582406 0.8 0 0
0.153942 0.149618 0.825181 0.8 0 0
0.171777 0.138078 0.812910 0.8 0 0
0.139101 0.178697 0.917936 0.8 0 0
0.148596 0.315366 0.505170 0.8 0 0
0.190784 0.178200 0.935944 0.8 0 0
0.155145 0.283556 0.400623 0.8 0 0
0.187325 0.152147 0.049336 0.8 0 0
0.234663 0.233617 0.579251 0.8 0 0
0.178729 0.204373 0.143847 0.8 0 0
0.150119 0.257023 0.397649 0.8 0 0
0.143191 0.255921 0.595752 0.8 0 0
0.259603 0.210627 0.667333 0.8 0 0
0.233062 0.152525 0.649138 0.8 0 0
0.149018 0.193221 0.904328 0.8 0 0
0.204246 0.110751 0.601102 0.8 0 0
0.190420 0.358651 0.499300 0.8 0 0
0.182724 0.148769 0.884363 0.8 0 0
0.137148 0.196438 0.726496 0.8 0 0
0.172111 0.294977 0.859318 0.8 0 0
0.148431 0.307218 0.477105 0.8 0 0
0.215241 0.163417 0.916625 0.8 0 0
0.237823 0.193636 0.459965 0.8 0 0
0.196596 0.346562 0.541713 0.8 0 0
0.194959 0.131987 0.371871 0.8 0 0
0.188171 0.383877 0.396295 0.8 0 0
0.182708 0.360612 0.529553 0.8 0 0
0.138230 0.182174 0.704710 0.8 0 0
0.322929 0.179719 0.616695 0.8 0 0
0.224505 0.285146 0.770953 0.8 0 0
0.138608 0.241957 0.523711 0.8 0 0
0.231218 0.144018 0.609429 0.8 0 0
0.136348 0.159035 0.550748 0.8 0 0
0.157856 0.334945 0.537404 0.8 0 0
0.231271 0.146301 0.762070 0.8 0 0
0.225850 0.152468 0.812568 0.8 0 0
0.185474 0.187115 0.059778 0.8 0 0
0.202919 0.351726 0.678991 0.8 0 0
0.246686 0.160659 0.674198 0.8 0 0
0.158128 0.309475 0.439329 0.8 0 0
0.206691 0.182291 0.288120 0.8 0 0
0.154251 0.284554 0.406052 0.8 0 0
0.142642 0.245064 0.668129 0.8 0 0
0.138068 0.233175 0.471709 0.8 0 0
0.200652 0.289611 0.360707 0.8 0 0
0.151011 0.128349 0.430768 0.8 0 0
0.201566 0.195100 0.882326 0.8 0 0
0.201660 0.331313 0.465304 0.8 0 0
0.218981 0.261616 0.383670 0.8 0 0
0.189524 0.124789 0.077837 0.8 0 0
0.134933 0.193073 0.527682 0.8 0 0
0.178506 0.281266 0.333862 0.8 0 0
0.267289 0.209571 0.671063 0.8 0 0
0.180417 0.336076 0.774085 0.8 0 0
0.136902 0.267595 0.795572 0.8 0 0
0.149878 0.128250 0.439792 0.8 0 0
0.133268 0.058989 0.679488 0.8 0 0
0.213239 0.157100 0.890057 0.8 0 0
0.151573 0.128158 0.622537 0.8 0 0
0.249421 0.224250 0.777151 0.8 0 0
0.239419 0.174771 0.887095 0.8 0 0
0.148704 0.121108 0.687957 0.8 0 0
0.152223 0.161518 0.865484 0.8 0 0
0.191480 0.122958 0.141224 0.8 0 0
0.197883 0.329914 0.449108 0.8 0 0
0.183212 0.299498 0.336745 0.8 0 0
0.233612 0.238076 0.618322 0.8 0 0
0.173029 0.351869 0.648475 0.8 0 0
0.221875 0.220527 0.946343 0.8 0 0
0.194013 0.239529 0.214495 0.8 0 0
0.235696 0.083733 0.698303 0.8 0 0
0.193949 0.141035 0.338050 0.8 0 0
0.234273 0.178658 0.869480 0.8 0 0
0.209499 0.112231 0.479268 0.8 0 0
0.233706 0.258951 0.489636 0.8 0 0
0.190083 0.177359 0.080611 0.8 0 0
0.190994 0.258332 0.937743 0.8 0 0
0.234606 0.232683 0.618393 0.8 0 0
0.145777 0.245378 0.876215 0.8 0 0
0.185994 0.332346 0.274489 0.8 0 0
0.137381 0.222988 0.567263 0.8 0 0
0.190647 0.355183 0.540504 0.8 0 0
0.170506 0.349818 0.632099 0.8 0 0
0.129747 0.181058 0.893392 0.8 0 0
0.145199 0.260569 0.847063 0.8 0 0
0.139567 0.198419 0.432332 0.8 0 0
0.231087 0.285702 0.474757 0.8 0 0
0.183712 0.352381 0.344462 0.8 0 0
0.188308 0.324089 0.285373 0.8 0 0
0.225931 0.290920 0.445307 0.8 0 0
0.141530 0.232534 0.676183 0.8 0 0
0.186680 0.078532 0.441530 0.8 0 0
0.233379 0.147582 0.450310 0.8 0 0
0.136233 0.198090 0.687450 0.8 0 0
0.156132 0.231426 0.355636 0.8 0 0
0.232172 0.275341 0.495457 0.8 0 0
0.238851 0.202303 0.866867 0.8 0 0
0.068497 0.200004 0.625126 0.8 0 0
0.175040 0.215055 0.227724 0.8 0 0
0.185514 0.366496 0.312953 0.8 0 0
0.238139 0.062360 0.680530 0.8 0 0
0.203205 0.296475 0.376759 0.8 0 0
0.025336 0.207107 0.592325 0.8 0 0
0.233330 0.137304 0.506401 0.8 0 0
0.233689 0.153812 0.677842 0.8 0 0
0.144388 0.197897 0.401829 0.8 0 0
0.142174 0.282168 0.477841 0.8 0 0
0.225109 0.270699 0.686524 0.8 0 0
0.124769 0.043647 0.665595 0.8 0 0
0.193854 0.144476 0.328420 0.8 0 0
0.184700 0.278706 0.052248 0.8 0 0
0.235333 0.226085 0.630590 0.8 0 0
0.220867 0.293472 0.709758 0.8 0 0
0.237570 0.227823 0.776779 0.8 0 0
0.135874 0.074506 0.614885 0.8 0 0
0.187695 0.363732 0.667232 0.8 0 0
0.223318 0.320672 0.585760 0.8 0 0
0.136261 0.222905 0.867566 0.8 0 0
0.237524 0.195187 0.633176 0.8 0 0
0.183124 0.377951 0.623691 0.8 0 0
0.182667 0.114618 0.365901 0.8 0 0
0.239213 0.186949 0.550203 0.8 0 0
0.231658 0.145549 0.612234 0.8 0 0
0.124894 0.226964 0.779002 0.8 0 0
0.186595 0.139868 0.275062 0.8 0 0
0.255624 0.169998 0.677736 0.8 0 0
0.317420 0.184322 0.623210 0.8 0 0
0.186767 0.071083 0.426997 0.8 0 0
0.269098 0.189310 0.656532 0.8 0 0
0.330208 0.223063 0.609481 0.8 0 0
0.220020 0.316628 0.658861 0.8 0 0
0.182329 0.358808 0.666711 0.8 0 0
0.183143 0.233947 0.091126 0.8 0 0
0.237360 0.202717 0.613673 0.8 0 0
0.237046 0.201364 0.689426 0.8 0 0
0.237764 0.175328 0.815986 0.8 0 0
0.178411 0.174061 0.141723 0.8 0 0
0.188597 0.107010 0.651336 0.8 0 0
0.207703 0.245551 0.310164 0.8 0 0
0.184074 0.113607 0.096884 0.8 0 0
0.163258 0.160298 0.912905 0.8 0 0
0.135202 0.191818 0.578641 0.8 0 0
0.193801 0.172809 0.124608 0.8 0 0
0.217440 0.334448 0.582441 0.8 0 0
0.172323 0.280945 0.348649 0.8 0 0
0.183453 0.144662 0.183605 0.8 0 0
0.230001 0.152298 0.789478 0.8 0 0
0.226766 0.157245 0.392350 0.8 0 0
0.196595 0.155651 0.291826 0.8 0 0
0.192818 0.347421 0.466903 0.8 0 0
0.143000 0.251383 0.428176 0.8 0 0
0.236512 0.211134 0.644644 0.8 0 0
0.184573 0.363012 0.521052 0.8 0 0
0.185386 0.382423 0.398508 0.8 0 0
0.184457 0.108773 0.110703 0.8 0 0
0.186496 0.109012 0.041079 0.8 0 0
0.167010 0.176775 0.961664 0.8 0 0
0.224444 0.276442 0.730831 0.8 0 0
0.217691 0.106787 0.664095 0.8 0 0
0.145662 0.146589 0.776869 0.8 0 0
0.175804 0.318200 0.400926 0.8 0 0
0.258589 0.210246 0.678979 0.8 0 0
0.177833 0.309314 0.379093 0.8 0 0
0.149360 0.183638 0.378774 0.8 0 0
0.198512 0.139335 0.823553 0.8 0 0
0.207717 0.309983 0.815693 0.8 0 0
0.190546 0.360839 0.536238 0.8 0 0
0.222590 0.198884 0.371237 0.8 0 0
0.217901 0.295987 0.819821 0.8 0 0
0.227444 0.197659 0.912302 0.8 0 0
0.195173 0.215509 0.148214 0.8 0 0
0.182242 0.131076 0.800256 0.8 0 0
0.141848 0.162496 0.416885 0.8 0 0
0.227664 0.261868 0.848061 0.8 0 0
0.211903 0.117404 0.438701 0.8 0 0
0.183665 0.124717 0.152703 0.8 0 0
0.197804 0.129229 0.777098 0.8 0 0
0.141577 0.241378 0.739495 0.8 0 0
0.184582 0.090190 0.315463 0.8 0 0
0.221713 0.139324 0.389828 0.8 0 0
0.140493 0.072535 0.628836 0.8 0 0
0.188287 0.326558 0.803133 0.8 0 0
0.219310 0.326095 0.645537 0.8 0 0
0.138702 0.237012 0.758860 0.8 0 0
0.245247 0.212479 0.681869 0.8 0 0
0.208175 0.294069 0.386171 0.8 0 0
0.222364 0.288486 0.744163 0.8 0 0
0.187891 0.105053 0.615309 0.8 0 0
0.184140 0.204050 0.892640 0.8 0 0
0.191041 0.198490 0.092759 0.8 0 0
0.192267 0.242495 0.953506 0.8 0 0
0.162407 0.113079 0.477537 0.8 0 0
0.185762 0.168922 0.058740 0.8 0 0
0.137484 0.166888 0.623109 0.8 0 0
0.185920 0.292635 0.068968 0.8 0 0
0.190212 0.361529 0.563470 0.8 0 0
0.151640 0.318650 0.614980 0.8 0 0
0.196852 0.204427 0.170557 0.8 0 0
0.262475 0.205238 0.664178 0.8 0 0
0.165548 0.314290 0.425480 0.8 0 0
0.174874 0.214527 0.229129 0.8 0 0
0.237843 0.177508 0.588183 0.8 0 0
0.170179 0.296216 0.377111 0.8 0 0
0.189649 0.176478 0.899475 0.8 0 0
0.192161 0.136671 0.113952 0.8 0 0
0.220819 0.294035 0.425011 0.8 0 0
0.136653 0.185117 0.680467 0.8 0 0
0.209320 0.178375 0.923041 0.8 0 0
0.291067 0.202518 0.648883 0.8 0 0
0.136326 0.158417 0.548209 0.8 0 0
0.183957 0.089064 0.404560 0.8 0 0
0.171487 0.221518 0.259323 0.8 0 0
0.223079 0.283943 0.678054 0.8 0 0
0.198980 0.195905 0.225472 0.8 0 0
0.204379 0.110067 0.627155 0.8 0 0
0.199797 0.110340 0.472163 0.8 0 0
0.237387 0.182980 0.751740 0.8 0 0
0.277586 0.157882 0.645576 0.8 0 0
0.171705 0.221830 0.949432 0.8 0 0
0.256697 0.038805 0.633922 0.8 0 0
0.217888 0.288912 0.835554 0.8 0 0
0.196840 0.198651 0.166089 0.8 0 0
0.126393 0.203908 0.691524 0.8 0 0
0.152785 0.211029 0.926148 0.8 0 0
0.187250 0.392579 0.567932 0.8 0 0
0.229826 0.268400 0.831825 0.8 0 0
0.244896 0.216170 0.689146 0.8 0 0
0.159256 0.161927 0.913101 0.8 0 0
0.222330 0.127117 0.598307 0.8 0 0
0.136340 0.213625 0.489232 0.8 0 0
0.121126 0.208858 0.673508 0.8 0 0
0.188935 0.177694 0.927998 0.8 0 0
0.090311 0.160202 0.651382 0.8 0 0
0.186070 0.399632 0.599230 0.8 0 0
0.197318 0.231244 0.233088 0.8 0 0
0.190133 0.301559 0.328627 0.8 0 0
0.220750 0.312847 0.650032 0.8 0 0
0.239248 0.247978 0.814777 0.8 0 0
0.222243 0.121533 0.645435 0.8 0 0
0.185967 0.291761 0.032479 0.8 0 0
0.240501 0.163050 0.680333 0.8 0 0
0.072606 0.162180 0.635627 0.8 0 0
0.187434 0.105481 0.534436 0.8 0 0
0.190082 0.313978 0.329818 0.8 0 0
0.191468 0.166935 0.963798 0.8 0 0
0.230171 0.129979 0.516424 0.8 0 0
0.215520 0.333441 0.524447 0.8 0 0
0.213113 0.112237 0.490129 0.8 0 0
0.141894 0.152258 0.700661 0.8 0 0
0.227441 0.292208 0.563199 0.8 0 0
0.166166 0.238695 0.940046 0.8 0 0
0.134674 0.181452 0.557396 0.8 0 0
0.288600 0.199976 0.650840 0.8 0 0
0.149543 0.322784 0.556291 0.8 0 0
0.149325 0.162878 0.893647 0.8 0 0
0.221850 0.135644 0.399759 0.8 0 0
0.090566 0.146696 0.643414 0.8 0 0
0.238668 0.175808 0.456669 0.8 0 0
0.229788 0.284008 0.528879 0.8 0 0
0.236027 0.067142 0.668367 0.8 0 0
0.183987 0.091827 0.427990 0.8 0 0
0.189930 0.290424 0.320934 0.8 0 0
0.141045 0.253490 0.838745 0.8 0 0
0.171958 0.162897 0.283793 0.8 0 0
0.190713 0.146053 0.090945 0.8 0 0
0.123678 0.218897 0.780614 0.8 0 0
0.198137 0.190539 0.216889 0.8 0 0
0.159596 0.313048 0.755881 0.8 0 0
0.194273 0.239012 0.165357 0.8 0 0
0.171401 0.108027 0.554075 0.8 0 0
0.187743 0.261440 0.040195 0.8 0 0
0.144570 0.260458 0.425972 0.8 0 0
0.150658 0.268570 0.855627 0.8 0 0
0.233526 0.243610 0.567203 0.8 0 0
0.161189 0.219271 0.942732 0.8 0 0
0.157435 0.156983 0.857604 0.8 0 0
0.184950 0.284709 0.301859 0.8 0 0
0.291143 0.205279 0.649105 0.8 0 0
0.181246 0.159067 0.223838 0.8 0 0
0.182136 0.324326 0.805712 0.8 0 0
0.183475 0.350230 0.352068 0.8 0 0
0.200073 0.115155 0.421085 0.8 0 0
0.146961 0.292041 0.576533 0.8 0 0
0.178235 0.336382 0.465356 0.8 0 0
0.247369 0.205870 0.795527 0.8 0 0
0.178839 0.326381 0.414354 0.8 0 0
0.215029 0.309267 0.782012 0.8 0 0
0.136068 0.189621 0.660505 0.8 0 0
0.189712 0.277541 0.069181 0.8 0 0
0.137026 0.225352 0.522295 0.8 0 0
0.162298 0.341131 0.705978 0.8 0 0
0.173405 0.151200 0.883281 0.8 0 0
0.217905 0.116181 0.637323 0.8 0 0
0.232765 0.207088 0.424900 0.8 0 0
0.233981 0.236687 0.584565 0.8 0 0
0.136924 0.218094 0.757136 0.8 0 0
0.183503 0.268033 0.091342 0.8 0 0
0.137851 0.175294 0.744130 0.8 0 0
0.130855 0.049726 0.640801 0.8 0 0
0.141366 0.134864 0.500563 0.8 0 0
0.253993 0.222342 0.677786 0.8 0 0
0.228633 0.145314 0.416445 0.8 0 0
0.212354 0.213312 0.321137 0.8 0 0
0.184857 0.145120 0.193028 0.8 0 0
0.237954 0.203231 0.477761 0.8 0 0
0.212695 0.113969 0.561694 0.8 0 0
0.164586 0.171239 0.950259 0.8 0 0
0.166107 0.169953 0.949346 0.8 0 0
0.215305 0.150437 0.840290 0.8 0 0
0.105308 0.198414 0.668920 0.8 0 0
0.185959 0.377730 0.459810 0.8 0 0
0.154130 0.118255 0.548000 0.8 0 0
0.188602 0.376109 0.417586 0.8 0 0
0.234601 0.211088 0.718529 0.8 0 0
0.185745 0.220449 0.051268 0.8 0 0
0.277273 0.198612 0.660910 0.8 0 0
0.194864 0.345738 0.513396 0.8 0 0
0.235462 0.238346 0.524260 0.8 0 0
0.187446 0.272971 0.290482 0.8 0 0
0.231183 0.285037 0.494351 0.8 0 0
0.150618 0.314739 0.482843 0.8 0 0
0.211904 0.203234 0.903012 0.8 0 0
0.235733 0.087104 0.632369 0.8 0 0
0.192589 0.106809 0.486350 0.8 0 0
0.170804 0.112149 0.462367 0.8 0 0
0.152282 0.162019 0.900867 0.8 0 0
0.188497 0.179889 0.963636 0.8 0 0
0.167064 0.241995 0.300811 0.8 0 0
0.096573 0.188798 0.649262 0.8 0 0
0.239303 0.203007 0.847552 0.8 0 0
0.217226 0.146597 0.369539 0.8 0 0
0.193638 0.105361 0.445524 0.8 0 0
0.167497 0.328247 0.764995 0.8 0 0
0.144731 0.093942 0.623880 0.8 0 0
0.227917 0.257569 0.856179 0.8 0 0
0.160421 0.333060 0.511765 0.8 0 0
0.162293 0.336639 0.522898 0.8 0 0
0.237772 0.154088 0.491323 0.8 0 0
0.138850 0.239834 0.536221 0.8 0 0
0.197109 0.181630 0.176804 0.8 0 0
0.189462 0.090691 0.424807 0.8 0 0
0.176237 0.108436 0.650965 0.8 0 0
0.193250 0.327871 0.411956 0.8 0 0
0.184070 0.368025 0.466823 0.8 0 0
0.209048 0.312824 0.805610 0.8 0 0
0.229857 0.083154 0.678368 0.8 0 0
0.179025 0.137300 0.820074 0.8 0 0
0.158547 0.209353 0.336101 0.8 0 0
0.216224 0.120555 0.613564 0.8 0 0
0.129959 0.223454 0.808784 0.8 0 0
0.186967 0.151076 0.254400 0.8 0 0
0.181342 0.151427 0.189228 0.8 0 0
0.138861 0.159507 0.631314 0.8 0 0
0.167362 0.242348 0.299748 0.8 0 0
0.116900 0.037774 0.629031 0.8 0 0
0.181092 0.126690 0.335779 0.8 0 0
0.150221 0.297782 0.621700 0.8 0 0
0.186082 0.387830 0.344200 0.8 0 0
0.187911 0.173644 0.058240 0.8 0 0
0.234788 0.216031 0.908444 0.8 0 0
0.281719 0.219364 0.659082 0.8 0 0
0.140204 0.242074 0.448832 0.8 0 0
0.235719 0.234248 0.482695 0.8 0 0
0.238978 0.190813 0.561399 0.8 0 0
0.137516 0.194131 0.721904 0.8 0 0
0.183721 0.120543 0.101775 0.8 0 0
0.196441 0.111157 0.435653 0.8 0 0
0.049211 0.207098 0.608482 0.8 0 0
0.221959 0.098492 0.699031 0.8 0 0
0.191554 0.200526 0.099927 0.8 0 0
0.145877 0.264778 0.843263 0.8 0 0
0.214257 0.156756 0.882082 0.8 0 0
0.190575 0.299905 0.858153 0.8 0 0
0.179360 0.235695 0.187545 0.8 0 0
0.151634 0.125223 0.639910 0.8 0 0
0.232605 0.166207 0.696159 0.8 0 0
0.186705 0.382795 0.659967 0.8 0 0
0.224100 0.120781 0.489052 0.8 0 0
0.126695 0.203719 0.795995 0.8 0 0
0.184728 0.138789 0.066630 0.8 0 0
0.155687 0.116697 0.543145 0.8 0 0
0.241729 0.178037 0.799987 0.8 0 0
0.238024 0.162356 0.527676 0.8 0 0
0.169368 0.184212 0.270657 0.8 0 0
0.130925 0.066285 0.619152 0.8 0 0
0.141912 0.145824 0.606434 0.8 0 0
0.217807 0.143175 0.376845 0.8 0 0
0.128812 0.194671 0.783099 0.8 0 0
0.182498 0.112401 0.323974 0.8 0 0
0.134956 0.200006 0.556315 0.8 0 0
0.064068 0.185781 0.630409 0.8 0 0
0.183285 0.342228 0.356307 0.8 0 0
0.182959 0.161447 0.089043 0.8 0 0
0.190332 0.183083 0.866764 0.8 0 0
0.139968 0.254192 0.522396 0.8 0 0
0.283063 0.218639 0.657794 0.8 0 0
0.261473 0.216095 0.666222 0.8 0 0
0.191909 0.347775 0.426630 0.8 0 0
0.176503 0.180078 0.207861 0.8 0 0
0.189532 0.302654 0.852736 0.8 0 0
0.143381 0.100507 0.671887 0.8 0 0
0.187381 0.061421 0.387460 0.8 0 0
0.182811 0.355030 0.587218 0.8 0 0
0.235763 0.228636 0.553677 0.8 0 0
0.222187 0.286746 0.693938 0.8 0 0
0.220352 0.317625 0.650750 0.8 0 0
0.185068 0.310919 0.290436 0.8 0 0
0.146476 0.313808 0.520532 0.8 0 0
0.165257 0.295411 0.389075 0.8 0 0
0.220698 0.138269 0.390892 0.8 0 0
0.135115 0.235415 0.836614 0.8 0 0
0.228376 0.288949 0.456135 0.8 0 0
0.181671 0.114236 0.339528 0.8 0 0
0.171338 0.179326 0.951079 0.8 0 0
0.232369 0.163378 0.419466 0.8 0 0
0.235378 0.235613 0.762336 0.8 0 0
0.198955 0.225951 0.237519 0.8 0 0
0.202531 0.291673 0.368024 0.8 0 0
0.210882 0.323685 0.743206 0.8 0 0
0.183002 0.152918 0.205695 0.8 0 0
0.147296 0.150439 0.393147 0.8 0 0
0.153212 0.323667 0.504837 0.8 0 0
0.287582 0.188311 0.650532 0.8 0 0
0.182942 0.348093 0.395714 0.8 0 0
0.189344 0.250314 0.064953 0.8 0 0
0.205330 0.179154 0.943615 0.8 0 0
0.099649 0.169614 0.650019 0.8 0 0
0.179022 0.227899 0.146844 0.8 0 0
0.217627 0.331245 0.662913 0.8 0 0
0.151141 0.127852 0.600473 0.8 0 0
0.172311 0.195937 0.242256 0.8 0 0
0.188463 0.126103 0.058278 0.8 0 0
0.213392 0.142478 0.808217 0.8 0 0
0.128472 0.185365 0.690694 0.8 0 0
0.186395 0.158640 0.050051 0.8 0 0
0.238705 0.217702 0.865396 0.8 0 0
0.197058 0.165756 0.239349 0.8 0 0
0.247636 0.039294 0.621256 0.8 0 0
0.138347 0.235538 0.761615 0.8 0 0
0.236930 0.175704 0.684618 0.8 0 0
0.182763 0.089081 0.385557 0.8 0 0
0.145348 0.197411 0.914610 0.8 0 0
0.225245 0.289880 0.606114 0.8 0 0
0.130384 0.221808 0.813821 0.8 0 0
0.191036 0.247699 0.232197 0.8 0 0
0.150824 0.304113 0.622451 0.8 0 0
0.197249 0.200823 0.186730 0.8 0 0
0.278859 0.228236 0.658143 0.8 0 0
0.165298 0.252515 0.325059 0.8 0 0
0.190268 0.363174 0.434569 0.8 0 0
0.188921 0.151524 0.068815 0.8 0 0
0.137379 0.164357 0.676900 0.8 0 0
0.223506 0.284566 0.424814 0.8 0 0
0.219458 0.160466 0.862566 0.8 0 0
0.196759 0.181884 0.164159 0.8 0 0
0.146729 0.234119 0.897062 0.8 0 0
0.182863 0.183600 0.088782 0.8 0 0
0.210842 0.269604 0.354970 0.8 0 0
0.187561 0.108428 0.289759 0.8 0 0
0.235599 0.199184 0.709195 0.8 0 0
0.188690 0.306725 0.292839 0.8 0 0
0.187456 0.294017 0.079525 0.8 0 0
0.136909 0.245804 0.830011 0.8 0 0
0.327358 0.183945 0.606756 0.8 0 0
0.234086 0.155715 0.622562 0.8 0 0
0.323542 0.208679 0.620251 0.8 0 0
0.155763 0.257687 0.375452 0.8 0 0
0.219672 0.213706 0.359475 0.8 0 0
0.164940 0.308433 0.411874 0.8 0 0
0.151403 0.161336 0.374163 0.8 0 0
0.178816 0.117906 0.385406 0.8 0 0
0.142623 0.099802 0.682920 0.8 0 0
0.235375 0.089330 0.658352 0.8 0 0
0.228365 0.282930 0.563011 0.8 0 0
0.136409 0.204215 0.747462 0.8 0 0
0.149571 0.277673 0.679811 0.8 0 0
0.137475 0.229825 0.491212 0.8 0 0
0.161448 0.290083 0.390464 0.8 0 0
0.147455 0.283640 0.818865 0.8 0 0
0.206465 0.110296 0.511966 0.8 0 0
0.248322 0.188436 0.782908 0.8 0 0
0.190946 0.143599 0.095050 0.8 0 0
0.142959 0.079083 0.636420 0.8 0 0
0.211123 0.319057 0.764784 0.8 0 0
0.226526 0.313354 0.550191 0.8 0 0
0.219703 0.124497 0.610248 0.8 0 0
0.220322 0.101187 0.700520 0.8 0 0
0.237413 0.202882 0.463184 0.8 0 0
0.187379 0.151974 0.240925 0.8 0 0
0.150244 0.202287 0.913963 0.8 0 0
0.191119 0.156009 0.252121 0.8 0 0
0.228978 0.260435 0.743941 0.8 0 0
0.185394 0.315252 0.283138 0.8 0 0
0.160205 0.109764 0.645991 0.8 0 0
0.190348 0.381788 0.591095 0.8 0 0
0.193599 0.351794 0.480687 0.8 0 0
0.191284 0.332075 0.379308 0.8 0 0
0.179842 0.146224 0.149849 0.8 0 0
0.186890 0.100668 0.114735 0.8 0 0
0.190071 0.346159 0.345171 0.8 0 0
0.234317 0.170046 0.700533 0.8 0 0
0.186570 0.125217 0.162729 0.8 0 0
0.176775 0.188620 0.168273 0.8 0 0
0.189901 0.356299 0.617522 0.8 0 0
0.230209 0.263848 0.766311 0.8 0 0
0.195521 0.167151 0.225753 0.8 0 0
0.188874 0.372206 0.364079 0.8 0 0
0.229040 0.201936 0.927441 0.8 0 0
0.180815 0.178949 0.948750 0.8 0 0
0.255410 0.211078 0.671161 0.8 0 0
0.190568 0.293031 0.338172 0.8 0 0
0.144747 0.139338 0.613798 0.8 0 0
0.189694 0.240633 0.073801 0.8 0 0
0.058400 0.208241 0.616888 0.8 0 0
0.229672 0.170475 0.849541 0.8 0 0
0.195923 0.232365 0.219541 0.8 0 0
0.135017 0.199955 0.566379 0.8 0 0
0.141225 0.146782 0.442756 0.8 0 0
0.195065 0.356260 0.694938 0.8 0 0
0.214607 0.266024 0.368305 0.8 0 0
0.178104 0.191101 0.148844 0.8 0 0
0.335779 0.205267 0.598087 0.8 0 0
0.155458 0.124101 0.420522 0.8 0 0
0.232729 0.155063 0.702232 0.8 0 0
0.213846 0.279396 0.378065 0.8 0 0
0.114409 0.214501 0.668045 0.8 0 0
0.183150 0.079580 0.357065 0.8 0 0
0.222334 0.292662 0.654209 0.8 0 0
0.184422 0.283356 0.062963 0.8 0 0
0.226919 0.313920 0.530830 0.8 0 0
0.231207 0.154576 0.690506 0.8 0 0
0.179509 0.143313 0.336518 0.8 0 0
0.229785 0.251380 0.732479 0.8 0 0
0.189839 0.190006 0.076951 0.8 0 0
0.134618 0.205253 0.892307 0.8 0 0
0.286515 0.205476 0.642528 0.8 0 0
0.152289 0.219781 0.370089 0.8 0 0
0.206850 0.330767 0.752488 0.8 0 0
0.231425 0.134572 0.543746 0.8 0 0
0.286465 0.156949 0.637472 0.8 0 0
0.189170 0.107905 0.097867 0.8 0 0
0.179582 0.219751 0.136680 0.8 0 0
0.154646 0.122737 0.585918 0.8 0 0
0.189074 0.294233 0.302704 0.8 0 0
0.232708 0.146773 0.722858 0.8 0 0
0.184682 0.299696 0.858864 0.8 0 0
0.200578 0.109198 0.639792 0.8 0 0
0.231007 0.220977 0.700832 0.8 0 0
0.243649 0.070423 0.685656 0.8 0 0
0.181682 0.098377 0.373432 0.8 0 0
0.190916 0.129595 0.157437 0.8 0 0
0.139990 0.151315 0.767347 0.8 0 0
0.139784 0.233344 0.743810 0.8 0 0
0.234319 0.252650 0.492872 0.8 0 0
0.184175 0.291137 0.311795 0.8 0 0
0.220189 0.306187 0.671511 0.8 0 0
0.134516 0.186015 0.878046 0.8 0 0
0.181960 0.335318 0.398336 0.8 0 0
0.190830 0.118264 0.361070 0.8 0 0
0.237755 0.180477 0.595060 0.8 0 0
0.172656 0.346884 0.728327 0.8 0 0
0.192437 0.255364 0.940907 0.8 0 0
0.195722 0.179786 0.966252 0.8 0 0
0.136051 0.194938 0.866504 0.8 0 0
0.194968 0.159002 0.931307 0.8 0 0
0.236401 0.194914 0.700991 0.8 0 0
0.229380 0.229463 0.700945 0.8 0 0
0.231106 0.274268 0.818153 0.8 0 0
0.183672 0.254251 0.259856 0.8 0 0
0.167831 0.170344 0.953018 0.8 0 0
0.202273 0.109514 0.644747 0.8 0 0
0.209973 0.117412 0.432337 0.8 0 0
0.260730 0.193815 0.664550 0.8 0 0
0.135061 0.190247 0.573292 0.8 0 0
0.188393 0.237304 0.053438 0.8 0 0
0.139949 0.246356 0.545449 0.8 0 0
0.140423 0.237260 0.653449 0.8 0 0
0.198934 0.178847 0.229733 0.8 0 0
0.190960 0.086614 0.352591 0.8 0 0
0.239305 0.202869 0.846766 0.8 0 0
0.234825 0.196671 0.435325 0.8 0 0
0.188203 0.125409 0.291158 0.8 0 0
0.203929 0.304611 0.392338 0.8 0 0
0.182153 0.255041 0.135033 0.8 0 0
0.242160 0.240578 0.802988 0.8 0 0
0.235334 0.161401 0.440632 0.8 0 0
0.215465 0.119905 0.615922 0.8 0 0
0.149016 0.310238 0.582402 0.8 0 0
0.189432 0.240024 0.068239 0.8 0 0
0.143913 0.252964 0.736405 0.8 0 0
0.189560 0.340929 0.325830 0.8 0 0
0.145985 0.282014 0.581468 0.8 0 0
0.237363 0.062044 0.627476 0.8 0 0
0.196433 0.355433 0.667889 0.8 0 0
0.187138 0.251918 0.037351 0.8 0 0
0.187408 0.295510 0.061222 0.8 0 0
0.234471 0.171788 0.920896 0.8 0 0
0.313021 0.228889 0.625838 0.8 0 0
0.157584 0.325562 0.702165 0.8 0 0
0.248355 0.056881 0.640414 0.8 0 0
0.187609 0.374168 0.528852 0.8 0 0
0.187306 0.058882 0.333985 0.8 0 0
0.255050 0.195421 0.681132 0.8 0 0
0.137190 0.211452 0.641050 0.8 0 0
0.143094 0.288222 0.512046 0.8 0 0
0.182637 0.143566 0.096261 0.8 0 0
0.175387 0.107532 0.518263 0.8 0 0
0.184755 0.133038 0.167460 0.8 0 0
0.237660 0.164421 0.555520 0.8 0 0
0.148399 0.274435 0.736179 0.8 0 0
0.231341 0.084260 0.614233 0.8 0 0
0.150397 0.320572 0.510033 0.8 0 0
0.182008 0.244623 0.117465 0.8 0 0
0.162855 0.196403 0.310723 0.8 0 0
0.182007 0.093951 0.374731 0.8 0 0
0.203039 0.152022 0.883752 0.8 0 0
0.188846 0.104054 0.078327 0.8 0 0
0.176463 0.217658 0.207094 0.8 0 0
0.172446 0.207050 0.245167 0.8 0 0
0.142307 0.270141 0.530938 0.8 0 0
0.224888 0.234454 0.905257 0.8 0 0
0.202188 0.156052 0.907838 0.8 0 0
0.187672 0.397926 0.588751 0.8 0 0
0.147323 0.130570 0.662690 0.8 0 0
0.137090 0.191378 0.731849 0.8 0 0
0.223265 0.213030 0.376101 0.8 0 0
0.188690 0.324930 0.806247 0.8 0 0
0.152043 0.327342 0.581660 0.8 0 0
0.182000 0.261547 0.284329 0.8 0 0
0.104129 0.185725 0.666523 0.8 0 0
0.105783 0.202159 0.669742 0.8 0 0
0.186370 0.350160 0.274558 0.8 0 0
0.135682 0.184463 0.873855 0.8 0 0
0.248398 0.187485 0.688184 0.8 0 0
0.238961 0.081275 0.658213 0.8 0 0
0.196600 0.220219 0.180593 0.8 0 0
0.160146 0.140906 0.376214 0.8 0 0
0.237169 0.179370 0.611122 0.8 0 0
0.148019 0.275539 0.658546 0.8 0 0
0.227279 0.263801 0.730989 0.8 0 0
0.126488 0.060459 0.655931 0.8 0 0
0.225420 0.132774 0.644551 0.8 0 0
0.152937 0.151141 0.829835 0.8 0 0
0.194592 0.252397 0.269927 0.8 0 0
0.239845 0.189354 0.684756 0.8 0 0
0.133953 0.225169 0.838606 0.8 0 0
0.238773 0.210978 0.858466 0.8 0 0
0.309445 0.167958 0.621988 0.8 0 0
0.233299 0.198333 0.427089 0.8 0 0
0.224857 0.289986 0.797651 0.8 0 0
0.207691 0.338497 0.518702 0.8 0 0
0.180045 0.223896 0.967195 0.8 0 0
0.135943 0.166913 0.560850 0.8 0 0
0.187200 0.263707 0.280666 0.8 0 0
0.139512 0.208868 0.705245 0.8 0 0
0.144080 0.240220 0.687259 0.8 0 0
0.050427 0.196002 0.608413 0.8 0 0
0.191757 0.249850 0.132393 0.8 0 0
0.238282 0.177380 0.573621 0.8 0 0
0.183726 0.290110 0.321348 0.8 0 0
0.220366 0.114761 0.713356 0.8 0 0
0.189350 0.365935 0.370484 0.8 0 0
0.133697 0.191167 0.828363 0.8 0 0
0.180513 0.225679 0.127343 0.8 0 0
0.153836 0.326937 0.612486 0.8 0 0
0.234506 0.247471 0.469979 0.8 0 0
0.144134 0.214890 0.934130 0.8 0 0
0.138975 0.249244 0.499013 0.8 0 0
0.186349 0.149545 0.272625 0.8 0 0
0.234179 0.070354 0.618163 0.8 0 0
0.147064 0.277650 0.610042 0.8 0 0
0.147518 0.112393 0.670797 0.8 0 0
0.220467 0.316348 0.650380 0.8 0 0
0.166395 0.121656 0.722494 0.8 0 0
0.158178 0.157169 0.880109 0.8 0 0
0.189931 0.074420 0.366343 0.8 0 0
0.198463 0.321873 0.805757 0.8 0 0
0.180198 0.105590 0.454656 0.8 0 0
0.197775 0.260688 0.298904 0.8 0 0
0.163177 0.158532 0.342232 0.8 0 0
0.131967 0.193513 0.914608 0.8 0 0
0.140454 0.264430 0.487372 0.8 0 0
0.219550 0.317520 0.666085 0.8 0 0
0.184752 0.325233 0.301478 0.8 0 0
0.224111 0.120478 0.513010 0.8 0 0
0.211966 0.137389 0.785580 0.8 0 0
0.219053 0.299755 0.799199 0.8 0 0
0.150676 0.315560 0.602190 0.8 0 0
0.136542 0.176016 0.639384 0.8 0 0
0.231364 0.241236 0.671415 0.8 0 0
0.219043 0.301720 0.726989 0.8 0 0
0.235760 0.157691 0.747971 0.8 0 0
0.167431 0.115432 0.706887 0.8 0 0
0.239661 0.209304 0.688444 0.8 0 0
0.237087 0.085160 0.652340 0.8 0 0
0.137546 0.230136 0.531470 0.8 0 0
0.198860 0.324829 0.433909 0.8 0 0
0.190435 0.256629 0.087500 0.8 0 0
0.136258 0.211285 0.507446 0.8 0 0
0.191683 0.353730 0.442146 0.8 0 0
0.168137 0.231421 0.953206 0.8 0 0
0.239398 0.173457 0.683096 0.8 0 0
0.233320 0.152468 0.622057 0.8 0 0
0.220331 0.204773 0.914081 0.8 0 0
0.307102 0.217411 0.625220 0.8 0 0
0.246586 0.199764 0.796162 0.8 0 0
0.125820 0.216958 0.680785 0.8 0 0
0.235063 0.220970 0.892188 0.8 0 0
0.189313 0.172213 0.072633 0.8 0 0
0.210210 0.193610 0.888480 0.8 0 0
0.159768 0.262334 0.361719 0.8 0 0
0.181348 0.106213 0.609935 0.8 0 0
0.181256 0.153766 0.194974 0.8 0 0
0.084023 0.187071 0.637766 0.8 0 0
0.148123 0.309931 0.572692 0.8 0 0
0.138326 0.225876 0.629444 0.8 0 0
0.171048 0.134612 0.377545 0.8 0 0
0.168812 0.232841 0.952092 0.8 0 0
0.181297 0.333443 0.416876 0.8 0 0
0.212076 0.155180 0.866955 0.8 0 0
0.224666 0.121405 0.517863 0.8 0 0
0.232137 0.247065 0.649280 0.8 0 0
0.239533 0.058127 0.666600 0.8 0 0
0.247235 0.230044 0.783285 0.8 0 0
0.164760 0.189223 0.881922 0.8 0 0
0.256537 0.027123 0.624338 0.8 0 0
0.224708 0.123412 0.665677 0.8 0 0
0.196281 0.354278 0.628206 0.8 0 0
0.238982 0.188416 0.487932 0.8 0 0
0.144153 0.128783 0.521236 0.8 0 0
0.220287 0.155326 0.370452 0.8 0 0
0.183000 0.328954 0.361789 0.8 0 0
0.110199 0.205816 0.663336 0.8 0 0
0.169344 0.347940 0.605077 0.8 0 0
0.136886 0.213402 0.611281 0.8 0 0
0.213414 0.123996 0.411962 0.8 0 0
0.196752 0.240690 0.245649 0.8 0 0
0.192638 0.195364 0.112577 0.8 0 0
0.163127 0.300583 0.832530 0.8 0 0
0.268801 0.220551 0.660083 0.8 0 0
0.182492 0.355561 0.609505 0.8 0 0
0.237496 0.152484 0.492624 0.8 0 0
0.222416 0.306667 0.625824 0.8 0 0
0.181936 0.217176 0.106709 0.8 0 0
0.135051 0.231281 0.842387 0.8 0 0
0.191301 0.149765 0.097154 0.8 0 0
0.147201 0.090731 0.668286 0.8 0 0
0.145660 0.270835 0.429608 0.8 0 0
0.189378 0.253621 0.065258 0.8 0 0
0.219091 0.300008 0.782077 0.8 0 0
0.122683 0.195545 0.673513 0.8 0 0
0.222613 0.314293 0.611821 0.8 0 0
0.238624 0.190036 0.572958 0.8 0 0
0.208944 0.220842 0.938791 0.8 0 0
0.236584 0.188520 0.685458 0.8 0 0
0.170872 0.277363 0.346534 0.8 0 0
0.060070 0.177641 0.625949 0.8 0 0
0.153675 0.294876 0.729314 0.8 0 0
0.187385 0.111703 0.303604 0.8 0 0
0.183152 0.383812 0.614188 0.8 0 0
0.238306 0.188699 0.835486 0.8 0 0
0.026822 0.202595 0.593022 0.8 0 0
0.149465 0.274674 0.694289 0.8 0 0
0.235875 0.185325 0.724834 0.8 0 0
0.132876 0.054099 0.636936 0.8 0 0
0.184790 0.082405 0.405515 0.8 0 0
0.230227 0.278558 0.532560 0.8 0 0
0.189254 0.139520 0.289189 0.8 0 0
0.234751 0.236343 0.755363 0.8 0 0
0.197657 0.276029 0.329629 0.8 0 0
0.122375 0.194686 0.673144 0.8 0 0
0.189255 0.337236 0.315230 0.8 0 0
0.147277 0.096653 0.627069 0.8 0 0
0.191747 0.141569 0.106454 0.8 0 0
0.237537 0.214096 0.546292 0.8 0 0
0.237146 0.163592 0.459911 0.8 0 0
0.147675 0.155552 0.829518 0.8 0 0
0.182853 0.309181 0.349840 0.8 0 0
0.239614 0.176898 0.482561 0.8 0 0
0.188029 0.061962 0.354370 0.8 0 0
0.186731 0.321366 0.814708 0.8 0 0
0.190983 0.124070 0.110788 0.8 0 0
0.177668 0.230374 0.209957 0.8 0 0
0.227892 0.252530 0.707477 0.8 0 0
0.184667 0.069350 0.381672 0.8 0 0
0.203272 0.139803 0.367643 0.8 0 0
0.181610 0.126515 0.141830 0.8 0 0
0.192502 0.102318 0.393956 0.8 0 0
0.213186 0.341686 0.582697 0.8 0 0
0.142631 0.143110 0.722592 0.8 0 0
0.192243 0.341040 0.439294 0.8 0 0
0.196650 0.219084 0.172704 0.8 0 0
0.232701 0.231778 0.877940 0.8 0 0
0.171598 0.109425 0.650926 0.8 0 0
0.072519 0.171064 0.636482 0.8 0 0
0.123740 0.054070 0.664001 0.8 0 0
0.167462 0.325880 0.459231 0.8 0 0
0.183367 0.144324 0.293548 0.8 0 0
0.213094 0.341256 0.594690 0.8 0 0
0.219193 0.301166 0.430540 0.8 0 0
0.204172 0.290288 0.369486 0.8 0 0
0.213169 0.179731 0.328292 0.8 0 0
0.167212 0.230628 0.953137 0.8 0 0
0.151490 0.117340 0.649421 0.8 0 0
0.177083 0.179317 0.966357 0.8 0 0
0.186876 0.216957 0.040864 0.8 0 0
0.176674 0.207187 0.180978 0.8 0 0
0.226116 0.133864 0.708794 0.8 0 0
0.184605 0.371389 0.430400 0.8 0 0
0.160162 0.340657 0.562094 0.8 0 0
0.204746 0.298756 0.848169 0.8 0 0
0.228297 0.131268 0.562820 0.8 0 0
0.184216 0.239189 0.068955 0.8 0 0
0.218670 0.257316 0.378470 0.8 0 0
0.187556 0.146285 0.278954 0.8 0 0
0.039928 0.188674 0.607938 0.8 0 0
0.136223 0.211625 0.492211 0.8 0 0
0.192991 0.131477 0.129130 0.8 0 0
0.151540 0.161249 0.874689 0.8 0 0
0.232575 0.173796 0.869968 0.8 0 0
0.176557 0.212928 0.193947 0.8 0 0
0.038354 0.198562 0.598288 0.8 0 0
0.238669 0.207466 0.901935 0.8 0 0
0.225632 0.316349 0.515603 0.8 0 0
0.275795 0.228490 0.659538 0.8 0 0
0.136732 0.182140 0.682082 0.8 0 0
0.187234 0.275013 0.285141 0.8 0 0
0.190770 0.178126 0.088647 0.8 0 0
0.188355 0.388184 0.647492 0.8 0 0
0.183310 0.152974 0.207921 0.8 0 0
0.181119 0.351819 0.718812 0.8 0 0
0.198531 0.351303 0.611246 0.8 0 0
0.184147 0.388835 0.591449 0.8 0 0
0.237504 0.170156 0.898193 0.8 0 0
0.182394 0.254238 0.129704 0.8 0 0
0.236873 0.186158 0.681623 0.8 0 0
0.189292 0.124543 0.155670 0.8 0 0
0.230124 0.262772 0.583476 0.8 0 0
0.140090 0.176540 0.869875 0.8 0 0
0.222914 0.147272 0.384553 0.8 0 0
0.158246 0.309486 0.753891 0.8 0 0
0.223186 0.129319 0.629105 0.8 0 0
0.314977 0.204659 0.627551 0.8 0 0
0.254894 0.028375 0.630757 0.8 0 0
0.136412 0.215455 0.522742 0.8 0 0
0.142460 0.183635 0.907482 0.8 0 0
0.222476 0.201788 0.370688 0.8 0 0
0.166029 0.159527 0.326357 0.8 0 0
0.224711 0.290501 0.613774 0.8 0 0
0.150142 0.298745 0.619068 0.8 0 0
0.145336 0.141245 0.422112 0.8 0 0
0.154145 0.123068 0.595353 0.8 0 0
0.196835 0.173813 0.177036 0.8 0 0
0.229475 0.140850 0.726846 0.8 0 0
0.192385 0.349041 0.541564 0.8 0 0
0.196784 0.184923 0.869047 0.8 0 0
0.205955 0.300848 0.842644 0.8 0 0
0.127757 0.049507 0.671775 0.8 0 0
0.233457 0.248294 0.548673 0.8 0 0
0.131882 0.052115 0.623277 0.8 0 0
0.185724 0.385774 0.372756 0.8 0 0
0.179712 0.149351 0.132427 0.8 0 0
0.086879 0.187086 0.651114 0.8 0 0
0.184955 0.273655 0.047304 0.8 0 0
