0.568575 0.172379 0.060359 0.8 0 0
0.594164 0.200861 0.087577 0.8 0 0
0.492138 0.167558 0.051917 0.8 0 0
0.466401 0.062576 0.157764 0.8 0 0
0.356212 0.131187 0.120196 0.8 0 0
0.331414 0.121257 0.043890 0.8 0 0
0.718682 0.229272 0.106277 0.8 0 0
0.430510 0.144415 0.159232 0.8 0 0
0.259975 0.201792 0.120489 0.8 0 0
0.694725 0.071283 0.101946 0.8 0 0
0.352661 0.166778 0.037492 0.8 0 0
0.365662 0.207415 0.139760 0.8 0 0
0.580661 0.095302 0.078539 0.8 0 0
0.262366 0.186173 0.150569 0.8 0 0
0.371941 0.191641 0.164909 0.8 0 0
0.457629 0.127163 0.062994 0.8 0 0
0.501789 0.137330 0.153107 0.8 0 0
0.648027 0.112667 0.131059 0.8 0 0
0.356212 0.137444 0.112407 0.8 0 0
0.617989 0.155859 0.153314 0.8 0 0
0.930554 0.247470 0.098774 0.8 0 0
0.359218 0.105083 0.138858 0.8 0 0
0.092143 0.175977 0.101841 0.8 0 0
0.564151 0.143548 0.060420 0.8 0 0
0.713328 0.208729 0.101362 0.8 0 0
0.528366 0.168232 0.051629 0.8 0 0
0.319730 0.136984 0.146293 0.8 0 0
0.546621 0.190158 0.147724 0.8 0 0
0.306243 0.087217 0.125703 0.8 0 0
0.425972 0.197532 0.069219 0.8 0 0
0.471156 0.055341 0.172708 0.8 0 0
0.717850 0.141740 0.131730 0.8 0 0
0.843234 0.142515 0.101360 0.8 0 0
0.906026 0.235958 0.115168 0.8 0 0
0.396452 0.193579 0.068850 0.8 0 0
0.629468 0.134998 0.067493 0.8 0 0
0.770584 0.179619 0.107079 0.8 0 0
0.862481 0.040346 0.111869 0.8 0 0
0.331754 0.207518 0.079286 0.8 0 0
0.589719 0.051912 0.061849 0.8 0 0
0.398059 0.188355 0.150283 0.8 0 0
0.238580 0.162141 0.148715 0.8 0 0
0.385535 0.120695 0.151746 0.8 0 0
0.257412 0.175545 0.158130 0.8 0 0
0.797869 0.129762 0.112631 0.8 0 0
0.726720 0.158699 0.129043 0.8 0 0
0.806412 0.166491 0.116059 0.8 0 0
0.312324 0.089219 0.075994 0.8 0 0
0.717818 0.168771 0.087769 0.8 0 0
0.318975 0.166568 0.109620 0.8 0 0
0.516741 0.211873 0.093470 0.8 0 0
0.308880 0.113529 0.129146 0.8 0 0
0.839972 0.149916 0.100476 0.8 0 0
0.664859 0.091596 0.099578 0.8 0 0
0.177186 0.184810 0.125058 0.8 0 0
0.420882 0.134113 0.148669 0.8 0 0
0.467933 0.072256 0.156427 0.8 0 0
0.902265 0.232010 0.114976 0.8 0 0
0.813266 0.183208 0.097254 0.8 0 0
0.407809 0.180464 0.153241 0.8 0 0
0.828986 0.147563 0.112217 0.8 0 0
0.712388 0.084072 0.101421 0.8 0 0
0.714387 0.272996 0.108106 0.8 0 0
0.719191 0.177670 0.115998 0.8 0 0
0.265684 0.164932 0.168689 0.8 0 0
0.356230 0.177783 0.139578 0.8 0 0
0.476468 0.196646 0.145971 0.8 0 0
0.849606 0.163426 0.112399 0.8 0 0
0.196950 0.175395 0.076790 0.8 0 0
0.482154 0.163601 0.058269 0.8 0 0
0.813702 0.081012 0.098513 0.8 0 0
0.597596 0.187773 0.069712 0.8 0 0
0.519456 0.206543 0.083502 0.8 0 0
0.509773 0.161902 0.050035 0.8 0 0
0.324184 0.126700 0.042529 0.8 0 0
0.396775 0.135582 0.178663 0.8 0 0
0.496615 0.095904 0.145728 0.8 0 0
0.536571 0.143528 0.058893 0.8 0 0
0.700938 0.058039 0.110708 0.8 0 0
0.190851 0.193248 0.102793 0.8 0 0
0.743519 0.140454 0.086918 0.8 0 0
0.355078 0.106743 0.167590 0.8 0 0
0.685423 0.109566 0.097067 0.8 0 0
0.708023 0.125210 0.118915 0.8 0 0
0.319714 0.142986 0.130615 0.8 0 0
0.805138 0.185615 0.115346 0.8 0 0
0.360556 0.088265 0.077646 0.8 0 0
0.902566 0.224914 0.114061 0.8 0 0
0.484787 0.088792 0.067588 0.8 0 0
0.470539 0.062284 0.158425 0.8 0 0
0.189865 0.170646 0.082379 0.8 0 0
0.852497 0.214828 0.113528 0.8 0 0
0.809512 0.180401 0.096682 0.8 0 0
0.597665 0.067107 0.133262 0.8 0 0
0.712824 0.204877 0.111791 0.8 0 0
0.704831 0.055048 0.110763 0.8 0 0
0.597305 0.058759 0.139460 0.8 0 0
0.495875 0.075520 0.143918 0.8 0 0
0.503399 0.136024 0.152865 0.8 0 0
0.391937 0.208264 0.108832 0.8 0 0
0.356212 0.110028 0.070365 0.8 0 0
0.485762 0.082999 0.073005 0.8 0 0
0.953956 0.258617 0.114564 0.8 0 0
0.596107 0.042818 0.145197 0.8 0 0
0.595022 0.142836 0.062513 0.8 0 0
0.334373 0.078160 0.091478 0.8 0 0
0.838437 0.098288 0.111469 0.8 0 0
0.600135 0.042107 0.150577 0.8 0 0
0.319749 0.139337 0.151573 0.8 0 0
0.600045 0.039509 0.150945 0.8 0 0
0.581624 0.101160 0.072760 0.8 0 0
0.539505 0.212262 0.095931 0.8 0 0
0.203719 0.179853 0.135919 0.8 0 0
0.718833 0.127058 0.087955 0.8 0 0
0.483056 0.202593 0.138473 0.8 0 0
0.594764 0.121092 0.067304 0.8 0 0
0.248267 0.197633 0.130120 0.8 0 0
0.692813 0.252991 0.099858 0.8 0 0
0.688768 0.203120 0.115366 0.8 0 0
0.462301 0.209085 0.125956 0.8 0 0
0.455655 0.076375 0.139273 0.8 0 0
0.319548 0.197610 0.152619 0.8 0 0
0.599242 0.037137 0.059446 0.8 0 0
0.399482 0.083467 0.112232 0.8 0 0
0.594762 0.091996 0.086442 0.8 0 0
0.313527 0.166592 0.128921 0.8 0 0
0.025061 0.177989 0.112013 0.8 0 0
0.494676 0.073345 0.146405 0.8 0 0
0.722060 0.062210 0.104995 0.8 0 0
0.498004 0.085383 0.135217 0.8 0 0
0.610293 0.091697 0.117966 0.8 0 0
0.209735 0.166678 0.086476 0.8 0 0
0.671503 0.147438 0.142581 0.8 0 0
0.365790 0.132520 0.097120 0.8 0 0
0.390806 0.137392 0.064136 0.8 0 0
0.471351 0.080593 0.084409 0.8 0 0
0.431761 0.171675 0.157820 0.8 0 0
0.699412 0.072283 0.110286 0.8 0 0
0.680487 0.254604 0.104740 0.8 0 0
0.319714 0.155411 0.123809 0.8 0 0
0.861052 0.212437 0.114621 0.8 0 0
0.440599 0.072340 0.143347 0.8 0 0
0.292057 0.164370 0.139830 0.8 0 0
0.319767 0.135031 0.094082 0.8 0 0
0.489449 0.087772 0.074634 0.8 0 0
0.378594 0.190823 0.051917 0.8 0 0
0.806274 0.136750 0.112389 0.8 0 0
0.909759 0.247578 0.109823 0.8 0 0
0.387575 0.095705 0.133234 0.8 0 0
0.635837 0.127385 0.072037 0.8 0 0
0.327744 0.209627 0.128103 0.8 0 0
0.448396 0.056104 0.160834 0.8 0 0
0.570651 0.044488 0.064887 0.8 0 0
0.244594 0.166946 0.107884 0.8 0 0
0.895333 0.221543 0.098642 0.8 0 0
0.504123 0.163548 0.158088 0.8 0 0
0.503692 0.080821 0.083731 0.8 0 0
0.266766 0.160045 0.170480 0.8 0 0
0.828143 0.175695 0.098845 0.8 0 0
0.700281 0.164607 0.082724 0.8 0 0
0.163647 0.168023 0.104123 0.8 0 0
0.620683 0.101372 0.083323 0.8 0 0
0.448791 0.085904 0.147561 0.8 0 0
0.444054 0.082604 0.081713 0.8 0 0
0.795109 0.113193 0.099549 0.8 0 0
0.367006 0.082272 0.099349 0.8 0 0
0.295582 0.153005 0.069543 0.8 0 0
0.365829 0.188503 0.085580 0.8 0 0
0.450168 0.100731 0.144557 0.8 0 0
0.793133 0.104342 0.113341 0.8 0 0
0.745448 0.169375 0.093841 0.8 0 0
0.317394 0.101759 0.160865 0.8 0 0
0.505842 0.195342 0.065403 0.8 0 0
0.520843 0.205835 0.082290 0.8 0 0
0.895126 0.182558 0.107974 0.8 0 0
0.481884 0.136610 0.151810 0.8 0 0
0.862333 0.067173 0.102562 0.8 0 0
0.371725 0.146364 0.180536 0.8 0 0
0.366418 0.161744 0.151626 0.8 0 0
0.340554 0.198187 0.154955 0.8 0 0
0.722986 0.079244 0.104398 0.8 0 0
0.959619 0.264887 0.101400 0.8 0 0
0.356219 0.157264 0.084641 0.8 0 0
0.668164 0.104928 0.094636 0.8 0 0
0.377073 0.097556 0.063547 0.8 0 0
0.578144 0.102268 0.141481 0.8 0 0
0.501529 0.142669 0.058409 0.8 0 0
0.646314 0.126002 0.137622 0.8 0 0
0.522081 0.148997 0.165477 0.8 0 0
0.391771 0.133658 0.062628 0.8 0 0
0.356212 0.163304 0.097485 0.8 0 0
0.288989 0.113812 0.141568 0.8 0 0
0.801939 0.175115 0.095533 0.8 0 0
0.629660 0.140925 0.066087 0.8 0 0
0.875748 0.176135 0.111787 0.8 0 0
0.926036 0.238815 0.097873 0.8 0 0
0.478523 0.162382 0.047979 0.8 0 0
0.822942 0.188642 0.114728 0.8 0 0
0.482697 0.152481 0.154611 0.8 0 0
0.850431 0.144232 0.108544 0.8 0 0
0.458256 0.074793 0.103338 0.8 0 0
0.376015 0.120683 0.044126 0.8 0 0
0.603446 0.191840 0.076415 0.8 0 0
0.533231 0.078837 0.117176 0.8 0 0
0.506847 0.124436 0.150826 0.8 0 0
0.357747 0.172470 0.059856 0.8 0 0
0.510546 0.105224 0.065198 0.8 0 0
0.423222 0.131819 0.061081 0.8 0 0
0.356212 0.187550 0.122057 0.8 0 0
0.703889 0.196338 0.096774 0.8 0 0
0.365835 0.103719 0.097133 0.8 0 0
0.806072 0.116019 0.112210 0.8 0 0
0.631897 0.171164 0.070042 0.8 0 0
0.182205 0.167563 0.096147 0.8 0 0
0.525696 0.181861 0.152762 0.8 0 0
0.533094 0.197390 0.145075 0.8 0 0
0.499064 0.151347 0.167141 0.8 0 0
0.681954 0.131520 0.081922 0.8 0 0
0.608825 0.186073 0.071283 0.8 0 0
0.712382 0.237859 0.111658 0.8 0 0
0.484599 0.138712 0.059750 0.8 0 0
0.319764 0.136224 0.156035 0.8 0 0
0.450458 0.163070 0.169852 0.8 0 0
0.407455 0.155689 0.060826 0.8 0 0
0.433733 0.143876 0.049615 0.8 0 0
0.389637 0.104132 0.065590 0.8 0 0
0.490185 0.083363 0.079739 0.8 0 0
0.496889 0.083812 0.079035 0.8 0 0
0.596527 0.082646 0.135722 0.8 0 0
0.224266 0.167795 0.104862 0.8 0 0
0.902468 0.192875 0.109861 0.8 0 0
0.460529 0.155599 0.049140 0.8 0 0
0.165544 0.166368 0.110746 0.8 0 0
0.390039 0.199253 0.124320 0.8 0 0
0.747651 0.114969 0.100058 0.8 0 0
0.386876 0.198257 0.080441 0.8 0 0
0.482103 0.084530 0.133810 0.8 0 0
0.300731 0.181442 0.054029 0.8 0 0
0.491294 0.054724 0.164943 0.8 0 0
0.296994 0.086558 0.088101 0.8 0 0
0.472228 0.169270 0.159294 0.8 0 0
0.792152 0.187549 0.108041 0.8 0 0
0.401061 0.174175 0.154592 0.8 0 0
0.713203 0.179686 0.097065 0.8 0 0
0.831257 0.157616 0.112764 0.8 0 0
0.386960 0.177785 0.152888 0.8 0 0
0.446832 0.161520 0.058363 0.8 0 0
0.318147 0.166571 0.116847 0.8 0 0
0.286228 0.138572 0.172508 0.8 0 0
0.365644 0.178114 0.120467 0.8 0 0
0.453213 0.151126 0.160778 0.8 0 0
0.411559 0.119055 0.066383 0.8 0 0
0.598756 0.103443 0.075153 0.8 0 0
0.442774 0.060877 0.048303 0.8 0 0
0.723690 0.048831 0.107737 0.8 0 0
0.439239 0.176572 0.055961 0.8 0 0
0.859439 0.202876 0.098664 0.8 0 0
0.627316 0.108426 0.134301 0.8 0 0
0.593082 0.041740 0.145741 0.8 0 0
0.313843 0.108524 0.051488 0.8 0 0
0.360018 0.170523 0.056527 0.8 0 0
0.416087 0.177772 0.044319 0.8 0 0
0.372170 0.126852 0.152244 0.8 0 0
0.297833 0.166337 0.132774 0.8 0 0
0.408006 0.183426 0.169870 0.8 0 0
0.612688 0.113342 0.139741 0.8 0 0
0.412435 0.125188 0.053411 0.8 0 0
0.422447 0.205452 0.083340 0.8 0 0
0.227886 0.179602 0.070918 0.8 0 0
0.490208 0.167478 0.052202 0.8 0 0
0.262347 0.152788 0.060631 0.8 0 0
0.286627 0.175686 0.052665 0.8 0 0
0.533546 0.105997 0.146739 0.8 0 0
0.393954 0.149998 0.062051 0.8 0 0
0.885629 0.186525 0.111868 0.8 0 0
0.486370 0.159469 0.159344 0.8 0 0
0.451234 0.194147 0.146287 0.8 0 0
0.297789 0.209041 0.112411 0.8 0 0
0.473161 0.149315 0.051881 0.8 0 0
0.502137 0.168484 0.050941 0.8 0 0
0.809863 0.154596 0.098769 0.8 0 0
0.443191 0.102753 0.144581 0.8 0 0
0.736656 0.141901 0.084816 0.8 0 0
0.451502 0.137313 0.061804 0.8 0 0
0.418975 0.136725 0.047124 0.8 0 0
0.321472 0.163285 0.177613 0.8 0 0
0.550587 0.166476 0.053146 0.8 0 0
0.491970 0.053831 0.044669 0.8 0 0
0.441167 0.069268 0.146734 0.8 0 0
0.267961 0.147876 0.054783 0.8 0 0
0.701365 0.189174 0.108585 0.8 0 0
0.490936 0.156360 0.056688 0.8 0 0
0.363539 0.206574 0.146333 0.8 0 0
0.418048 0.143314 0.158093 0.8 0 0
0.401529 0.089903 0.130828 0.8 0 0
0.385617 0.171631 0.179193 0.8 0 0
0.805665 0.179759 0.116159 0.8 0 0
0.274448 0.157653 0.171149 0.8 0 0
0.865380 0.076116 0.106658 0.8 0 0
0.706102 0.081332 0.101926 0.8 0 0
0.148498 0.187251 0.113301 0.8 0 0
0.619540 0.195903 0.120145 0.8 0 0
0.537140 0.130223 0.061455 0.8 0 0
0.444605 0.090170 0.067818 0.8 0 0
0.602090 0.128183 0.066400 0.8 0 0
0.299909 0.113243 0.103002 0.8 0 0
0.132682 0.181392 0.117866 0.8 0 0
0.634578 0.106418 0.130347 0.8 0 0
0.398471 0.154342 0.039281 0.8 0 0
0.521558 0.140443 0.153455 0.8 0 0
0.569606 0.192898 0.068473 0.8 0 0
0.356497 0.095856 0.066275 0.8 0 0
0.492432 0.074610 0.103959 0.8 0 0
0.400118 0.196378 0.136779 0.8 0 0
0.272768 0.151501 0.171147 0.8 0 0
0.309197 0.138613 0.162197 0.8 0 0
0.515935 0.212923 0.095360 0.8 0 0
0.457312 0.102500 0.145123 0.8 0 0
0.547422 0.084307 0.084829 0.8 0 0
0.450971 0.154036 0.049351 0.8 0 0
0.486437 0.191068 0.063429 0.8 0 0
0.365928 0.129526 0.067258 0.8 0 0
0.397212 0.147010 0.062251 0.8 0 0
0.379869 0.142830 0.037540 0.8 0 0
0.356212 0.161951 0.101957 0.8 0 0
0.922288 0.223058 0.103303 0.8 0 0
0.434348 0.077799 0.120558 0.8 0 0
0.366996 0.148938 0.149636 0.8 0 0
0.721581 0.271177 0.105388 0.8 0 0
0.604473 0.068534 0.077646 0.8 0 0
0.029333 0.173027 0.110641 0.8 0 0
0.454146 0.204080 0.078527 0.8 0 0
0.903791 0.246137 0.108728 0.8 0 0
0.386233 0.096102 0.151540 0.8 0 0
0.530923 0.084089 0.129960 0.8 0 0
0.291171 0.160668 0.142191 0.8 0 0
0.362890 0.165525 0.152249 0.8 0 0
0.424625 0.142901 0.059133 0.8 0 0
0.741567 0.173367 0.096808 0.8 0 0
0.849371 0.041624 0.102810 0.8 0 0
0.610661 0.158588 0.059679 0.8 0 0
0.437791 0.147991 0.160461 0.8 0 0
0.698597 0.062597 0.110661 0.8 0 0
0.268151 0.203840 0.099928 0.8 0 0
0.708674 0.160224 0.130905 0.8 0 0
0.531782 0.085038 0.131520 0.8 0 0
0.445296 0.158945 0.058852 0.8 0 0
0.568403 0.056477 0.065091 0.8 0 0
0.836439 0.055015 0.100456 0.8 0 0
0.598073 0.093735 0.085073 0.8 0 0
0.147234 0.168545 0.110548 0.8 0 0
0.438903 0.087404 0.146190 0.8 0 0
0.349370 0.132911 0.038579 0.8 0 0
0.362728 0.099168 0.082929 0.8 0 0
0.473248 0.134286 0.060984 0.8 0 0
0.427635 0.100545 0.143667 0.8 0 0
0.574009 0.066997 0.129919 0.8 0 0
0.436113 0.210771 0.090847 0.8 0 0
0.445108 0.074928 0.070531 0.8 0 0
0.518522 0.199673 0.070142 0.8 0 0
0.649386 0.222488 0.102180 0.8 0 0
0.281789 0.163993 0.082468 0.8 0 0
0.848723 0.069373 0.111846 0.8 0 0
0.786980 0.092281 0.105155 0.8 0 0
0.445804 0.166716 0.154799 0.8 0 0
0.436343 0.090087 0.068162 0.8 0 0
0.393460 0.123889 0.173654 0.8 0 0
0.568492 0.057830 0.065756 0.8 0 0
0.691454 0.145028 0.137574 0.8 0 0
0.244648 0.162213 0.056494 0.8 0 0
0.436131 0.079901 0.125884 0.8 0 0
0.555019 0.146832 0.059063 0.8 0 0
0.704607 0.175623 0.091482 0.8 0 0
0.291336 0.085305 0.107125 0.8 0 0
0.865098 0.197330 0.099007 0.8 0 0
0.646112 0.191512 0.095928 0.8 0 0
0.542567 0.120409 0.149183 0.8 0 0
0.214971 0.198193 0.108522 0.8 0 0
0.568469 0.083082 0.114670 0.8 0 0
0.457219 0.213711 0.117084 0.8 0 0
0.450810 0.083186 0.132304 0.8 0 0
0.462263 0.081125 0.083665 0.8 0 0
0.692276 0.120863 0.120754 0.8 0 0
0.643269 0.193321 0.115441 0.8 0 0
0.838751 0.053753 0.112448 0.8 0 0
0.356212 0.124154 0.094834 0.8 0 0
0.401759 0.131347 0.064768 0.8 0 0
0.869367 0.215709 0.097926 0.8 0 0
0.214998 0.164171 0.142676 0.8 0 0
0.562660 0.204387 0.126813 0.8 0 0
0.279151 0.101226 0.102387 0.8 0 0
0.371800 0.103901 0.072007 0.8 0 0
0.291979 0.186941 0.059035 0.8 0 0
0.119518 0.183032 0.113661 0.8 0 0
0.741973 0.183229 0.105801 0.8 0 0
0.356212 0.150437 0.098219 0.8 0 0
0.318488 0.201569 0.146596 0.8 0 0
0.393959 0.131260 0.177092 0.8 0 0
0.471819 0.169341 0.162229 0.8 0 0
0.276964 0.158923 0.171323 0.8 0 0
0.274951 0.190183 0.066791 0.8 0 0
0.270697 0.153430 0.072357 0.8 0 0
0.309450 0.092518 0.145955 0.8 0 0
0.413737 0.205423 0.123807 0.8 0 0
0.372883 0.179848 0.064535 0.8 0 0
0.436263 0.071373 0.153166 0.8 0 0
0.037886 0.172959 0.115649 0.8 0 0
0.694618 0.116391 0.095389 0.8 0 0
0.471703 0.078936 0.087615 0.8 0 0
0.788448 0.092935 0.103410 0.8 0 0
0.198801 0.192739 0.120427 0.8 0 0
0.569655 0.211361 0.112153 0.8 0 0
0.461996 0.051596 0.046696 0.8 0 0
0.380275 0.129714 0.177335 0.8 0 0
0.702876 0.108524 0.113927 0.8 0 0
0.291164 0.155814 0.044729 0.8 0 0
0.444573 0.205843 0.081956 0.8 0 0
0.426518 0.081167 0.126255 0.8 0 0
0.454235 0.070717 0.064761 0.8 0 0
0.460560 0.208127 0.086037 0.8 0 0
0.296481 0.205247 0.126862 0.8 0 0
0.853808 0.174375 0.112776 0.8 0 0
0.749986 0.158609 0.089462 0.8 0 0
0.782848 0.177482 0.113662 0.8 0 0
0.630395 0.096184 0.116617 0.8 0 0
0.843756 0.193210 0.098552 0.8 0 0
0.509124 0.150371 0.155294 0.8 0 0
0.263512 0.150803 0.170419 0.8 0 0
0.356212 0.136712 0.100223 0.8 0 0
0.552354 0.072322 0.133210 0.8 0 0
0.638729 0.108845 0.082174 0.8 0 0
0.714518 0.046212 0.102493 0.8 0 0
0.410171 0.083153 0.093078 0.8 0 0
0.808871 0.202511 0.106219 0.8 0 0
0.601907 0.067459 0.068387 0.8 0 0
0.318209 0.126603 0.052701 0.8 0 0
0.673457 0.155559 0.140165 0.8 0 0
0.194799 0.165717 0.125080 0.8 0 0
0.495116 0.049097 0.175128 0.8 0 0
0.714970 0.221034 0.108666 0.8 0 0
0.406134 0.171636 0.062283 0.8 0 0
0.375157 0.183154 0.171196 0.8 0 0
0.340521 0.210733 0.088549 0.8 0 0
0.381255 0.141251 0.155350 0.8 0 0
0.395650 0.193502 0.142829 0.8 0 0
0.588696 0.056472 0.063755 0.8 0 0
0.390868 0.119311 0.151406 0.8 0 0
0.431088 0.203001 0.135601 0.8 0 0
0.319714 0.163816 0.113845 0.8 0 0
0.703944 0.108603 0.113794 0.8 0 0
0.432171 0.083022 0.143560 0.8 0 0
0.308502 0.166615 0.111293 0.8 0 0
0.151076 0.168347 0.111804 0.8 0 0
0.672010 0.113975 0.088129 0.8 0 0
0.218762 0.166197 0.070099 0.8 0 0
0.547754 0.171689 0.056986 0.8 0 0
0.292547 0.165153 0.097891 0.8 0 0
0.591321 0.123498 0.145984 0.8 0 0
0.629555 0.189301 0.084433 0.8 0 0
0.591015 0.208125 0.099752 0.8 0 0
0.688783 0.179577 0.091332 0.8 0 0
0.271205 0.200263 0.083965 0.8 0 0
0.365720 0.180332 0.151745 0.8 0 0
0.077238 0.184350 0.108560 0.8 0 0
0.299667 0.118611 0.069958 0.8 0 0
0.356317 0.146136 0.129674 0.8 0 0
0.623549 0.192072 0.087419 0.8 0 0
0.391665 0.162363 0.152320 0.8 0 0
0.546761 0.163891 0.160418 0.8 0 0
0.919795 0.249878 0.110905 0.8 0 0
0.319780 0.132057 0.090731 0.8 0 0
0.534950 0.201062 0.074651 0.8 0 0
0.276661 0.163446 0.091763 0.8 0 0
0.582982 0.084899 0.100839 0.8 0 0
0.873453 0.227519 0.102470 0.8 0 0
0.483909 0.112641 0.147780 0.8 0 0
0.858461 0.204569 0.098442 0.8 0 0
0.844337 0.214437 0.108217 0.8 0 0
0.358626 0.140859 0.064339 0.8 0 0
0.456619 0.170996 0.159231 0.8 0 0
0.612850 0.120707 0.141365 0.8 0 0
0.536376 0.079762 0.092773 0.8 0 0
0.842996 0.082309 0.100682 0.8 0 0
0.956355 0.255135 0.103776 0.8 0 0
0.295207 0.115959 0.058855 0.8 0 0
0.847530 0.046493 0.112751 0.8 0 0
0.899097 0.204890 0.112509 0.8 0 0
0.301312 0.113738 0.078756 0.8 0 0
0.317416 0.154878 0.066226 0.8 0 0
0.638396 0.155703 0.063902 0.8 0 0
0.563377 0.195492 0.069808 0.8 0 0
0.711173 0.068240 0.110022 0.8 0 0
0.054664 0.177512 0.116274 0.8 0 0
0.512590 0.075163 0.107473 0.8 0 0
0.349426 0.081580 0.086811 0.8 0 0
0.518565 0.109075 0.147872 0.8 0 0
0.520613 0.130075 0.061243 0.8 0 0
0.299732 0.084516 0.088814 0.8 0 0
0.502136 0.100072 0.065801 0.8 0 0
0.692628 0.263063 0.106013 0.8 0 0
0.562723 0.214200 0.103971 0.8 0 0
0.538134 0.196838 0.145199 0.8 0 0
0.582373 0.035041 0.155602 0.8 0 0
0.308047 0.195111 0.065428 0.8 0 0
0.222602 0.181849 0.074375 0.8 0 0
0.489540 0.194969 0.147371 0.8 0 0
0.198376 0.195564 0.109213 0.8 0 0
0.535628 0.079587 0.119579 0.8 0 0
0.725595 0.144467 0.081304 0.8 0 0
0.920486 0.223640 0.110308 0.8 0 0
0.482721 0.150265 0.056563 0.8 0 0
0.564355 0.159689 0.054187 0.8 0 0
0.805504 0.110035 0.112274 0.8 0 0
0.326630 0.106094 0.049927 0.8 0 0
0.388491 0.143489 0.155350 0.8 0 0
0.859326 0.213340 0.114805 0.8 0 0
0.943063 0.253819 0.098517 0.8 0 0
0.611221 0.170533 0.065861 0.8 0 0
0.499433 0.189564 0.062155 0.8 0 0
0.439278 0.209110 0.124962 0.8 0 0
0.829630 0.140006 0.100711 0.8 0 0
0.365820 0.196253 0.146747 0.8 0 0
0.182266 0.177598 0.130510 0.8 0 0
0.887387 0.195886 0.112329 0.8 0 0
0.344275 0.097370 0.063779 0.8 0 0
0.760061 0.145069 0.090366 0.8 0 0
0.867126 0.049876 0.104967 0.8 0 0
0.897085 0.184388 0.104504 0.8 0 0
0.697435 0.244769 0.099573 0.8 0 0
0.311627 0.166601 0.116917 0.8 0 0
0.426200 0.177346 0.045486 0.8 0 0
0.462005 0.074467 0.141518 0.8 0 0
0.554527 0.175372 0.059550 0.8 0 0
0.363886 0.102380 0.161817 0.8 0 0
0.552676 0.215501 0.108587 0.8 0 0
0.675175 0.186557 0.116044 0.8 0 0
0.488489 0.160106 0.168135 0.8 0 0
0.366740 0.134744 0.180587 0.8 0 0
0.327703 0.127680 0.041938 0.8 0 0
0.420270 0.163050 0.059352 0.8 0 0
0.275081 0.202641 0.091148 0.8 0 0
0.695791 0.076301 0.102163 0.8 0 0
0.886349 0.234336 0.103192 0.8 0 0
0.311098 0.198267 0.068789 0.8 0 0
0.483259 0.087790 0.138552 0.8 0 0
0.321567 0.207765 0.084328 0.8 0 0
0.415459 0.127650 0.166118 0.8 0 0
0.863266 0.153601 0.103044 0.8 0 0
0.268723 0.201448 0.090108 0.8 0 0
0.735427 0.142669 0.084091 0.8 0 0
0.844417 0.099373 0.108922 0.8 0 0
0.407516 0.177313 0.152908 0.8 0 0
0.338823 0.085461 0.081452 0.8 0 0
0.383170 0.119370 0.067131 0.8 0 0
0.704050 0.081895 0.101717 0.8 0 0
0.134010 0.174161 0.116953 0.8 0 0
0.855776 0.199496 0.098769 0.8 0 0
0.575855 0.106325 0.068817 0.8 0 0
0.310529 0.166606 0.134531 0.8 0 0
0.403165 0.185737 0.050262 0.8 0 0
0.460345 0.124744 0.063202 0.8 0 0
0.504834 0.163577 0.167378 0.8 0 0
0.319242 0.076135 0.094211 0.8 0 0
0.588380 0.147748 0.060978 0.8 0 0
0.413478 0.108788 0.144585 0.8 0 0
0.315023 0.113225 0.114930 0.8 0 0
0.220540 0.163694 0.136929 0.8 0 0
0.516304 0.194569 0.147208 0.8 0 0
0.320784 0.179788 0.169408 0.8 0 0
0.320298 0.199462 0.067110 0.8 0 0
0.881267 0.210756 0.113487 0.8 0 0
0.591079 0.180426 0.066191 0.8 0 0
0.642070 0.188928 0.121514 0.8 0 0
0.641609 0.162479 0.143826 0.8 0 0
0.229562 0.177617 0.068768 0.8 0 0
0.359906 0.080007 0.105334 0.8 0 0
0.621748 0.093681 0.115149 0.8 0 0
0.541904 0.093918 0.140123 0.8 0 0
0.448383 0.209818 0.124066 0.8 0 0
0.713621 0.240860 0.111143 0.8 0 0
0.620076 0.152404 0.152563 0.8 0 0
0.442402 0.165221 0.170499 0.8 0 0
0.313533 0.166592 0.089294 0.8 0 0
0.426470 0.129632 0.064339 0.8 0 0
0.709814 0.187785 0.103995 0.8 0 0
0.617707 0.204259 0.100116 0.8 0 0
0.390907 0.093551 0.136977 0.8 0 0
0.332136 0.208531 0.134230 0.8 0 0
0.365806 0.123160 0.096785 0.8 0 0
0.391244 0.093914 0.080871 0.8 0 0
0.584794 0.173847 0.149628 0.8 0 0
0.587458 0.040958 0.066096 0.8 0 0
0.577654 0.147075 0.060470 0.8 0 0
0.282868 0.203982 0.125161 0.8 0 0
0.445395 0.186881 0.149988 0.8 0 0
0.448383 0.070758 0.158642 0.8 0 0
0.356212 0.183767 0.138913 0.8 0 0
0.345359 0.190536 0.164755 0.8 0 0
0.411992 0.182064 0.163409 0.8 0 0
0.169040 0.180234 0.125938 0.8 0 0
0.482357 0.216474 0.111796 0.8 0 0
0.342008 0.199667 0.064361 0.8 0 0
0.493945 0.063598 0.049381 0.8 0 0
0.835286 0.069369 0.099055 0.8 0 0
0.703969 0.168631 0.085883 0.8 0 0
0.714584 0.101776 0.112732 0.8 0 0
0.466365 0.208019 0.085648 0.8 0 0
0.485532 0.216744 0.111280 0.8 0 0
0.730099 0.174770 0.116481 0.8 0 0
0.319714 0.150231 0.116292 0.8 0 0
0.055848 0.184502 0.106755 0.8 0 0
0.368249 0.090553 0.138989 0.8 0 0
0.284079 0.143327 0.045021 0.8 0 0
0.425286 0.145353 0.150501 0.8 0 0
0.365875 0.123604 0.077892 0.8 0 0
0.606258 0.070079 0.077625 0.8 0 0
0.319867 0.160275 0.071188 0.8 0 0
0.356333 0.185512 0.072587 0.8 0 0
0.184816 0.193444 0.109673 0.8 0 0
0.721650 0.178054 0.115182 0.8 0 0
0.475825 0.056443 0.170518 0.8 0 0
0.591765 0.124924 0.066216 0.8 0 0
0.430025 0.157379 0.059973 0.8 0 0
0.527333 0.078969 0.093978 0.8 0 0
0.613044 0.176918 0.068491 0.8 0 0
0.197305 0.175907 0.137153 0.8 0 0
0.706751 0.256798 0.100276 0.8 0 0
0.231239 0.162414 0.130510 0.8 0 0
0.723547 0.203964 0.105626 0.8 0 0
0.521046 0.194746 0.146928 0.8 0 0
0.593096 0.067743 0.081260 0.8 0 0
0.356212 0.114732 0.073998 0.8 0 0
0.281657 0.113613 0.086168 0.8 0 0
0.834349 0.199394 0.097524 0.8 0 0
0.111206 0.172906 0.109909 0.8 0 0
0.233244 0.163957 0.081850 0.8 0 0
0.383641 0.139183 0.064018 0.8 0 0
0.551428 0.160706 0.158745 0.8 0 0
0.365719 0.195062 0.146314 0.8 0 0
0.602633 0.172221 0.064966 0.8 0 0
0.536452 0.188605 0.149121 0.8 0 0
0.841547 0.092558 0.111501 0.8 0 0
0.289533 0.166701 0.117242 0.8 0 0
0.365884 0.178562 0.070565 0.8 0 0
0.671562 0.244523 0.102416 0.8 0 0
0.592976 0.067293 0.143084 0.8 0 0
0.719354 0.168902 0.124133 0.8 0 0
0.451254 0.156666 0.058842 0.8 0 0
0.175238 0.191520 0.105007 0.8 0 0
0.362184 0.094494 0.101407 0.8 0 0
0.311786 0.113814 0.143017 0.8 0 0
0.424364 0.079498 0.091654 0.8 0 0
0.468797 0.083222 0.132697 0.8 0 0
0.374468 0.201202 0.150011 0.8 0 0
0.881873 0.209191 0.098973 0.8 0 0
0.282789 0.164606 0.133565 0.8 0 0
0.693628 0.060828 0.108126 0.8 0 0
0.477408 0.086977 0.064036 0.8 0 0
0.616238 0.093136 0.094853 0.8 0 0
0.425688 0.154775 0.159043 0.8 0 0
0.587022 0.037334 0.064869 0.8 0 0
0.787537 0.130880 0.099186 0.8 0 0
0.894556 0.206792 0.112902 0.8 0 0
0.478256 0.084425 0.150626 0.8 0 0
0.492422 0.203539 0.136835 0.8 0 0
0.229379 0.180114 0.144512 0.8 0 0
0.369827 0.129056 0.039764 0.8 0 0
0.375098 0.086887 0.119200 0.8 0 0
0.397211 0.101047 0.154314 0.8 0 0
0.551356 0.104395 0.145673 0.8 0 0
0.583082 0.130717 0.064408 0.8 0 0
0.366145 0.199009 0.114549 0.8 0 0
0.370219 0.162710 0.036843 0.8 0 0
0.649948 0.158943 0.068784 0.8 0 0
0.655032 0.185759 0.120598 0.8 0 0
0.352713 0.205717 0.071461 0.8 0 0
0.444666 0.142341 0.150729 0.8 0 0
0.808376 0.183713 0.096543 0.8 0 0
0.648165 0.183648 0.080663 0.8 0 0
0.838522 0.185507 0.113774 0.8 0 0
0.897375 0.189735 0.110913 0.8 0 0
0.342683 0.138822 0.179212 0.8 0 0
0.309070 0.183686 0.053672 0.8 0 0
0.393555 0.141483 0.063419 0.8 0 0
0.376997 0.174847 0.154247 0.8 0 0
0.265365 0.203989 0.102136 0.8 0 0
0.865853 0.181908 0.112633 0.8 0 0
0.319714 0.116938 0.135305 0.8 0 0
0.496618 0.154224 0.167161 0.8 0 0
0.549761 0.130595 0.150812 0.8 0 0
0.634294 0.099191 0.091853 0.8 0 0
0.320227 0.109048 0.048909 0.8 0 0
0.475217 0.211189 0.122001 0.8 0 0
0.224044 0.165380 0.074993 0.8 0 0
0.558245 0.146380 0.153297 0.8 0 0
0.557750 0.193395 0.145140 0.8 0 0
0.379204 0.129241 0.146850 0.8 0 0
0.275378 0.157965 0.046008 0.8 0 0
0.366806 0.162729 0.151787 0.8 0 0
0.408643 0.174412 0.041844 0.8 0 0
0.742409 0.165767 0.122181 0.8 0 0
0.307899 0.174041 0.047981 0.8 0 0
0.360027 0.095455 0.097511 0.8 0 0
0.459533 0.176142 0.156678 0.8 0 0
0.317694 0.207791 0.086848 0.8 0 0
0.319830 0.138628 0.076895 0.8 0 0
0.799262 0.124811 0.112573 0.8 0 0
0.710963 0.103632 0.112628 0.8 0 0
0.552955 0.212711 0.113704 0.8 0 0
0.420166 0.199676 0.073730 0.8 0 0
0.849394 0.144440 0.109350 0.8 0 0
0.556662 0.151637 0.154410 0.8 0 0
0.366084 0.157858 0.180923 0.8 0 0
0.556609 0.140690 0.060394 0.8 0 0
0.711288 0.220281 0.101917 0.8 0 0
0.293941 0.106000 0.059252 0.8 0 0
0.316104 0.166580 0.124927 0.8 0 0
0.357957 0.085022 0.118660 0.8 0 0
0.452365 0.073531 0.142318 0.8 0 0
0.380318 0.127582 0.153437 0.8 0 0
0.382770 0.091860 0.086299 0.8 0 0
0.485836 0.202689 0.138415 0.8 0 0
0.715727 0.225970 0.104471 0.8 0 0
0.495447 0.088184 0.147493 0.8 0 0
0.365780 0.129979 0.100929 0.8 0 0
0.312402 0.121435 0.172235 0.8 0 0
0.355992 0.140156 0.180215 0.8 0 0
0.435076 0.119480 0.146819 0.8 0 0
0.300182 0.209922 0.107158 0.8 0 0
0.365193 0.203621 0.108183 0.8 0 0
0.295947 0.132287 0.043229 0.8 0 0
0.311378 0.143098 0.176336 0.8 0 0
0.381468 0.175041 0.152300 0.8 0 0
0.648221 0.190505 0.116553 0.8 0 0
0.705970 0.226385 0.098717 0.8 0 0
0.789408 0.096751 0.099386 0.8 0 0
0.447712 0.098512 0.144115 0.8 0 0
0.564557 0.196846 0.072653 0.8 0 0
0.816149 0.179007 0.114742 0.8 0 0
0.379701 0.199458 0.071495 0.8 0 0
0.901809 0.235207 0.098520 0.8 0 0
0.408638 0.126626 0.153811 0.8 0 0
0.356258 0.151422 0.129940 0.8 0 0
0.356393 0.139814 0.133372 0.8 0 0
0.104823 0.183737 0.105857 0.8 0 0
0.521366 0.089061 0.075422 0.8 0 0
0.804398 0.185159 0.115456 0.8 0 0
0.495359 0.038442 0.181099 0.8 0 0
0.486084 0.166888 0.050617 0.8 0 0
0.319722 0.145850 0.106597 0.8 0 0
0.821357 0.155251 0.099444 0.8 0 0
0.294897 0.113505 0.127005 0.8 0 0
0.203616 0.168524 0.084618 0.8 0 0
0.047227 0.184843 0.104140 0.8 0 0
0.181535 0.190255 0.096651 0.8 0 0
0.398506 0.118547 0.066273 0.8 0 0
0.380157 0.172567 0.038192 0.8 0 0
0.572854 0.134875 0.150140 0.8 0 0
0.389719 0.195052 0.069588 0.8 0 0
0.540044 0.190137 0.064479 0.8 0 0
0.548791 0.194143 0.066660 0.8 0 0
0.048007 0.177798 0.117213 0.8 0 0
0.413370 0.082921 0.123159 0.8 0 0
0.379862 0.096976 0.124566 0.8 0 0
0.603077 0.074727 0.133087 0.8 0 0
0.412072 0.201640 0.129686 0.8 0 0
0.722471 0.177346 0.115667 0.8 0 0
0.524886 0.141022 0.059285 0.8 0 0
0.554224 0.202890 0.131647 0.8 0 0
0.460131 0.077714 0.120569 0.8 0 0
0.656901 0.139583 0.072360 0.8 0 0
0.931090 0.257201 0.107557 0.8 0 0
0.300842 0.094435 0.149329 0.8 0 0
0.240836 0.165329 0.115792 0.8 0 0
0.386540 0.147078 0.179522 0.8 0 0
0.637189 0.138438 0.067931 0.8 0 0
0.315900 0.087942 0.077869 0.8 0 0
0.115588 0.172597 0.107663 0.8 0 0
0.432121 0.081372 0.083951 0.8 0 0
0.492773 0.168181 0.051321 0.8 0 0
0.849604 0.205983 0.114811 0.8 0 0
0.460931 0.193346 0.147121 0.8 0 0
0.493844 0.199953 0.143661 0.8 0 0
0.646398 0.196257 0.115323 0.8 0 0
0.365824 0.133920 0.087413 0.8 0 0
0.385845 0.108366 0.068748 0.8 0 0
0.414088 0.205418 0.123977 0.8 0 0
0.514279 0.216278 0.101467 0.8 0 0
0.420234 0.199523 0.137141 0.8 0 0
0.321290 0.144335 0.039741 0.8 0 0
0.464039 0.160424 0.058168 0.8 0 0
0.964312 0.263167 0.105841 0.8 0 0
0.365460 0.198857 0.100779 0.8 0 0
0.292075 0.151836 0.069127 0.8 0 0
0.651370 0.216606 0.098092 0.8 0 0
0.295141 0.163398 0.140795 0.8 0 0
0.493030 0.149185 0.166519 0.8 0 0
0.307832 0.122306 0.163810 0.8 0 0
0.485557 0.077397 0.139889 0.8 0 0
0.580822 0.061879 0.078232 0.8 0 0
0.555849 0.119644 0.148313 0.8 0 0
0.362156 0.096683 0.064938 0.8 0 0
0.737274 0.168456 0.091401 0.8 0 0
0.365835 0.133378 0.084672 0.8 0 0
0.515538 0.160506 0.055467 0.8 0 0
0.766339 0.118651 0.092110 0.8 0 0
0.356212 0.166005 0.092755 0.8 0 0
0.791681 0.095343 0.113432 0.8 0 0
0.460671 0.131409 0.149707 0.8 0 0
0.312609 0.115076 0.052087 0.8 0 0
0.664427 0.219251 0.114347 0.8 0 0
0.812276 0.106789 0.100436 0.8 0 0
0.496676 0.080402 0.072080 0.8 0 0
0.472569 0.072437 0.066171 0.8 0 0
0.432268 0.089435 0.141182 0.8 0 0
0.531375 0.096233 0.068564 0.8 0 0
0.495504 0.086876 0.136864 0.8 0 0
0.283621 0.134108 0.057843 0.8 0 0
0.248168 0.187765 0.144707 0.8 0 0
0.457275 0.161838 0.169415 0.8 0 0
0.318447 0.083906 0.083502 0.8 0 0
0.464545 0.077854 0.137859 0.8 0 0
0.361263 0.134743 0.037093 0.8 0 0
0.873746 0.189511 0.099705 0.8 0 0
0.857851 0.192462 0.113430 0.8 0 0
0.466663 0.064222 0.163330 0.8 0 0
0.376733 0.198005 0.153446 0.8 0 0
0.662847 0.224028 0.098405 0.8 0 0
0.365685 0.181725 0.149972 0.8 0 0
0.144102 0.183471 0.118153 0.8 0 0
0.715906 0.249691 0.103138 0.8 0 0
0.720925 0.146124 0.079722 0.8 0 0
0.580019 0.195486 0.074414 0.8 0 0
0.507175 0.173214 0.053666 0.8 0 0
0.488698 0.086060 0.144298 0.8 0 0
0.493367 0.065631 0.160920 0.8 0 0
0.572391 0.063489 0.131943 0.8 0 0
0.879201 0.235565 0.105651 0.8 0 0
0.566545 0.062083 0.144414 0.8 0 0
0.570232 0.045673 0.063193 0.8 0 0
0.586579 0.206950 0.116168 0.8 0 0
0.653735 0.114493 0.082011 0.8 0 0
0.422444 0.133579 0.156183 0.8 0 0
0.303459 0.085295 0.120450 0.8 0 0
0.479045 0.137996 0.151875 0.8 0 0
0.533841 0.090297 0.137191 0.8 0 0
0.825943 0.175840 0.113734 0.8 0 0
0.521419 0.137016 0.060028 0.8 0 0
0.261951 0.201522 0.094334 0.8 0 0
0.380400 0.203145 0.112535 0.8 0 0
0.364758 0.163613 0.060566 0.8 0 0
0.494459 0.089460 0.064653 0.8 0 0
0.432342 0.180792 0.152754 0.8 0 0
0.410159 0.179743 0.045411 0.8 0 0
0.864194 0.076361 0.107389 0.8 0 0
0.899228 0.228791 0.097836 0.8 0 0
0.803244 0.183788 0.116201 0.8 0 0
0.626407 0.152659 0.152314 0.8 0 0
0.268775 0.200696 0.087094 0.8 0 0
0.841754 0.051712 0.112984 0.8 0 0
0.305604 0.076807 0.102821 0.8 0 0
0.675021 0.175675 0.081820 0.8 0 0
0.754644 0.123597 0.089607 0.8 0 0
0.595860 0.153659 0.153384 0.8 0 0
0.852111 0.197188 0.113822 0.8 0 0
0.272056 0.198034 0.138132 0.8 0 0
0.800221 0.193016 0.103572 0.8 0 0
0.599603 0.182696 0.068226 0.8 0 0
0.355023 0.104315 0.052461 0.8 0 0
0.840187 0.138345 0.103558 0.8 0 0
0.512923 0.161056 0.160862 0.8 0 0
0.589155 0.211726 0.105719 0.8 0 0
0.428778 0.140175 0.049393 0.8 0 0
0.270502 0.184499 0.154825 0.8 0 0
0.801619 0.170443 0.095448 0.8 0 0
0.324585 0.190487 0.054428 0.8 0 0
0.404492 0.139335 0.149083 0.8 0 0
0.482877 0.199603 0.143838 0.8 0 0
0.565694 0.207365 0.092516 0.8 0 0
0.656926 0.186619 0.118737 0.8 0 0
0.718568 0.159241 0.129964 0.8 0 0
0.717988 0.234926 0.107261 0.8 0 0
0.905789 0.204012 0.100416 0.8 0 0
0.425328 0.157662 0.172309 0.8 0 0
0.281497 0.132572 0.049916 0.8 0 0
0.631130 0.110175 0.134176 0.8 0 0
0.440350 0.179382 0.058733 0.8 0 0
0.811536 0.130203 0.100620 0.8 0 0
0.502259 0.085516 0.135419 0.8 0 0
0.273598 0.152786 0.171186 0.8 0 0
0.827646 0.182338 0.098412 0.8 0 0
0.500415 0.205932 0.080208 0.8 0 0
0.353610 0.206418 0.072331 0.8 0 0
0.489877 0.183885 0.152830 0.8 0 0
0.621348 0.144038 0.146902 0.8 0 0
0.752411 0.121217 0.121297 0.8 0 0
0.360120 0.116863 0.068130 0.8 0 0
0.438811 0.126948 0.064166 0.8 0 0
0.244134 0.174071 0.154851 0.8 0 0
0.367823 0.140032 0.036671 0.8 0 0
0.306097 0.125406 0.151975 0.8 0 0
0.310937 0.166604 0.140074 0.8 0 0
0.302834 0.151381 0.150809 0.8 0 0
0.414074 0.154111 0.175087 0.8 0 0
0.279796 0.205502 0.099760 0.8 0 0
0.570217 0.049452 0.071999 0.8 0 0
0.481342 0.053495 0.164113 0.8 0 0
0.482701 0.204543 0.078249 0.8 0 0
0.375528 0.168094 0.057176 0.8 0 0
0.441855 0.215227 0.098858 0.8 0 0
0.352477 0.183165 0.171344 0.8 0 0
0.427168 0.175108 0.172800 0.8 0 0
0.464944 0.200264 0.141911 0.8 0 0
0.510378 0.166503 0.161238 0.8 0 0
0.356212 0.114008 0.105508 0.8 0 0
0.359908 0.179957 0.147700 0.8 0 0
0.784087 0.116920 0.098908 0.8 0 0
0.222949 0.163487 0.145917 0.8 0 0
0.424368 0.200083 0.138053 0.8 0 0
0.525776 0.079734 0.089820 0.8 0 0
0.372027 0.195472 0.056342 0.8 0 0
0.410051 0.182729 0.167781 0.8 0 0
0.836934 0.135056 0.104829 0.8 0 0
0.128167 0.178229 0.117797 0.8 0 0
0.861046 0.231631 0.106231 0.8 0 0
0.534232 0.168285 0.160048 0.8 0 0
0.319714 0.131870 0.112342 0.8 0 0
0.564572 0.207318 0.120902 0.8 0 0
0.271829 0.142647 0.154445 0.8 0 0
0.365404 0.213398 0.092207 0.8 0 0
0.319714 0.114234 0.124924 0.8 0 0
0.357215 0.209135 0.075688 0.8 0 0
0.498967 0.073034 0.154303 0.8 0 0
0.401286 0.155236 0.177871 0.8 0 0
0.719030 0.258886 0.108249 0.8 0 0
0.395923 0.148394 0.062246 0.8 0 0
0.371838 0.206260 0.143239 0.8 0 0
0.824099 0.170502 0.113505 0.8 0 0
0.790633 0.102945 0.098673 0.8 0 0
0.349331 0.160834 0.037731 0.8 0 0
0.840193 0.058910 0.098569 0.8 0 0
0.864109 0.070560 0.107720 0.8 0 0
0.858587 0.166272 0.100265 0.8 0 0
0.281938 0.187499 0.156058 0.8 0 0
0.113195 0.183867 0.110092 0.8 0 0
0.495078 0.165281 0.167544 0.8 0 0
0.334719 0.130551 0.040444 0.8 0 0
0.425468 0.151387 0.046057 0.8 0 0
0.351447 0.101172 0.159840 0.8 0 0
0.347656 0.136539 0.179587 0.8 0 0
0.665364 0.181523 0.123881 0.8 0 0
0.587468 0.047856 0.060252 0.8 0 0
0.478345 0.081066 0.128887 0.8 0 0
0.675145 0.077259 0.105468 0.8 0 0
0.762006 0.122284 0.090035 0.8 0 0
0.576813 0.080205 0.122359 0.8 0 0
0.548419 0.217047 0.106749 0.8 0 0
0.749038 0.179341 0.108740 0.8 0 0
0.371197 0.096784 0.114826 0.8 0 0
0.401623 0.114269 0.067185 0.8 0 0
0.438316 0.100137 0.143978 0.8 0 0
0.622332 0.170319 0.067731 0.8 0 0
0.718383 0.119383 0.100384 0.8 0 0
0.332542 0.080773 0.123126 0.8 0 0
0.715401 0.043035 0.104912 0.8 0 0
0.291887 0.165083 0.098718 0.8 0 0
0.733275 0.145080 0.082439 0.8 0 0
0.539503 0.103026 0.066571 0.8 0 0
0.287097 0.091834 0.122951 0.8 0 0
0.293172 0.165218 0.091321 0.8 0 0
0.700110 0.195223 0.106301 0.8 0 0
0.653332 0.164894 0.140052 0.8 0 0
0.334515 0.070930 0.107902 0.8 0 0
0.510152 0.201586 0.072901 0.8 0 0
0.036247 0.185173 0.113601 0.8 0 0
0.187683 0.184130 0.086927 0.8 0 0
0.383849 0.202334 0.115539 0.8 0 0
0.679851 0.115733 0.089912 0.8 0 0
0.698952 0.156803 0.134217 0.8 0 0
0.376735 0.205638 0.105793 0.8 0 0
0.440491 0.207358 0.084693 0.8 0 0
0.902707 0.192390 0.102993 0.8 0 0
0.406295 0.183106 0.063089 0.8 0 0
0.614832 0.160363 0.062795 0.8 0 0
0.681013 0.076556 0.101892 0.8 0 0
0.402763 0.174196 0.062929 0.8 0 0
0.563998 0.077166 0.075569 0.8 0 0
0.732231 0.150975 0.129344 0.8 0 0
0.051427 0.185170 0.108981 0.8 0 0
0.730728 0.121299 0.095594 0.8 0 0
0.801084 0.178244 0.116872 0.8 0 0
0.494223 0.157555 0.056821 0.8 0 0
0.364634 0.162443 0.180867 0.8 0 0
0.299395 0.188558 0.058705 0.8 0 0
0.090553 0.183357 0.112258 0.8 0 0
0.428042 0.165202 0.157639 0.8 0 0
0.387107 0.096032 0.135198 0.8 0 0
0.365898 0.152860 0.066687 0.8 0 0
0.466705 0.069999 0.062891 0.8 0 0
0.492421 0.081167 0.129424 0.8 0 0
0.356246 0.145667 0.146328 0.8 0 0
0.313322 0.119978 0.045531 0.8 0 0
0.353264 0.171487 0.179736 0.8 0 0
0.680689 0.167767 0.079217 0.8 0 0
0.316584 0.165768 0.141971 0.8 0 0
0.558130 0.166675 0.055165 0.8 0 0
0.771514 0.180541 0.105183 0.8 0 0
0.531141 0.211317 0.093537 0.8 0 0
0.384377 0.183372 0.065011 0.8 0 0
0.713396 0.061274 0.102231 0.8 0 0
0.578918 0.058617 0.135361 0.8 0 0
0.619263 0.110074 0.076364 0.8 0 0
0.699973 0.196498 0.096864 0.8 0 0
0.759218 0.145572 0.123580 0.8 0 0
0.451539 0.056131 0.043063 0.8 0 0
0.247129 0.161825 0.066117 0.8 0 0
0.375246 0.181131 0.043857 0.8 0 0
0.881106 0.178547 0.100716 0.8 0 0
0.586030 0.201105 0.086119 0.8 0 0
0.276141 0.197772 0.077198 0.8 0 0
0.705914 0.254540 0.100055 0.8 0 0
0.421817 0.176089 0.155428 0.8 0 0
0.393077 0.085485 0.113573 0.8 0 0
0.304649 0.093800 0.070205 0.8 0 0
0.960463 0.259512 0.103993 0.8 0 0
0.287200 0.113162 0.109233 0.8 0 0
0.852561 0.045080 0.098321 0.8 0 0
0.321625 0.169558 0.175917 0.8 0 0
0.491137 0.052099 0.177520 0.8 0 0
0.590341 0.104535 0.071220 0.8 0 0
0.711196 0.136898 0.084126 0.8 0 0
0.202555 0.193414 0.119959 0.8 0 0
0.721988 0.149832 0.080540 0.8 0 0
0.471892 0.145273 0.059346 0.8 0 0
0.834794 0.057486 0.099503 0.8 0 0
0.763010 0.158439 0.122900 0.8 0 0
0.501415 0.078353 0.068073 0.8 0 0
0.703380 0.127284 0.090839 0.8 0 0
0.495503 0.159522 0.055726 0.8 0 0
0.227631 0.195908 0.091993 0.8 0 0
0.474745 0.079637 0.076218 0.8 0 0
0.836661 0.086165 0.100607 0.8 0 0
0.453831 0.108190 0.145855 0.8 0 0
0.831479 0.143171 0.100582 0.8 0 0
0.256817 0.166055 0.112092 0.8 0 0
0.574669 0.067311 0.082264 0.8 0 0
0.373450 0.175067 0.154268 0.8 0 0
0.313881 0.103432 0.056734 0.8 0 0
0.289439 0.124594 0.171977 0.8 0 0
0.462619 0.080427 0.077335 0.8 0 0
0.242614 0.191746 0.137181 0.8 0 0
0.288013 0.173933 0.051302 0.8 0 0
0.838099 0.210762 0.108272 0.8 0 0
0.583495 0.041218 0.154721 0.8 0 0
0.364425 0.092229 0.145147 0.8 0 0
0.356333 0.186520 0.075402 0.8 0 0
0.365784 0.117997 0.104984 0.8 0 0
0.611293 0.132737 0.066229 0.8 0 0
0.680082 0.086660 0.100386 0.8 0 0
0.405711 0.115641 0.063678 0.8 0 0
0.627227 0.193006 0.091401 0.8 0 0
0.447101 0.077957 0.121339 0.8 0 0
0.495454 0.052093 0.040033 0.8 0 0
0.292102 0.138143 0.059411 0.8 0 0
0.629075 0.093795 0.107418 0.8 0 0
0.358026 0.143950 0.063860 0.8 0 0
0.564151 0.099260 0.070880 0.8 0 0
0.693258 0.256126 0.100009 0.8 0 0
0.602184 0.090822 0.120428 0.8 0 0
0.307746 0.115405 0.072424 0.8 0 0
0.638198 0.114201 0.134326 0.8 0 0
0.704943 0.237279 0.099269 0.8 0 0
0.690233 0.123494 0.088481 0.8 0 0
0.665109 0.097857 0.101570 0.8 0 0
0.365685 0.175870 0.114332 0.8 0 0
0.316645 0.111533 0.051321 0.8 0 0
0.290465 0.166697 0.117621 0.8 0 0
0.525473 0.090768 0.138731 0.8 0 0
0.783646 0.186622 0.104593 0.8 0 0
0.377070 0.168157 0.180170 0.8 0 0
0.353591 0.213483 0.094262 0.8 0 0
0.609227 0.150543 0.150321 0.8 0 0
0.179582 0.186936 0.123560 0.8 0 0
0.356241 0.162685 0.072634 0.8 0 0
0.288693 0.164860 0.099490 0.8 0 0
0.268255 0.163730 0.125548 0.8 0 0
0.494364 0.196823 0.146587 0.8 0 0
0.365743 0.156292 0.140793 0.8 0 0
0.282797 0.207473 0.105973 0.8 0 0
0.599527 0.068907 0.069121 0.8 0 0
0.451255 0.053180 0.047332 0.8 0 0
0.551363 0.074182 0.085155 0.8 0 0
0.462974 0.151103 0.167436 0.8 0 0
0.694292 0.092707 0.100414 0.8 0 0
0.579041 0.170340 0.061044 0.8 0 0
0.857241 0.219471 0.101297 0.8 0 0
0.730477 0.154259 0.086046 0.8 0 0
0.394628 0.190643 0.149378 0.8 0 0
0.166649 0.190767 0.107005 0.8 0 0
0.295546 0.126790 0.173095 0.8 0 0
0.698824 0.082837 0.101310 0.8 0 0
0.432945 0.196378 0.144324 0.8 0 0
0.830383 0.202087 0.099965 0.8 0 0
0.647758 0.177814 0.136248 0.8 0 0
0.408113 0.202600 0.082257 0.8 0 0
0.649151 0.135177 0.072165 0.8 0 0
0.286772 0.152091 0.147416 0.8 0 0
0.475945 0.063095 0.158092 0.8 0 0
0.424921 0.212715 0.095536 0.8 0 0
0.320639 0.067019 0.106763 0.8 0 0
0.430820 0.083823 0.071419 0.8 0 0
0.280615 0.136499 0.045148 0.8 0 0
0.704748 0.190225 0.115816 0.8 0 0
0.283506 0.201071 0.137071 0.8 0 0
0.130587 0.172016 0.102143 0.8 0 0
0.460047 0.055897 0.172695 0.8 0 0
0.356212 0.113631 0.077495 0.8 0 0
0.356239 0.134462 0.133204 0.8 0 0
0.293438 0.146029 0.152317 0.8 0 0
0.889961 0.231340 0.099405 0.8 0 0
0.572813 0.084309 0.117437 0.8 0 0
0.356244 0.172688 0.074746 0.8 0 0
0.456872 0.210388 0.090115 0.8 0 0
0.661249 0.108197 0.088845 0.8 0 0
0.918311 0.243988 0.100056 0.8 0 0
0.352236 0.216528 0.110547 0.8 0 0
0.494553 0.035842 0.028672 0.8 0 0
0.571250 0.211459 0.101083 0.8 0 0
0.388062 0.123323 0.043818 0.8 0 0
0.484851 0.068660 0.161972 0.8 0 0
0.577968 0.066032 0.142900 0.8 0 0
0.292653 0.201238 0.077839 0.8 0 0
0.612827 0.112680 0.139566 0.8 0 0
0.686573 0.068923 0.108973 0.8 0 0
0.825086 0.179250 0.114001 0.8 0 0
0.301482 0.078152 0.108224 0.8 0 0
0.668472 0.166499 0.135781 0.8 0 0
0.320095 0.100560 0.158838 0.8 0 0
0.447662 0.188606 0.149146 0.8 0 0
0.481813 0.156785 0.167724 0.8 0 0
0.319714 0.119217 0.140759 0.8 0 0
0.653027 0.143831 0.069514 0.8 0 0
0.315415 0.129831 0.053341 0.8 0 0
0.375916 0.204564 0.103384 0.8 0 0
0.892131 0.184719 0.110952 0.8 0 0
0.587983 0.205949 0.117566 0.8 0 0
0.720061 0.053589 0.102123 0.8 0 0
0.288774 0.099997 0.077582 0.8 0 0
0.366753 0.089900 0.101337 0.8 0 0
0.908971 0.216165 0.099272 0.8 0 0
0.073977 0.174975 0.113792 0.8 0 0
0.862584 0.043094 0.101148 0.8 0 0
0.526916 0.206079 0.083439 0.8 0 0
0.768989 0.121782 0.092313 0.8 0 0
0.585583 0.053286 0.062415 0.8 0 0
0.557630 0.119869 0.148241 0.8 0 0
0.517941 0.184017 0.060766 0.8 0 0
0.482830 0.054375 0.163290 0.8 0 0
0.320043 0.068079 0.111896 0.8 0 0
0.678726 0.159662 0.074830 0.8 0 0
0.389596 0.127583 0.153437 0.8 0 0
0.473296 0.199273 0.068436 0.8 0 0
0.446649 0.078160 0.090184 0.8 0 0
0.406735 0.151401 0.041355 0.8 0 0
0.318229 0.209231 0.092095 0.8 0 0
0.505899 0.132686 0.060287 0.8 0 0
0.371284 0.094328 0.123688 0.8 0 0
0.857330 0.176365 0.099649 0.8 0 0
0.404059 0.082574 0.113359 0.8 0 0
0.385761 0.173424 0.154766 0.8 0 0
0.489215 0.081821 0.072151 0.8 0 0
0.310133 0.094191 0.148675 0.8 0 0
0.928136 0.234574 0.112513 0.8 0 0
0.621814 0.144877 0.147206 0.8 0 0
0.579946 0.050634 0.071637 0.8 0 0
0.371546 0.148082 0.062883 0.8 0 0
0.313752 0.151528 0.064436 0.8 0 0
0.279250 0.113381 0.097943 0.8 0 0
0.479650 0.088306 0.144833 0.8 0 0
0.580075 0.205903 0.119762 0.8 0 0
0.319744 0.146128 0.150138 0.8 0 0
0.449203 0.078067 0.058286 0.8 0 0
0.268893 0.201356 0.127478 0.8 0 0
0.125303 0.171464 0.109804 0.8 0 0
0.410648 0.102434 0.068964 0.8 0 0
0.395010 0.172315 0.039859 0.8 0 0
0.839062 0.209430 0.102335 0.8 0 0
0.570112 0.046012 0.063264 0.8 0 0
0.332641 0.074367 0.096689 0.8 0 0
0.356217 0.179561 0.095011 0.8 0 0
0.860405 0.180121 0.099580 0.8 0 0
0.382776 0.205587 0.109336 0.8 0 0
0.512800 0.118689 0.062945 0.8 0 0
0.462261 0.166698 0.059380 0.8 0 0
0.315126 0.113647 0.051824 0.8 0 0
0.313230 0.145717 0.059566 0.8 0 0
0.341066 0.211704 0.125196 0.8 0 0
0.451853 0.153273 0.160341 0.8 0 0
0.598221 0.035051 0.062200 0.8 0 0
0.422009 0.080368 0.122432 0.8 0 0
0.451081 0.059391 0.158592 0.8 0 0
0.689218 0.139381 0.135036 0.8 0 0
0.398064 0.160270 0.155608 0.8 0 0
0.708917 0.223769 0.100235 0.8 0 0
0.489662 0.160455 0.156424 0.8 0 0
0.272018 0.145585 0.150193 0.8 0 0
0.356212 0.153760 0.111742 0.8 0 0
0.618800 0.097202 0.124579 0.8 0 0
0.459496 0.077598 0.120077 0.8 0 0
0.440785 0.178247 0.154583 0.8 0 0
0.479305 0.132051 0.150860 0.8 0 0
0.517852 0.149485 0.161549 0.8 0 0
0.847426 0.207475 0.097508 0.8 0 0
0.956852 0.258867 0.112770 0.8 0 0
0.427710 0.125196 0.147459 0.8 0 0
0.399858 0.122038 0.046459 0.8 0 0
0.325277 0.081450 0.086936 0.8 0 0
0.451558 0.160753 0.158849 0.8 0 0
0.495174 0.165297 0.057776 0.8 0 0
0.487144 0.162490 0.168619 0.8 0 0
0.962335 0.263784 0.114270 0.8 0 0
0.387042 0.089314 0.090517 0.8 0 0
0.371612 0.159796 0.036944 0.8 0 0
0.336341 0.176546 0.045008 0.8 0 0
0.356222 0.186631 0.094413 0.8 0 0
0.356212 0.117435 0.082785 0.8 0 0
0.357954 0.110826 0.069144 0.8 0 0
0.399845 0.186086 0.147622 0.8 0 0
0.327318 0.214276 0.109443 0.8 0 0
0.478812 0.090283 0.141819 0.8 0 0
0.300317 0.165083 0.140216 0.8 0 0
0.872396 0.172636 0.111742 0.8 0 0
0.624681 0.172898 0.142757 0.8 0 0
0.480675 0.205535 0.132949 0.8 0 0
0.536490 0.119828 0.063448 0.8 0 0
0.426389 0.169025 0.172620 0.8 0 0
0.362779 0.214257 0.093681 0.8 0 0
0.353186 0.212020 0.088624 0.8 0 0
0.376006 0.121764 0.151264 0.8 0 0
0.579245 0.092601 0.131200 0.8 0 0
0.929401 0.234916 0.111156 0.8 0 0
0.376423 0.162358 0.062174 0.8 0 0
0.276127 0.167371 0.048709 0.8 0 0
0.858820 0.056690 0.100552 0.8 0 0
0.356297 0.163001 0.135745 0.8 0 0
0.499851 0.100979 0.146743 0.8 0 0
0.689563 0.141779 0.077191 0.8 0 0
0.389352 0.193757 0.071774 0.8 0 0
0.920121 0.215618 0.104429 0.8 0 0
0.701333 0.156497 0.134028 0.8 0 0
0.532118 0.179683 0.153219 0.8 0 0
0.462616 0.065306 0.162371 0.8 0 0
0.278672 0.143417 0.152321 0.8 0 0
0.223711 0.165430 0.077536 0.8 0 0
0.758465 0.167820 0.117220 0.8 0 0
0.681833 0.103260 0.097772 0.8 0 0
0.755358 0.110463 0.104901 0.8 0 0
0.433531 0.082657 0.081902 0.8 0 0
0.605036 0.093405 0.089153 0.8 0 0
0.484034 0.117824 0.063393 0.8 0 0
0.614856 0.158466 0.151819 0.8 0 0
0.797787 0.153458 0.116194 0.8 0 0
0.340480 0.167355 0.179046 0.8 0 0
0.547036 0.080821 0.091582 0.8 0 0
0.556239 0.201638 0.133483 0.8 0 0
0.281110 0.191092 0.066159 0.8 0 0
0.438382 0.175178 0.169727 0.8 0 0
0.583389 0.056627 0.074760 0.8 0 0
0.295476 0.122157 0.152057 0.8 0 0
0.476095 0.207505 0.129128 0.8 0 0
0.560778 0.190773 0.145914 0.8 0 0
0.501323 0.087736 0.074419 0.8 0 0
0.579182 0.212888 0.105465 0.8 0 0
0.769626 0.135034 0.121443 0.8 0 0
0.688438 0.127673 0.085170 0.8 0 0
0.544354 0.210058 0.092207 0.8 0 0
0.366865 0.099460 0.157038 0.8 0 0
0.498391 0.164735 0.057708 0.8 0 0
0.830456 0.121250 0.105241 0.8 0 0
0.312576 0.136445 0.176500 0.8 0 0
0.401581 0.133233 0.064483 0.8 0 0
0.481288 0.210292 0.123750 0.8 0 0
0.583554 0.032562 0.150311 0.8 0 0
0.805583 0.094314 0.113082 0.8 0 0
0.540873 0.078628 0.100595 0.8 0 0
0.469892 0.169712 0.054716 0.8 0 0
0.877431 0.181909 0.112055 0.8 0 0
0.356363 0.177575 0.073864 0.8 0 0
0.494018 0.201609 0.072103 0.8 0 0
0.478630 0.082428 0.151913 0.8 0 0
0.421516 0.176282 0.155381 0.8 0 0
0.519296 0.194311 0.065478 0.8 0 0
0.606008 0.071011 0.134804 0.8 0 0
0.340205 0.201527 0.067257 0.8 0 0
0.649825 0.110007 0.083539 0.8 0 0
0.696691 0.260873 0.108932 0.8 0 0
0.665387 0.091647 0.098930 0.8 0 0
0.847511 0.078931 0.100744 0.8 0 0
0.098630 0.183243 0.112624 0.8 0 0
0.717769 0.230660 0.105495 0.8 0 0
0.533039 0.101353 0.066639 0.8 0 0
0.673460 0.219672 0.098252 0.8 0 0
0.596444 0.082165 0.125816 0.8 0 0
0.819415 0.136827 0.111901 0.8 0 0
0.154027 0.168109 0.112458 0.8 0 0
0.356212 0.166871 0.131252 0.8 0 0
0.233534 0.196111 0.089431 0.8 0 0
0.434042 0.202091 0.075223 0.8 0 0
0.308194 0.091891 0.135377 0.8 0 0
0.180537 0.168292 0.098991 0.8 0 0
0.494140 0.046570 0.030101 0.8 0 0
0.476190 0.080830 0.060541 0.8 0 0
0.323836 0.160659 0.039559 0.8 0 0
0.319278 0.135011 0.177329 0.8 0 0
0.291487 0.137392 0.058947 0.8 0 0
0.475491 0.044814 0.040783 0.8 0 0
0.673274 0.224753 0.114150 0.8 0 0
0.537617 0.150142 0.154978 0.8 0 0
0.772846 0.112911 0.114445 0.8 0 0
0.408656 0.139233 0.041837 0.8 0 0
0.419677 0.135520 0.148856 0.8 0 0
0.597331 0.038107 0.057614 0.8 0 0
0.506410 0.201501 0.072320 0.8 0 0
0.365743 0.148425 0.154835 0.8 0 0
0.356212 0.105810 0.137021 0.8 0 0
0.901271 0.211037 0.099337 0.8 0 0
0.301159 0.166648 0.111284 0.8 0 0
0.297451 0.126037 0.055283 0.8 0 0
0.459164 0.078295 0.122950 0.8 0 0
0.335986 0.201416 0.067689 0.8 0 0
0.902135 0.216281 0.113391 0.8 0 0
0.583472 0.074189 0.086207 0.8 0 0
0.406204 0.178921 0.153575 0.8 0 0
0.716169 0.183736 0.101301 0.8 0 0
0.889609 0.221008 0.114375 0.8 0 0
0.725361 0.147201 0.080076 0.8 0 0
0.396165 0.181913 0.046252 0.8 0 0
0.203149 0.168601 0.075551 0.8 0 0
0.564569 0.209690 0.096387 0.8 0 0
0.318884 0.131859 0.156299 0.8 0 0
0.495991 0.037512 0.186245 0.8 0 0
0.390889 0.148507 0.038336 0.8 0 0
0.951330 0.250645 0.107042 0.8 0 0
0.427281 0.217670 0.108509 0.8 0 0
0.474136 0.063101 0.048281 0.8 0 0
0.319714 0.137777 0.139162 0.8 0 0
0.319676 0.210223 0.094869 0.8 0 0
0.478539 0.168206 0.049177 0.8 0 0
0.085932 0.184266 0.107651 0.8 0 0
0.437832 0.072990 0.069595 0.8 0 0
0.314706 0.126951 0.064394 0.8 0 0
0.518245 0.197744 0.066895 0.8 0 0
0.455315 0.060340 0.054120 0.8 0 0
0.182101 0.178101 0.083518 0.8 0 0
0.526946 0.178617 0.154047 0.8 0 0
0.898872 0.184790 0.107152 0.8 0 0
0.380651 0.129934 0.177411 0.8 0 0
0.382766 0.119990 0.151573 0.8 0 0
0.880336 0.167282 0.107500 0.8 0 0
0.336818 0.211860 0.122866 0.8 0 0
0.499689 0.076556 0.116495 0.8 0 0
0.463549 0.170825 0.046981 0.8 0 0
0.584813 0.095755 0.078977 0.8 0 0
0.356212 0.182938 0.132806 0.8 0 0
0.495086 0.163447 0.157278 0.8 0 0
0.393323 0.150104 0.062236 0.8 0 0
0.350537 0.077962 0.091786 0.8 0 0
0.641434 0.164609 0.069364 0.8 0 0
0.311842 0.138199 0.041220 0.8 0 0
0.718952 0.215915 0.104986 0.8 0 0
0.480993 0.119347 0.063254 0.8 0 0
