0.219573 0.371350 0.375503 0.8 0 0
0.209443 0.505029 0.135321 0.8 0 0
0.213687 0.428069 0.486904 0.8 0 0
0.208921 0.494278 0.130273 0.8 0 0
0.195923 0.450288 0.815376 0.8 0 0
0.180793 0.219795 0.582516 0.8 0 0
0.212794 0.169994 0.240274 0.8 0 0
0.295858 0.234890 0.850810 0.8 0 0
0.169222 0.139971 0.592123 0.8 0 0
0.212406 0.495923 0.039244 0.8 0 0
0.210045 0.222768 0.368681 0.8 0 0
0.394237 0.187324 0.819531 0.8 0 0
0.223270 0.359169 0.444356 0.8 0 0
0.170782 0.191507 0.554846 0.8 0 0
0.268846 0.239897 0.738753 0.8 0 0
0.214116 0.575964 0.515903 0.8 0 0
0.213477 0.544969 0.605261 0.8 0 0
0.224627 0.456648 0.639330 0.8 0 0
0.246505 0.142523 0.590681 0.8 0 0
0.185921 0.195148 0.695262 0.8 0 0
0.205977 0.470877 0.764110 0.8 0 0
0.270418 0.249762 0.724046 0.8 0 0
0.161204 0.389068 0.842877 0.8 0 0
0.210149 0.196317 0.334818 0.8 0 0
0.210969 0.576185 0.507426 0.8 0 0
0.209585 0.507812 0.556272 0.8 0 0
0.206772 0.416282 0.278204 0.8 0 0
0.215681 0.281350 0.308226 0.8 0 0
0.246688 0.209278 0.673661 0.8 0 0
0.071976 0.210154 0.859026 0.8 0 0
0.212248 0.475752 0.455241 0.8 0 0
0.209287 0.386649 0.226744 0.8 0 0
0.382859 0.192147 0.842652 0.8 0 0
0.216150 0.402700 0.241257 0.8 0 0
0.216582 0.324064 0.340374 0.8 0 0
0.179259 0.300326 0.581910 0.8 0 0
0.205308 0.310462 0.404583 0.8 0 0
0.207521 0.318989 0.355361 0.8 0 0
0.152468 0.361949 0.848073 0.8 0 0
0.142662 0.249511 0.824636 0.8 0 0
0.242015 0.271744 0.890939 0.8 0 0
0.205895 0.401793 0.320408 0.8 0 0
0.187417 0.239872 0.577573 0.8 0 0
0.207988 0.446737 0.259978 0.8 0 0
0.198405 0.394205 0.535415 0.8 0 0
0.157238 0.292163 0.661709 0.8 0 0
0.271334 0.133150 0.497798 0.8 0 0
0.212693 0.285188 0.214595 0.8 0 0
0.207622 0.353923 0.327201 0.8 0 0
0.212467 0.389658 0.430249 0.8 0 0
0.218556 0.370904 0.347471 0.8 0 0
0.266807 0.181272 0.442484 0.8 0 0
0.210554 0.179717 0.724316 0.8 0 0
0.095878 0.218734 0.816808 0.8 0 0
0.161599 0.254765 0.794520 0.8 0 0
0.261216 0.361677 0.718049 0.8 0 0
0.180746 0.212377 0.649581 0.8 0 0
0.209118 0.487180 0.706293 0.8 0 0
0.248593 0.332770 0.939878 0.8 0 0
0.212240 0.460458 0.450742 0.8 0 0
0.185247 0.203155 0.647330 0.8 0 0
0.331705 0.217446 0.815278 0.8 0 0
0.152377 0.077174 0.560094 0.8 0 0
0.214647 0.434824 0.527396 0.8 0 0
0.211752 0.414403 0.123182 0.8 0 0
0.222059 0.381811 0.493088 0.8 0 0
0.212989 0.173363 0.244962 0.8 0 0
0.213678 0.531774 0.505059 0.8 0 0
0.216702 0.436559 0.215908 0.8 0 0
0.264241 0.228422 0.742745 0.8 0 0
0.147062 0.065045 0.539681 0.8 0 0
0.231577 0.189132 0.677809 0.8 0 0
0.195599 0.291189 0.522489 0.8 0 0
0.214803 0.292278 0.290866 0.8 0 0
0.104537 0.227849 0.790457 0.8 0 0
0.275817 0.049511 0.548568 0.8 0 0
0.234156 0.439869 0.830123 0.8 0 0
0.166762 0.354676 0.688457 0.8 0 0
0.233418 0.415415 0.632068 0.8 0 0
0.268998 0.158762 0.450524 0.8 0 0
0.177742 0.337280 0.610846 0.8 0 0
0.197844 0.184655 0.672373 0.8 0 0
0.267640 0.186665 0.457470 0.8 0 0
0.159008 0.104894 0.569617 0.8 0 0
0.207921 0.520867 0.635265 0.8 0 0
0.207533 0.388557 0.481125 0.8 0 0
0.191384 0.413991 0.899786 0.8 0 0
0.180160 0.273579 0.891326 0.8 0 0
0.274350 0.074896 0.512928 0.8 0 0
0.165284 0.385332 0.776805 0.8 0 0
0.165510 0.313480 0.627771 0.8 0 0
0.199448 0.391180 0.526829 0.8 0 0
0.199918 0.403616 0.923595 0.8 0 0
0.279210 0.114063 0.460281 0.8 0 0
0.269677 0.151067 0.453738 0.8 0 0
0.213988 0.499277 0.517525 0.8 0 0
0.177484 0.280458 0.595572 0.8 0 0
0.206611 0.309766 0.373935 0.8 0 0
0.212999 0.465616 0.076467 0.8 0 0
0.202083 0.260935 0.887106 0.8 0 0
0.185820 0.234963 0.602423 0.8 0 0
0.201519 0.375191 0.480992 0.8 0 0
0.213625 0.421548 0.484386 0.8 0 0
0.217875 0.262436 0.370198 0.8 0 0
0.192971 0.394642 0.564643 0.8 0 0
0.274291 0.108073 0.505726 0.8 0 0
0.148872 0.080177 0.498417 0.8 0 0
0.212096 0.506834 0.470893 0.8 0 0
0.200133 0.368813 0.474911 0.8 0 0
0.156081 0.348742 0.785468 0.8 0 0
0.189183 0.242613 0.577957 0.8 0 0
0.216239 0.354636 0.300330 0.8 0 0
0.198866 0.366141 0.479219 0.8 0 0
0.170664 0.399591 0.871775 0.8 0 0
0.212146 0.160621 0.319986 0.8 0 0
0.209043 0.493710 0.156820 0.8 0 0
0.273575 0.158287 0.447247 0.8 0 0
0.208851 0.233364 0.294451 0.8 0 0
0.254574 0.284623 0.895457 0.8 0 0
0.212013 0.210838 0.233803 0.8 0 0
0.151537 0.071550 0.522429 0.8 0 0
0.208069 0.373163 0.278567 0.8 0 0
0.214078 0.495997 0.082630 0.8 0 0
0.239855 0.376055 0.927022 0.8 0 0
0.247082 0.310256 0.589672 0.8 0 0
0.177794 0.217146 0.774458 0.8 0 0
0.250852 0.210494 0.751312 0.8 0 0
0.214208 0.471253 0.517499 0.8 0 0
0.268895 0.347922 0.802285 0.8 0 0
0.370242 0.199525 0.793074 0.8 0 0
0.155458 0.245644 0.724020 0.8 0 0
0.183317 0.201842 0.671748 0.8 0 0
0.218371 0.300864 0.378424 0.8 0 0
0.213204 0.474844 0.071115 0.8 0 0
0.215069 0.442072 0.545149 0.8 0 0
0.107866 0.230921 0.837441 0.8 0 0
0.272995 0.289211 0.765672 0.8 0 0
0.157017 0.358008 0.796002 0.8 0 0
0.274612 0.328658 0.732802 0.8 0 0
0.228816 0.199294 0.762292 0.8 0 0
0.319099 0.223504 0.816145 0.8 0 0
0.213549 0.227320 0.253585 0.8 0 0
0.295553 0.238517 0.782637 0.8 0 0
0.070727 0.209447 0.759250 0.8 0 0
0.184192 0.272783 0.894091 0.8 0 0
0.207459 0.501916 0.644679 0.8 0 0
0.210736 0.228078 0.379035 0.8 0 0
0.255081 0.400023 0.813154 0.8 0 0
0.193084 0.188306 0.712768 0.8 0 0
0.199410 0.319669 0.465314 0.8 0 0
0.171377 0.237119 0.465851 0.8 0 0
0.245967 0.250387 0.607787 0.8 0 0
0.057608 0.202134 0.756410 0.8 0 0
0.161700 0.205058 0.437531 0.8 0 0
0.220640 0.399505 0.520624 0.8 0 0
0.189337 0.221174 0.541812 0.8 0 0
0.178243 0.376117 0.709421 0.8 0 0
0.213244 0.575724 0.488445 0.8 0 0
0.176277 0.389708 0.821021 0.8 0 0
0.209560 0.352772 0.254601 0.8 0 0
0.208004 0.456088 0.195512 0.8 0 0
0.216324 0.471207 0.608154 0.8 0 0
0.213963 0.508548 0.515985 0.8 0 0
0.215728 0.368187 0.268817 0.8 0 0
0.171434 0.302278 0.917419 0.8 0 0
0.320029 0.228942 0.827533 0.8 0 0
0.233934 0.246699 0.573865 0.8 0 0
0.166036 0.120232 0.541265 0.8 0 0
0.217461 0.416521 0.325188 0.8 0 0
0.214791 0.249227 0.283271 0.8 0 0
0.205675 0.360005 0.378801 0.8 0 0
0.276361 0.094722 0.506253 0.8 0 0
0.212443 0.443703 0.440345 0.8 0 0
0.178965 0.143967 0.593166 0.8 0 0
0.209455 0.245970 0.281031 0.8 0 0
0.202778 0.359725 0.428320 0.8 0 0
0.226857 0.326063 0.954574 0.8 0 0
0.222447 0.336918 0.441558 0.8 0 0
0.246127 0.139766 0.599461 0.8 0 0
0.351936 0.208191 0.798548 0.8 0 0
0.209671 0.213861 0.350234 0.8 0 0
0.168750 0.162474 0.573849 0.8 0 0
0.229753 0.327248 0.491410 0.8 0 0
0.156872 0.265214 0.785404 0.8 0 0
0.149835 0.305810 0.753941 0.8 0 0
0.210462 0.567930 0.523924 0.8 0 0
0.208825 0.442432 0.188782 0.8 0 0
0.159141 0.300018 0.879870 0.8 0 0
0.195548 0.435055 0.633732 0.8 0 0
0.229393 0.353679 0.493787 0.8 0 0
0.159855 0.162681 0.510025 0.8 0 0
0.144525 0.057516 0.531038 0.8 0 0
0.171851 0.377531 0.891622 0.8 0 0
0.165983 0.318257 0.629168 0.8 0 0
0.213677 0.515345 0.506342 0.8 0 0
0.271203 0.247543 0.808357 0.8 0 0
0.213969 0.177213 0.321304 0.8 0 0
0.217304 0.502346 0.642290 0.8 0 0
0.213969 0.220276 0.265181 0.8 0 0
0.214668 0.568699 0.533749 0.8 0 0
0.231263 0.237792 0.554955 0.8 0 0
0.213793 0.307061 0.243973 0.8 0 0
0.173139 0.230014 0.468577 0.8 0 0
0.208394 0.472564 0.605728 0.8 0 0
0.271784 0.283476 0.688247 0.8 0 0
0.039747 0.193030 0.778717 0.8 0 0
0.208810 0.520834 0.583600 0.8 0 0
0.194853 0.280274 0.911623 0.8 0 0
0.210207 0.181107 0.315112 0.8 0 0
0.213751 0.319873 0.235061 0.8 0 0
0.235167 0.253578 0.581608 0.8 0 0
0.210145 0.398786 0.188454 0.8 0 0
0.162712 0.177891 0.461127 0.8 0 0
0.320148 0.222428 0.837498 0.8 0 0
0.213882 0.429354 0.143863 0.8 0 0
0.364529 0.204329 0.839121 0.8 0 0
0.212411 0.256543 0.220260 0.8 0 0
0.376608 0.197582 0.816846 0.8 0 0
0.216482 0.464757 0.220370 0.8 0 0
0.210700 0.532884 0.077340 0.8 0 0
0.146398 0.063952 0.536280 0.8 0 0
0.250173 0.218323 0.544951 0.8 0 0
0.212659 0.545300 0.072111 0.8 0 0
0.213721 0.318393 0.234761 0.8 0 0
0.174920 0.143006 0.562418 0.8 0 0
0.231156 0.336435 0.934494 0.8 0 0
0.213436 0.473329 0.224918 0.8 0 0
0.181781 0.403125 0.898064 0.8 0 0
0.230667 0.426592 0.682494 0.8 0 0
0.245932 0.154967 0.570119 0.8 0 0
0.190895 0.409363 0.668996 0.8 0 0
0.242808 0.227912 0.504456 0.8 0 0
0.231326 0.182537 0.633196 0.8 0 0
0.212444 0.140441 0.242021 0.8 0 0
0.271045 0.250463 0.745387 0.8 0 0
0.271253 0.316002 0.815966 0.8 0 0
0.213414 0.146407 0.282158 0.8 0 0
0.165274 0.174776 0.535883 0.8 0 0
0.226238 0.266843 0.543524 0.8 0 0
0.052270 0.199013 0.859058 0.8 0 0
0.181173 0.330297 0.951438 0.8 0 0
0.276770 0.061989 0.517069 0.8 0 0
0.210022 0.403304 0.929135 0.8 0 0
0.139202 0.037167 0.504186 0.8 0 0
0.150643 0.332565 0.748168 0.8 0 0
0.196880 0.315624 0.486460 0.8 0 0
0.188796 0.265996 0.577657 0.8 0 0
0.273647 0.263751 0.739823 0.8 0 0
0.183015 0.385983 0.711816 0.8 0 0
0.217506 0.311164 0.365273 0.8 0 0
0.270952 0.105197 0.493531 0.8 0 0
0.238669 0.196448 0.733229 0.8 0 0
0.349006 0.208777 0.825734 0.8 0 0
0.212199 0.410582 0.112510 0.8 0 0
0.257016 0.395953 0.837487 0.8 0 0
0.210641 0.182663 0.277739 0.8 0 0
0.187448 0.409375 0.737236 0.8 0 0
0.178560 0.426394 0.855723 0.8 0 0
0.212640 0.257724 0.227995 0.8 0 0
0.259215 0.229640 0.771326 0.8 0 0
0.216902 0.260764 0.336500 0.8 0 0
0.277625 0.121163 0.444613 0.8 0 0
0.152875 0.255198 0.829203 0.8 0 0
0.272247 0.137961 0.484704 0.8 0 0
0.170014 0.172006 0.571728 0.8 0 0
0.211529 0.234430 0.240902 0.8 0 0
0.212917 0.463554 0.464986 0.8 0 0
0.182543 0.346544 0.585729 0.8 0 0
0.250056 0.238295 0.630757 0.8 0 0
0.213499 0.173731 0.258065 0.8 0 0
0.203334 0.468251 0.647968 0.8 0 0
0.211436 0.477110 0.073335 0.8 0 0
0.209161 0.253261 0.393622 0.8 0 0
0.197031 0.357253 0.484170 0.8 0 0
0.214891 0.243465 0.286469 0.8 0 0
0.304782 0.235283 0.788842 0.8 0 0
0.214157 0.167033 0.294619 0.8 0 0
0.345369 0.214400 0.806206 0.8 0 0
0.210634 0.575478 0.518011 0.8 0 0
0.254661 0.236089 0.656322 0.8 0 0
0.208031 0.323713 0.344824 0.8 0 0
0.154655 0.150381 0.485083 0.8 0 0
0.246540 0.196194 0.598088 0.8 0 0
0.216332 0.529923 0.598116 0.8 0 0
0.142418 0.056979 0.516439 0.8 0 0
0.269205 0.308804 0.665743 0.8 0 0
0.183285 0.261654 0.874351 0.8 0 0
0.142788 0.037306 0.520345 0.8 0 0
0.259162 0.265993 0.846499 0.8 0 0
0.214853 0.522512 0.543071 0.8 0 0
0.075263 0.208425 0.866304 0.8 0 0
0.187656 0.329169 0.540941 0.8 0 0
0.266890 0.361869 0.738871 0.8 0 0
0.178136 0.406000 0.887172 0.8 0 0
0.213674 0.321416 0.231232 0.8 0 0
0.210683 0.286277 0.269070 0.8 0 0
0.214167 0.565204 0.518201 0.8 0 0
0.182308 0.257721 0.595674 0.8 0 0
0.262431 0.188491 0.496932 0.8 0 0
0.208185 0.267495 0.313672 0.8 0 0
0.229214 0.233363 0.565864 0.8 0 0
0.267165 0.305546 0.874420 0.8 0 0
0.273365 0.330377 0.757733 0.8 0 0
0.211692 0.449331 0.468532 0.8 0 0
0.216431 0.527130 0.602586 0.8 0 0
0.266094 0.161593 0.502873 0.8 0 0
0.213640 0.414547 0.148314 0.8 0 0
0.210869 0.165452 0.305538 0.8 0 0
0.180314 0.391246 0.881504 0.8 0 0
0.208296 0.480718 0.607327 0.8 0 0
0.220374 0.332926 0.425936 0.8 0 0
0.212645 0.295651 0.206790 0.8 0 0
0.231432 0.322100 0.503413 0.8 0 0
0.210648 0.269013 0.266848 0.8 0 0
0.210971 0.217753 0.253840 0.8 0 0
0.243013 0.323513 0.578028 0.8 0 0
0.208837 0.482774 0.582945 0.8 0 0
0.211202 0.171478 0.263325 0.8 0 0
0.149963 0.084013 0.536091 0.8 0 0
0.153641 0.295631 0.812133 0.8 0 0
0.268700 0.286901 0.787395 0.8 0 0
0.215333 0.241399 0.298108 0.8 0 0
0.321326 0.227847 0.814370 0.8 0 0
0.142459 0.247879 0.810853 0.8 0 0
0.208846 0.521877 0.581933 0.8 0 0
0.317276 0.224061 0.857306 0.8 0 0
0.255966 0.142390 0.528908 0.8 0 0
0.248526 0.242862 0.484095 0.8 0 0
0.092901 0.220321 0.868017 0.8 0 0
0.218141 0.355688 0.354173 0.8 0 0
0.204984 0.383485 0.377101 0.8 0 0
0.213436 0.530283 0.059102 0.8 0 0
0.153413 0.319791 0.823299 0.8 0 0
0.216859 0.237992 0.362128 0.8 0 0
0.174916 0.196391 0.499330 0.8 0 0
0.077768 0.213403 0.779166 0.8 0 0
0.160790 0.193967 0.476715 0.8 0 0
0.215461 0.464777 0.146913 0.8 0 0
0.266889 0.142018 0.472729 0.8 0 0
0.266122 0.354240 0.831638 0.8 0 0
0.178208 0.201029 0.594403 0.8 0 0
0.254197 0.338481 0.916579 0.8 0 0
0.127928 0.241614 0.843741 0.8 0 0
0.189363 0.341392 0.530965 0.8 0 0
0.246841 0.170200 0.545004 0.8 0 0
0.261394 0.325393 0.644992 0.8 0 0
0.183459 0.222988 0.595339 0.8 0 0
0.157443 0.310069 0.657211 0.8 0 0
0.222257 0.322444 0.954131 0.8 0 0
0.232415 0.416812 0.678914 0.8 0 0
0.207025 0.426603 0.291041 0.8 0 0
0.249090 0.211630 0.564550 0.8 0 0
0.271496 0.335777 0.784888 0.8 0 0
0.240559 0.374598 0.640570 0.8 0 0
0.194100 0.366035 0.513592 0.8 0 0
0.152619 0.359396 0.851449 0.8 0 0
0.165210 0.095307 0.577651 0.8 0 0
0.244019 0.255454 0.854546 0.8 0 0
0.281961 0.048504 0.508178 0.8 0 0
0.192142 0.436717 0.843486 0.8 0 0
0.262026 0.283317 0.873174 0.8 0 0
0.211116 0.438134 0.487403 0.8 0 0
0.206962 0.485845 0.694779 0.8 0 0
0.172000 0.370297 0.899155 0.8 0 0
0.150375 0.328778 0.750668 0.8 0 0
0.254030 0.274158 0.613500 0.8 0 0
0.263335 0.136194 0.496728 0.8 0 0
0.217716 0.371040 0.323631 0.8 0 0
0.215959 0.543773 0.581109 0.8 0 0
0.217570 0.401198 0.283066 0.8 0 0
0.215018 0.501022 0.106082 0.8 0 0
0.213987 0.183711 0.331068 0.8 0 0
0.152230 0.345688 0.751760 0.8 0 0
0.359484 0.203454 0.834458 0.8 0 0
0.252395 0.240100 0.803674 0.8 0 0
0.226700 0.224734 0.581477 0.8 0 0
0.159898 0.235283 0.710133 0.8 0 0
0.157117 0.141123 0.515389 0.8 0 0
0.306931 0.234483 0.792089 0.8 0 0
0.258868 0.367677 0.820260 0.8 0 0
0.342303 0.212032 0.865738 0.8 0 0
0.272632 0.297357 0.768003 0.8 0 0
0.207278 0.391438 0.286113 0.8 0 0
0.150877 0.067929 0.560720 0.8 0 0
0.155923 0.351568 0.795847 0.8 0 0
0.212358 0.533491 0.466322 0.8 0 0
0.203757 0.267731 0.898329 0.8 0 0
0.248098 0.143122 0.576051 0.8 0 0
0.205578 0.294622 0.393887 0.8 0 0
0.170200 0.400059 0.787688 0.8 0 0
0.256222 0.138897 0.531913 0.8 0 0
0.283189 0.035026 0.520199 0.8 0 0
0.207706 0.288841 0.421330 0.8 0 0
0.241083 0.239349 0.509377 0.8 0 0
0.213987 0.520163 0.075476 0.8 0 0
0.198414 0.389216 0.940667 0.8 0 0
0.206708 0.397691 0.298465 0.8 0 0
0.192732 0.451285 0.791358 0.8 0 0
0.214231 0.487444 0.523458 0.8 0 0
0.166468 0.394896 0.795712 0.8 0 0
0.164666 0.119750 0.534134 0.8 0 0
0.217517 0.259530 0.352515 0.8 0 0
0.162201 0.250870 0.816089 0.8 0 0
0.207083 0.477528 0.737742 0.8 0 0
0.207465 0.388392 0.282976 0.8 0 0
0.216724 0.377590 0.287778 0.8 0 0
0.277875 0.127287 0.438670 0.8 0 0
0.330835 0.222717 0.852044 0.8 0 0
0.210280 0.351114 0.229635 0.8 0 0
0.210641 0.452073 0.510189 0.8 0 0
0.236021 0.400687 0.638315 0.8 0 0
0.227522 0.394609 0.540373 0.8 0 0
0.211234 0.408790 0.359441 0.8 0 0
0.227801 0.435311 0.608514 0.8 0 0
0.189379 0.191675 0.573867 0.8 0 0
0.208597 0.498048 0.593511 0.8 0 0
0.210319 0.376420 0.203380 0.8 0 0
0.207917 0.439989 0.276148 0.8 0 0
0.209062 0.455048 0.573956 0.8 0 0
0.206518 0.369247 0.344565 0.8 0 0
0.218708 0.403389 0.312463 0.8 0 0
0.220693 0.453906 0.597206 0.8 0 0
0.183209 0.352461 0.588905 0.8 0 0
0.241390 0.341451 0.574567 0.8 0 0
0.210805 0.210270 0.361291 0.8 0 0
0.234693 0.295410 0.542607 0.8 0 0
0.146982 0.101267 0.487430 0.8 0 0
0.216190 0.369159 0.282935 0.8 0 0
0.217727 0.461206 0.594142 0.8 0 0
0.210914 0.488348 0.079593 0.8 0 0
0.158184 0.236165 0.727449 0.8 0 0
0.210187 0.508810 0.537101 0.8 0 0
0.231635 0.431819 0.723702 0.8 0 0
0.169878 0.220985 0.501605 0.8 0 0
0.164335 0.385620 0.786056 0.8 0 0
0.214545 0.478583 0.532878 0.8 0 0
0.213774 0.343625 0.218164 0.8 0 0
0.208377 0.346101 0.310969 0.8 0 0
0.263812 0.215962 0.428886 0.8 0 0
0.210517 0.494888 0.527777 0.8 0 0
0.060764 0.204412 0.792002 0.8 0 0
0.154804 0.137284 0.502718 0.8 0 0
0.208983 0.487604 0.174968 0.8 0 0
0.209304 0.296385 0.306666 0.8 0 0
0.209288 0.508679 0.565627 0.8 0 0
0.212578 0.127066 0.263662 0.8 0 0
0.260210 0.186231 0.517309 0.8 0 0
0.351510 0.207227 0.863585 0.8 0 0
0.207994 0.423652 0.233951 0.8 0 0
0.185399 0.379494 0.623267 0.8 0 0
0.212708 0.599516 0.470051 0.8 0 0
0.274128 0.069402 0.557930 0.8 0 0
0.270224 0.151689 0.450965 0.8 0 0
0.224401 0.240629 0.573256 0.8 0 0
0.213687 0.484353 0.501378 0.8 0 0
0.219454 0.447820 0.580174 0.8 0 0
0.075122 0.210370 0.763445 0.8 0 0
0.218655 0.406243 0.324981 0.8 0 0
0.232731 0.449816 0.786138 0.8 0 0
0.218636 0.381305 0.337156 0.8 0 0
0.188692 0.405585 0.711874 0.8 0 0
0.245792 0.141168 0.600925 0.8 0 0
0.212281 0.499159 0.041856 0.8 0 0
0.365544 0.200076 0.860264 0.8 0 0
0.241624 0.369972 0.651460 0.8 0 0
0.217515 0.347727 0.346177 0.8 0 0
0.212238 0.134336 0.255425 0.8 0 0
0.148371 0.096998 0.502903 0.8 0 0
0.185242 0.380192 0.656361 0.8 0 0
0.153056 0.330169 0.694041 0.8 0 0
0.203708 0.394124 0.939352 0.8 0 0
0.203719 0.419236 0.899735 0.8 0 0
0.160876 0.270584 0.833794 0.8 0 0
0.197555 0.445533 0.657239 0.8 0 0
0.247589 0.391948 0.877923 0.8 0 0
0.191322 0.414052 0.630180 0.8 0 0
0.267521 0.283760 0.791708 0.8 0 0
0.265955 0.299019 0.651518 0.8 0 0
0.180635 0.236338 0.541762 0.8 0 0
0.179847 0.347775 0.619760 0.8 0 0
0.208575 0.478085 0.190742 0.8 0 0
0.354901 0.209009 0.858850 0.8 0 0
0.269532 0.163804 0.472444 0.8 0 0
0.235639 0.344602 0.950239 0.8 0 0
0.262782 0.228705 0.718816 0.8 0 0
0.242616 0.378422 0.693949 0.8 0 0
0.153718 0.333514 0.803421 0.8 0 0
0.212054 0.291161 0.213869 0.8 0 0
0.211048 0.547473 0.506722 0.8 0 0
0.190961 0.410335 0.662671 0.8 0 0
0.213415 0.547037 0.059028 0.8 0 0
0.213096 0.567271 0.484288 0.8 0 0
0.228744 0.322972 0.950964 0.8 0 0
0.211863 0.198415 0.606004 0.8 0 0
0.212423 0.530727 0.032660 0.8 0 0
0.214115 0.414689 0.165965 0.8 0 0
0.163743 0.255291 0.662127 0.8 0 0
0.391012 0.188446 0.838812 0.8 0 0
0.271950 0.156299 0.462917 0.8 0 0
0.209491 0.382345 0.423835 0.8 0 0
0.224511 0.206482 0.785332 0.8 0 0
0.212147 0.477122 0.053272 0.8 0 0
0.148507 0.307416 0.743568 0.8 0 0
0.261249 0.216276 0.463100 0.8 0 0
0.215556 0.309662 0.309563 0.8 0 0
0.212508 0.393418 0.125285 0.8 0 0
0.219495 0.378531 0.364597 0.8 0 0
0.307039 0.230158 0.789180 0.8 0 0
0.203113 0.346053 0.433280 0.8 0 0
0.048078 0.197417 0.770499 0.8 0 0
0.188091 0.396162 0.627726 0.8 0 0
0.211283 0.173037 0.252441 0.8 0 0
0.164517 0.353081 0.691583 0.8 0 0
0.213615 0.415642 0.484031 0.8 0 0
0.208959 0.414034 0.212112 0.8 0 0
0.162568 0.345851 0.832273 0.8 0 0
0.213096 0.448735 0.838188 0.8 0 0
0.265301 0.271443 0.817092 0.8 0 0
0.281176 0.072146 0.502614 0.8 0 0
0.210031 0.472391 0.118686 0.8 0 0
0.198896 0.300006 0.496493 0.8 0 0
0.327679 0.224080 0.804837 0.8 0 0
0.211076 0.447210 0.491802 0.8 0 0
0.211577 0.418940 0.468117 0.8 0 0
0.210716 0.379894 0.187596 0.8 0 0
0.241525 0.371115 0.655693 0.8 0 0
0.216647 0.463967 0.181347 0.8 0 0
0.181082 0.246526 0.605889 0.8 0 0
0.212663 0.241633 0.229168 0.8 0 0
0.218813 0.392351 0.328761 0.8 0 0
0.208739 0.387949 0.242954 0.8 0 0
0.153448 0.301544 0.820324 0.8 0 0
0.139427 0.049108 0.490090 0.8 0 0
0.217689 0.480855 0.724846 0.8 0 0
0.173434 0.220398 0.670156 0.8 0 0
0.255894 0.186242 0.548001 0.8 0 0
0.148605 0.296372 0.742414 0.8 0 0
0.217891 0.298233 0.366370 0.8 0 0
0.269426 0.357058 0.757866 0.8 0 0
0.235139 0.402980 0.666286 0.8 0 0
0.223568 0.415737 0.555737 0.8 0 0
0.215819 0.436022 0.191671 0.8 0 0
0.046361 0.194799 0.818013 0.8 0 0
0.214227 0.568299 0.519893 0.8 0 0
0.253612 0.124702 0.567572 0.8 0 0
0.215560 0.222592 0.360440 0.8 0 0
0.263157 0.141346 0.548966 0.8 0 0
0.188713 0.196957 0.742502 0.8 0 0
0.150823 0.098273 0.485636 0.8 0 0
0.207782 0.250595 0.327453 0.8 0 0
0.267492 0.332009 0.678062 0.8 0 0
0.156223 0.358234 0.771621 0.8 0 0
0.196841 0.241667 0.848082 0.8 0 0
0.199402 0.182411 0.697562 0.8 0 0
0.175868 0.336108 0.618447 0.8 0 0
0.216782 0.484477 0.619046 0.8 0 0
0.157523 0.093284 0.527614 0.8 0 0
0.289732 0.242960 0.795650 0.8 0 0
0.271282 0.327546 0.824966 0.8 0 0
0.209568 0.240345 0.279397 0.8 0 0
0.131972 0.242019 0.801227 0.8 0 0
0.050304 0.197034 0.807096 0.8 0 0
0.171640 0.247440 0.633141 0.8 0 0
0.187330 0.333675 0.542361 0.8 0 0
0.216467 0.475648 0.621825 0.8 0 0
0.213473 0.464247 0.091465 0.8 0 0
0.183551 0.185561 0.621424 0.8 0 0
0.164377 0.298421 0.898767 0.8 0 0
0.178302 0.173225 0.542996 0.8 0 0
0.225488 0.457748 0.707839 0.8 0 0
0.213004 0.428041 0.458023 0.8 0 0
0.142704 0.087744 0.471660 0.8 0 0
0.120587 0.230994 0.805829 0.8 0 0
0.272419 0.144718 0.474413 0.8 0 0
0.173753 0.346781 0.646259 0.8 0 0
0.165303 0.365065 0.721872 0.8 0 0
0.236485 0.247578 0.535111 0.8 0 0
0.259619 0.308892 0.624999 0.8 0 0
0.220325 0.435146 0.567360 0.8 0 0
0.175535 0.216647 0.554195 0.8 0 0
0.242509 0.226222 0.506929 0.8 0 0
0.233368 0.205270 0.563466 0.8 0 0
0.260383 0.177896 0.525989 0.8 0 0
0.249628 0.304999 0.595483 0.8 0 0
0.219383 0.382649 0.385290 0.8 0 0
0.224728 0.372148 0.483342 0.8 0 0
0.208477 0.509950 0.598739 0.8 0 0
0.254056 0.225209 0.775471 0.8 0 0
0.213308 0.359416 0.186312 0.8 0 0
0.109026 0.227813 0.763379 0.8 0 0
0.273546 0.270913 0.710335 0.8 0 0
0.227383 0.207991 0.784112 0.8 0 0
0.211998 0.309443 0.945306 0.8 0 0
0.175977 0.206710 0.699387 0.8 0 0
0.306155 0.230455 0.793315 0.8 0 0
0.229326 0.392262 0.545927 0.8 0 0
0.117364 0.234543 0.795441 0.8 0 0
0.320832 0.228531 0.847022 0.8 0 0
0.364845 0.203919 0.784551 0.8 0 0
0.273961 0.319950 0.701785 0.8 0 0
0.168995 0.402377 0.797019 0.8 0 0
0.206656 0.198104 0.774247 0.8 0 0
0.238153 0.232035 0.596009 0.8 0 0
0.261277 0.217877 0.437249 0.8 0 0
0.215714 0.377940 0.258922 0.8 0 0
0.165750 0.207961 0.449311 0.8 0 0
0.269357 0.322694 0.862531 0.8 0 0
0.269044 0.347155 0.801431 0.8 0 0
0.185072 0.228836 0.805162 0.8 0 0
0.161608 0.374247 0.803193 0.8 0 0
0.209389 0.289774 0.302683 0.8 0 0
0.264862 0.090306 0.546490 0.8 0 0
0.215002 0.392378 0.390384 0.8 0 0
0.205351 0.298486 0.397384 0.8 0 0
0.162393 0.263246 0.831554 0.8 0 0
0.242141 0.201329 0.678308 0.8 0 0
0.108354 0.227177 0.764264 0.8 0 0
0.049968 0.198496 0.777656 0.8 0 0
0.213321 0.283052 0.429519 0.8 0 0
0.185352 0.380947 0.666639 0.8 0 0
0.233608 0.240511 0.543616 0.8 0 0
0.213261 0.427329 0.122484 0.8 0 0
0.148941 0.093037 0.512207 0.8 0 0
0.158791 0.077429 0.560588 0.8 0 0
0.213296 0.358571 0.186609 0.8 0 0
0.202873 0.231255 0.833915 0.8 0 0
0.279167 0.092865 0.487530 0.8 0 0
0.230171 0.431743 0.648583 0.8 0 0
0.208542 0.348878 0.300088 0.8 0 0
0.196914 0.374649 0.508083 0.8 0 0
0.319564 0.229374 0.833597 0.8 0 0
0.199720 0.311516 0.469539 0.8 0 0
0.188665 0.433124 0.772465 0.8 0 0
0.213736 0.278372 0.258206 0.8 0 0
0.216152 0.229830 0.320497 0.8 0 0
0.267929 0.344986 0.700454 0.8 0 0
0.215009 0.516964 0.548500 0.8 0 0
0.214316 0.176294 0.291786 0.8 0 0
0.266234 0.371830 0.873592 0.8 0 0
0.281511 0.071497 0.481531 0.8 0 0
0.206541 0.456690 0.813302 0.8 0 0
0.171392 0.301742 0.604272 0.8 0 0
0.271289 0.111412 0.484175 0.8 0 0
0.090985 0.216124 0.824983 0.8 0 0
0.165929 0.265038 0.844250 0.8 0 0
0.212509 0.301062 0.198527 0.8 0 0
0.206212 0.294387 0.415552 0.8 0 0
0.143860 0.057727 0.525936 0.8 0 0
0.030327 0.186664 0.847696 0.8 0 0
0.222945 0.303855 0.466100 0.8 0 0
0.213319 0.249816 0.245239 0.8 0 0
0.275597 0.320895 0.715967 0.8 0 0
0.206403 0.295722 0.422255 0.8 0 0
0.363746 0.202806 0.788399 0.8 0 0
0.215911 0.507911 0.667856 0.8 0 0
0.278720 0.087497 0.497289 0.8 0 0
0.259923 0.380231 0.827405 0.8 0 0
0.153303 0.374391 0.849386 0.8 0 0
0.272869 0.091759 0.540427 0.8 0 0
0.215771 0.208062 0.326071 0.8 0 0
0.211669 0.405456 0.134012 0.8 0 0
0.213621 0.429326 0.134092 0.8 0 0
0.211122 0.325915 0.229642 0.8 0 0
0.209054 0.515776 0.572698 0.8 0 0
0.269253 0.348692 0.716365 0.8 0 0
0.208175 0.478026 0.165170 0.8 0 0
0.275839 0.288623 0.747273 0.8 0 0
0.314002 0.232369 0.831502 0.8 0 0
0.205174 0.345720 0.408561 0.8 0 0
0.199953 0.347047 0.457024 0.8 0 0
0.270866 0.310733 0.786140 0.8 0 0
0.205844 0.341648 0.397213 0.8 0 0
0.265426 0.358388 0.828126 0.8 0 0
0.277883 0.111725 0.451907 0.8 0 0
0.214324 0.308936 0.944570 0.8 0 0
0.210763 0.255648 0.253893 0.8 0 0
0.262350 0.338325 0.843490 0.8 0 0
0.290066 0.244219 0.810317 0.8 0 0
0.211603 0.470505 0.076604 0.8 0 0
0.202212 0.242329 0.565150 0.8 0 0
0.176448 0.413536 0.877185 0.8 0 0
0.255630 0.229590 0.453027 0.8 0 0
0.244519 0.427124 0.816240 0.8 0 0
0.267262 0.330256 0.876473 0.8 0 0
0.118202 0.229606 0.813620 0.8 0 0
0.215421 0.184364 0.739596 0.8 0 0
0.215745 0.193732 0.615902 0.8 0 0
0.253430 0.354373 0.908874 0.8 0 0
0.222982 0.331557 0.939138 0.8 0 0
0.224011 0.288119 0.505781 0.8 0 0
0.236650 0.441153 0.795840 0.8 0 0
0.162226 0.213877 0.454143 0.8 0 0
0.239997 0.412444 0.895623 0.8 0 0
0.318439 0.224405 0.863645 0.8 0 0
0.215769 0.252858 0.526653 0.8 0 0
0.336804 0.218982 0.800298 0.8 0 0
0.168344 0.400477 0.802685 0.8 0 0
0.224797 0.209037 0.789764 0.8 0 0
0.209274 0.386921 0.401438 0.8 0 0
0.145377 0.093409 0.484848 0.8 0 0
0.247607 0.395589 0.873880 0.8 0 0
0.164502 0.154350 0.553787 0.8 0 0
0.167240 0.145631 0.516146 0.8 0 0
0.267164 0.364932 0.761750 0.8 0 0
0.247787 0.201560 0.505061 0.8 0 0
0.272257 0.275344 0.696856 0.8 0 0
0.217938 0.292179 0.420823 0.8 0 0
0.231819 0.324597 0.951056 0.8 0 0
0.167405 0.370755 0.883268 0.8 0 0
0.358881 0.205701 0.770912 0.8 0 0
0.165417 0.097445 0.583475 0.8 0 0
0.107657 0.225212 0.864454 0.8 0 0
0.250692 0.201266 0.492845 0.8 0 0
0.217207 0.453872 0.230635 0.8 0 0
0.062189 0.201768 0.840023 0.8 0 0
0.235619 0.259134 0.876332 0.8 0 0
0.113677 0.226802 0.848816 0.8 0 0
0.152843 0.322644 0.685079 0.8 0 0
0.216712 0.496623 0.615708 0.8 0 0
0.211314 0.550607 0.498158 0.8 0 0
0.208191 0.454922 0.191619 0.8 0 0
0.341674 0.217009 0.842690 0.8 0 0
0.154562 0.311794 0.781867 0.8 0 0
0.156154 0.359302 0.785844 0.8 0 0
0.123159 0.232539 0.796124 0.8 0 0
0.151257 0.156279 0.450026 0.8 0 0
0.215927 0.471760 0.214598 0.8 0 0
0.216316 0.535597 0.612376 0.8 0 0
0.231852 0.431305 0.724708 0.8 0 0
0.200420 0.215437 0.594625 0.8 0 0
0.245663 0.201027 0.514618 0.8 0 0
0.208102 0.524344 0.631511 0.8 0 0
0.211113 0.538508 0.064449 0.8 0 0
0.279597 0.120206 0.437346 0.8 0 0
0.211839 0.428681 0.456893 0.8 0 0
0.233401 0.447295 0.771048 0.8 0 0
0.210770 0.468264 0.510257 0.8 0 0
0.275452 0.321880 0.730290 0.8 0 0
0.208117 0.358725 0.300307 0.8 0 0
0.270086 0.348203 0.771947 0.8 0 0
0.192380 0.438158 0.742220 0.8 0 0
0.185946 0.195751 0.686092 0.8 0 0
0.264400 0.305302 0.643668 0.8 0 0
0.242006 0.393731 0.911516 0.8 0 0
0.153628 0.316541 0.813391 0.8 0 0
0.168803 0.173894 0.492276 0.8 0 0
0.288552 0.245028 0.811246 0.8 0 0
0.211947 0.530910 0.044246 0.8 0 0
0.212142 0.491160 0.464204 0.8 0 0
0.148445 0.311833 0.716692 0.8 0 0
0.040732 0.192997 0.847025 0.8 0 0
0.160673 0.356921 0.714182 0.8 0 0
0.198788 0.381300 0.511959 0.8 0 0
0.214109 0.297440 0.261498 0.8 0 0
0.191847 0.378525 0.547123 0.8 0 0
0.214274 0.252955 0.269522 0.8 0 0
0.210030 0.215854 0.272815 0.8 0 0
0.212478 0.133708 0.291827 0.8 0 0
0.210818 0.454763 0.261695 0.8 0 0
0.193342 0.447880 0.816989 0.8 0 0
0.153413 0.334412 0.789955 0.8 0 0
0.230481 0.416021 0.590140 0.8 0 0
0.215098 0.536052 0.549745 0.8 0 0
0.262462 0.297251 0.635743 0.8 0 0
0.206909 0.287973 0.410707 0.8 0 0
0.179290 0.239414 0.490067 0.8 0 0
0.212391 0.330043 0.178766 0.8 0 0
0.222626 0.310118 0.441868 0.8 0 0
0.212199 0.410364 0.112696 0.8 0 0
0.380462 0.195508 0.818699 0.8 0 0
0.067600 0.205607 0.799691 0.8 0 0
0.213678 0.497164 0.505030 0.8 0 0
0.162264 0.263033 0.816859 0.8 0 0
0.216345 0.483305 0.599404 0.8 0 0
0.263434 0.226834 0.740870 0.8 0 0
0.174888 0.421612 0.845565 0.8 0 0
0.166543 0.387954 0.816717 0.8 0 0
0.215835 0.414542 0.218073 0.8 0 0
0.146581 0.100706 0.485108 0.8 0 0
0.158072 0.150004 0.465646 0.8 0 0
0.191582 0.277057 0.558120 0.8 0 0
0.213587 0.495463 0.069970 0.8 0 0
0.236072 0.192823 0.721766 0.8 0 0
0.173380 0.349939 0.917387 0.8 0 0
0.299363 0.238058 0.857461 0.8 0 0
0.214365 0.326773 0.960772 0.8 0 0
0.234454 0.303796 0.533759 0.8 0 0
0.373078 0.197813 0.804238 0.8 0 0
0.217778 0.488787 0.655806 0.8 0 0
0.190822 0.408083 0.678126 0.8 0 0
0.165924 0.337710 0.834437 0.8 0 0
0.240291 0.404305 0.751650 0.8 0 0
0.162689 0.095501 0.557145 0.8 0 0
0.209479 0.397950 0.210328 0.8 0 0
0.154120 0.350232 0.780996 0.8 0 0
0.247685 0.397486 0.871543 0.8 0 0
0.188757 0.429884 0.766305 0.8 0 0
0.173708 0.206689 0.557758 0.8 0 0
0.216597 0.230123 0.353351 0.8 0 0
0.037336 0.190520 0.816058 0.8 0 0
0.211361 0.403359 0.460868 0.8 0 0
0.197453 0.448440 0.824473 0.8 0 0
0.239157 0.380517 0.611559 0.8 0 0
0.263388 0.134075 0.499016 0.8 0 0
0.191853 0.415208 0.664282 0.8 0 0
0.188684 0.398953 0.619231 0.8 0 0
0.217408 0.448271 0.241052 0.8 0 0
0.207120 0.381226 0.411155 0.8 0 0
0.236680 0.427645 0.769802 0.8 0 0
0.204148 0.408291 0.533778 0.8 0 0
0.235545 0.383883 0.575834 0.8 0 0
0.220398 0.465019 0.786116 0.8 0 0
0.162010 0.148551 0.484750 0.8 0 0
0.214148 0.226868 0.269099 0.8 0 0
0.225299 0.455364 0.651074 0.8 0 0
0.205668 0.397035 0.936434 0.8 0 0
0.183799 0.307382 0.565071 0.8 0 0
0.245494 0.204541 0.747056 0.8 0 0
0.202621 0.471224 0.700694 0.8 0 0
0.080715 0.215103 0.793748 0.8 0 0
0.162752 0.259437 0.802780 0.8 0 0
0.211986 0.281041 0.222281 0.8 0 0
0.191891 0.435238 0.742302 0.8 0 0
0.253359 0.347280 0.656496 0.8 0 0
0.180178 0.222033 0.502521 0.8 0 0
0.208742 0.484994 0.173837 0.8 0 0
0.171013 0.131217 0.555377 0.8 0 0
0.242321 0.395079 0.740467 0.8 0 0
0.218087 0.306712 0.375517 0.8 0 0
0.335272 0.220793 0.837913 0.8 0 0
0.181809 0.367686 0.657556 0.8 0 0
0.216663 0.514474 0.613256 0.8 0 0
0.248557 0.214528 0.563071 0.8 0 0
0.211098 0.295964 0.247693 0.8 0 0
0.189482 0.233302 0.818661 0.8 0 0
0.107335 0.224654 0.803982 0.8 0 0
0.190621 0.206570 0.559500 0.8 0 0
0.230140 0.431621 0.651772 0.8 0 0
0.275248 0.081438 0.536569 0.8 0 0
0.201884 0.459779 0.630252 0.8 0 0
0.215629 0.458163 0.159614 0.8 0 0
0.215348 0.211295 0.301950 0.8 0 0
0.171660 0.319004 0.920898 0.8 0 0
0.219230 0.296543 0.404091 0.8 0 0
0.264399 0.212480 0.431914 0.8 0 0
0.210010 0.568598 0.538105 0.8 0 0
0.104834 0.222559 0.833163 0.8 0 0
0.210556 0.430427 0.511140 0.8 0 0
0.215320 0.376856 0.245642 0.8 0 0
0.207700 0.490067 0.633992 0.8 0 0
0.216450 0.376886 0.280921 0.8 0 0
0.272996 0.260702 0.727486 0.8 0 0
0.200324 0.348513 0.454415 0.8 0 0
0.256357 0.309007 0.614897 0.8 0 0
0.208304 0.333531 0.332979 0.8 0 0
0.053172 0.197212 0.849302 0.8 0 0
0.211485 0.423944 0.471922 0.8 0 0
0.157075 0.101879 0.562339 0.8 0 0
0.209899 0.262089 0.275871 0.8 0 0
0.189671 0.175570 0.619266 0.8 0 0
0.149550 0.301199 0.705625 0.8 0 0
0.173257 0.238336 0.481690 0.8 0 0
0.261099 0.381040 0.827260 0.8 0 0
0.209013 0.382852 0.417883 0.8 0 0
0.310932 0.233448 0.810847 0.8 0 0
0.394029 0.187973 0.833422 0.8 0 0
0.258147 0.146179 0.512418 0.8 0 0
0.152834 0.247341 0.832132 0.8 0 0
0.214528 0.185980 0.291030 0.8 0 0
0.247538 0.308807 0.591100 0.8 0 0
0.218227 0.413137 0.529983 0.8 0 0
0.213344 0.332884 0.211916 0.8 0 0
0.243518 0.215310 0.511535 0.8 0 0
0.222104 0.197798 0.607177 0.8 0 0
0.272632 0.270960 0.702229 0.8 0 0
0.159971 0.179741 0.447739 0.8 0 0
0.195873 0.436664 0.633980 0.8 0 0
0.206115 0.353252 0.375418 0.8 0 0
0.060295 0.200360 0.857091 0.8 0 0
0.207063 0.488498 0.690975 0.8 0 0
0.270782 0.331655 0.830137 0.8 0 0
0.175628 0.207521 0.493245 0.8 0 0
0.266154 0.384591 0.861749 0.8 0 0
0.215633 0.478001 0.571461 0.8 0 0
0.254849 0.230993 0.479455 0.8 0 0
0.250096 0.422325 0.854982 0.8 0 0
0.213808 0.407080 0.492316 0.8 0 0
0.215924 0.264721 0.310846 0.8 0 0
0.167356 0.254481 0.834210 0.8 0 0
0.212093 0.423671 0.103893 0.8 0 0
0.198037 0.447697 0.648473 0.8 0 0
0.305718 0.236803 0.846306 0.8 0 0
0.164702 0.222242 0.720005 0.8 0 0
0.270012 0.086855 0.564536 0.8 0 0
0.257524 0.342193 0.874296 0.8 0 0
0.174484 0.179498 0.590845 0.8 0 0
0.178105 0.233988 0.530093 0.8 0 0
0.268407 0.304199 0.662266 0.8 0 0
0.208706 0.334020 0.317364 0.8 0 0
0.165912 0.332878 0.906343 0.8 0 0
0.266896 0.238574 0.753305 0.8 0 0
0.212713 0.261927 0.228679 0.8 0 0
0.162541 0.209504 0.437508 0.8 0 0
0.213019 0.360752 0.174260 0.8 0 0
0.216898 0.236342 0.351250 0.8 0 0
0.070384 0.209504 0.807734 0.8 0 0
0.236222 0.343162 0.954329 0.8 0 0
0.206854 0.295755 0.424488 0.8 0 0
0.357747 0.206785 0.753739 0.8 0 0
0.058141 0.202767 0.849187 0.8 0 0
0.232907 0.408183 0.910290 0.8 0 0
0.249024 0.168033 0.605262 0.8 0 0
0.206493 0.494412 0.662450 0.8 0 0
0.265329 0.369152 0.758259 0.8 0 0
0.208817 0.489507 0.159501 0.8 0 0
0.229196 0.459861 0.760282 0.8 0 0
0.370550 0.200762 0.773736 0.8 0 0
0.186740 0.402042 0.725481 0.8 0 0
0.334508 0.215946 0.820111 0.8 0 0
0.268529 0.256755 0.773797 0.8 0 0
0.207677 0.320826 0.352259 0.8 0 0
0.216967 0.305997 0.941079 0.8 0 0
0.218201 0.428413 0.268026 0.8 0 0
0.274063 0.305130 0.759569 0.8 0 0
0.192656 0.193304 0.738350 0.8 0 0
0.177806 0.229069 0.487753 0.8 0 0
0.262346 0.371894 0.824792 0.8 0 0
0.213990 0.523197 0.074941 0.8 0 0
0.275000 0.144997 0.436873 0.8 0 0
0.337493 0.214133 0.832331 0.8 0 0
0.212652 0.198012 0.358404 0.8 0 0
0.207227 0.500911 0.665454 0.8 0 0
0.365742 0.203497 0.790854 0.8 0 0
0.219401 0.210845 0.799417 0.8 0 0
0.230837 0.393823 0.557352 0.8 0 0
0.187171 0.397005 0.703852 0.8 0 0
0.248310 0.252231 0.836889 0.8 0 0
0.199743 0.454841 0.632763 0.8 0 0
0.211600 0.437610 0.106785 0.8 0 0
0.130312 0.241422 0.803333 0.8 0 0
0.248923 0.325307 0.606749 0.8 0 0
0.236760 0.397161 0.689518 0.8 0 0
0.252538 0.266300 0.614588 0.8 0 0
0.212130 0.158976 0.237057 0.8 0 0
0.210396 0.212527 0.265864 0.8 0 0
0.170684 0.350441 0.667050 0.8 0 0
0.205780 0.374154 0.358297 0.8 0 0
0.208786 0.462717 0.585626 0.8 0 0
0.120520 0.230236 0.850383 0.8 0 0
0.213947 0.209800 0.265741 0.8 0 0
0.284952 0.072698 0.462216 0.8 0 0
0.240273 0.337969 0.564251 0.8 0 0
0.213131 0.312549 0.215639 0.8 0 0
0.218188 0.378015 0.426655 0.8 0 0
0.241849 0.204367 0.753526 0.8 0 0
0.208657 0.371803 0.260305 0.8 0 0
0.213453 0.557504 0.496156 0.8 0 0
0.028738 0.187242 0.796930 0.8 0 0
0.229777 0.334713 0.946617 0.8 0 0
0.060129 0.204038 0.801767 0.8 0 0
0.270059 0.129984 0.511101 0.8 0 0
0.161958 0.186409 0.450286 0.8 0 0
0.262758 0.341674 0.674402 0.8 0 0
0.346832 0.209742 0.865649 0.8 0 0
0.213007 0.201990 0.359954 0.8 0 0
0.263576 0.170154 0.463838 0.8 0 0
0.170083 0.117090 0.573640 0.8 0 0
0.145416 0.083781 0.476741 0.8 0 0
0.258510 0.183809 0.473979 0.8 0 0
0.263635 0.211125 0.447458 0.8 0 0
0.174974 0.259460 0.853804 0.8 0 0
0.184760 0.336569 0.951550 0.8 0 0
0.219228 0.337967 0.408627 0.8 0 0
0.266688 0.141614 0.522344 0.8 0 0
0.051668 0.199542 0.793672 0.8 0 0
0.243649 0.157637 0.583535 0.8 0 0
0.213421 0.271446 0.250162 0.8 0 0
0.153138 0.356439 0.855425 0.8 0 0
0.343997 0.215143 0.857685 0.8 0 0
0.256410 0.168564 0.495567 0.8 0 0
0.209992 0.331740 0.269507 0.8 0 0
0.276361 0.085679 0.521764 0.8 0 0
0.178165 0.171583 0.611239 0.8 0 0
0.214602 0.468361 0.118362 0.8 0 0
0.237684 0.433261 0.839301 0.8 0 0
0.206665 0.303387 0.370750 0.8 0 0
0.207219 0.408269 0.272588 0.8 0 0
0.215709 0.304480 0.318363 0.8 0 0
0.270867 0.296616 0.838977 0.8 0 0
0.166545 0.221939 0.473736 0.8 0 0
0.223426 0.410624 0.548066 0.8 0 0
0.209192 0.436577 0.184119 0.8 0 0
0.270173 0.179297 0.433039 0.8 0 0
0.226074 0.288909 0.921682 0.8 0 0
0.157967 0.154613 0.505589 0.8 0 0
0.146945 0.063856 0.540378 0.8 0 0
0.240905 0.170924 0.619465 0.8 0 0
0.210723 0.551537 0.516723 0.8 0 0
0.220736 0.372895 0.424729 0.8 0 0
0.263887 0.211211 0.443475 0.8 0 0
0.184760 0.224258 0.520450 0.8 0 0
0.255116 0.211437 0.466575 0.8 0 0
0.247528 0.148827 0.569332 0.8 0 0
0.183834 0.259960 0.871527 0.8 0 0
0.318082 0.228389 0.779548 0.8 0 0
0.193892 0.320488 0.501063 0.8 0 0
0.215780 0.270549 0.306508 0.8 0 0
0.213767 0.569025 0.550839 0.8 0 0
0.288830 0.245808 0.822085 0.8 0 0
0.145468 0.049792 0.518855 0.8 0 0
0.182970 0.242964 0.539966 0.8 0 0
0.207576 0.363435 0.313395 0.8 0 0
0.319515 0.223662 0.804344 0.8 0 0
0.259660 0.208897 0.489571 0.8 0 0
0.212333 0.547756 0.466194 0.8 0 0
0.263833 0.342899 0.872355 0.8 0 0
0.260382 0.165626 0.540492 0.8 0 0
0.235098 0.404252 0.654045 0.8 0 0
0.065675 0.207298 0.840453 0.8 0 0
0.028062 0.186256 0.836501 0.8 0 0
0.207222 0.376727 0.305275 0.8 0 0
0.209289 0.273823 0.414695 0.8 0 0
0.213689 0.554676 0.503788 0.8 0 0
0.146589 0.123203 0.440306 0.8 0 0
0.254400 0.179871 0.565553 0.8 0 0
0.204740 0.267142 0.897593 0.8 0 0
0.154813 0.245010 0.731073 0.8 0 0
0.211790 0.193481 0.615122 0.8 0 0
0.242614 0.202926 0.614081 0.8 0 0
0.211605 0.506190 0.489732 0.8 0 0
0.212864 0.154125 0.246795 0.8 0 0
0.217822 0.436633 0.262909 0.8 0 0
0.196108 0.254258 0.873428 0.8 0 0
0.215479 0.505390 0.124534 0.8 0 0
0.262238 0.205719 0.442475 0.8 0 0
0.262603 0.146562 0.546860 0.8 0 0
0.218349 0.255442 0.531430 0.8 0 0
0.200553 0.344271 0.453206 0.8 0 0
0.178288 0.426384 0.833870 0.8 0 0
0.261679 0.292113 0.887772 0.8 0 0
0.061102 0.202376 0.802811 0.8 0 0
0.319110 0.229388 0.825517 0.8 0 0
0.210469 0.282576 0.275140 0.8 0 0
0.273545 0.289681 0.762604 0.8 0 0
0.211575 0.165320 0.252085 0.8 0 0
0.210247 0.216096 0.268467 0.8 0 0
0.047778 0.197410 0.803927 0.8 0 0
0.213992 0.390281 0.183663 0.8 0 0
0.216513 0.228063 0.352527 0.8 0 0
0.213417 0.526901 0.497155 0.8 0 0
0.212821 0.340804 0.185085 0.8 0 0
0.213744 0.420471 0.489431 0.8 0 0
0.174213 0.203370 0.490070 0.8 0 0
0.215862 0.276396 0.490924 0.8 0 0
0.216819 0.442550 0.271217 0.8 0 0
0.245004 0.203161 0.744037 0.8 0 0
0.154178 0.336406 0.699193 0.8 0 0
0.272653 0.098085 0.532710 0.8 0 0
0.198606 0.262240 0.550337 0.8 0 0
0.250082 0.257588 0.847947 0.8 0 0
0.209183 0.485268 0.185692 0.8 0 0
0.231182 0.421089 0.890710 0.8 0 0
0.220229 0.378842 0.382485 0.8 0 0
0.271572 0.347277 0.760994 0.8 0 0
0.213706 0.210921 0.364127 0.8 0 0
0.213142 0.323680 0.209697 0.8 0 0
0.391954 0.189345 0.820038 0.8 0 0
0.209606 0.222773 0.361225 0.8 0 0
0.234841 0.436138 0.766375 0.8 0 0
0.315711 0.226671 0.771892 0.8 0 0
0.215200 0.354212 0.261835 0.8 0 0
0.340536 0.214566 0.770650 0.8 0 0
0.210168 0.197240 0.278194 0.8 0 0
0.181887 0.388558 0.725184 0.8 0 0
0.184028 0.221396 0.606982 0.8 0 0
0.210736 0.449023 0.123781 0.8 0 0
0.154433 0.250179 0.802499 0.8 0 0
0.273132 0.268555 0.708836 0.8 0 0
0.211120 0.234678 0.546958 0.8 0 0
0.237350 0.393158 0.639346 0.8 0 0
0.193886 0.427098 0.659700 0.8 0 0
0.169417 0.231287 0.470302 0.8 0 0
0.193341 0.353912 0.509049 0.8 0 0
0.092889 0.222299 0.847181 0.8 0 0
0.215731 0.468785 0.149687 0.8 0 0
0.251297 0.377283 0.729859 0.8 0 0
0.159603 0.331636 0.885714 0.8 0 0
0.194658 0.322770 0.949939 0.8 0 0
0.207451 0.452147 0.227222 0.8 0 0
0.213425 0.147657 0.281227 0.8 0 0
0.217620 0.422764 0.258445 0.8 0 0
0.280901 0.242260 0.819379 0.8 0 0
0.180185 0.283264 0.588636 0.8 0 0
0.211685 0.318598 0.212297 0.8 0 0
0.213070 0.472237 0.473638 0.8 0 0
0.213725 0.249319 0.255748 0.8 0 0
0.154532 0.244945 0.739186 0.8 0 0
0.202695 0.300242 0.466281 0.8 0 0
0.149219 0.100569 0.504957 0.8 0 0
0.145897 0.101595 0.478935 0.8 0 0
0.157162 0.091225 0.528177 0.8 0 0
0.209174 0.267676 0.899138 0.8 0 0
0.376157 0.197104 0.779140 0.8 0 0
0.234790 0.428134 0.749169 0.8 0 0
0.277252 0.304434 0.724328 0.8 0 0
0.209297 0.436747 0.180649 0.8 0 0
0.255670 0.235214 0.786687 0.8 0 0
0.211581 0.156284 0.262261 0.8 0 0
0.273973 0.145280 0.440752 0.8 0 0
0.224300 0.320663 0.457671 0.8 0 0
0.272572 0.139509 0.480051 0.8 0 0
0.205441 0.391845 0.943443 0.8 0 0
0.214076 0.447657 0.504989 0.8 0 0
0.321124 0.223449 0.786278 0.8 0 0
0.207123 0.494088 0.655465 0.8 0 0
0.217153 0.242838 0.354891 0.8 0 0
0.334742 0.219618 0.766508 0.8 0 0
0.215016 0.543479 0.546555 0.8 0 0
0.212890 0.181537 0.241504 0.8 0 0
0.242172 0.305677 0.929005 0.8 0 0
0.209208 0.489242 0.569744 0.8 0 0
0.208231 0.464663 0.178773 0.8 0 0
0.212944 0.436138 0.457417 0.8 0 0
0.164319 0.263546 0.649330 0.8 0 0
0.210849 0.244340 0.253405 0.8 0 0
0.185072 0.202902 0.538315 0.8 0 0
0.218421 0.426772 0.548507 0.8 0 0
0.275969 0.285766 0.719521 0.8 0 0
0.170435 0.244673 0.642416 0.8 0 0
0.209410 0.437818 0.176098 0.8 0 0
0.239622 0.171406 0.587075 0.8 0 0
0.176181 0.270423 0.881736 0.8 0 0
0.158655 0.373295 0.787255 0.8 0 0
0.153536 0.259613 0.761660 0.8 0 0
0.215938 0.546755 0.580121 0.8 0 0
0.209357 0.537471 0.561103 0.8 0 0
0.208123 0.383762 0.460034 0.8 0 0
0.210830 0.488553 0.081723 0.8 0 0
0.226613 0.440592 0.610385 0.8 0 0
0.208920 0.212273 0.327350 0.8 0 0
0.244979 0.304349 0.580534 0.8 0 0
0.272615 0.272277 0.701198 0.8 0 0
0.224467 0.379537 0.500549 0.8 0 0
0.153626 0.311574 0.802268 0.8 0 0
0.215182 0.372435 0.244516 0.8 0 0
0.214329 0.243230 0.272011 0.8 0 0
0.121042 0.235304 0.785426 0.8 0 0
0.214562 0.484984 0.535555 0.8 0 0
0.210732 0.392480 0.175575 0.8 0 0
0.209856 0.541522 0.544923 0.8 0 0
0.155150 0.331048 0.685087 0.8 0 0
0.273270 0.296535 0.688468 0.8 0 0
0.157029 0.250628 0.701518 0.8 0 0
0.073510 0.206933 0.858343 0.8 0 0
0.212865 0.301339 0.211909 0.8 0 0
0.215045 0.235982 0.291262 0.8 0 0
0.155133 0.341517 0.778862 0.8 0 0
0.208155 0.331764 0.339711 0.8 0 0
0.254030 0.233165 0.479757 0.8 0 0
0.268440 0.168775 0.474662 0.8 0 0
0.273434 0.161471 0.438382 0.8 0 0
0.235134 0.371920 0.554235 0.8 0 0
0.353565 0.208646 0.758789 0.8 0 0
0.236529 0.395129 0.676700 0.8 0 0
0.204266 0.373001 0.411006 0.8 0 0
0.226397 0.465391 0.765772 0.8 0 0
0.261182 0.121287 0.578448 0.8 0 0
0.212351 0.468692 0.238438 0.8 0 0
0.390925 0.189168 0.805274 0.8 0 0
0.210882 0.528205 0.513468 0.8 0 0
0.389154 0.190368 0.793921 0.8 0 0
0.221509 0.213371 0.801941 0.8 0 0
0.169582 0.334919 0.869626 0.8 0 0
0.231595 0.235636 0.553880 0.8 0 0
0.213499 0.309116 0.231596 0.8 0 0
0.145080 0.100582 0.473823 0.8 0 0
0.214863 0.304015 0.286414 0.8 0 0
0.243399 0.386798 0.722703 0.8 0 0
0.163488 0.336460 0.845941 0.8 0 0
0.192052 0.441234 0.750978 0.8 0 0
0.236740 0.383856 0.586489 0.8 0 0
0.152975 0.247310 0.812670 0.8 0 0
0.165176 0.171458 0.538979 0.8 0 0
0.152816 0.336999 0.708032 0.8 0 0
0.207894 0.249402 0.316611 0.8 0 0
0.208370 0.395636 0.247631 0.8 0 0
0.210691 0.513473 0.520736 0.8 0 0
0.208678 0.541136 0.589223 0.8 0 0
0.218129 0.426565 0.268223 0.8 0 0
0.084851 0.212559 0.857130 0.8 0 0
0.256185 0.105491 0.586464 0.8 0 0
0.230862 0.447099 0.739494 0.8 0 0
0.216064 0.392025 0.251759 0.8 0 0
0.245832 0.339301 0.943750 0.8 0 0
0.229201 0.421016 0.589527 0.8 0 0
0.253319 0.324682 0.919173 0.8 0 0
0.213370 0.479683 0.211514 0.8 0 0
0.237294 0.233742 0.597895 0.8 0 0
0.211998 0.460847 0.072918 0.8 0 0
0.066635 0.206464 0.757301 0.8 0 0
0.151484 0.294647 0.690145 0.8 0 0
0.157955 0.124460 0.541582 0.8 0 0
0.194038 0.418529 0.596762 0.8 0 0
0.210318 0.193256 0.279218 0.8 0 0
0.030972 0.187929 0.836432 0.8 0 0
0.213312 0.431458 0.471029 0.8 0 0
0.278493 0.071115 0.526417 0.8 0 0
0.211967 0.549271 0.477636 0.8 0 0
0.304801 0.233278 0.771015 0.8 0 0
0.150915 0.320768 0.759567 0.8 0 0
0.217850 0.436120 0.263226 0.8 0 0
0.261433 0.255393 0.664057 0.8 0 0
0.178026 0.214256 0.575921 0.8 0 0
0.206836 0.485215 0.700281 0.8 0 0
0.280626 0.114032 0.439294 0.8 0 0
0.230295 0.312147 0.506856 0.8 0 0
0.194616 0.439594 0.723371 0.8 0 0
0.286015 0.028740 0.521691 0.8 0 0
0.213131 0.184446 0.247420 0.8 0 0
0.146429 0.089841 0.496968 0.8 0 0
0.270237 0.269898 0.690067 0.8 0 0
0.266105 0.370261 0.787979 0.8 0 0
0.169997 0.370744 0.816976 0.8 0 0
0.264098 0.210005 0.431878 0.8 0 0
0.206908 0.352490 0.355073 0.8 0 0
0.168565 0.132547 0.592774 0.8 0 0
0.188384 0.296887 0.548976 0.8 0 0
0.212542 0.560213 0.029901 0.8 0 0
0.156954 0.111757 0.502134 0.8 0 0
0.217690 0.369758 0.324459 0.8 0 0
0.159312 0.166470 0.501280 0.8 0 0
0.206930 0.277390 0.348736 0.8 0 0
0.236093 0.197558 0.744795 0.8 0 0
0.220868 0.305560 0.430359 0.8 0 0
0.201433 0.238725 0.573033 0.8 0 0
0.266667 0.279567 0.663170 0.8 0 0
0.213422 0.332536 0.215154 0.8 0 0
0.281946 0.085171 0.475995 0.8 0 0
0.214572 0.426206 0.524369 0.8 0 0
0.147377 0.093644 0.499499 0.8 0 0
0.343587 0.212926 0.870300 0.8 0 0
0.246232 0.354636 0.643179 0.8 0 0
0.278882 0.113343 0.446578 0.8 0 0
0.251713 0.237613 0.464688 0.8 0 0
0.217343 0.442999 0.258066 0.8 0 0
0.207442 0.369393 0.966548 0.8 0 0
0.176067 0.226502 0.643382 0.8 0 0
0.257850 0.248213 0.655087 0.8 0 0
0.215023 0.344225 0.264330 0.8 0 0
0.210692 0.495619 0.521888 0.8 0 0
0.278036 0.084127 0.509050 0.8 0 0
0.168815 0.395851 0.828711 0.8 0 0
0.256572 0.214130 0.458775 0.8 0 0
0.184151 0.212493 0.526635 0.8 0 0
0.065056 0.204948 0.781454 0.8 0 0
0.176398 0.144246 0.570906 0.8 0 0
0.195162 0.238431 0.565045 0.8 0 0
0.215858 0.413331 0.341989 0.8 0 0
0.159182 0.289419 0.653688 0.8 0 0
0.215577 0.270014 0.410783 0.8 0 0
0.240179 0.412462 0.765582 0.8 0 0
0.264258 0.115980 0.516323 0.8 0 0
0.233420 0.364790 0.531924 0.8 0 0
0.181301 0.149552 0.604485 0.8 0 0
0.225461 0.327368 0.462619 0.8 0 0
0.202278 0.358450 0.435196 0.8 0 0
0.184067 0.200185 0.674038 0.8 0 0
0.216581 0.410837 0.344806 0.8 0 0
0.246702 0.283918 0.905469 0.8 0 0
0.213943 0.406847 0.498026 0.8 0 0
0.214062 0.464494 0.509698 0.8 0 0
0.210783 0.532106 0.516274 0.8 0 0
0.242979 0.332616 0.581892 0.8 0 0
0.173452 0.418415 0.857626 0.8 0 0
0.268989 0.311158 0.788942 0.8 0 0
0.177768 0.333026 0.944410 0.8 0 0
0.233491 0.325447 0.953053 0.8 0 0
0.160837 0.162899 0.466353 0.8 0 0
0.189837 0.386698 0.574383 0.8 0 0
0.213902 0.160801 0.289380 0.8 0 0
0.212874 0.552026 0.591754 0.8 0 0
0.208708 0.210929 0.802833 0.8 0 0
0.264126 0.268477 0.817439 0.8 0 0
0.261408 0.143817 0.497803 0.8 0 0
0.143108 0.104573 0.449484 0.8 0 0
0.208954 0.456292 0.249052 0.8 0 0
0.149070 0.104624 0.468820 0.8 0 0
0.153573 0.307790 0.813439 0.8 0 0
0.217600 0.404574 0.279831 0.8 0 0
0.177749 0.343375 0.936139 0.8 0 0
0.152185 0.135400 0.484989 0.8 0 0
0.216281 0.431234 0.210471 0.8 0 0
0.243546 0.255213 0.854822 0.8 0 0
0.346903 0.213560 0.802860 0.8 0 0
0.208019 0.291790 0.335450 0.8 0 0
0.376724 0.195872 0.810194 0.8 0 0
0.257267 0.104989 0.577409 0.8 0 0
0.213913 0.162039 0.288531 0.8 0 0
0.168211 0.254378 0.835784 0.8 0 0
0.212330 0.494454 0.457927 0.8 0 0
0.213491 0.429783 0.315927 0.8 0 0
0.153802 0.081883 0.521509 0.8 0 0
0.215213 0.458151 0.147905 0.8 0 0
0.172132 0.208598 0.476428 0.8 0 0
0.247158 0.224740 0.552407 0.8 0 0
0.115740 0.235202 0.835879 0.8 0 0
0.249324 0.184647 0.592278 0.8 0 0
0.209285 0.269772 0.902285 0.8 0 0
0.105586 0.224521 0.781222 0.8 0 0
0.210940 0.492869 0.511365 0.8 0 0
0.268368 0.154947 0.493463 0.8 0 0
0.231876 0.388689 0.556009 0.8 0 0
0.228750 0.427335 0.599838 0.8 0 0
0.211084 0.440833 0.291981 0.8 0 0
0.243769 0.403980 0.895671 0.8 0 0
0.215192 0.523337 0.553784 0.8 0 0
0.212403 0.526421 0.033274 0.8 0 0
0.260814 0.130938 0.572496 0.8 0 0
0.208510 0.479157 0.183179 0.8 0 0
0.212312 0.363850 0.151619 0.8 0 0
0.210917 0.344046 0.216733 0.8 0 0
0.138281 0.064937 0.463948 0.8 0 0
0.267160 0.189322 0.457155 0.8 0 0
0.221054 0.328469 0.959812 0.8 0 0
0.176761 0.403025 0.854091 0.8 0 0
0.217056 0.246875 0.344136 0.8 0 0
0.262931 0.316853 0.642397 0.8 0 0
0.233849 0.225953 0.545582 0.8 0 0
0.221135 0.314602 0.427308 0.8 0 0
0.164403 0.122968 0.528542 0.8 0 0
0.171220 0.222249 0.509407 0.8 0 0
0.167964 0.164126 0.566547 0.8 0 0
0.181954 0.229118 0.571071 0.8 0 0
0.231296 0.306579 0.518029 0.8 0 0
0.213108 0.517015 0.488184 0.8 0 0
0.190287 0.376185 0.555517 0.8 0 0
0.204447 0.433920 0.868361 0.8 0 0
0.187694 0.393390 0.654889 0.8 0 0
0.183670 0.211927 0.622117 0.8 0 0
0.260768 0.251576 0.814918 0.8 0 0
0.278943 0.250178 0.817302 0.8 0 0
0.386457 0.190435 0.845055 0.8 0 0
0.268901 0.337520 0.839128 0.8 0 0
0.208733 0.239598 0.296117 0.8 0 0
0.220589 0.320028 0.425283 0.8 0 0
0.179270 0.188240 0.608513 0.8 0 0
0.216310 0.256328 0.391517 0.8 0 0
0.212414 0.443831 0.075698 0.8 0 0
0.167798 0.247377 0.652032 0.8 0 0
0.330032 0.217476 0.855933 0.8 0 0
0.215401 0.273026 0.297361 0.8 0 0
0.190516 0.232317 0.543697 0.8 0 0
0.210837 0.502262 0.078834 0.8 0 0
0.214562 0.460686 0.126477 0.8 0 0
0.258418 0.261640 0.643238 0.8 0 0
0.208383 0.174953 0.675192 0.8 0 0
0.205028 0.450540 0.828498 0.8 0 0
0.194541 0.239540 0.560636 0.8 0 0
0.379017 0.196331 0.808013 0.8 0 0
0.201671 0.306779 0.939645 0.8 0 0
0.224756 0.359857 0.461109 0.8 0 0
0.172364 0.215877 0.533402 0.8 0 0
0.231756 0.213326 0.565113 0.8 0 0
0.146379 0.106126 0.455116 0.8 0 0
0.267753 0.349227 0.838856 0.8 0 0
0.198888 0.355276 0.966252 0.8 0 0
0.153183 0.364393 0.843007 0.8 0 0
0.213198 0.423521 0.123593 0.8 0 0
0.207903 0.259181 0.520979 0.8 0 0
0.196282 0.395435 0.931771 0.8 0 0
0.207990 0.291182 0.463507 0.8 0 0
