0.236081 0.529169 0.598325 0.8 0 0
0.067175 0.079143 0.575260 0.8 0 0
0.717656 0.298627 0.629212 0.8 0 0
0.369168 0.335603 0.458220 0.8 0 0
0.532230 0.390419 0.574277 0.8 0 0
0.681073 0.155728 0.692855 0.8 0 0
0.191658 0.210795 0.492701 0.8 0 0
0.180418 0.194538 0.416927 0.8 0 0
0.159366 0.195624 0.288237 0.8 0 0
0.463133 0.366988 0.553492 0.8 0 0
0.680522 0.102853 0.210599 0.8 0 0
0.670009 0.183702 0.235567 0.8 0 0
0.483520 0.553758 0.437908 0.8 0 0
0.718027 0.032254 0.238965 0.8 0 0
0.400221 0.432140 0.887479 0.8 0 0
0.589313 0.410087 0.441070 0.8 0 0
0.282534 0.364608 0.408261 0.8 0 0
0.361611 0.344453 0.215611 0.8 0 0
0.603667 0.326434 0.678764 0.8 0 0
0.432951 0.389861 0.854791 0.8 0 0
0.128669 0.330838 0.598728 0.8 0 0
0.680080 0.105245 0.211902 0.8 0 0
0.160000 0.287865 0.394042 0.8 0 0
0.751779 0.038806 0.290308 0.8 0 0
0.706094 0.171199 0.707163 0.8 0 0
0.445855 0.369376 0.289640 0.8 0 0
0.748618 0.200373 0.550720 0.8 0 0
0.335230 0.352992 0.630679 0.8 0 0
0.613894 0.293337 0.289172 0.8 0 0
0.105998 0.082437 0.632458 0.8 0 0
0.442436 0.384044 0.804290 0.8 0 0
0.039686 0.086595 0.469826 0.8 0 0
0.071871 0.163643 0.381476 0.8 0 0
0.158826 0.117511 0.449322 0.8 0 0
0.777910 0.076214 0.427546 0.8 0 0
0.367509 0.340334 0.304929 0.8 0 0
0.618669 0.255547 0.344082 0.8 0 0
0.629489 0.233232 0.472935 0.8 0 0
0.599953 0.364325 0.377532 0.8 0 0
0.652699 0.395214 0.592218 0.8 0 0
0.461343 0.391463 0.798969 0.8 0 0
0.133413 0.034834 0.509401 0.8 0 0
0.079990 0.213942 0.688212 0.8 0 0
0.319782 0.602225 0.536489 0.8 0 0
0.226824 0.287604 0.419490 0.8 0 0
0.109932 0.291371 0.694746 0.8 0 0
0.261050 0.431322 0.793977 0.8 0 0
0.665563 0.370642 0.541329 0.8 0 0
0.391045 0.618145 0.693636 0.8 0 0
0.057961 0.158470 0.452948 0.8 0 0
0.372014 0.580455 0.414495 0.8 0 0
0.343686 0.412561 0.915488 0.8 0 0
0.624252 0.286127 0.665089 0.8 0 0
0.246320 0.373652 0.579411 0.8 0 0
0.036665 0.111035 0.426957 0.8 0 0
0.185025 0.297850 0.734003 0.8 0 0
0.688449 0.258442 0.390874 0.8 0 0
0.191426 0.219526 0.601982 0.8 0 0
0.406027 0.412774 0.087439 0.8 0 0
0.193453 0.222337 0.382602 0.8 0 0
0.781697 0.087586 0.468967 0.8 0 0
0.208328 0.419105 0.410236 0.8 0 0
0.372309 0.413866 0.915300 0.8 0 0
0.352297 0.449631 0.135860 0.8 0 0
0.499871 0.596641 0.627255 0.8 0 0
0.456090 0.371856 0.667318 0.8 0 0
0.130318 0.037992 0.282637 0.8 0 0
0.596834 0.309657 0.585602 0.8 0 0
0.602392 0.306113 0.289101 0.8 0 0
0.320394 0.485259 0.228686 0.8 0 0
0.676231 0.261644 0.723154 0.8 0 0
0.083887 0.209849 0.481186 0.8 0 0
0.487093 0.600040 0.658018 0.8 0 0
0.788439 0.100441 0.470787 0.8 0 0
0.152726 0.074027 0.471524 0.8 0 0
0.349312 0.342881 0.563678 0.8 0 0
0.512727 0.482701 0.405330 0.8 0 0
0.420157 0.393582 0.107903 0.8 0 0
0.471621 0.581895 0.471827 0.8 0 0
0.636303 0.259723 0.654765 0.8 0 0
0.068824 0.206700 0.536302 0.8 0 0
0.117500 0.267340 0.731070 0.8 0 0
0.362750 0.558359 0.355367 0.8 0 0
0.698465 0.187675 0.295374 0.8 0 0
0.498963 0.578911 0.692485 0.8 0 0
0.101502 0.291486 0.656779 0.8 0 0
0.063445 0.101404 0.613767 0.8 0 0
0.473382 0.379953 0.636819 0.8 0 0
0.407481 0.370812 0.143236 0.8 0 0
0.393224 0.375506 0.855122 0.8 0 0
0.727065 0.275140 0.625748 0.8 0 0
0.577246 0.306324 0.407252 0.8 0 0
0.452702 0.410353 0.855571 0.8 0 0
0.123960 0.034471 0.294147 0.8 0 0
0.672151 0.308355 0.433084 0.8 0 0
0.447925 0.399289 0.208102 0.8 0 0
0.483316 0.396330 0.357875 0.8 0 0
0.509842 0.417059 0.681575 0.8 0 0
0.332653 0.441384 0.869839 0.8 0 0
0.226938 0.507451 0.612753 0.8 0 0
0.181714 0.282230 0.349267 0.8 0 0
0.176147 0.183719 0.533598 0.8 0 0
0.569074 0.469537 0.591487 0.8 0 0
0.249173 0.489330 0.758498 0.8 0 0
0.691489 0.128048 0.181588 0.8 0 0
0.455950 0.363882 0.414099 0.8 0 0
0.261182 0.411932 0.304579 0.8 0 0
0.283173 0.364130 0.419415 0.8 0 0
0.561829 0.324113 0.383718 0.8 0 0
0.425890 0.477610 0.216579 0.8 0 0
0.733144 0.034640 0.242034 0.8 0 0
0.679425 0.255245 0.368786 0.8 0 0
0.504726 0.503161 0.395101 0.8 0 0
0.628288 0.240958 0.514022 0.8 0 0
0.534272 0.362359 0.426777 0.8 0 0
0.234647 0.508138 0.643429 0.8 0 0
0.613423 0.279424 0.570770 0.8 0 0
0.413986 0.374794 0.150489 0.8 0 0
0.419226 0.507317 0.863798 0.8 0 0
0.661730 0.117532 0.282505 0.8 0 0
0.199641 0.239822 0.645698 0.8 0 0
0.505654 0.469638 0.365069 0.8 0 0
0.056425 0.177856 0.598871 0.8 0 0
0.030202 0.124839 0.458408 0.8 0 0
0.373821 0.423469 0.082671 0.8 0 0
0.699319 0.324912 0.570762 0.8 0 0
0.392988 0.347483 0.614825 0.8 0 0
0.748697 0.117041 0.639487 0.8 0 0
0.204807 0.241849 0.387734 0.8 0 0
0.739971 0.230582 0.534409 0.8 0 0
0.275606 0.397677 0.716658 0.8 0 0
0.248389 0.510056 0.734091 0.8 0 0
0.312656 0.378617 0.756937 0.8 0 0
0.460748 0.406679 0.237059 0.8 0 0
0.193917 0.410772 0.442343 0.8 0 0
0.644271 0.194424 0.465017 0.8 0 0
0.482226 0.397117 0.337507 0.8 0 0
0.710260 0.064377 0.152353 0.8 0 0
0.472130 0.594887 0.722039 0.8 0 0
0.299940 0.564453 0.788645 0.8 0 0
0.679321 0.122220 0.214743 0.8 0 0
0.690523 0.325622 0.503971 0.8 0 0
0.342771 0.504018 0.862282 0.8 0 0
0.182441 0.269255 0.729704 0.8 0 0
0.342277 0.340990 0.355179 0.8 0 0
0.641888 0.201904 0.474537 0.8 0 0
0.622328 0.255032 0.527383 0.8 0 0
0.685176 0.190748 0.712270 0.8 0 0
0.657104 0.334073 0.713044 0.8 0 0
0.120745 0.326764 0.647082 0.8 0 0
0.149315 0.349909 0.543494 0.8 0 0
0.120835 0.037296 0.282013 0.8 0 0
0.078200 0.195896 0.471984 0.8 0 0
0.238597 0.324706 0.491521 0.8 0 0
0.086282 0.068882 0.600226 0.8 0 0
0.723816 0.115272 0.661809 0.8 0 0
0.559015 0.365731 0.590803 0.8 0 0
0.705148 0.230623 0.720953 0.8 0 0
0.760168 0.043691 0.315689 0.8 0 0
0.412473 0.413326 0.100709 0.8 0 0
0.263443 0.415605 0.758852 0.8 0 0
0.130169 0.301998 0.713958 0.8 0 0
0.488031 0.599783 0.587783 0.8 0 0
0.448401 0.612128 0.679453 0.8 0 0
0.436253 0.354261 0.358046 0.8 0 0
0.193222 0.457087 0.621426 0.8 0 0
0.142815 0.379548 0.630152 0.8 0 0
0.274353 0.388208 0.281233 0.8 0 0
0.515930 0.557228 0.523872 0.8 0 0
0.712942 0.038374 0.398802 0.8 0 0
0.049233 0.157618 0.522264 0.8 0 0
0.385743 0.501684 0.869351 0.8 0 0
0.051988 0.164264 0.577482 0.8 0 0
0.100806 0.092514 0.209331 0.8 0 0
0.669229 0.122009 0.604237 0.8 0 0
0.244574 0.370342 0.439350 0.8 0 0
0.251383 0.436974 0.757883 0.8 0 0
0.667759 0.132286 0.246486 0.8 0 0
0.423963 0.345939 0.507150 0.8 0 0
0.567550 0.445702 0.679661 0.8 0 0
0.077687 0.055334 0.312548 0.8 0 0
0.366456 0.381413 0.042231 0.8 0 0
0.131691 0.072324 0.214884 0.8 0 0
0.623756 0.252329 0.527074 0.8 0 0
0.672215 0.173227 0.698424 0.8 0 0
0.738633 0.235208 0.551820 0.8 0 0
0.245062 0.526808 0.482759 0.8 0 0
0.738735 0.203944 0.674175 0.8 0 0
0.137007 0.036346 0.515794 0.8 0 0
0.689959 0.125319 0.675934 0.8 0 0
0.138977 0.192470 0.259185 0.8 0 0
0.436167 0.361615 0.648532 0.8 0 0
0.132594 0.026843 0.374614 0.8 0 0
0.728555 0.227607 0.455368 0.8 0 0
0.365364 0.344104 0.230562 0.8 0 0
0.462943 0.370819 0.613261 0.8 0 0
0.749332 0.133182 0.340610 0.8 0 0
0.455538 0.407645 0.846660 0.8 0 0
0.153404 0.106172 0.244809 0.8 0 0
0.074447 0.227784 0.670813 0.8 0 0
0.397303 0.443541 0.116257 0.8 0 0
0.264561 0.570495 0.585338 0.8 0 0
0.706496 0.250579 0.420832 0.8 0 0
0.068995 0.118027 0.276052 0.8 0 0
0.193819 0.326777 0.360800 0.8 0 0
0.178758 0.437426 0.606619 0.8 0 0
0.156803 0.087985 0.334850 0.8 0 0
0.279849 0.591537 0.622408 0.8 0 0
0.035903 0.136244 0.542070 0.8 0 0
0.685084 0.080676 0.533651 0.8 0 0
0.181609 0.419556 0.531942 0.8 0 0
0.644572 0.212609 0.576505 0.8 0 0
0.717499 0.297359 0.670445 0.8 0 0
0.270062 0.373670 0.432652 0.8 0 0
0.516095 0.445243 0.391857 0.8 0 0
0.517092 0.485060 0.424465 0.8 0 0
0.136007 0.037176 0.312574 0.8 0 0
0.300161 0.513321 0.308678 0.8 0 0
0.536395 0.506072 0.705893 0.8 0 0
0.034022 0.110758 0.442998 0.8 0 0
0.530822 0.390651 0.327465 0.8 0 0
0.277764 0.395512 0.250398 0.8 0 0
0.201821 0.432014 0.459004 0.8 0 0
0.221362 0.300550 0.360232 0.8 0 0
0.764603 0.164529 0.490975 0.8 0 0
0.747047 0.039074 0.336163 0.8 0 0
0.436922 0.523189 0.291142 0.8 0 0
0.466134 0.378852 0.690408 0.8 0 0
0.509318 0.404048 0.323651 0.8 0 0
0.174697 0.182992 0.580242 0.8 0 0
0.414755 0.388837 0.100278 0.8 0 0
0.162460 0.159167 0.340389 0.8 0 0
0.461543 0.384244 0.767879 0.8 0 0
0.451110 0.556196 0.380066 0.8 0 0
0.107848 0.245490 0.470569 0.8 0 0
0.537739 0.406413 0.656757 0.8 0 0
0.341080 0.353696 0.177767 0.8 0 0
0.677386 0.242435 0.335258 0.8 0 0
0.615429 0.290401 0.622216 0.8 0 0
0.688644 0.343642 0.591031 0.8 0 0
0.417886 0.364118 0.200499 0.8 0 0
0.276293 0.542374 0.424298 0.8 0 0
0.092626 0.160578 0.711001 0.8 0 0
0.077447 0.205103 0.495881 0.8 0 0
0.088191 0.262739 0.668757 0.8 0 0
0.282400 0.375489 0.606314 0.8 0 0
0.652258 0.161204 0.428422 0.8 0 0
0.561068 0.470555 0.549006 0.8 0 0
0.485429 0.516274 0.833241 0.8 0 0
0.671792 0.126869 0.648078 0.8 0 0
0.651155 0.402666 0.631115 0.8 0 0
0.156356 0.078510 0.381831 0.8 0 0
0.604911 0.388252 0.425478 0.8 0 0
0.051266 0.100267 0.376291 0.8 0 0
0.347436 0.341428 0.325308 0.8 0 0
0.149363 0.061702 0.294598 0.8 0 0
0.671375 0.223444 0.280575 0.8 0 0
0.328064 0.461494 0.197522 0.8 0 0
0.216014 0.448384 0.457284 0.8 0 0
0.134484 0.213909 0.295402 0.8 0 0
0.674209 0.363615 0.573472 0.8 0 0
0.531474 0.478803 0.738299 0.8 0 0
0.729098 0.228920 0.459692 0.8 0 0
0.498263 0.520484 0.818325 0.8 0 0
0.598367 0.380048 0.399227 0.8 0 0
0.441225 0.563286 0.391310 0.8 0 0
0.467948 0.436731 0.246755 0.8 0 0
0.608529 0.268372 0.455903 0.8 0 0
0.638599 0.210966 0.468075 0.8 0 0
0.228632 0.288465 0.456507 0.8 0 0
0.659792 0.178592 0.639800 0.8 0 0
0.148484 0.332205 0.532013 0.8 0 0
0.440194 0.359082 0.595618 0.8 0 0
0.238904 0.379409 0.368362 0.8 0 0
0.596997 0.408769 0.451083 0.8 0 0
0.604328 0.366436 0.701691 0.8 0 0
0.699144 0.326751 0.595343 0.8 0 0
0.181139 0.322124 0.738316 0.8 0 0
0.067885 0.116550 0.625915 0.8 0 0
0.232886 0.455365 0.436639 0.8 0 0
0.487632 0.589539 0.544285 0.8 0 0
0.452182 0.506166 0.284736 0.8 0 0
0.368096 0.335521 0.522525 0.8 0 0
0.241723 0.419687 0.678694 0.8 0 0
0.352999 0.378474 0.814509 0.8 0 0
0.652791 0.217431 0.670577 0.8 0 0
0.404854 0.359727 0.184921 0.8 0 0
0.123940 0.241557 0.391261 0.8 0 0
0.283746 0.392033 0.728992 0.8 0 0
0.195491 0.259746 0.340902 0.8 0 0
0.238909 0.533554 0.596796 0.8 0 0
0.683409 0.344489 0.674016 0.8 0 0
0.680456 0.357041 0.591261 0.8 0 0
0.170674 0.329742 0.415823 0.8 0 0
0.508435 0.551719 0.485080 0.8 0 0
0.527820 0.519129 0.730060 0.8 0 0
0.402590 0.617878 0.529657 0.8 0 0
0.667491 0.079492 0.275421 0.8 0 0
0.282918 0.410346 0.232706 0.8 0 0
0.776615 0.143035 0.506663 0.8 0 0
0.707223 0.284378 0.477552 0.8 0 0
0.092620 0.168666 0.272459 0.8 0 0
0.197315 0.464767 0.582826 0.8 0 0
0.720169 0.038239 0.184130 0.8 0 0
0.073960 0.217369 0.536833 0.8 0 0
0.667719 0.165856 0.690325 0.8 0 0
0.033341 0.102134 0.473147 0.8 0 0
0.156884 0.169264 0.684532 0.8 0 0
0.299031 0.585083 0.706448 0.8 0 0
0.500383 0.463524 0.821613 0.8 0 0
0.666133 0.382788 0.628228 0.8 0 0
0.143073 0.044292 0.305689 0.8 0 0
0.707465 0.108990 0.184930 0.8 0 0
0.313458 0.526090 0.319378 0.8 0 0
0.178685 0.394910 0.488907 0.8 0 0
0.404674 0.354390 0.215158 0.8 0 0
0.271952 0.566091 0.691853 0.8 0 0
0.589568 0.356461 0.696457 0.8 0 0
0.220038 0.477574 0.530782 0.8 0 0
0.762307 0.047277 0.323829 0.8 0 0
0.665638 0.163187 0.658421 0.8 0 0
0.742042 0.208026 0.480039 0.8 0 0
0.117386 0.165308 0.712016 0.8 0 0
0.560983 0.425199 0.425249 0.8 0 0
0.153963 0.068917 0.322932 0.8 0 0
0.253638 0.558462 0.641473 0.8 0 0
0.229235 0.384216 0.680488 0.8 0 0
0.058154 0.140409 0.397836 0.8 0 0
0.522016 0.511646 0.775980 0.8 0 0
0.141859 0.349071 0.571230 0.8 0 0
0.168016 0.196781 0.685834 0.8 0 0
0.577604 0.351754 0.629499 0.8 0 0
0.649481 0.230767 0.685535 0.8 0 0
0.279785 0.366559 0.493074 0.8 0 0
0.609070 0.438480 0.600358 0.8 0 0
0.462021 0.380862 0.306711 0.8 0 0
0.277823 0.400991 0.751072 0.8 0 0
0.412724 0.342149 0.437693 0.8 0 0
0.707147 0.110844 0.187522 0.8 0 0
0.104636 0.034111 0.346129 0.8 0 0
0.462572 0.533316 0.352922 0.8 0 0
0.368053 0.359638 0.132839 0.8 0 0
0.442730 0.600586 0.737856 0.8 0 0
0.122876 0.046516 0.254432 0.8 0 0
0.247488 0.378348 0.570377 0.8 0 0
0.657749 0.260774 0.318366 0.8 0 0
0.732165 0.259947 0.621865 0.8 0 0
0.159664 0.270992 0.366415 0.8 0 0
0.278625 0.368844 0.378067 0.8 0 0
0.378767 0.336924 0.465406 0.8 0 0
0.358658 0.408133 0.063446 0.8 0 0
0.412857 0.425767 0.116560 0.8 0 0
0.400563 0.554061 0.339657 0.8 0 0
0.175172 0.287442 0.738887 0.8 0 0
0.667381 0.124825 0.587172 0.8 0 0
0.568330 0.460283 0.521208 0.8 0 0
0.185094 0.202960 0.574358 0.8 0 0
0.238776 0.342710 0.421526 0.8 0 0
0.705498 0.179366 0.299826 0.8 0 0
0.218019 0.385419 0.692280 0.8 0 0
0.664266 0.085095 0.351827 0.8 0 0
0.519374 0.425618 0.667729 0.8 0 0
0.411629 0.381134 0.119006 0.8 0 0
0.640147 0.407037 0.589222 0.8 0 0
0.653719 0.163776 0.300574 0.8 0 0
0.546422 0.489675 0.614437 0.8 0 0
0.141636 0.313451 0.528543 0.8 0 0
0.258096 0.552801 0.514448 0.8 0 0
0.737952 0.237471 0.543885 0.8 0 0
0.221528 0.491818 0.595032 0.8 0 0
0.407064 0.340322 0.412319 0.8 0 0
0.422268 0.361092 0.234061 0.8 0 0
0.619125 0.419325 0.534531 0.8 0 0
0.438568 0.610024 0.702412 0.8 0 0
0.301166 0.365213 0.607293 0.8 0 0
0.361545 0.553992 0.344865 0.8 0 0
0.334170 0.581674 0.433072 0.8 0 0
0.486400 0.500882 0.339113 0.8 0 0
0.064622 0.056772 0.359825 0.8 0 0
0.572548 0.428457 0.451107 0.8 0 0
0.659178 0.259139 0.318718 0.8 0 0
0.617097 0.254879 0.459446 0.8 0 0
0.707933 0.066491 0.514644 0.8 0 0
0.504389 0.519013 0.813609 0.8 0 0
0.240490 0.349121 0.432300 0.8 0 0
0.251087 0.470036 0.387956 0.8 0 0
0.656894 0.315329 0.407494 0.8 0 0
0.693463 0.130074 0.176736 0.8 0 0
0.522241 0.464569 0.433267 0.8 0 0
0.501498 0.408095 0.705612 0.8 0 0
0.281587 0.394826 0.233067 0.8 0 0
0.495150 0.399866 0.658894 0.8 0 0
0.660198 0.174908 0.630695 0.8 0 0
0.709020 0.187793 0.711143 0.8 0 0
0.424098 0.363669 0.219187 0.8 0 0
0.608365 0.428343 0.528299 0.8 0 0
0.153553 0.086188 0.483883 0.8 0 0
0.475623 0.509741 0.331653 0.8 0 0
0.112326 0.049158 0.554827 0.8 0 0
0.131510 0.118106 0.673734 0.8 0 0
0.475790 0.421045 0.847755 0.8 0 0
0.137776 0.107584 0.188107 0.8 0 0
0.095524 0.084967 0.637690 0.8 0 0
0.164670 0.362546 0.478692 0.8 0 0
0.278906 0.400360 0.753484 0.8 0 0
0.246943 0.453455 0.766891 0.8 0 0
0.655958 0.166558 0.546067 0.8 0 0
0.726875 0.217848 0.432712 0.8 0 0
0.294275 0.549235 0.411410 0.8 0 0
0.668861 0.130664 0.619642 0.8 0 0
0.129988 0.028466 0.407374 0.8 0 0
0.376839 0.548097 0.324429 0.8 0 0
0.294786 0.427400 0.214744 0.8 0 0
0.233043 0.456028 0.436188 0.8 0 0
0.408079 0.340515 0.424241 0.8 0 0
0.734028 0.137501 0.304887 0.8 0 0
0.039905 0.088445 0.435602 0.8 0 0
0.117935 0.309000 0.592492 0.8 0 0
0.273210 0.579341 0.569325 0.8 0 0
0.650403 0.194679 0.307372 0.8 0 0
0.178971 0.391419 0.472464 0.8 0 0
0.281311 0.458356 0.262000 0.8 0 0
0.180167 0.305551 0.374860 0.8 0 0
0.512430 0.565638 0.544457 0.8 0 0
0.698652 0.035919 0.316508 0.8 0 0
0.290943 0.359666 0.441873 0.8 0 0
0.034780 0.136801 0.535988 0.8 0 0
0.348163 0.381246 0.879981 0.8 0 0
0.597834 0.447865 0.600955 0.8 0 0
0.054202 0.098283 0.589639 0.8 0 0
0.366238 0.365852 0.106098 0.8 0 0
0.155980 0.078999 0.349491 0.8 0 0
0.513331 0.382538 0.439576 0.8 0 0
0.676286 0.207060 0.266552 0.8 0 0
0.684606 0.049378 0.244252 0.8 0 0
0.060766 0.069319 0.343102 0.8 0 0
0.295269 0.357383 0.503753 0.8 0 0
0.148171 0.182240 0.259197 0.8 0 0
0.200824 0.227302 0.539815 0.8 0 0
0.142629 0.091581 0.206676 0.8 0 0
0.348928 0.452052 0.147133 0.8 0 0
0.493128 0.462447 0.322056 0.8 0 0
0.067874 0.147375 0.329303 0.8 0 0
0.665609 0.086264 0.311633 0.8 0 0
0.663870 0.088012 0.349108 0.8 0 0
0.691728 0.054414 0.430600 0.8 0 0
0.201451 0.380686 0.378730 0.8 0 0
0.591268 0.446268 0.553708 0.8 0 0
0.540695 0.356847 0.429790 0.8 0 0
0.288031 0.367342 0.315913 0.8 0 0
0.656154 0.293582 0.375146 0.8 0 0
0.644506 0.193068 0.440243 0.8 0 0
0.156699 0.114038 0.294121 0.8 0 0
0.746840 0.207427 0.515884 0.8 0 0
0.285963 0.526476 0.817655 0.8 0 0
0.469576 0.370996 0.481915 0.8 0 0
0.235403 0.473726 0.426107 0.8 0 0
0.168201 0.233789 0.723789 0.8 0 0
0.243296 0.407495 0.366495 0.8 0 0
0.373501 0.336937 0.535616 0.8 0 0
0.341677 0.343066 0.552886 0.8 0 0
0.618926 0.300691 0.312855 0.8 0 0
0.741438 0.180304 0.673087 0.8 0 0
0.536670 0.479136 0.496735 0.8 0 0
0.470348 0.389297 0.773563 0.8 0 0
0.231677 0.312380 0.395007 0.8 0 0
0.728105 0.140920 0.688317 0.8 0 0
0.234221 0.487456 0.661337 0.8 0 0
0.214989 0.266719 0.633361 0.8 0 0
0.173368 0.176873 0.551560 0.8 0 0
0.270962 0.373092 0.470182 0.8 0 0
0.455206 0.403178 0.838048 0.8 0 0
0.172784 0.177170 0.440176 0.8 0 0
0.453848 0.389449 0.235496 0.8 0 0
0.089124 0.137270 0.234133 0.8 0 0
0.466749 0.388236 0.298164 0.8 0 0
0.369290 0.505669 0.866282 0.8 0 0
0.500630 0.404044 0.657059 0.8 0 0
0.065497 0.077063 0.518675 0.8 0 0
0.709752 0.070109 0.538665 0.8 0 0
0.209243 0.399529 0.381844 0.8 0 0
0.653117 0.147621 0.369998 0.8 0 0
0.320910 0.584409 0.762666 0.8 0 0
0.406122 0.608249 0.749350 0.8 0 0
0.648620 0.174879 0.375024 0.8 0 0
0.653815 0.146328 0.339725 0.8 0 0
0.261271 0.415464 0.745060 0.8 0 0
0.763758 0.165798 0.549090 0.8 0 0
0.127980 0.263279 0.430720 0.8 0 0
0.364551 0.496052 0.867320 0.8 0 0
0.287947 0.437216 0.233003 0.8 0 0
0.555217 0.370571 0.319434 0.8 0 0
0.220279 0.268370 0.575732 0.8 0 0
0.087814 0.062439 0.264850 0.8 0 0
0.624894 0.239605 0.451791 0.8 0 0
0.530290 0.396265 0.333661 0.8 0 0
0.408864 0.340787 0.456225 0.8 0 0
0.675495 0.056966 0.302583 0.8 0 0
0.348675 0.538072 0.309485 0.8 0 0
0.179459 0.197148 0.612174 0.8 0 0
0.155378 0.115118 0.265778 0.8 0 0
0.373506 0.345270 0.620321 0.8 0 0
0.435649 0.376095 0.787442 0.8 0 0
0.220569 0.270773 0.586816 0.8 0 0
0.159420 0.115937 0.412276 0.8 0 0
0.374919 0.493106 0.212742 0.8 0 0
0.647496 0.357859 0.454352 0.8 0 0
0.447973 0.380480 0.782736 0.8 0 0
0.657800 0.131273 0.313027 0.8 0 0
0.160700 0.162361 0.272261 0.8 0 0
0.518524 0.517745 0.462080 0.8 0 0
0.369761 0.605661 0.737484 0.8 0 0
0.353047 0.373262 0.913772 0.8 0 0
0.541356 0.424096 0.677901 0.8 0 0
0.166260 0.161667 0.592544 0.8 0 0
0.656561 0.130432 0.342184 0.8 0 0
0.481277 0.514021 0.348898 0.8 0 0
0.658313 0.118678 0.381502 0.8 0 0
0.744680 0.132508 0.671082 0.8 0 0
0.609929 0.325995 0.334818 0.8 0 0
0.729424 0.207355 0.427057 0.8 0 0
0.600276 0.275427 0.359991 0.8 0 0
0.130611 0.340145 0.623059 0.8 0 0
0.240679 0.522162 0.487360 0.8 0 0
0.721570 0.268841 0.495933 0.8 0 0
0.373620 0.593672 0.795460 0.8 0 0
0.310114 0.483429 0.238006 0.8 0 0
0.383760 0.345973 0.243063 0.8 0 0
0.687931 0.047671 0.378809 0.8 0 0
0.428056 0.471593 0.867210 0.8 0 0
0.525890 0.407745 0.615543 0.8 0 0
0.141468 0.089972 0.611640 0.8 0 0
0.344259 0.434914 0.874255 0.8 0 0
0.186991 0.231960 0.683057 0.8 0 0
0.443992 0.355699 0.434621 0.8 0 0
0.474985 0.431547 0.258898 0.8 0 0
0.309611 0.349331 0.395526 0.8 0 0
0.494864 0.576813 0.520783 0.8 0 0
0.191267 0.220369 0.373681 0.8 0 0
0.533601 0.492076 0.740229 0.8 0 0
0.426698 0.382337 0.884751 0.8 0 0
0.549288 0.357461 0.314801 0.8 0 0
0.345395 0.567842 0.387604 0.8 0 0
0.526756 0.539343 0.517819 0.8 0 0
0.252574 0.537522 0.485650 0.8 0 0
0.493253 0.406349 0.322834 0.8 0 0
0.236668 0.338864 0.391460 0.8 0 0
0.154202 0.165098 0.688500 0.8 0 0
0.564359 0.341727 0.305391 0.8 0 0
0.105786 0.265413 0.533348 0.8 0 0
0.660342 0.120192 0.301560 0.8 0 0
0.340385 0.418455 0.905902 0.8 0 0
0.183608 0.422939 0.529755 0.8 0 0
0.717853 0.223900 0.707145 0.8 0 0
0.681153 0.355192 0.665744 0.8 0 0
0.156920 0.140352 0.631131 0.8 0 0
0.407477 0.404014 0.078958 0.8 0 0
0.624743 0.248412 0.513710 0.8 0 0
0.401328 0.348881 0.617049 0.8 0 0
0.151708 0.059913 0.325397 0.8 0 0
0.287377 0.375040 0.626036 0.8 0 0
0.300912 0.370785 0.651641 0.8 0 0
0.298863 0.478987 0.248020 0.8 0 0
0.773731 0.114066 0.386927 0.8 0 0
0.178944 0.395910 0.490848 0.8 0 0
0.077461 0.096676 0.638225 0.8 0 0
0.782221 0.129390 0.620332 0.8 0 0
0.047256 0.153859 0.532050 0.8 0 0
0.451336 0.495769 0.263924 0.8 0 0
0.177994 0.427769 0.563619 0.8 0 0
0.078570 0.240289 0.573692 0.8 0 0
0.283208 0.364012 0.496853 0.8 0 0
0.604148 0.272504 0.432471 0.8 0 0
0.669244 0.071347 0.382662 0.8 0 0
0.336346 0.620556 0.591008 0.8 0 0
0.714574 0.076758 0.564401 0.8 0 0
0.544877 0.391597 0.343533 0.8 0 0
0.145962 0.292282 0.443262 0.8 0 0
0.164810 0.285556 0.379127 0.8 0 0
0.142887 0.062216 0.249268 0.8 0 0
0.212476 0.395598 0.373681 0.8 0 0
0.219551 0.263816 0.551685 0.8 0 0
0.651397 0.222774 0.678461 0.8 0 0
0.436089 0.619641 0.579806 0.8 0 0
0.133219 0.281552 0.478101 0.8 0 0
0.683557 0.086669 0.552192 0.8 0 0
0.728277 0.089617 0.228569 0.8 0 0
0.739027 0.035496 0.268583 0.8 0 0
0.381209 0.354191 0.691422 0.8 0 0
0.585337 0.295812 0.406987 0.8 0 0
0.446141 0.476950 0.234446 0.8 0 0
0.507347 0.433453 0.804221 0.8 0 0
0.257370 0.421944 0.745523 0.8 0 0
0.268161 0.388171 0.310332 0.8 0 0
0.420475 0.611159 0.513607 0.8 0 0
0.217065 0.290728 0.685640 0.8 0 0
0.661289 0.165308 0.614675 0.8 0 0
0.452449 0.363876 0.383874 0.8 0 0
0.739800 0.231067 0.615732 0.8 0 0
0.435772 0.351712 0.446822 0.8 0 0
0.082492 0.213425 0.694895 0.8 0 0
0.144252 0.037613 0.373256 0.8 0 0
0.720622 0.130310 0.259692 0.8 0 0
0.688891 0.187183 0.270501 0.8 0 0
0.400824 0.372915 0.117100 0.8 0 0
0.246596 0.366450 0.524876 0.8 0 0
0.084274 0.243688 0.685050 0.8 0 0
0.704843 0.075846 0.550875 0.8 0 0
0.392678 0.625510 0.579255 0.8 0 0
0.374327 0.336354 0.503135 0.8 0 0
0.097662 0.213763 0.405256 0.8 0 0
0.144645 0.335160 0.707224 0.8 0 0
0.633968 0.279309 0.704394 0.8 0 0
0.688078 0.195227 0.713975 0.8 0 0
0.508124 0.537730 0.455373 0.8 0 0
0.508265 0.556571 0.494810 0.8 0 0
0.526873 0.563403 0.653614 0.8 0 0
0.560976 0.341860 0.315698 0.8 0 0
0.724255 0.033337 0.316640 0.8 0 0
0.157810 0.163126 0.668100 0.8 0 0
0.139244 0.105771 0.189394 0.8 0 0
0.371330 0.561842 0.840017 0.8 0 0
0.261418 0.568041 0.603244 0.8 0 0
0.296147 0.374842 0.662192 0.8 0 0
0.647272 0.180704 0.360618 0.8 0 0
0.222098 0.486499 0.636754 0.8 0 0
0.397634 0.405249 0.933433 0.8 0 0
0.570574 0.368531 0.653549 0.8 0 0
0.170194 0.181395 0.361927 0.8 0 0
0.703532 0.044841 0.413151 0.8 0 0
0.562102 0.469680 0.548880 0.8 0 0
0.193044 0.422691 0.485134 0.8 0 0
0.637151 0.234678 0.593828 0.8 0 0
0.050826 0.159074 0.544585 0.8 0 0
0.170577 0.356832 0.438494 0.8 0 0
0.149103 0.194226 0.271749 0.8 0 0
0.506310 0.393594 0.327671 0.8 0 0
0.337150 0.352784 0.187890 0.8 0 0
0.182769 0.209064 0.347811 0.8 0 0
0.471523 0.551220 0.408025 0.8 0 0
0.434681 0.359862 0.635336 0.8 0 0
0.390721 0.536434 0.291357 0.8 0 0
0.659888 0.323178 0.427611 0.8 0 0
0.276506 0.425103 0.255054 0.8 0 0
0.334203 0.598119 0.481848 0.8 0 0
0.518208 0.436028 0.768137 0.8 0 0
0.545229 0.376692 0.318377 0.8 0 0
0.563742 0.321560 0.372759 0.8 0 0
0.314465 0.437138 0.179328 0.8 0 0
0.629611 0.281426 0.683241 0.8 0 0
0.159561 0.273684 0.370708 0.8 0 0
0.535182 0.366413 0.472699 0.8 0 0
0.579802 0.439744 0.486126 0.8 0 0
0.463135 0.555412 0.827032 0.8 0 0
0.225682 0.302239 0.667164 0.8 0 0
0.347433 0.369768 0.778820 0.8 0 0
0.252840 0.476077 0.374558 0.8 0 0
0.282103 0.390387 0.239520 0.8 0 0
0.230074 0.336554 0.676158 0.8 0 0
0.689243 0.344878 0.626114 0.8 0 0
0.751683 0.089289 0.287815 0.8 0 0
0.158767 0.360599 0.708788 0.8 0 0
0.458102 0.363501 0.461021 0.8 0 0
0.166845 0.178181 0.330213 0.8 0 0
0.327735 0.563059 0.823482 0.8 0 0
0.505636 0.394990 0.481485 0.8 0 0
0.591972 0.285780 0.362950 0.8 0 0
0.232726 0.474392 0.432517 0.8 0 0
0.367819 0.587040 0.435724 0.8 0 0
0.496487 0.407159 0.755319 0.8 0 0
0.136222 0.307763 0.717219 0.8 0 0
0.168547 0.343308 0.434391 0.8 0 0
0.623845 0.287489 0.667479 0.8 0 0
0.448103 0.355814 0.501857 0.8 0 0
0.346403 0.385192 0.831238 0.8 0 0
0.466176 0.477556 0.850464 0.8 0 0
0.656913 0.126065 0.351286 0.8 0 0
0.226996 0.313212 0.675154 0.8 0 0
0.699826 0.040099 0.372308 0.8 0 0
0.151101 0.228910 0.729547 0.8 0 0
0.589006 0.402009 0.423935 0.8 0 0
0.062559 0.156291 0.426973 0.8 0 0
0.670827 0.073310 0.437191 0.8 0 0
0.543080 0.435995 0.417815 0.8 0 0
0.685021 0.056235 0.416957 0.8 0 0
0.533961 0.364939 0.342839 0.8 0 0
0.724318 0.033279 0.378623 0.8 0 0
0.282412 0.370023 0.336710 0.8 0 0
0.038829 0.099816 0.538895 0.8 0 0
0.673842 0.336702 0.482412 0.8 0 0
0.226634 0.281749 0.463241 0.8 0 0
0.485362 0.577184 0.490345 0.8 0 0
0.224400 0.274536 0.534958 0.8 0 0
0.119514 0.054935 0.240574 0.8 0 0
0.036885 0.093401 0.470461 0.8 0 0
0.702888 0.129187 0.209103 0.8 0 0
0.209883 0.366370 0.705074 0.8 0 0
0.281048 0.392881 0.718361 0.8 0 0
0.331870 0.537538 0.316320 0.8 0 0
0.593907 0.287551 0.442987 0.8 0 0
0.381639 0.362567 0.758105 0.8 0 0
0.365588 0.579212 0.824054 0.8 0 0
0.525149 0.373077 0.342247 0.8 0 0
0.566787 0.473423 0.637288 0.8 0 0
0.190273 0.208751 0.512014 0.8 0 0
0.489489 0.402274 0.759064 0.8 0 0
0.353040 0.373418 0.912844 0.8 0 0
0.128765 0.283576 0.506599 0.8 0 0
0.208548 0.241893 0.547540 0.8 0 0
0.097643 0.164638 0.242130 0.8 0 0
0.134774 0.353015 0.662083 0.8 0 0
0.207323 0.242694 0.422541 0.8 0 0
0.188470 0.206130 0.469423 0.8 0 0
0.189940 0.387457 0.711892 0.8 0 0
0.369189 0.369295 0.797737 0.8 0 0
0.303514 0.426567 0.197770 0.8 0 0
0.336195 0.601324 0.490572 0.8 0 0
0.499927 0.526236 0.414561 0.8 0 0
0.666005 0.233806 0.288095 0.8 0 0
0.385086 0.352187 0.670921 0.8 0 0
0.476692 0.435681 0.263717 0.8 0 0
0.153573 0.110447 0.559481 0.8 0 0
0.666720 0.117067 0.560703 0.8 0 0
0.528627 0.402316 0.605405 0.8 0 0
0.703587 0.300781 0.494318 0.8 0 0
0.593711 0.303116 0.550078 0.8 0 0
0.128671 0.169885 0.711251 0.8 0 0
0.209902 0.480220 0.597808 0.8 0 0
0.308643 0.421440 0.175590 0.8 0 0
0.611113 0.423757 0.512760 0.8 0 0
0.673100 0.142858 0.676221 0.8 0 0
0.260984 0.410434 0.700936 0.8 0 0
0.682582 0.184544 0.245847 0.8 0 0
0.658444 0.136460 0.499793 0.8 0 0
0.178807 0.346523 0.400676 0.8 0 0
0.513361 0.486100 0.411281 0.8 0 0
0.199885 0.469366 0.589729 0.8 0 0
0.259671 0.404421 0.331513 0.8 0 0
0.039649 0.086426 0.455501 0.8 0 0
0.663719 0.106698 0.281690 0.8 0 0
0.747398 0.203423 0.645922 0.8 0 0
0.388004 0.566292 0.366538 0.8 0 0
0.380387 0.631835 0.623256 0.8 0 0
0.665449 0.076194 0.357869 0.8 0 0
0.481791 0.584742 0.729163 0.8 0 0
0.201807 0.237742 0.608677 0.8 0 0
0.494428 0.397956 0.644385 0.8 0 0
0.341856 0.348225 0.599058 0.8 0 0
0.265235 0.523514 0.404130 0.8 0 0
0.236012 0.431233 0.681225 0.8 0 0
0.450595 0.362357 0.577544 0.8 0 0
0.218948 0.481387 0.560059 0.8 0 0
0.785600 0.127697 0.567808 0.8 0 0
0.380588 0.415536 0.912943 0.8 0 0
0.131321 0.081461 0.623246 0.8 0 0
0.513110 0.488405 0.412593 0.8 0 0
0.736449 0.075043 0.545224 0.8 0 0
0.108851 0.031562 0.347559 0.8 0 0
0.666201 0.140402 0.607205 0.8 0 0
0.492169 0.446812 0.306103 0.8 0 0
0.072795 0.212286 0.672462 0.8 0 0
0.586125 0.349974 0.661037 0.8 0 0
0.342627 0.595991 0.472213 0.8 0 0
0.260756 0.479587 0.335245 0.8 0 0
0.742954 0.089469 0.265255 0.8 0 0
0.574634 0.383760 0.370834 0.8 0 0
0.680366 0.054801 0.362974 0.8 0 0
0.763235 0.133040 0.384821 0.8 0 0
0.656645 0.130378 0.394147 0.8 0 0
0.467850 0.522473 0.341932 0.8 0 0
0.412925 0.354826 0.248279 0.8 0 0
0.325487 0.609405 0.671963 0.8 0 0
0.492625 0.391403 0.569640 0.8 0 0
0.206091 0.246103 0.372823 0.8 0 0
0.442999 0.592272 0.472556 0.8 0 0
0.186078 0.379685 0.413171 0.8 0 0
0.154291 0.065035 0.382982 0.8 0 0
0.756218 0.044521 0.365569 0.8 0 0
0.238755 0.369142 0.647796 0.8 0 0
0.343230 0.531479 0.294870 0.8 0 0
0.251059 0.430483 0.706992 0.8 0 0
0.648862 0.199407 0.583121 0.8 0 0
0.408734 0.466498 0.193501 0.8 0 0
0.209332 0.252060 0.378138 0.8 0 0
0.164506 0.185657 0.293241 0.8 0 0
0.141589 0.095340 0.621808 0.8 0 0
0.164059 0.217135 0.305215 0.8 0 0
0.494784 0.398854 0.345254 0.8 0 0
0.252663 0.458160 0.354726 0.8 0 0
0.663133 0.360561 0.687410 0.8 0 0
0.148666 0.057456 0.303070 0.8 0 0
0.762929 0.161039 0.590056 0.8 0 0
0.211264 0.286572 0.355150 0.8 0 0
0.527381 0.529112 0.714928 0.8 0 0
0.634537 0.232728 0.331149 0.8 0 0
0.245627 0.363850 0.485825 0.8 0 0
0.232556 0.507498 0.503479 0.8 0 0
0.347035 0.385946 0.056181 0.8 0 0
0.158106 0.109852 0.451953 0.8 0 0
0.763032 0.059693 0.451552 0.8 0 0
0.543134 0.511473 0.588869 0.8 0 0
0.525767 0.438265 0.393575 0.8 0 0
0.349998 0.587851 0.806871 0.8 0 0
0.685812 0.341835 0.539482 0.8 0 0
0.196805 0.225956 0.585796 0.8 0 0
0.765504 0.163062 0.553743 0.8 0 0
0.486231 0.389317 0.624522 0.8 0 0
0.090461 0.228082 0.706778 0.8 0 0
0.161255 0.140289 0.362804 0.8 0 0
0.644753 0.215693 0.590105 0.8 0 0
0.384838 0.347766 0.629415 0.8 0 0
0.703645 0.039193 0.206191 0.8 0 0
0.751011 0.138988 0.659648 0.8 0 0
0.233710 0.345029 0.374000 0.8 0 0
0.285082 0.394379 0.751962 0.8 0 0
0.571001 0.360760 0.329855 0.8 0 0
0.189329 0.211006 0.417993 0.8 0 0
0.481914 0.605277 0.656881 0.8 0 0
0.096759 0.265656 0.564069 0.8 0 0
0.442761 0.509157 0.273347 0.8 0 0
0.417039 0.464045 0.870735 0.8 0 0
0.458518 0.455368 0.234747 0.8 0 0
0.369336 0.379996 0.853942 0.8 0 0
0.543813 0.354311 0.345835 0.8 0 0
0.304630 0.420445 0.186067 0.8 0 0
0.636380 0.367494 0.445555 0.8 0 0
0.336630 0.388726 0.876609 0.8 0 0
0.655400 0.304882 0.388585 0.8 0 0
0.146030 0.369240 0.686404 0.8 0 0
0.539091 0.436572 0.409812 0.8 0 0
0.145177 0.084788 0.568890 0.8 0 0
0.075586 0.187071 0.461817 0.8 0 0
0.436877 0.584251 0.814810 0.8 0 0
0.338868 0.386514 0.874739 0.8 0 0
0.369087 0.360970 0.128033 0.8 0 0
0.481577 0.405469 0.805291 0.8 0 0
0.400521 0.342026 0.350435 0.8 0 0
0.348330 0.587725 0.806359 0.8 0 0
0.438439 0.441469 0.869551 0.8 0 0
0.160674 0.194214 0.288858 0.8 0 0
0.034377 0.101427 0.503430 0.8 0 0
0.237270 0.321120 0.469272 0.8 0 0
0.108836 0.034783 0.294452 0.8 0 0
0.532421 0.477201 0.482796 0.8 0 0
0.246779 0.422509 0.685047 0.8 0 0
0.411122 0.617443 0.705804 0.8 0 0
0.444960 0.441424 0.210316 0.8 0 0
0.280769 0.484086 0.291984 0.8 0 0
0.438288 0.380156 0.207769 0.8 0 0
0.257189 0.414321 0.684117 0.8 0 0
0.127435 0.120059 0.677076 0.8 0 0
0.638329 0.214121 0.490203 0.8 0 0
0.559510 0.371425 0.612478 0.8 0 0
0.734979 0.165299 0.680838 0.8 0 0
0.455594 0.427153 0.220406 0.8 0 0
0.783788 0.091893 0.410820 0.8 0 0
0.732696 0.237118 0.487545 0.8 0 0
0.709254 0.033650 0.241061 0.8 0 0
0.054530 0.159001 0.594629 0.8 0 0
0.356376 0.338876 0.539567 0.8 0 0
0.255198 0.410623 0.656383 0.8 0 0
0.355890 0.527942 0.281098 0.8 0 0
0.206331 0.425322 0.425662 0.8 0 0
0.771472 0.123409 0.393168 0.8 0 0
0.335743 0.593446 0.467378 0.8 0 0
0.684170 0.099308 0.600130 0.8 0 0
0.241062 0.345829 0.585570 0.8 0 0
0.470838 0.375059 0.589548 0.8 0 0
0.470177 0.549635 0.824135 0.8 0 0
0.191335 0.212568 0.561150 0.8 0 0
0.225827 0.460864 0.471162 0.8 0 0
0.393173 0.426283 0.092126 0.8 0 0
0.570193 0.343251 0.568086 0.8 0 0
0.459138 0.368166 0.601673 0.8 0 0
0.642288 0.228985 0.618932 0.8 0 0
0.547047 0.348707 0.425633 0.8 0 0
0.141966 0.368693 0.668703 0.8 0 0
0.315680 0.431360 0.160854 0.8 0 0
0.517510 0.425551 0.662996 0.8 0 0
0.392158 0.598200 0.786686 0.8 0 0
0.137728 0.031665 0.468467 0.8 0 0
0.718431 0.196665 0.362342 0.8 0 0
0.090839 0.059213 0.262118 0.8 0 0
0.745284 0.104655 0.285227 0.8 0 0
0.437817 0.614800 0.558409 0.8 0 0
0.570306 0.365221 0.641550 0.8 0 0
0.517000 0.549338 0.497995 0.8 0 0
0.314187 0.446602 0.199649 0.8 0 0
0.282445 0.515587 0.347032 0.8 0 0
0.284255 0.400516 0.780902 0.8 0 0
0.650363 0.166947 0.390959 0.8 0 0
0.683096 0.329498 0.690641 0.8 0 0
0.225612 0.480585 0.475325 0.8 0 0
0.771388 0.128099 0.401661 0.8 0 0
0.586624 0.330424 0.300157 0.8 0 0
0.512581 0.438666 0.796549 0.8 0 0
0.118596 0.276945 0.723431 0.8 0 0
0.305967 0.351296 0.444198 0.8 0 0
0.578499 0.310699 0.337695 0.8 0 0
0.382462 0.549092 0.324511 0.8 0 0
0.290160 0.359840 0.488642 0.8 0 0
0.116918 0.046950 0.559866 0.8 0 0
0.059194 0.170496 0.493801 0.8 0 0
0.427592 0.362267 0.248400 0.8 0 0
0.308259 0.553044 0.396468 0.8 0 0
0.400626 0.343740 0.565784 0.8 0 0
0.206226 0.238472 0.558210 0.8 0 0
0.420322 0.376405 0.806392 0.8 0 0
0.340706 0.455713 0.166385 0.8 0 0
0.062001 0.186547 0.520810 0.8 0 0
0.097484 0.125229 0.203120 0.8 0 0
0.465410 0.369654 0.441155 0.8 0 0
0.588456 0.294225 0.432425 0.8 0 0
0.191106 0.210911 0.462970 0.8 0 0
0.417884 0.483526 0.216232 0.8 0 0
0.303916 0.560156 0.425240 0.8 0 0
0.304133 0.456331 0.220208 0.8 0 0
0.088767 0.167822 0.289652 0.8 0 0
0.103829 0.298074 0.650141 0.8 0 0
0.662402 0.107987 0.304452 0.8 0 0
0.545320 0.492942 0.592560 0.8 0 0
0.163119 0.143596 0.449925 0.8 0 0
0.726423 0.036129 0.398841 0.8 0 0
0.299426 0.570668 0.761665 0.8 0 0
0.099980 0.221974 0.432508 0.8 0 0
0.517402 0.453729 0.406913 0.8 0 0
0.723697 0.195737 0.699794 0.8 0 0
0.140762 0.337869 0.699994 0.8 0 0
0.272131 0.389130 0.635885 0.8 0 0
0.466076 0.509704 0.315662 0.8 0 0
0.330233 0.591537 0.467555 0.8 0 0
0.659257 0.346895 0.707366 0.8 0 0
0.536853 0.498788 0.716264 0.8 0 0
0.637780 0.263957 0.675064 0.8 0 0
0.053510 0.155395 0.457595 0.8 0 0
0.182792 0.406805 0.503691 0.8 0 0
0.272801 0.389187 0.639373 0.8 0 0
0.134469 0.305804 0.716447 0.8 0 0
0.438199 0.353235 0.533743 0.8 0 0
0.651662 0.172485 0.307810 0.8 0 0
0.086234 0.143755 0.249550 0.8 0 0
0.476653 0.568427 0.454228 0.8 0 0
0.281468 0.371666 0.329280 0.8 0 0
0.045253 0.073568 0.461171 0.8 0 0
0.244500 0.376192 0.416932 0.8 0 0
0.289684 0.488109 0.837988 0.8 0 0
0.530345 0.426974 0.675790 0.8 0 0
0.216847 0.296866 0.700282 0.8 0 0
0.164952 0.365042 0.481283 0.8 0 0
0.386516 0.369807 0.108233 0.8 0 0
0.058173 0.068582 0.364786 0.8 0 0
0.378726 0.523218 0.258501 0.8 0 0
0.414874 0.370977 0.165537 0.8 0 0
0.141433 0.064092 0.240896 0.8 0 0
0.031303 0.112516 0.463833 0.8 0 0
0.322676 0.388929 0.819549 0.8 0 0
0.364912 0.335281 0.458685 0.8 0 0
0.182748 0.437517 0.639532 0.8 0 0
0.460545 0.386767 0.276301 0.8 0 0
0.316696 0.507976 0.268140 0.8 0 0
0.262555 0.565281 0.656520 0.8 0 0
0.783744 0.090362 0.416332 0.8 0 0
0.246804 0.463798 0.398192 0.8 0 0
0.735531 0.245110 0.526082 0.8 0 0
0.745567 0.151846 0.660302 0.8 0 0
0.364322 0.625422 0.649085 0.8 0 0
0.452998 0.390818 0.810673 0.8 0 0
0.708986 0.069051 0.534506 0.8 0 0
0.467671 0.372020 0.579817 0.8 0 0
0.134414 0.238275 0.347845 0.8 0 0
0.133588 0.174138 0.237037 0.8 0 0
0.458978 0.573969 0.435778 0.8 0 0
0.414426 0.483971 0.214083 0.8 0 0
0.091542 0.269059 0.601500 0.8 0 0
0.357929 0.342958 0.251251 0.8 0 0
0.181361 0.199010 0.399780 0.8 0 0
0.628860 0.284114 0.300799 0.8 0 0
0.393735 0.491276 0.870532 0.8 0 0
0.421087 0.609052 0.729059 0.8 0 0
0.353197 0.383957 0.944155 0.8 0 0
0.304592 0.521636 0.321740 0.8 0 0
0.524870 0.374776 0.464875 0.8 0 0
0.308495 0.556164 0.814155 0.8 0 0
0.540683 0.519044 0.659618 0.8 0 0
0.753962 0.158496 0.646945 0.8 0 0
0.077816 0.142513 0.675487 0.8 0 0
0.556429 0.443333 0.454959 0.8 0 0
0.586931 0.350351 0.336699 0.8 0 0
0.737715 0.173925 0.379675 0.8 0 0
0.201660 0.258937 0.687796 0.8 0 0
0.452211 0.450244 0.862367 0.8 0 0
0.251896 0.408234 0.369879 0.8 0 0
0.181851 0.195956 0.550144 0.8 0 0
0.747288 0.100791 0.599382 0.8 0 0
0.394444 0.353137 0.667837 0.8 0 0
0.734622 0.178721 0.378754 0.8 0 0
0.644129 0.194122 0.431074 0.8 0 0
0.379081 0.344637 0.254486 0.8 0 0
0.141501 0.034015 0.432348 0.8 0 0
0.068516 0.211693 0.555195 0.8 0 0
0.668969 0.365133 0.536873 0.8 0 0
0.665216 0.092953 0.297805 0.8 0 0
0.606786 0.288676 0.299193 0.8 0 0
0.500365 0.514959 0.392033 0.8 0 0
0.743603 0.215594 0.499782 0.8 0 0
0.313215 0.348444 0.505002 0.8 0 0
0.587356 0.382872 0.387734 0.8 0 0
0.734178 0.034850 0.336515 0.8 0 0
0.306842 0.604903 0.601725 0.8 0 0
0.287575 0.517351 0.335643 0.8 0 0
0.493884 0.520013 0.389210 0.8 0 0
0.184061 0.200996 0.569425 0.8 0 0
0.387884 0.338469 0.530514 0.8 0 0
0.156325 0.091003 0.321578 0.8 0 0
0.232735 0.524732 0.608142 0.8 0 0
0.053483 0.114337 0.353070 0.8 0 0
0.303003 0.434424 0.204857 0.8 0 0
0.323652 0.386825 0.815008 0.8 0 0
0.423407 0.377084 0.929200 0.8 0 0
0.165790 0.295697 0.393806 0.8 0 0
0.551435 0.338384 0.387634 0.8 0 0
0.372734 0.595947 0.460212 0.8 0 0
0.113902 0.031779 0.311875 0.8 0 0
0.070433 0.077520 0.596040 0.8 0 0
0.151014 0.327945 0.721165 0.8 0 0
0.781433 0.083829 0.449074 0.8 0 0
0.117522 0.113921 0.671293 0.8 0 0
0.354624 0.350003 0.637492 0.8 0 0
0.734496 0.123676 0.284028 0.8 0 0
0.636908 0.220416 0.525346 0.8 0 0
0.156039 0.125610 0.257036 0.8 0 0
0.152871 0.137154 0.656244 0.8 0 0
0.238149 0.532878 0.602551 0.8 0 0
0.498391 0.413116 0.324404 0.8 0 0
0.259194 0.436047 0.796917 0.8 0 0
0.201677 0.345592 0.355425 0.8 0 0
0.213989 0.456161 0.670592 0.8 0 0
0.419840 0.384575 0.830964 0.8 0 0
0.144184 0.065937 0.247413 0.8 0 0
0.445894 0.549979 0.360293 0.8 0 0
0.650396 0.171564 0.423582 0.8 0 0
0.333757 0.341049 0.452640 0.8 0 0
0.309557 0.567300 0.435526 0.8 0 0
0.538371 0.366427 0.492550 0.8 0 0
0.693924 0.129587 0.682235 0.8 0 0
0.527078 0.543212 0.529666 0.8 0 0
0.248600 0.493953 0.751387 0.8 0 0
0.085844 0.193520 0.399095 0.8 0 0
0.350443 0.384529 0.935709 0.8 0 0
0.153165 0.392797 0.596931 0.8 0 0
0.638916 0.228003 0.584187 0.8 0 0
0.435386 0.390929 0.861408 0.8 0 0
0.750815 0.124674 0.329436 0.8 0 0
0.127623 0.117679 0.187350 0.8 0 0
0.588251 0.307969 0.532703 0.8 0 0
0.294018 0.358154 0.396606 0.8 0 0
0.059947 0.187453 0.561251 0.8 0 0
0.771105 0.070044 0.469522 0.8 0 0
0.296489 0.526530 0.344427 0.8 0 0
0.383296 0.542700 0.858564 0.8 0 0
0.201602 0.229484 0.449821 0.8 0 0
0.237765 0.322823 0.562678 0.8 0 0
0.275871 0.540884 0.779443 0.8 0 0
0.589567 0.305296 0.526762 0.8 0 0
0.486772 0.396146 0.713169 0.8 0 0
0.214785 0.410077 0.381990 0.8 0 0
0.278359 0.524929 0.374513 0.8 0 0
0.454076 0.369808 0.329974 0.8 0 0
0.722775 0.033185 0.325947 0.8 0 0
0.414856 0.342773 0.459312 0.8 0 0
0.650884 0.361846 0.704219 0.8 0 0
0.144314 0.379788 0.614248 0.8 0 0
0.057816 0.177267 0.538640 0.8 0 0
0.221241 0.461749 0.676915 0.8 0 0
0.640849 0.229071 0.606060 0.8 0 0
0.171435 0.170435 0.476011 0.8 0 0
0.396198 0.371165 0.116014 0.8 0 0
0.762565 0.099376 0.574085 0.8 0 0
0.398234 0.537126 0.298068 0.8 0 0
0.724530 0.170052 0.700682 0.8 0 0
0.743699 0.181615 0.426254 0.8 0 0
0.075154 0.067935 0.512304 0.8 0 0
0.746434 0.060342 0.481755 0.8 0 0
0.757267 0.057438 0.306307 0.8 0 0
0.299253 0.392150 0.186917 0.8 0 0
0.674052 0.364996 0.580719 0.8 0 0
0.761634 0.072781 0.302529 0.8 0 0
0.613623 0.312630 0.693479 0.8 0 0
0.265244 0.436633 0.811454 0.8 0 0
0.689284 0.322474 0.688859 0.8 0 0
0.412590 0.383608 0.829382 0.8 0 0
0.719639 0.245453 0.449547 0.8 0 0
0.156240 0.400392 0.648845 0.8 0 0
0.153085 0.250674 0.346618 0.8 0 0
0.501668 0.392798 0.434920 0.8 0 0
0.748735 0.082716 0.550587 0.8 0 0
0.730779 0.057257 0.482242 0.8 0 0
0.335163 0.371301 0.773166 0.8 0 0
0.734762 0.034853 0.289110 0.8 0 0
0.776028 0.111686 0.586018 0.8 0 0
0.056869 0.151249 0.612573 0.8 0 0
0.493453 0.446635 0.312699 0.8 0 0
0.246270 0.519326 0.712740 0.8 0 0
0.556484 0.352604 0.533920 0.8 0 0
0.102163 0.179936 0.267099 0.8 0 0
0.095375 0.221131 0.457158 0.8 0 0
0.435572 0.463890 0.866765 0.8 0 0
0.368123 0.371324 0.084817 0.8 0 0
0.343028 0.354930 0.661733 0.8 0 0
0.521321 0.437192 0.745315 0.8 0 0
0.236730 0.330422 0.423175 0.8 0 0
0.543630 0.498202 0.665006 0.8 0 0
0.612977 0.257211 0.371371 0.8 0 0
0.621506 0.419365 0.550192 0.8 0 0
0.414236 0.342956 0.420619 0.8 0 0
0.478223 0.392829 0.747463 0.8 0 0
0.254430 0.397429 0.621256 0.8 0 0
0.699594 0.263960 0.721649 0.8 0 0
0.706548 0.296091 0.690811 0.8 0 0
0.161158 0.145316 0.307151 0.8 0 0
0.651766 0.171861 0.307550 0.8 0 0
0.692358 0.311834 0.485234 0.8 0 0
0.259578 0.568176 0.634524 0.8 0 0
0.348793 0.396402 0.054947 0.8 0 0
0.468314 0.385709 0.749987 0.8 0 0
0.487035 0.404682 0.325907 0.8 0 0
0.685936 0.049046 0.239300 0.8 0 0
0.182127 0.309791 0.373599 0.8 0 0
0.208480 0.411507 0.397695 0.8 0 0
0.583492 0.453335 0.557962 0.8 0 0
0.734563 0.160935 0.680131 0.8 0 0
0.751693 0.187018 0.550227 0.8 0 0
0.070572 0.051361 0.378853 0.8 0 0
0.244773 0.501103 0.421874 0.8 0 0
0.454163 0.389283 0.237580 0.8 0 0
0.274752 0.583428 0.589842 0.8 0 0
0.144340 0.184402 0.712813 0.8 0 0
0.634679 0.246157 0.612373 0.8 0 0
0.185886 0.446492 0.589272 0.8 0 0
0.634765 0.416164 0.614500 0.8 0 0
0.047579 0.075363 0.491587 0.8 0 0
0.635244 0.217261 0.392319 0.8 0 0
0.662881 0.383530 0.598236 0.8 0 0
0.611039 0.295229 0.611008 0.8 0 0
0.598422 0.293469 0.539694 0.8 0 0
0.751268 0.069407 0.507406 0.8 0 0
0.198183 0.324076 0.352142 0.8 0 0
0.204974 0.235324 0.452747 0.8 0 0
0.486950 0.384640 0.471998 0.8 0 0
0.141192 0.038160 0.481619 0.8 0 0
0.773214 0.146933 0.603121 0.8 0 0
0.353797 0.340647 0.315996 0.8 0 0
0.476512 0.427481 0.265791 0.8 0 0
0.778706 0.138975 0.490027 0.8 0 0
0.640873 0.205516 0.357103 0.8 0 0
0.232766 0.304290 0.447565 0.8 0 0
0.750291 0.056232 0.460036 0.8 0 0
0.736882 0.185861 0.405012 0.8 0 0
0.235537 0.307984 0.542189 0.8 0 0
0.290495 0.359878 0.448358 0.8 0 0
0.152182 0.065894 0.304856 0.8 0 0
0.053236 0.098701 0.362543 0.8 0 0
0.380299 0.353968 0.170182 0.8 0 0
0.513834 0.559720 0.525786 0.8 0 0
0.045393 0.074054 0.432888 0.8 0 0
0.663963 0.173951 0.673150 0.8 0 0
0.473343 0.489565 0.291018 0.8 0 0
0.317645 0.370239 0.155494 0.8 0 0
0.669165 0.090715 0.515743 0.8 0 0
0.279993 0.526633 0.806430 0.8 0 0
0.381249 0.367375 0.794924 0.8 0 0
0.283391 0.584840 0.673741 0.8 0 0
0.637212 0.273936 0.297771 0.8 0 0
0.425408 0.591324 0.454901 0.8 0 0
0.762960 0.160913 0.590684 0.8 0 0
0.196983 0.221252 0.547607 0.8 0 0
0.757056 0.165767 0.606303 0.8 0 0
0.090267 0.060397 0.537065 0.8 0 0
0.136161 0.219217 0.731007 0.8 0 0
0.376938 0.411897 0.064894 0.8 0 0
0.727481 0.273392 0.662208 0.8 0 0
0.692259 0.340596 0.636390 0.8 0 0
0.239345 0.463585 0.720675 0.8 0 0
0.523988 0.407318 0.606871 0.8 0 0
0.161519 0.137068 0.481545 0.8 0 0
0.559505 0.479807 0.628649 0.8 0 0
0.535934 0.488445 0.715180 0.8 0 0
0.412754 0.368798 0.928643 0.8 0 0
0.759971 0.067671 0.486788 0.8 0 0
0.596814 0.283090 0.437699 0.8 0 0
0.305915 0.351636 0.470654 0.8 0 0
0.625111 0.286575 0.298557 0.8 0 0
0.228152 0.288751 0.437827 0.8 0 0
0.246309 0.543730 0.583112 0.8 0 0
0.152866 0.289846 0.422393 0.8 0 0
0.468057 0.369865 0.533299 0.8 0 0
0.414148 0.413858 0.104870 0.8 0 0
0.627411 0.336481 0.710233 0.8 0 0
0.319612 0.608760 0.661457 0.8 0 0
0.237189 0.449534 0.414650 0.8 0 0
0.531467 0.542529 0.566752 0.8 0 0
0.332643 0.485256 0.863010 0.8 0 0
0.662728 0.100186 0.327083 0.8 0 0
0.395138 0.549688 0.325657 0.8 0 0
0.654595 0.141522 0.387749 0.8 0 0
0.230161 0.302256 0.642821 0.8 0 0
0.036767 0.128546 0.439934 0.8 0 0
0.095206 0.209878 0.407219 0.8 0 0
0.058909 0.068368 0.359162 0.8 0 0
0.437504 0.442028 0.869667 0.8 0 0
0.721239 0.171617 0.705755 0.8 0 0
0.377307 0.472311 0.177918 0.8 0 0
0.442203 0.374215 0.249193 0.8 0 0
0.288052 0.596112 0.619477 0.8 0 0
0.336396 0.340285 0.424680 0.8 0 0
0.239969 0.462902 0.711618 0.8 0 0
0.089241 0.101107 0.658895 0.8 0 0
0.034006 0.101436 0.487630 0.8 0 0
0.244855 0.370071 0.445254 0.8 0 0
0.132373 0.289340 0.729849 0.8 0 0
0.506706 0.406392 0.615286 0.8 0 0
0.272252 0.423806 0.266892 0.8 0 0
0.420253 0.428365 0.886984 0.8 0 0
0.402519 0.399643 0.944740 0.8 0 0
0.485780 0.581008 0.728989 0.8 0 0
0.386659 0.398029 0.054662 0.8 0 0
0.659436 0.119490 0.445356 0.8 0 0
0.355362 0.393754 0.945571 0.8 0 0
0.734234 0.036870 0.378161 0.8 0 0
0.426857 0.562315 0.377785 0.8 0 0
0.589110 0.444364 0.528910 0.8 0 0
0.151628 0.054718 0.385546 0.8 0 0
0.782803 0.132576 0.553273 0.8 0 0
0.382240 0.620011 0.680773 0.8 0 0
0.675177 0.115249 0.636573 0.8 0 0
0.234258 0.321179 0.407090 0.8 0 0
0.269017 0.393265 0.640152 0.8 0 0
0.775985 0.145047 0.559855 0.8 0 0
0.244947 0.372286 0.608125 0.8 0 0
0.530752 0.565825 0.621857 0.8 0 0
0.258122 0.512218 0.777528 0.8 0 0
0.625239 0.280018 0.648785 0.8 0 0
0.723593 0.033167 0.349910 0.8 0 0
0.312268 0.564658 0.422793 0.8 0 0
0.453177 0.386847 0.242982 0.8 0 0
0.468211 0.371054 0.554329 0.8 0 0
0.258378 0.413083 0.687024 0.8 0 0
0.494611 0.393399 0.578424 0.8 0 0
0.552058 0.353249 0.502667 0.8 0 0
0.473670 0.535957 0.380784 0.8 0 0
0.479515 0.591286 0.519361 0.8 0 0
0.726139 0.253973 0.489134 0.8 0 0
0.442375 0.361033 0.336764 0.8 0 0
0.050569 0.116051 0.376126 0.8 0 0
0.196091 0.421875 0.462319 0.8 0 0
0.382276 0.339743 0.551535 0.8 0 0
0.132671 0.333392 0.689696 0.8 0 0
0.166804 0.371134 0.489176 0.8 0 0
0.386641 0.365402 0.124478 0.8 0 0
0.289160 0.497016 0.288141 0.8 0 0
0.628753 0.287544 0.700451 0.8 0 0
0.110924 0.125162 0.182928 0.8 0 0
0.220011 0.408882 0.372891 0.8 0 0
0.101936 0.034679 0.343140 0.8 0 0
0.671395 0.076355 0.240347 0.8 0 0
0.427707 0.375691 0.799386 0.8 0 0
0.522339 0.436301 0.712785 0.8 0 0
0.700844 0.284417 0.461301 0.8 0 0
0.678694 0.197886 0.257620 0.8 0 0
0.445976 0.382601 0.229459 0.8 0 0
0.194654 0.375528 0.720159 0.8 0 0
0.572171 0.467776 0.597786 0.8 0 0
0.644910 0.305204 0.716035 0.8 0 0
0.249151 0.466079 0.772657 0.8 0 0
0.374740 0.363857 0.772866 0.8 0 0
0.372904 0.387527 0.033581 0.8 0 0
0.661515 0.108843 0.462661 0.8 0 0
0.526982 0.371472 0.341995 0.8 0 0
0.236370 0.362970 0.370385 0.8 0 0
0.391932 0.362657 0.747059 0.8 0 0
0.603486 0.278446 0.480232 0.8 0 0
0.765728 0.159829 0.461381 0.8 0 0
0.683269 0.153334 0.201844 0.8 0 0
0.505311 0.427346 0.800407 0.8 0 0
0.145627 0.376683 0.588714 0.8 0 0
0.154627 0.341136 0.515479 0.8 0 0
0.153053 0.103350 0.243273 0.8 0 0
0.213788 0.254611 0.422723 0.8 0 0
0.605120 0.405601 0.689746 0.8 0 0
0.570639 0.398337 0.680868 0.8 0 0
0.563219 0.441198 0.680131 0.8 0 0
0.571486 0.466922 0.584581 0.8 0 0
0.258122 0.413489 0.703230 0.8 0 0
0.388739 0.405812 0.931061 0.8 0 0
0.401683 0.376582 0.851753 0.8 0 0
0.433921 0.368203 0.725944 0.8 0 0
0.402447 0.459081 0.160060 0.8 0 0
0.201768 0.240738 0.628674 0.8 0 0
0.072776 0.167613 0.669891 0.8 0 0
0.094488 0.207064 0.382901 0.8 0 0
0.449792 0.385825 0.798143 0.8 0 0
0.539178 0.490911 0.511912 0.8 0 0
0.184679 0.200758 0.439461 0.8 0 0
0.402617 0.562372 0.843450 0.8 0 0
0.175359 0.432115 0.608742 0.8 0 0
0.154349 0.065520 0.386099 0.8 0 0
0.781288 0.133824 0.460904 0.8 0 0
0.405383 0.383466 0.958605 0.8 0 0
0.686286 0.165209 0.703537 0.8 0 0
0.535707 0.458018 0.450740 0.8 0 0
0.291126 0.539641 0.389084 0.8 0 0
0.032682 0.103666 0.472215 0.8 0 0
0.444470 0.484140 0.237348 0.8 0 0
0.262930 0.526967 0.759329 0.8 0 0
0.408140 0.343103 0.364529 0.8 0 0
0.744220 0.046855 0.426192 0.8 0 0
0.563107 0.476443 0.612768 0.8 0 0
0.707333 0.286241 0.699108 0.8 0 0
0.158046 0.130547 0.586275 0.8 0 0
0.605890 0.273061 0.468239 0.8 0 0
0.659046 0.114060 0.351888 0.8 0 0
0.075895 0.166840 0.352424 0.8 0 0
0.450546 0.374391 0.284539 0.8 0 0
0.723364 0.284769 0.603194 0.8 0 0
0.386737 0.348731 0.206757 0.8 0 0
0.466105 0.375987 0.345361 0.8 0 0
0.254766 0.384838 0.518117 0.8 0 0
0.082918 0.069941 0.597172 0.8 0 0
0.249102 0.376097 0.504251 0.8 0 0
0.735346 0.035586 0.345350 0.8 0 0
0.173675 0.377242 0.710313 0.8 0 0
0.487699 0.398818 0.365941 0.8 0 0
0.077370 0.048594 0.331115 0.8 0 0
0.386336 0.375155 0.088480 0.8 0 0
0.721876 0.190140 0.703254 0.8 0 0
0.217056 0.332501 0.709466 0.8 0 0
0.158038 0.127190 0.525011 0.8 0 0
0.411250 0.341447 0.446852 0.8 0 0
0.258970 0.542002 0.703281 0.8 0 0
0.393664 0.353510 0.953780 0.8 0 0
0.386207 0.605824 0.747486 0.8 0 0
0.277049 0.368584 0.485389 0.8 0 0
0.478131 0.589178 0.505263 0.8 0 0
0.501642 0.575635 0.695029 0.8 0 0
0.722819 0.033561 0.391196 0.8 0 0
0.354975 0.514338 0.245005 0.8 0 0
0.329372 0.345132 0.321465 0.8 0 0
0.592452 0.339913 0.659272 0.8 0 0
0.469895 0.387863 0.761153 0.8 0 0
0.396668 0.339442 0.527771 0.8 0 0
0.268269 0.572201 0.554135 0.8 0 0
0.315165 0.350519 0.318600 0.8 0 0
0.454284 0.532671 0.337691 0.8 0 0
0.230826 0.407196 0.674356 0.8 0 0
0.131345 0.295146 0.722537 0.8 0 0
0.462729 0.596065 0.503946 0.8 0 0
0.559091 0.453619 0.678462 0.8 0 0
0.216616 0.391777 0.692913 0.8 0 0
0.261780 0.571272 0.638283 0.8 0 0
0.667364 0.070781 0.325052 0.8 0 0
0.730784 0.258990 0.518800 0.8 0 0
0.334070 0.351202 0.612856 0.8 0 0
0.107396 0.034090 0.360136 0.8 0 0
0.696226 0.318253 0.506000 0.8 0 0
0.777295 0.142527 0.550911 0.8 0 0
0.238646 0.329313 0.466929 0.8 0 0
0.673339 0.201320 0.246887 0.8 0 0
0.210691 0.244137 0.499335 0.8 0 0
0.098931 0.228858 0.721755 0.8 0 0
0.325689 0.583479 0.452570 0.8 0 0
0.113342 0.305902 0.613863 0.8 0 0
