0.710157 0.201557 0.356487 0.8 0 0
0.902045 0.246617 0.253580 0.8 0 0
0.504470 0.115781 0.344976 0.8 0 0
0.491028 0.040235 0.235652 0.8 0 0
0.569938 0.100016 0.339436 0.8 0 0
0.885766 0.241934 0.204188 0.8 0 0
0.393364 0.159227 0.364534 0.8 0 0
0.453088 0.117163 0.253609 0.8 0 0
0.365214 0.171146 0.282334 0.8 0 0
0.551810 0.124986 0.392465 0.8 0 0
0.344384 0.175477 0.253148 0.8 0 0
0.255877 0.221368 0.259465 0.8 0 0
0.279336 0.206886 0.263760 0.8 0 0
0.521761 0.113203 0.311277 0.8 0 0
0.173754 0.233273 0.203161 0.8 0 0
0.607170 0.147729 0.335600 0.8 0 0
0.730133 0.212363 0.350074 0.8 0 0
0.447165 0.123446 0.319216 0.8 0 0
0.471854 0.099637 0.449724 0.8 0 0
0.498197 0.113608 0.315019 0.8 0 0
0.875721 0.244010 0.262201 0.8 0 0
0.055915 0.254447 0.252476 0.8 0 0
0.460655 0.101771 0.056581 0.8 0 0
0.436034 0.093956 0.072307 0.8 0 0
0.440818 0.087554 0.378682 0.8 0 0
0.565200 0.100274 0.051388 0.8 0 0
0.716470 0.212896 0.349154 0.8 0 0
0.053333 0.251085 0.224211 0.8 0 0
0.763333 0.223278 0.268827 0.8 0 0
0.767737 0.226994 0.249223 0.8 0 0
0.476631 0.113480 0.435755 0.8 0 0
0.488692 0.066435 0.485426 0.8 0 0
0.584740 0.095493 0.049009 0.8 0 0
0.895298 0.248073 0.279602 0.8 0 0
0.397504 0.155236 0.323863 0.8 0 0
0.548332 0.080591 0.191680 0.8 0 0
0.568882 0.113525 0.276304 0.8 0 0
0.431839 0.103900 0.359851 0.8 0 0
0.552746 0.085596 0.124681 0.8 0 0
0.781536 0.229097 0.267059 0.8 0 0
0.811768 0.235501 0.264264 0.8 0 0
0.732374 0.220730 0.309254 0.8 0 0
0.701529 0.196280 0.271985 0.8 0 0
0.473817 0.094664 0.114554 0.8 0 0
0.890269 0.242214 0.207522 0.8 0 0
0.789561 0.239100 0.312400 0.8 0 0
0.555623 0.075766 0.234599 0.8 0 0
0.647921 0.170426 0.308552 0.8 0 0
0.560042 0.077990 0.258328 0.8 0 0
0.111552 0.245048 0.254050 0.8 0 0
0.552669 0.056366 0.264257 0.8 0 0
0.453711 0.124284 0.360137 0.8 0 0
0.456463 0.073038 0.411967 0.8 0 0
0.495580 0.113492 0.313949 0.8 0 0
0.314173 0.189457 0.333671 0.8 0 0
0.324211 0.184281 0.302121 0.8 0 0
0.448581 0.102191 0.216149 0.8 0 0
0.322992 0.184887 0.325904 0.8 0 0
0.255123 0.228387 0.361913 0.8 0 0
0.446073 0.084199 0.152248 0.8 0 0
0.676355 0.193175 0.306453 0.8 0 0
0.711710 0.211644 0.371610 0.8 0 0
0.108607 0.244825 0.246266 0.8 0 0
0.555802 0.068689 0.242331 0.8 0 0
0.569536 0.137008 0.350461 0.8 0 0
0.740587 0.226443 0.344163 0.8 0 0
0.747340 0.221558 0.356647 0.8 0 0
0.933850 0.251936 0.262344 0.8 0 0
0.457408 0.062603 0.219922 0.8 0 0
0.451595 0.041410 0.313422 0.8 0 0
0.511005 0.106431 0.044518 0.8 0 0
0.418451 0.144219 0.377285 0.8 0 0
0.262731 0.214960 0.237148 0.8 0 0
0.564662 0.073308 0.332309 0.8 0 0
0.669318 0.188558 0.276670 0.8 0 0
0.877690 0.238908 0.190909 0.8 0 0
0.722788 0.216457 0.344296 0.8 0 0
0.544200 0.097999 0.121278 0.8 0 0
0.569728 0.124160 0.239117 0.8 0 0
0.441427 0.092769 0.083263 0.8 0 0
0.876487 0.239489 0.200617 0.8 0 0
0.439631 0.130195 0.347568 0.8 0 0
0.440100 0.055702 0.294942 0.8 0 0
0.479013 0.099498 0.183882 0.8 0 0
0.232983 0.230100 0.297217 0.8 0 0
0.534986 0.104130 0.042079 0.8 0 0
0.540702 0.099260 0.203066 0.8 0 0
0.683246 0.188394 0.245809 0.8 0 0
0.255451 0.228223 0.359093 0.8 0 0
0.152858 0.246096 0.288457 0.8 0 0
0.297037 0.197894 0.330530 0.8 0 0
0.650372 0.179846 0.288917 0.8 0 0
0.485495 0.103650 0.058466 0.8 0 0
0.063443 0.250180 0.233874 0.8 0 0
0.494794 0.070966 0.167176 0.8 0 0
0.552769 0.077941 0.380895 0.8 0 0
0.175336 0.241885 0.271942 0.8 0 0
0.123529 0.240776 0.217689 0.8 0 0
0.232060 0.231036 0.303302 0.8 0 0
0.462655 0.061954 0.421279 0.8 0 0
0.239227 0.225845 0.246125 0.8 0 0
0.956671 0.253429 0.241552 0.8 0 0
0.227708 0.231519 0.275855 0.8 0 0
0.636804 0.171730 0.274568 0.8 0 0
0.615257 0.152080 0.237051 0.8 0 0
0.805324 0.231992 0.222941 0.8 0 0
0.498244 0.115457 0.382153 0.8 0 0
0.762690 0.222972 0.267058 0.8 0 0
0.506876 0.101045 0.084059 0.8 0 0
0.466359 0.114089 0.384038 0.8 0 0
0.436432 0.080271 0.279352 0.8 0 0
0.786139 0.238581 0.318466 0.8 0 0
0.527566 0.045410 0.227031 0.8 0 0
0.811791 0.232181 0.213704 0.8 0 0
0.449364 0.051779 0.272551 0.8 0 0
0.554426 0.122911 0.242711 0.8 0 0
0.866188 0.247017 0.277689 0.8 0 0
0.426840 0.136550 0.325769 0.8 0 0
0.406818 0.139014 0.370544 0.8 0 0
0.179003 0.240295 0.331693 0.8 0 0
0.200759 0.234438 0.280809 0.8 0 0
0.467397 0.032371 0.284160 0.8 0 0
0.197190 0.235363 0.286598 0.8 0 0
0.464949 0.113149 0.293234 0.8 0 0
0.818834 0.234235 0.229208 0.8 0 0
0.323704 0.192319 0.286659 0.8 0 0
0.738229 0.219089 0.268474 0.8 0 0
0.627102 0.158514 0.356924 0.8 0 0
0.629947 0.160356 0.254045 0.8 0 0
0.844299 0.239977 0.227161 0.8 0 0
0.113724 0.240997 0.191695 0.8 0 0
0.606036 0.157377 0.384280 0.8 0 0
0.497130 0.115560 0.339665 0.8 0 0
0.571952 0.099902 0.042215 0.8 0 0
0.893897 0.248021 0.280921 0.8 0 0
0.560128 0.082322 0.254736 0.8 0 0
0.541357 0.036630 0.346634 0.8 0 0
0.208718 0.231257 0.221026 0.8 0 0
0.604254 0.146889 0.246641 0.8 0 0
0.647562 0.170088 0.333274 0.8 0 0
0.118333 0.246117 0.240819 0.8 0 0
0.453024 0.095508 0.090598 0.8 0 0
0.313923 0.197011 0.285996 0.8 0 0
0.435958 0.107443 0.256002 0.8 0 0
0.482119 0.094894 0.126332 0.8 0 0
0.384417 0.162407 0.325349 0.8 0 0
0.507082 0.106400 0.044894 0.8 0 0
0.469822 0.113279 0.311976 0.8 0 0
0.568111 0.132840 0.316102 0.8 0 0
0.557087 0.127123 0.338834 0.8 0 0
0.661966 0.187234 0.338511 0.8 0 0
0.741064 0.218446 0.368824 0.8 0 0
0.291343 0.199907 0.279782 0.8 0 0
0.490425 0.113349 0.312621 0.8 0 0
0.891188 0.248733 0.290490 0.8 0 0
0.115635 0.243005 0.215185 0.8 0 0
0.529105 0.089242 0.455141 0.8 0 0
0.674634 0.192575 0.313045 0.8 0 0
0.330137 0.182184 0.259558 0.8 0 0
0.540679 0.035265 0.332504 0.8 0 0
0.918412 0.246994 0.222116 0.8 0 0
0.505309 0.030093 0.278414 0.8 0 0
0.291069 0.200412 0.256105 0.8 0 0
0.771383 0.235046 0.357964 0.8 0 0
0.960188 0.255026 0.245178 0.8 0 0
0.205365 0.240435 0.345068 0.8 0 0
0.808233 0.237238 0.321659 0.8 0 0
0.231986 0.228419 0.342569 0.8 0 0
0.270941 0.211900 0.343863 0.8 0 0
0.498107 0.028831 0.284009 0.8 0 0
0.430269 0.119541 0.252739 0.8 0 0
0.535828 0.118138 0.374358 0.8 0 0
0.741137 0.215721 0.263690 0.8 0 0
0.494191 0.106628 0.255012 0.8 0 0
0.394362 0.155131 0.276744 0.8 0 0
0.221780 0.237693 0.349449 0.8 0 0
0.469417 0.102327 0.210140 0.8 0 0
0.491634 0.044085 0.221693 0.8 0 0
0.835008 0.247229 0.323384 0.8 0 0
0.294398 0.205818 0.372325 0.8 0 0
0.457813 0.075451 0.415677 0.8 0 0
0.189138 0.233742 0.217320 0.8 0 0
0.395715 0.145955 0.282901 0.8 0 0
0.360159 0.165544 0.360358 0.8 0 0
0.741453 0.218340 0.325999 0.8 0 0
0.499394 0.088285 0.135713 0.8 0 0
0.738906 0.215656 0.245827 0.8 0 0
0.181330 0.235815 0.254725 0.8 0 0
0.167290 0.237988 0.257779 0.8 0 0
0.760391 0.233634 0.341321 0.8 0 0
0.452481 0.045842 0.286073 0.8 0 0
0.947445 0.251285 0.225737 0.8 0 0
0.719206 0.208025 0.248629 0.8 0 0
0.439037 0.058029 0.360352 0.8 0 0
0.476132 0.083084 0.473626 0.8 0 0
0.424596 0.122730 0.261615 0.8 0 0
0.521510 0.115426 0.377160 0.8 0 0
0.476659 0.095383 0.467356 0.8 0 0
0.524056 0.033668 0.380552 0.8 0 0
0.225432 0.232240 0.280397 0.8 0 0
0.493813 0.102639 0.094566 0.8 0 0
0.418153 0.098565 0.039309 0.8 0 0
0.918296 0.248008 0.221779 0.8 0 0
0.852120 0.239925 0.247615 0.8 0 0
0.199297 0.230095 0.203187 0.8 0 0
0.041063 0.255080 0.244376 0.8 0 0
0.642638 0.172676 0.264990 0.8 0 0
0.574559 0.095419 0.059595 0.8 0 0
0.348608 0.173171 0.247847 0.8 0 0
0.429605 0.121275 0.392851 0.8 0 0
0.248979 0.220268 0.286128 0.8 0 0
0.073799 0.253688 0.271595 0.8 0 0
0.330548 0.190177 0.325274 0.8 0 0
0.710827 0.209160 0.291014 0.8 0 0
0.187249 0.243079 0.293020 0.8 0 0
0.845607 0.236117 0.201170 0.8 0 0
0.563955 0.081203 0.278308 0.8 0 0
0.266841 0.213865 0.276411 0.8 0 0
0.909265 0.247366 0.224609 0.8 0 0
0.477692 0.035125 0.387451 0.8 0 0
0.412477 0.135883 0.246884 0.8 0 0
0.561620 0.116719 0.234521 0.8 0 0
0.435903 0.062520 0.324127 0.8 0 0
0.551307 0.091919 0.164931 0.8 0 0
0.364354 0.163422 0.344733 0.8 0 0
0.525975 0.068745 0.452091 0.8 0 0
0.517771 0.067946 0.511118 0.8 0 0
0.272106 0.211273 0.310926 0.8 0 0
0.612980 0.161368 0.334948 0.8 0 0
0.768444 0.226546 0.235119 0.8 0 0
0.767859 0.228290 0.341969 0.8 0 0
0.727385 0.219187 0.362665 0.8 0 0
0.599709 0.140117 0.384447 0.8 0 0
0.534285 0.034290 0.282991 0.8 0 0
0.735235 0.214885 0.314880 0.8 0 0
0.743243 0.216377 0.263045 0.8 0 0
0.093903 0.252061 0.272513 0.8 0 0
0.496412 0.083384 0.520778 0.8 0 0
0.365844 0.162650 0.340573 0.8 0 0
0.371458 0.169257 0.320231 0.8 0 0
0.522557 0.109120 0.273511 0.8 0 0
0.450234 0.083172 0.198770 0.8 0 0
0.423849 0.110688 0.326747 0.8 0 0
0.736148 0.223027 0.314913 0.8 0 0
0.558942 0.088842 0.104754 0.8 0 0
0.834170 0.247228 0.310939 0.8 0 0
0.346520 0.173835 0.278527 0.8 0 0
0.267707 0.220236 0.296063 0.8 0 0
0.118752 0.243755 0.248941 0.8 0 0
0.435094 0.135062 0.362304 0.8 0 0
0.730156 0.220298 0.357974 0.8 0 0
0.924757 0.251549 0.244654 0.8 0 0
0.481452 0.113325 0.434470 0.8 0 0
0.504099 0.052939 0.452541 0.8 0 0
0.486458 0.107881 0.035265 0.8 0 0
0.516539 0.099516 0.095311 0.8 0 0
0.660301 0.178152 0.247014 0.8 0 0
0.493784 0.114204 0.393512 0.8 0 0
0.403161 0.140336 0.374742 0.8 0 0
0.970239 0.255052 0.236058 0.8 0 0
0.464363 0.099284 0.073956 0.8 0 0
0.481578 0.047106 0.438040 0.8 0 0
0.515626 0.084969 0.505843 0.8 0 0
0.547841 0.087751 0.124100 0.8 0 0
0.451699 0.078883 0.183704 0.8 0 0
0.583012 0.123231 0.329940 0.8 0 0
0.371970 0.167577 0.284659 0.8 0 0
0.491200 0.051815 0.449935 0.8 0 0
0.375642 0.168987 0.366492 0.8 0 0
0.471235 0.030301 0.283678 0.8 0 0
0.431235 0.090250 0.104794 0.8 0 0
0.303394 0.197912 0.257567 0.8 0 0
0.393202 0.156908 0.306332 0.8 0 0
0.504162 0.026436 0.301913 0.8 0 0
0.509929 0.061430 0.528458 0.8 0 0
0.417843 0.130913 0.378880 0.8 0 0
0.744340 0.227687 0.326043 0.8 0 0
0.258131 0.220659 0.261582 0.8 0 0
0.425476 0.109638 0.335693 0.8 0 0
0.530904 0.097037 0.160004 0.8 0 0
0.700711 0.204970 0.335639 0.8 0 0
0.354376 0.169238 0.315947 0.8 0 0
0.648923 0.170827 0.332047 0.8 0 0
0.440256 0.102028 0.375353 0.8 0 0
0.524986 0.104460 0.058361 0.8 0 0
0.538820 0.119557 0.351994 0.8 0 0
0.220689 0.228706 0.231644 0.8 0 0
0.036271 0.254504 0.235237 0.8 0 0
0.639602 0.173784 0.283330 0.8 0 0
0.264998 0.214642 0.277660 0.8 0 0
0.198296 0.234121 0.264995 0.8 0 0
0.678060 0.186275 0.304407 0.8 0 0
0.508411 0.030831 0.275261 0.8 0 0
0.504788 0.101854 0.076695 0.8 0 0
0.409015 0.144419 0.261609 0.8 0 0
0.560640 0.096192 0.245651 0.8 0 0
0.630175 0.166988 0.270454 0.8 0 0
0.484188 0.088475 0.498377 0.8 0 0
0.703371 0.197295 0.267432 0.8 0 0
0.202146 0.234132 0.281525 0.8 0 0
0.682836 0.198227 0.372490 0.8 0 0
0.834460 0.234421 0.204353 0.8 0 0
0.871646 0.245173 0.283534 0.8 0 0
0.794224 0.232853 0.269594 0.8 0 0
0.503220 0.098148 0.173985 0.8 0 0
0.484478 0.114464 0.375389 0.8 0 0
0.812015 0.237644 0.296927 0.8 0 0
0.575489 0.095755 0.056880 0.8 0 0
0.488165 0.097003 0.165588 0.8 0 0
0.663522 0.188998 0.370345 0.8 0 0
0.190219 0.238851 0.255060 0.8 0 0
0.466928 0.094259 0.440733 0.8 0 0
0.466898 0.110899 0.280018 0.8 0 0
0.807521 0.235853 0.278621 0.8 0 0
0.440975 0.125631 0.277023 0.8 0 0
0.314452 0.199079 0.359067 0.8 0 0
0.600548 0.144134 0.326098 0.8 0 0
0.794028 0.231318 0.237104 0.8 0 0
0.368153 0.161497 0.328654 0.8 0 0
0.477031 0.029240 0.323963 0.8 0 0
0.572537 0.114499 0.360244 0.8 0 0
0.467169 0.060830 0.429629 0.8 0 0
0.685527 0.189284 0.289062 0.8 0 0
0.506539 0.104990 0.068175 0.8 0 0
0.702075 0.206102 0.353509 0.8 0 0
0.642793 0.167390 0.325526 0.8 0 0
0.781660 0.227941 0.210292 0.8 0 0
0.104202 0.247351 0.238367 0.8 0 0
0.179173 0.235886 0.251260 0.8 0 0
0.498545 0.039870 0.415064 0.8 0 0
0.290418 0.200926 0.368582 0.8 0 0
0.773097 0.226412 0.274754 0.8 0 0
0.163717 0.238156 0.252727 0.8 0 0
0.215149 0.231884 0.323180 0.8 0 0
0.493171 0.097203 0.159031 0.8 0 0
0.263293 0.214805 0.264380 0.8 0 0
0.570005 0.109275 0.287371 0.8 0 0
0.541080 0.040046 0.286203 0.8 0 0
0.386629 0.150639 0.371654 0.8 0 0
0.510688 0.102810 0.071234 0.8 0 0
0.200712 0.230117 0.208899 0.8 0 0
0.466432 0.113873 0.305710 0.8 0 0
0.178334 0.242826 0.282873 0.8 0 0
0.765301 0.224790 0.308163 0.8 0 0
0.444370 0.123583 0.285704 0.8 0 0
0.505743 0.105499 0.061957 0.8 0 0
0.571788 0.122486 0.394749 0.8 0 0
0.321432 0.194110 0.318225 0.8 0 0
0.303644 0.204059 0.359906 0.8 0 0
0.717264 0.205430 0.255508 0.8 0 0
0.880100 0.245490 0.243777 0.8 0 0
0.543788 0.117510 0.282227 0.8 0 0
0.415853 0.142935 0.282534 0.8 0 0
0.551701 0.083453 0.161426 0.8 0 0
0.502753 0.037300 0.402710 0.8 0 0
0.821104 0.238942 0.241896 0.8 0 0
0.598390 0.140114 0.388953 0.8 0 0
0.443230 0.055373 0.282386 0.8 0 0
0.088577 0.250762 0.250616 0.8 0 0
0.423406 0.097538 0.060527 0.8 0 0
0.397692 0.143580 0.374562 0.8 0 0
0.735340 0.213095 0.232740 0.8 0 0
0.595972 0.141238 0.355793 0.8 0 0
0.278573 0.207296 0.283145 0.8 0 0
0.708633 0.206312 0.273276 0.8 0 0
0.509380 0.099246 0.127226 0.8 0 0
0.515398 0.031434 0.356698 0.8 0 0
0.659800 0.177293 0.289718 0.8 0 0
0.490466 0.051076 0.205162 0.8 0 0
0.155845 0.243212 0.260297 0.8 0 0
0.516866 0.051186 0.206153 0.8 0 0
0.561647 0.099783 0.064309 0.8 0 0
0.890604 0.248903 0.263063 0.8 0 0
0.552372 0.100730 0.076142 0.8 0 0
0.681377 0.187280 0.271213 0.8 0 0
0.444165 0.129359 0.367158 0.8 0 0
0.572579 0.135021 0.263228 0.8 0 0
0.381746 0.154043 0.318791 0.8 0 0
0.713509 0.206875 0.261931 0.8 0 0
0.485777 0.030000 0.335871 0.8 0 0
0.447287 0.102574 0.039096 0.8 0 0
0.894609 0.251008 0.283790 0.8 0 0
0.061607 0.250446 0.225730 0.8 0 0
0.666753 0.185956 0.265905 0.8 0 0
0.462258 0.110180 0.242736 0.8 0 0
0.643730 0.176877 0.304999 0.8 0 0
0.216080 0.232371 0.348724 0.8 0 0
0.442794 0.083825 0.135447 0.8 0 0
0.429697 0.124420 0.376533 0.8 0 0
0.542188 0.120605 0.343113 0.8 0 0
0.792660 0.232150 0.253785 0.8 0 0
0.203748 0.234317 0.312493 0.8 0 0
0.443469 0.099682 0.056993 0.8 0 0
0.436294 0.129089 0.286981 0.8 0 0
0.500052 0.093934 0.118534 0.8 0 0
0.673848 0.183658 0.343623 0.8 0 0
0.373691 0.158625 0.237123 0.8 0 0
0.616401 0.160955 0.276670 0.8 0 0
0.456060 0.094649 0.154116 0.8 0 0
0.240432 0.227691 0.279085 0.8 0 0
0.437371 0.094434 0.071049 0.8 0 0
0.454992 0.091484 0.403140 0.8 0 0
0.681618 0.187471 0.265735 0.8 0 0
0.549622 0.043050 0.338984 0.8 0 0
0.384893 0.151736 0.365536 0.8 0 0
0.489461 0.068758 0.490886 0.8 0 0
0.554844 0.063332 0.250942 0.8 0 0
0.442005 0.072893 0.251990 0.8 0 0
0.097408 0.243344 0.191705 0.8 0 0
0.216778 0.234006 0.255606 0.8 0 0
0.467173 0.101651 0.199890 0.8 0 0
0.192594 0.242344 0.303523 0.8 0 0
0.389504 0.149542 0.264784 0.8 0 0
0.464952 0.097172 0.433448 0.8 0 0
0.430298 0.108039 0.288030 0.8 0 0
0.486287 0.110099 0.461446 0.8 0 0
0.134086 0.244449 0.283538 0.8 0 0
0.545613 0.070103 0.212456 0.8 0 0
0.428073 0.112134 0.291776 0.8 0 0
0.816459 0.243141 0.334023 0.8 0 0
0.288189 0.210239 0.323866 0.8 0 0
0.857407 0.238626 0.221355 0.8 0 0
0.502594 0.100670 0.192476 0.8 0 0
0.596296 0.141115 0.239793 0.8 0 0
0.534835 0.056740 0.216969 0.8 0 0
0.483223 0.098610 0.142337 0.8 0 0
0.737027 0.224081 0.355135 0.8 0 0
0.853596 0.237715 0.215711 0.8 0 0
0.827195 0.242722 0.270225 0.8 0 0
0.108205 0.243606 0.229383 0.8 0 0
0.916034 0.247696 0.221217 0.8 0 0
0.622792 0.156388 0.242508 0.8 0 0
0.886164 0.248030 0.290862 0.8 0 0
0.538065 0.068340 0.203175 0.8 0 0
0.392763 0.158342 0.382300 0.8 0 0
0.197069 0.231369 0.209526 0.8 0 0
0.541161 0.037533 0.365149 0.8 0 0
0.267351 0.213397 0.269481 0.8 0 0
0.463294 0.086451 0.430405 0.8 0 0
0.513076 0.116591 0.366468 0.8 0 0
0.854738 0.243379 0.250065 0.8 0 0
0.517046 0.070812 0.511893 0.8 0 0
0.269302 0.213105 0.244762 0.8 0 0
0.807910 0.234200 0.223499 0.8 0 0
0.521250 0.111636 0.296776 0.8 0 0
0.141093 0.244092 0.247661 0.8 0 0
0.504765 0.106526 0.049558 0.8 0 0
0.093866 0.245539 0.214887 0.8 0 0
0.151726 0.243092 0.301356 0.8 0 0
0.519747 0.099807 0.476392 0.8 0 0
0.856159 0.238706 0.224520 0.8 0 0
0.476693 0.032483 0.363648 0.8 0 0
0.209827 0.238132 0.313604 0.8 0 0
0.141234 0.247839 0.293010 0.8 0 0
0.166121 0.247851 0.323898 0.8 0 0
0.739832 0.217364 0.360272 0.8 0 0
0.538943 0.034436 0.301916 0.8 0 0
0.482400 0.111997 0.300119 0.8 0 0
0.491376 0.102438 0.096956 0.8 0 0
0.244704 0.225539 0.346791 0.8 0 0
0.463769 0.052667 0.412049 0.8 0 0
0.263105 0.223829 0.338151 0.8 0 0
0.036002 0.254908 0.237984 0.8 0 0
0.312396 0.189921 0.316399 0.8 0 0
0.532080 0.037315 0.392460 0.8 0 0
0.455308 0.049370 0.261998 0.8 0 0
0.471786 0.074169 0.453955 0.8 0 0
0.399064 0.143070 0.373055 0.8 0 0
0.961753 0.254971 0.241602 0.8 0 0
0.719265 0.213886 0.325515 0.8 0 0
0.557698 0.096987 0.229585 0.8 0 0
0.377247 0.166400 0.327861 0.8 0 0
0.438491 0.130926 0.389935 0.8 0 0
0.554109 0.077097 0.225768 0.8 0 0
0.559365 0.126981 0.320691 0.8 0 0
0.401794 0.142418 0.360324 0.8 0 0
0.739528 0.217113 0.297915 0.8 0 0
0.808691 0.237447 0.244811 0.8 0 0
0.714905 0.211372 0.305685 0.8 0 0
0.343306 0.175389 0.314177 0.8 0 0
0.058429 0.252597 0.239395 0.8 0 0
0.525414 0.111218 0.292913 0.8 0 0
0.346086 0.173450 0.353701 0.8 0 0
0.537826 0.039625 0.373934 0.8 0 0
0.755753 0.219876 0.251654 0.8 0 0
0.387159 0.160024 0.301886 0.8 0 0
0.237366 0.226930 0.332086 0.8 0 0
0.794899 0.234538 0.239547 0.8 0 0
0.807441 0.235368 0.231956 0.8 0 0
0.473128 0.054389 0.434756 0.8 0 0
0.369977 0.160837 0.256005 0.8 0 0
0.721530 0.207535 0.235978 0.8 0 0
0.437331 0.131142 0.342878 0.8 0 0
0.146073 0.242433 0.278954 0.8 0 0
0.400494 0.145105 0.245906 0.8 0 0
0.913000 0.251433 0.256417 0.8 0 0
0.441514 0.126273 0.316234 0.8 0 0
0.389571 0.149197 0.361056 0.8 0 0
0.661841 0.178407 0.276245 0.8 0 0
0.829255 0.240256 0.298674 0.8 0 0
0.748350 0.222196 0.336605 0.8 0 0
0.853554 0.241644 0.267939 0.8 0 0
0.443648 0.101148 0.049207 0.8 0 0
0.778753 0.229451 0.221918 0.8 0 0
0.537477 0.043601 0.383588 0.8 0 0
0.820082 0.235388 0.245210 0.8 0 0
0.453743 0.064260 0.225339 0.8 0 0
0.484728 0.107288 0.042312 0.8 0 0
0.216342 0.231207 0.228720 0.8 0 0
0.852401 0.241684 0.270904 0.8 0 0
0.738054 0.224129 0.315933 0.8 0 0
0.511522 0.103057 0.092227 0.8 0 0
0.533548 0.101943 0.078348 0.8 0 0
0.642111 0.167249 0.290584 0.8 0 0
0.332763 0.188358 0.301140 0.8 0 0
0.464128 0.098571 0.079075 0.8 0 0
0.464509 0.089752 0.433554 0.8 0 0
0.236417 0.228074 0.361800 0.8 0 0
0.480624 0.101126 0.195823 0.8 0 0
0.543886 0.108652 0.219024 0.8 0 0
0.255712 0.220100 0.341212 0.8 0 0
0.514604 0.030731 0.279080 0.8 0 0
0.494450 0.044334 0.219558 0.8 0 0
0.348587 0.181442 0.314794 0.8 0 0
0.422372 0.142820 0.371020 0.8 0 0
0.605127 0.156267 0.313919 0.8 0 0
0.278816 0.207220 0.244242 0.8 0 0
0.536601 0.110303 0.244966 0.8 0 0
0.067691 0.251950 0.242233 0.8 0 0
0.450737 0.042126 0.312723 0.8 0 0
0.708403 0.200088 0.309489 0.8 0 0
0.557784 0.073753 0.249132 0.8 0 0
0.317684 0.194486 0.276788 0.8 0 0
0.478036 0.033509 0.372139 0.8 0 0
0.831946 0.241431 0.251509 0.8 0 0
0.532400 0.114025 0.385932 0.8 0 0
0.741817 0.221543 0.275612 0.8 0 0
0.636650 0.172666 0.295813 0.8 0 0
0.226690 0.235219 0.327580 0.8 0 0
0.962959 0.255094 0.247596 0.8 0 0
0.456103 0.075752 0.410036 0.8 0 0
0.855634 0.244063 0.256447 0.8 0 0
0.431151 0.097425 0.079001 0.8 0 0
0.371179 0.159976 0.265278 0.8 0 0
0.274948 0.212974 0.261720 0.8 0 0
0.799002 0.235747 0.243459 0.8 0 0
0.480180 0.107483 0.261284 0.8 0 0
0.227720 0.227805 0.223104 0.8 0 0
0.796748 0.240560 0.307834 0.8 0 0
0.544652 0.122517 0.374612 0.8 0 0
0.321517 0.187619 0.243246 0.8 0 0
0.462184 0.037898 0.379990 0.8 0 0
0.516835 0.101701 0.474742 0.8 0 0
0.308088 0.197119 0.265907 0.8 0 0
0.409862 0.138077 0.349817 0.8 0 0
0.100246 0.244025 0.216612 0.8 0 0
0.557250 0.109703 0.383952 0.8 0 0
0.530048 0.087427 0.148088 0.8 0 0
0.537465 0.095443 0.425987 0.8 0 0
0.523997 0.072573 0.470952 0.8 0 0
0.452609 0.097852 0.115119 0.8 0 0
0.428663 0.120622 0.369782 0.8 0 0
0.274822 0.209810 0.314404 0.8 0 0
0.122217 0.241812 0.229152 0.8 0 0
0.491970 0.060427 0.475642 0.8 0 0
0.206854 0.232793 0.267314 0.8 0 0
0.631512 0.171020 0.324619 0.8 0 0
0.551780 0.076426 0.383465 0.8 0 0
0.205298 0.231610 0.241509 0.8 0 0
0.442564 0.081077 0.380982 0.8 0 0
0.244858 0.225232 0.261739 0.8 0 0
0.465745 0.109633 0.261749 0.8 0 0
0.590404 0.136049 0.289277 0.8 0 0
0.913294 0.252284 0.272791 0.8 0 0
0.738372 0.216847 0.348315 0.8 0 0
0.484127 0.084085 0.152960 0.8 0 0
0.206159 0.232844 0.262386 0.8 0 0
0.855830 0.243529 0.291183 0.8 0 0
0.574174 0.140085 0.376426 0.8 0 0
0.408784 0.137230 0.373761 0.8 0 0
0.942643 0.250365 0.219788 0.8 0 0
0.687029 0.189679 0.367310 0.8 0 0
0.326258 0.190793 0.278328 0.8 0 0
0.297863 0.205784 0.345028 0.8 0 0
0.260781 0.217858 0.250767 0.8 0 0
0.574891 0.093981 0.089750 0.8 0 0
0.565620 0.072999 0.325333 0.8 0 0
0.839002 0.234028 0.191922 0.8 0 0
0.858932 0.248068 0.295955 0.8 0 0
0.471681 0.039213 0.412499 0.8 0 0
0.061465 0.252447 0.240777 0.8 0 0
0.514374 0.027685 0.326460 0.8 0 0
0.495263 0.033866 0.255533 0.8 0 0
0.407615 0.138806 0.250818 0.8 0 0
0.248566 0.219296 0.229731 0.8 0 0
0.497680 0.113111 0.411099 0.8 0 0
0.464522 0.117902 0.336693 0.8 0 0
0.727197 0.210341 0.306217 0.8 0 0
0.774486 0.226980 0.228661 0.8 0 0
0.626992 0.159183 0.236258 0.8 0 0
0.564658 0.087239 0.112999 0.8 0 0
0.199358 0.242427 0.338922 0.8 0 0
0.937264 0.252535 0.262542 0.8 0 0
0.492109 0.096928 0.100493 0.8 0 0
0.648565 0.171547 0.239608 0.8 0 0
0.860181 0.237462 0.201579 0.8 0 0
0.460185 0.065575 0.203313 0.8 0 0
0.887273 0.242169 0.214824 0.8 0 0
0.548551 0.083984 0.136144 0.8 0 0
0.525613 0.097319 0.167906 0.8 0 0
0.417639 0.142755 0.322264 0.8 0 0
0.272765 0.210658 0.283437 0.8 0 0
0.439794 0.126421 0.276420 0.8 0 0
0.466708 0.111226 0.282296 0.8 0 0
0.581613 0.143901 0.379874 0.8 0 0
0.801089 0.233996 0.229311 0.8 0 0
0.378646 0.155548 0.339947 0.8 0 0
0.794799 0.232652 0.288273 0.8 0 0
0.546151 0.076877 0.161359 0.8 0 0
0.134610 0.238742 0.209635 0.8 0 0
0.489618 0.104448 0.073452 0.8 0 0
0.514241 0.102069 0.474137 0.8 0 0
0.299652 0.204497 0.327479 0.8 0 0
0.075021 0.248059 0.217819 0.8 0 0
0.247891 0.225521 0.291342 0.8 0 0
0.221167 0.227811 0.214432 0.8 0 0
0.542601 0.051600 0.387995 0.8 0 0
0.293876 0.198601 0.271669 0.8 0 0
0.215936 0.233648 0.247628 0.8 0 0
0.581791 0.126757 0.295350 0.8 0 0
0.786905 0.230530 0.258761 0.8 0 0
0.322420 0.191183 0.269932 0.8 0 0
0.472296 0.079312 0.461960 0.8 0 0
0.869494 0.246530 0.300304 0.8 0 0
0.632866 0.173840 0.371874 0.8 0 0
0.479792 0.034799 0.381810 0.8 0 0
0.437030 0.063965 0.350582 0.8 0 0
0.411671 0.129518 0.332662 0.8 0 0
0.496151 0.114454 0.322848 0.8 0 0
0.562165 0.069516 0.278925 0.8 0 0
0.793177 0.232783 0.315797 0.8 0 0
0.955604 0.252976 0.235862 0.8 0 0
0.397117 0.145296 0.299794 0.8 0 0
0.605515 0.146760 0.339284 0.8 0 0
0.552466 0.081524 0.382184 0.8 0 0
0.651406 0.175732 0.248981 0.8 0 0
0.838678 0.238407 0.251216 0.8 0 0
0.087484 0.246371 0.215670 0.8 0 0
0.800023 0.241599 0.313971 0.8 0 0
0.490886 0.040502 0.234765 0.8 0 0
0.779243 0.228491 0.235186 0.8 0 0
0.181784 0.242859 0.286240 0.8 0 0
0.552611 0.090318 0.202079 0.8 0 0
0.208336 0.229738 0.218454 0.8 0 0
0.396546 0.145456 0.387659 0.8 0 0
0.764267 0.223415 0.225230 0.8 0 0
0.506639 0.101604 0.200782 0.8 0 0
0.619769 0.163304 0.290390 0.8 0 0
0.565296 0.129940 0.267081 0.8 0 0
0.832746 0.240857 0.244850 0.8 0 0
0.438131 0.056841 0.340624 0.8 0 0
0.899438 0.243694 0.210692 0.8 0 0
0.531611 0.037696 0.395699 0.8 0 0
0.426407 0.136820 0.324724 0.8 0 0
0.510124 0.063817 0.510971 0.8 0 0
0.703287 0.198292 0.324417 0.8 0 0
0.561051 0.053585 0.310314 0.8 0 0
0.880122 0.241130 0.203761 0.8 0 0
0.651816 0.182179 0.327866 0.8 0 0
0.906444 0.249994 0.251337 0.8 0 0
0.527111 0.111878 0.389343 0.8 0 0
0.930352 0.248959 0.227365 0.8 0 0
0.764114 0.223520 0.219932 0.8 0 0
0.627880 0.159598 0.235392 0.8 0 0
0.162065 0.238813 0.258993 0.8 0 0
0.864030 0.237881 0.200704 0.8 0 0
0.499737 0.104849 0.068362 0.8 0 0
0.341921 0.177065 0.243440 0.8 0 0
0.857846 0.240071 0.240249 0.8 0 0
0.215949 0.235176 0.289620 0.8 0 0
0.441012 0.091803 0.241583 0.8 0 0
0.722346 0.207547 0.306421 0.8 0 0
0.106878 0.243202 0.218972 0.8 0 0
0.426891 0.106981 0.308933 0.8 0 0
0.503733 0.031473 0.356980 0.8 0 0
0.494798 0.068617 0.170735 0.8 0 0
0.356692 0.172924 0.256814 0.8 0 0
0.392915 0.147814 0.316407 0.8 0 0
0.417746 0.119219 0.323691 0.8 0 0
0.541571 0.073060 0.191710 0.8 0 0
0.499715 0.097418 0.482284 0.8 0 0
0.601187 0.143992 0.366449 0.8 0 0
0.484990 0.098084 0.101031 0.8 0 0
0.532055 0.099309 0.122073 0.8 0 0
0.513935 0.082184 0.518216 0.8 0 0
0.574541 0.126922 0.238794 0.8 0 0
0.503806 0.050033 0.203849 0.8 0 0
0.425667 0.108363 0.329088 0.8 0 0
0.448969 0.085998 0.195127 0.8 0 0
0.457988 0.113105 0.253197 0.8 0 0
0.683804 0.197243 0.337523 0.8 0 0
0.211145 0.232808 0.234154 0.8 0 0
0.871951 0.243123 0.256884 0.8 0 0
0.538308 0.074920 0.165397 0.8 0 0
0.546197 0.120750 0.308657 0.8 0 0
0.307852 0.192178 0.256410 0.8 0 0
0.163494 0.243499 0.275177 0.8 0 0
0.555723 0.075610 0.235327 0.8 0 0
0.528097 0.042305 0.236935 0.8 0 0
0.191904 0.233821 0.247125 0.8 0 0
0.471808 0.044208 0.231973 0.8 0 0
0.494272 0.102707 0.215682 0.8 0 0
0.377754 0.161735 0.257102 0.8 0 0
0.457140 0.122142 0.349881 0.8 0 0
0.682443 0.188186 0.328238 0.8 0 0
0.533240 0.108510 0.420338 0.8 0 0
0.512802 0.116079 0.352134 0.8 0 0
0.297396 0.196959 0.261073 0.8 0 0
0.752376 0.218646 0.241834 0.8 0 0
0.530623 0.104527 0.046003 0.8 0 0
0.462087 0.116055 0.393291 0.8 0 0
0.161200 0.237821 0.242391 0.8 0 0
0.154435 0.247810 0.304069 0.8 0 0
0.721760 0.214095 0.281470 0.8 0 0
0.228798 0.229092 0.243707 0.8 0 0
0.461525 0.062910 0.207341 0.8 0 0
0.666123 0.187556 0.285624 0.8 0 0
0.275300 0.209511 0.309696 0.8 0 0
0.561490 0.090873 0.094150 0.8 0 0
0.883147 0.244923 0.233698 0.8 0 0
0.198856 0.230762 0.215197 0.8 0 0
0.630219 0.171359 0.349908 0.8 0 0
0.551887 0.080199 0.214530 0.8 0 0
0.290202 0.200575 0.275712 0.8 0 0
0.528258 0.108346 0.437418 0.8 0 0
0.241086 0.223687 0.297949 0.8 0 0
0.433032 0.100733 0.279383 0.8 0 0
0.355693 0.176459 0.286203 0.8 0 0
0.500070 0.037941 0.405429 0.8 0 0
0.169145 0.246592 0.307287 0.8 0 0
0.522604 0.066383 0.183365 0.8 0 0
0.332710 0.181411 0.234854 0.8 0 0
0.074486 0.247816 0.219104 0.8 0 0
0.118983 0.242986 0.218438 0.8 0 0
0.446266 0.122527 0.285989 0.8 0 0
0.545926 0.122233 0.381672 0.8 0 0
0.341454 0.184421 0.302259 0.8 0 0
0.708650 0.206357 0.273500 0.8 0 0
0.265570 0.218149 0.267422 0.8 0 0
0.700186 0.202698 0.276620 0.8 0 0
0.833152 0.246674 0.305572 0.8 0 0
0.186429 0.233349 0.228682 0.8 0 0
0.529122 0.112789 0.307447 0.8 0 0
0.449195 0.124965 0.342961 0.8 0 0
0.593606 0.135895 0.387722 0.8 0 0
0.545289 0.094993 0.094448 0.8 0 0
0.638703 0.172359 0.273472 0.8 0 0
0.406483 0.144920 0.257952 0.8 0 0
0.762658 0.229946 0.286447 0.8 0 0
0.505918 0.028981 0.338541 0.8 0 0
0.532003 0.030375 0.339879 0.8 0 0
0.776500 0.227135 0.247477 0.8 0 0
0.479528 0.115610 0.340859 0.8 0 0
0.584237 0.144610 0.385720 0.8 0 0
0.544599 0.121300 0.383737 0.8 0 0
0.575654 0.091236 0.073033 0.8 0 0
0.146323 0.235955 0.192925 0.8 0 0
0.483405 0.042228 0.231859 0.8 0 0
0.502544 0.099341 0.134257 0.8 0 0
0.840513 0.236381 0.208208 0.8 0 0
0.562461 0.058685 0.330044 0.8 0 0
0.281759 0.214873 0.363694 0.8 0 0
0.812774 0.231401 0.199369 0.8 0 0
0.552807 0.102131 0.061951 0.8 0 0
0.413933 0.124986 0.318687 0.8 0 0
0.454847 0.118884 0.306941 0.8 0 0
0.193816 0.240626 0.277642 0.8 0 0
0.303489 0.194498 0.322645 0.8 0 0
0.711342 0.210122 0.347678 0.8 0 0
0.639826 0.165799 0.340656 0.8 0 0
0.364985 0.162875 0.359471 0.8 0 0
0.349440 0.180248 0.296315 0.8 0 0
0.439954 0.128976 0.339541 0.8 0 0
0.797194 0.233597 0.266596 0.8 0 0
0.803934 0.236582 0.339365 0.8 0 0
0.764669 0.224736 0.309415 0.8 0 0
0.669270 0.181144 0.351945 0.8 0 0
0.581498 0.143026 0.385756 0.8 0 0
0.536885 0.093333 0.111629 0.8 0 0
0.598349 0.142592 0.241470 0.8 0 0
0.483100 0.046247 0.436027 0.8 0 0
0.434258 0.080155 0.300302 0.8 0 0
0.730367 0.220377 0.333717 0.8 0 0
0.489067 0.032061 0.358301 0.8 0 0
0.565797 0.091086 0.279762 0.8 0 0
0.217698 0.234639 0.288461 0.8 0 0
0.205569 0.238195 0.272377 0.8 0 0
0.799925 0.232257 0.239230 0.8 0 0
0.676778 0.194317 0.348914 0.8 0 0
0.315342 0.188930 0.335868 0.8 0 0
0.505306 0.093471 0.488297 0.8 0 0
0.906738 0.249852 0.249481 0.8 0 0
0.249278 0.218831 0.224983 0.8 0 0
0.862850 0.242814 0.267426 0.8 0 0
0.486637 0.116146 0.353740 0.8 0 0
0.614709 0.151822 0.314535 0.8 0 0
0.214212 0.236553 0.309991 0.8 0 0
0.308839 0.191881 0.240008 0.8 0 0
0.562997 0.093025 0.084588 0.8 0 0
0.845611 0.240327 0.265049 0.8 0 0
0.684753 0.196646 0.290943 0.8 0 0
0.501010 0.116467 0.368706 0.8 0 0
0.545970 0.075555 0.189616 0.8 0 0
0.122845 0.240731 0.215062 0.8 0 0
0.433373 0.073628 0.324929 0.8 0 0
0.963190 0.254236 0.239430 0.8 0 0
0.800994 0.234847 0.235214 0.8 0 0
0.555221 0.071538 0.236242 0.8 0 0
0.504873 0.100551 0.120437 0.8 0 0
0.503158 0.100175 0.188847 0.8 0 0
0.504006 0.105742 0.058681 0.8 0 0
0.482695 0.098442 0.144337 0.8 0 0
0.322521 0.194394 0.341602 0.8 0 0
0.439152 0.063389 0.280210 0.8 0 0
0.092261 0.246508 0.240801 0.8 0 0
0.766125 0.226652 0.326504 0.8 0 0
0.647474 0.169653 0.370204 0.8 0 0
0.294051 0.202698 0.257355 0.8 0 0
0.710906 0.209662 0.329570 0.8 0 0
0.359368 0.177882 0.367348 0.8 0 0
0.200014 0.233860 0.229598 0.8 0 0
0.634819 0.172846 0.380158 0.8 0 0
0.282815 0.213251 0.345227 0.8 0 0
0.824712 0.246899 0.316454 0.8 0 0
0.545209 0.062597 0.403579 0.8 0 0
0.488751 0.112276 0.302702 0.8 0 0
0.863454 0.247225 0.282486 0.8 0 0
0.525484 0.094934 0.113927 0.8 0 0
0.941666 0.253658 0.266285 0.8 0 0
0.532306 0.099714 0.115363 0.8 0 0
0.515038 0.079519 0.513788 0.8 0 0
0.388879 0.161559 0.361759 0.8 0 0
0.801093 0.234626 0.313216 0.8 0 0
0.246397 0.220525 0.276169 0.8 0 0
0.751131 0.227817 0.304213 0.8 0 0
0.561384 0.057464 0.345503 0.8 0 0
0.902760 0.246239 0.222065 0.8 0 0
0.718591 0.206231 0.345304 0.8 0 0
0.524179 0.114993 0.327832 0.8 0 0
0.777626 0.227897 0.268401 0.8 0 0
0.414238 0.133168 0.378163 0.8 0 0
0.186032 0.238743 0.331185 0.8 0 0
0.544298 0.079257 0.407752 0.8 0 0
0.437603 0.061693 0.351419 0.8 0 0
0.531509 0.111754 0.403321 0.8 0 0
0.617694 0.153216 0.261692 0.8 0 0
0.901955 0.244572 0.208736 0.8 0 0
0.559525 0.060152 0.365822 0.8 0 0
0.576367 0.098496 0.043176 0.8 0 0
0.569537 0.095052 0.334186 0.8 0 0
0.866628 0.245038 0.289658 0.8 0 0
0.121640 0.247057 0.254802 0.8 0 0
0.542526 0.112936 0.223960 0.8 0 0
0.753290 0.229017 0.308983 0.8 0 0
0.766218 0.232331 0.298432 0.8 0 0
0.500410 0.098178 0.174205 0.8 0 0
0.545462 0.063012 0.226652 0.8 0 0
0.196012 0.241245 0.294451 0.8 0 0
0.548170 0.073173 0.396477 0.8 0 0
0.574072 0.122087 0.263297 0.8 0 0
0.355059 0.168777 0.325987 0.8 0 0
0.539853 0.083325 0.421422 0.8 0 0
0.423869 0.100503 0.039061 0.8 0 0
0.869158 0.237579 0.187986 0.8 0 0
0.844274 0.240820 0.232911 0.8 0 0
0.531922 0.115960 0.335376 0.8 0 0
0.499081 0.062543 0.511000 0.8 0 0
0.308224 0.199880 0.294601 0.8 0 0
0.719903 0.206849 0.257946 0.8 0 0
0.659167 0.184054 0.280565 0.8 0 0
0.424098 0.138429 0.325848 0.8 0 0
0.501669 0.086810 0.138932 0.8 0 0
0.520865 0.067070 0.473298 0.8 0 0
0.816937 0.236541 0.229921 0.8 0 0
0.491937 0.049532 0.444426 0.8 0 0
0.500193 0.092626 0.126550 0.8 0 0
0.584848 0.145854 0.337185 0.8 0 0
0.343897 0.184569 0.376853 0.8 0 0
0.885300 0.246949 0.251002 0.8 0 0
0.759303 0.229312 0.291476 0.8 0 0
0.491574 0.089574 0.494741 0.8 0 0
0.781544 0.238012 0.329416 0.8 0 0
0.439822 0.052925 0.354803 0.8 0 0
0.252680 0.229609 0.354588 0.8 0 0
0.468660 0.101667 0.094386 0.8 0 0
0.758294 0.224148 0.321474 0.8 0 0
0.140166 0.241265 0.223087 0.8 0 0
0.217647 0.229507 0.268058 0.8 0 0
0.819240 0.239499 0.314507 0.8 0 0
0.441397 0.106161 0.225947 0.8 0 0
0.832964 0.242644 0.262988 0.8 0 0
0.445643 0.079691 0.223611 0.8 0 0
0.949682 0.252148 0.236020 0.8 0 0
0.248015 0.220131 0.263551 0.8 0 0
0.401282 0.143129 0.328492 0.8 0 0
0.301654 0.194976 0.254808 0.8 0 0
0.743405 0.225280 0.368309 0.8 0 0
0.820403 0.238649 0.293333 0.8 0 0
0.489171 0.027004 0.299444 0.8 0 0
0.373808 0.161635 0.245594 0.8 0 0
0.401539 0.142832 0.305458 0.8 0 0
0.466947 0.060729 0.202185 0.8 0 0
0.709740 0.201300 0.357991 0.8 0 0
0.234565 0.231814 0.316061 0.8 0 0
0.478252 0.094416 0.123244 0.8 0 0
0.439557 0.063598 0.275592 0.8 0 0
0.538435 0.109724 0.221666 0.8 0 0
0.919769 0.252328 0.255720 0.8 0 0
0.508677 0.035745 0.248593 0.8 0 0
0.457163 0.075000 0.168289 0.8 0 0
0.725601 0.209882 0.278342 0.8 0 0
0.424130 0.109758 0.323319 0.8 0 0
0.722968 0.215436 0.308775 0.8 0 0
0.413527 0.132834 0.269721 0.8 0 0
0.379043 0.155465 0.288990 0.8 0 0
0.452421 0.101847 0.055357 0.8 0 0
0.698839 0.196314 0.324306 0.8 0 0
0.683482 0.190288 0.244438 0.8 0 0
0.189180 0.237870 0.321886 0.8 0 0
0.738744 0.223987 0.307707 0.8 0 0
0.697721 0.195341 0.309310 0.8 0 0
0.309858 0.191070 0.281657 0.8 0 0
0.572200 0.135679 0.317671 0.8 0 0
0.772975 0.231494 0.267646 0.8 0 0
0.878674 0.246270 0.284637 0.8 0 0
0.136897 0.248072 0.291047 0.8 0 0
0.493331 0.105596 0.047712 0.8 0 0
0.682908 0.195675 0.288372 0.8 0 0
0.429711 0.106013 0.293944 0.8 0 0
0.492510 0.115260 0.371804 0.8 0 0
0.343581 0.175175 0.321714 0.8 0 0
0.447216 0.100618 0.069639 0.8 0 0
0.784992 0.231129 0.226768 0.8 0 0
0.674798 0.187372 0.248833 0.8 0 0
0.571407 0.110469 0.294650 0.8 0 0
0.201329 0.238045 0.261062 0.8 0 0
0.723801 0.208801 0.279594 0.8 0 0
0.196214 0.234904 0.272354 0.8 0 0
0.278345 0.207601 0.297884 0.8 0 0
0.693703 0.193734 0.336463 0.8 0 0
0.672434 0.186672 0.251218 0.8 0 0
0.800298 0.234527 0.314440 0.8 0 0
0.479504 0.113191 0.432958 0.8 0 0
0.543935 0.093853 0.404875 0.8 0 0
0.524393 0.032708 0.366633 0.8 0 0
0.315728 0.188484 0.275804 0.8 0 0
0.863142 0.242468 0.262541 0.8 0 0
0.515394 0.040899 0.232335 0.8 0 0
0.651951 0.173258 0.253544 0.8 0 0
0.418257 0.118878 0.309769 0.8 0 0
0.232605 0.233796 0.328936 0.8 0 0
0.663026 0.178812 0.297997 0.8 0 0
0.398905 0.143974 0.252947 0.8 0 0
0.464760 0.031866 0.350017 0.8 0 0
0.328129 0.191059 0.318564 0.8 0 0
0.355277 0.168871 0.274098 0.8 0 0
0.266224 0.221710 0.315347 0.8 0 0
0.658221 0.185694 0.344784 0.8 0 0
0.258332 0.218020 0.244348 0.8 0 0
0.524563 0.091837 0.469467 0.8 0 0
0.474501 0.090903 0.139942 0.8 0 0
0.516117 0.113359 0.434234 0.8 0 0
0.711211 0.209667 0.317345 0.8 0 0
0.469892 0.062369 0.436885 0.8 0 0
0.288917 0.201435 0.293710 0.8 0 0
0.177835 0.242347 0.278284 0.8 0 0
0.467968 0.116627 0.347452 0.8 0 0
0.484056 0.113167 0.385061 0.8 0 0
0.258951 0.216688 0.277647 0.8 0 0
0.542061 0.103583 0.058711 0.8 0 0
0.763808 0.223738 0.217012 0.8 0 0
0.551535 0.105737 0.220929 0.8 0 0
0.577813 0.112250 0.318880 0.8 0 0
0.224932 0.232543 0.299835 0.8 0 0
0.488067 0.097673 0.153452 0.8 0 0
0.522077 0.112505 0.304818 0.8 0 0
0.344381 0.180123 0.261500 0.8 0 0
0.446270 0.073534 0.225676 0.8 0 0
0.463064 0.031169 0.310766 0.8 0 0
0.467875 0.099497 0.186600 0.8 0 0
0.423399 0.142632 0.368078 0.8 0 0
0.725085 0.217477 0.335775 0.8 0 0
0.545426 0.095469 0.143455 0.8 0 0
0.190959 0.237287 0.313919 0.8 0 0
0.550990 0.093580 0.097669 0.8 0 0
0.504191 0.059030 0.185991 0.8 0 0
0.285786 0.203819 0.339055 0.8 0 0
0.407729 0.135859 0.302466 0.8 0 0
0.656939 0.180720 0.260745 0.8 0 0
0.532789 0.089346 0.139688 0.8 0 0
0.835973 0.239682 0.275526 0.8 0 0
0.402757 0.141966 0.325317 0.8 0 0
0.810698 0.233864 0.218284 0.8 0 0
0.843986 0.239127 0.222237 0.8 0 0
0.771681 0.229329 0.346269 0.8 0 0
0.868755 0.250164 0.302893 0.8 0 0
0.527946 0.028940 0.326113 0.8 0 0
0.651886 0.175266 0.243593 0.8 0 0
0.360537 0.174030 0.291156 0.8 0 0
0.400712 0.150676 0.265818 0.8 0 0
0.452060 0.078216 0.181332 0.8 0 0
0.635753 0.163373 0.352907 0.8 0 0
0.591598 0.135074 0.385905 0.8 0 0
0.461395 0.089770 0.423304 0.8 0 0
0.475205 0.034557 0.381530 0.8 0 0
0.595073 0.140795 0.295195 0.8 0 0
0.579699 0.143143 0.377359 0.8 0 0
0.490259 0.066654 0.176121 0.8 0 0
0.908653 0.249738 0.276900 0.8 0 0
0.460617 0.093865 0.108177 0.8 0 0
0.258026 0.218854 0.336104 0.8 0 0
0.820479 0.241869 0.332618 0.8 0 0
0.496481 0.114395 0.446283 0.8 0 0
0.511913 0.113388 0.456126 0.8 0 0
0.549588 0.120394 0.278723 0.8 0 0
0.419198 0.143845 0.344648 0.8 0 0
0.563807 0.084106 0.364017 0.8 0 0
0.436908 0.131814 0.390119 0.8 0 0
0.823401 0.232301 0.195113 0.8 0 0
0.751666 0.219744 0.286651 0.8 0 0
0.489948 0.097387 0.156845 0.8 0 0
0.887897 0.243846 0.217800 0.8 0 0
0.569645 0.123013 0.239015 0.8 0 0
0.433306 0.080137 0.305788 0.8 0 0
0.470952 0.096502 0.098098 0.8 0 0
0.257797 0.217329 0.286134 0.8 0 0
0.406168 0.139547 0.242788 0.8 0 0
0.491402 0.097171 0.099474 0.8 0 0
0.225038 0.232769 0.302077 0.8 0 0
0.661068 0.187334 0.354994 0.8 0 0
0.650054 0.174956 0.249279 0.8 0 0
0.545523 0.039032 0.323485 0.8 0 0
0.635327 0.163286 0.265505 0.8 0 0
0.445303 0.097992 0.097057 0.8 0 0
0.438390 0.082925 0.263924 0.8 0 0
0.578905 0.126411 0.392112 0.8 0 0
0.406756 0.139874 0.344453 0.8 0 0
0.470710 0.076124 0.453301 0.8 0 0
0.623635 0.159015 0.249531 0.8 0 0
0.642940 0.166567 0.378878 0.8 0 0
0.551279 0.066275 0.233276 0.8 0 0
0.546755 0.103139 0.066523 0.8 0 0
0.196656 0.235367 0.280230 0.8 0 0
0.480587 0.045340 0.222141 0.8 0 0
0.461862 0.096998 0.090542 0.8 0 0
0.451061 0.080705 0.188039 0.8 0 0
0.250533 0.218357 0.225557 0.8 0 0
0.213866 0.231860 0.305360 0.8 0 0
0.444665 0.072348 0.236531 0.8 0 0
0.798860 0.233509 0.261745 0.8 0 0
0.389318 0.157061 0.268109 0.8 0 0
0.464015 0.096722 0.092293 0.8 0 0
0.099521 0.243408 0.202487 0.8 0 0
0.252936 0.218646 0.257769 0.8 0 0
0.820192 0.244647 0.298021 0.8 0 0
0.607415 0.158643 0.342234 0.8 0 0
0.639843 0.176853 0.355145 0.8 0 0
0.612242 0.154674 0.260934 0.8 0 0
0.210166 0.236771 0.267719 0.8 0 0
0.508912 0.114119 0.391542 0.8 0 0
0.596604 0.141498 0.271870 0.8 0 0
0.402536 0.142259 0.326041 0.8 0 0
0.553307 0.122427 0.247449 0.8 0 0
0.427989 0.100635 0.035645 0.8 0 0
0.869884 0.248249 0.286445 0.8 0 0
0.322845 0.185265 0.278312 0.8 0 0
0.675791 0.183986 0.372021 0.8 0 0
0.549197 0.116816 0.398688 0.8 0 0
0.522228 0.096099 0.471191 0.8 0 0
0.739485 0.224103 0.306352 0.8 0 0
0.209327 0.231770 0.225166 0.8 0 0
0.510531 0.105790 0.049262 0.8 0 0
0.439477 0.080020 0.260656 0.8 0 0
0.269672 0.212390 0.359217 0.8 0 0
0.474140 0.058230 0.198682 0.8 0 0
0.805713 0.235064 0.231708 0.8 0 0
0.226430 0.231591 0.265248 0.8 0 0
0.662238 0.177438 0.362018 0.8 0 0
0.271723 0.219132 0.328044 0.8 0 0
0.367655 0.172864 0.355999 0.8 0 0
0.464956 0.095755 0.164197 0.8 0 0
0.315178 0.188351 0.308634 0.8 0 0
0.514731 0.032766 0.367474 0.8 0 0
0.429640 0.124105 0.237463 0.8 0 0
0.456380 0.100714 0.207557 0.8 0 0
0.314562 0.189274 0.245312 0.8 0 0
0.484569 0.096896 0.162668 0.8 0 0
0.813512 0.239611 0.256919 0.8 0 0
0.539891 0.121294 0.365417 0.8 0 0
0.095349 0.244707 0.216329 0.8 0 0
0.436549 0.096762 0.090336 0.8 0 0
0.808722 0.243150 0.303672 0.8 0 0
0.235760 0.224073 0.222276 0.8 0 0
0.564851 0.081765 0.348487 0.8 0 0
0.441491 0.051373 0.350866 0.8 0 0
0.944277 0.251675 0.241458 0.8 0 0
0.900390 0.249517 0.255218 0.8 0 0
0.157447 0.235360 0.203538 0.8 0 0
0.534827 0.046413 0.403610 0.8 0 0
0.537984 0.032142 0.315537 0.8 0 0
0.232223 0.225286 0.219615 0.8 0 0
0.533207 0.066569 0.197691 0.8 0 0
0.526481 0.109921 0.280922 0.8 0 0
0.896732 0.248534 0.281912 0.8 0 0
0.583346 0.145652 0.374403 0.8 0 0
0.555179 0.062022 0.255447 0.8 0 0
0.774465 0.226387 0.248081 0.8 0 0
0.575164 0.115756 0.343923 0.8 0 0
0.196852 0.241018 0.298255 0.8 0 0
0.400862 0.142945 0.271729 0.8 0 0
0.598044 0.154354 0.361233 0.8 0 0
0.494514 0.043163 0.223694 0.8 0 0
0.550188 0.061497 0.392981 0.8 0 0
0.465664 0.098885 0.125232 0.8 0 0
0.476370 0.029024 0.291174 0.8 0 0
0.704090 0.198335 0.314548 0.8 0 0
0.237512 0.227535 0.354240 0.8 0 0
0.514008 0.066224 0.527569 0.8 0 0
0.232270 0.225036 0.249727 0.8 0 0
0.559627 0.090934 0.244223 0.8 0 0
0.865376 0.243987 0.246465 0.8 0 0
0.118190 0.243824 0.248927 0.8 0 0
0.279104 0.206998 0.277091 0.8 0 0
0.063623 0.251291 0.252228 0.8 0 0
0.616549 0.152536 0.260369 0.8 0 0
0.527274 0.029261 0.331144 0.8 0 0
0.728744 0.211366 0.296621 0.8 0 0
0.534761 0.114132 0.297942 0.8 0 0
0.167200 0.242047 0.320825 0.8 0 0
0.192769 0.242259 0.298968 0.8 0 0
0.870229 0.245852 0.261581 0.8 0 0
0.456020 0.038194 0.325585 0.8 0 0
0.506419 0.113673 0.437919 0.8 0 0
0.562739 0.092983 0.128541 0.8 0 0
0.467274 0.084181 0.444076 0.8 0 0
0.344107 0.183893 0.322748 0.8 0 0
0.299711 0.196215 0.237965 0.8 0 0
0.432601 0.092640 0.294141 0.8 0 0
0.671171 0.182224 0.346289 0.8 0 0
0.614457 0.151573 0.283118 0.8 0 0
0.437590 0.110845 0.244546 0.8 0 0
0.232489 0.225017 0.243643 0.8 0 0
0.682629 0.195892 0.298410 0.8 0 0
0.437080 0.071657 0.287563 0.8 0 0
0.129942 0.247956 0.304941 0.8 0 0
0.401488 0.142325 0.244062 0.8 0 0
0.535143 0.112950 0.285021 0.8 0 0
0.771299 0.234545 0.305447 0.8 0 0
0.407218 0.140236 0.243590 0.8 0 0
0.269033 0.220243 0.313555 0.8 0 0
0.525241 0.046194 0.220697 0.8 0 0
0.533658 0.049599 0.231884 0.8 0 0
0.751717 0.220382 0.298732 0.8 0 0
0.472041 0.100458 0.121966 0.8 0 0
0.431100 0.105739 0.286313 0.8 0 0
0.537880 0.032245 0.319710 0.8 0 0
0.586112 0.138883 0.253765 0.8 0 0
0.488288 0.029406 0.281302 0.8 0 0
0.802421 0.234824 0.294008 0.8 0 0
0.493706 0.113872 0.440529 0.8 0 0
0.560068 0.131712 0.360360 0.8 0 0
0.542431 0.037856 0.352730 0.8 0 0
0.410869 0.145078 0.267769 0.8 0 0
0.262281 0.214134 0.236552 0.8 0 0
0.953453 0.252995 0.231623 0.8 0 0
0.523325 0.097473 0.100973 0.8 0 0
0.495586 0.074329 0.161389 0.8 0 0
0.632773 0.162022 0.278868 0.8 0 0
0.092184 0.252561 0.280334 0.8 0 0
0.389160 0.159828 0.325352 0.8 0 0
0.431910 0.099589 0.055127 0.8 0 0
0.553762 0.070681 0.228520 0.8 0 0
0.442095 0.125590 0.305332 0.8 0 0
0.866550 0.246081 0.300568 0.8 0 0
0.819245 0.237003 0.270856 0.8 0 0
0.438651 0.105144 0.243777 0.8 0 0
0.481944 0.034920 0.253864 0.8 0 0
0.706455 0.198607 0.284604 0.8 0 0
0.516356 0.097572 0.150914 0.8 0 0
0.259149 0.221927 0.279422 0.8 0 0
0.805154 0.232195 0.226489 0.8 0 0
0.456908 0.062824 0.409862 0.8 0 0
0.109242 0.244136 0.218897 0.8 0 0
0.386609 0.163063 0.368010 0.8 0 0
0.447702 0.105381 0.388554 0.8 0 0
0.544907 0.089886 0.120824 0.8 0 0
0.547424 0.094277 0.199602 0.8 0 0
0.542308 0.044844 0.269027 0.8 0 0
0.550446 0.043452 0.325399 0.8 0 0
0.888917 0.243188 0.229343 0.8 0 0
0.447589 0.092524 0.190520 0.8 0 0
0.917587 0.246816 0.212816 0.8 0 0
0.687347 0.198696 0.328243 0.8 0 0
0.579752 0.099807 0.031926 0.8 0 0
0.561428 0.063993 0.282124 0.8 0 0
0.727779 0.219085 0.351695 0.8 0 0
0.598457 0.142957 0.323350 0.8 0 0
0.474325 0.102280 0.209922 0.8 0 0
0.585627 0.147073 0.348630 0.8 0 0
0.238754 0.223187 0.233578 0.8 0 0
0.368935 0.172674 0.367084 0.8 0 0
0.226307 0.236578 0.347463 0.8 0 0
0.677383 0.185151 0.353640 0.8 0 0
0.590099 0.140157 0.251323 0.8 0 0
0.487036 0.101972 0.474753 0.8 0 0
0.448085 0.065118 0.390007 0.8 0 0
0.167218 0.235336 0.219421 0.8 0 0
0.145578 0.238455 0.224195 0.8 0 0
0.446102 0.086589 0.162925 0.8 0 0
0.426085 0.136874 0.318239 0.8 0 0
0.331093 0.191541 0.366408 0.8 0 0
0.483473 0.035301 0.385575 0.8 0 0
0.779147 0.229615 0.321487 0.8 0 0
0.521004 0.045069 0.432589 0.8 0 0
0.408883 0.148781 0.323624 0.8 0 0
0.878760 0.244232 0.233036 0.8 0 0
0.699309 0.195773 0.373228 0.8 0 0
0.437048 0.092745 0.131805 0.8 0 0
0.549782 0.057772 0.252665 0.8 0 0
0.144817 0.244042 0.253573 0.8 0 0
0.445087 0.106177 0.384957 0.8 0 0
0.898806 0.249540 0.257715 0.8 0 0
0.825948 0.234471 0.219424 0.8 0 0
0.275113 0.217393 0.344013 0.8 0 0
0.825733 0.241013 0.318436 0.8 0 0
0.263684 0.214996 0.273339 0.8 0 0
0.258826 0.215607 0.229544 0.8 0 0
0.129152 0.244413 0.237149 0.8 0 0
0.390902 0.158914 0.326219 0.8 0 0
0.702426 0.206213 0.352643 0.8 0 0
0.443436 0.049364 0.309976 0.8 0 0
0.284953 0.208059 0.261839 0.8 0 0
0.210957 0.229596 0.221560 0.8 0 0
0.791160 0.240357 0.335709 0.8 0 0
0.114728 0.240281 0.187978 0.8 0 0
0.244432 0.221633 0.226149 0.8 0 0
0.191858 0.232791 0.231734 0.8 0 0
0.116529 0.242443 0.210709 0.8 0 0
0.205137 0.233918 0.308078 0.8 0 0
0.545665 0.069938 0.405781 0.8 0 0
0.241135 0.227564 0.291171 0.8 0 0
0.577993 0.112397 0.319289 0.8 0 0
0.447006 0.100583 0.069860 0.8 0 0
0.760046 0.234042 0.361819 0.8 0 0
0.433733 0.075139 0.337771 0.8 0 0
0.188936 0.237785 0.315750 0.8 0 0
0.433160 0.092999 0.074681 0.8 0 0
0.176619 0.233076 0.205319 0.8 0 0
0.565307 0.075024 0.295909 0.8 0 0
0.308790 0.191565 0.280405 0.8 0 0
0.426902 0.102779 0.314145 0.8 0 0
0.490542 0.109342 0.275563 0.8 0 0
0.538061 0.097101 0.085109 0.8 0 0
0.576844 0.140712 0.339834 0.8 0 0
0.746619 0.217681 0.266737 0.8 0 0
0.463962 0.099094 0.429696 0.8 0 0
0.439884 0.065436 0.367560 0.8 0 0
0.538669 0.103154 0.416658 0.8 0 0
0.283754 0.204912 0.350769 0.8 0 0
0.447121 0.122059 0.249808 0.8 0 0
0.368387 0.169440 0.380992 0.8 0 0
0.130021 0.244649 0.279287 0.8 0 0
0.539993 0.073668 0.167841 0.8 0 0
0.855641 0.247034 0.287912 0.8 0 0
0.345005 0.181827 0.276528 0.8 0 0
0.670179 0.182304 0.283823 0.8 0 0
0.505435 0.108824 0.463807 0.8 0 0
0.454088 0.081083 0.149441 0.8 0 0
0.449126 0.117219 0.235363 0.8 0 0
0.454965 0.066285 0.409390 0.8 0 0
0.455704 0.094015 0.403632 0.8 0 0
0.604940 0.146365 0.306208 0.8 0 0
0.471870 0.097527 0.169430 0.8 0 0
0.569849 0.107298 0.356792 0.8 0 0
0.801071 0.240334 0.280760 0.8 0 0
0.666387 0.180579 0.291285 0.8 0 0
0.229903 0.225905 0.230780 0.8 0 0
0.486952 0.094719 0.126496 0.8 0 0
0.527060 0.082791 0.156701 0.8 0 0
0.488997 0.113884 0.440659 0.8 0 0
0.433715 0.074122 0.333184 0.8 0 0
0.937170 0.251122 0.249906 0.8 0 0
0.511186 0.026122 0.309946 0.8 0 0
0.869941 0.243015 0.258698 0.8 0 0
0.678115 0.195189 0.356788 0.8 0 0
0.923524 0.248286 0.232831 0.8 0 0
0.190014 0.237624 0.320603 0.8 0 0
0.429078 0.090776 0.319099 0.8 0 0
0.317495 0.187374 0.371603 0.8 0 0
0.534885 0.099747 0.117416 0.8 0 0
0.098098 0.250772 0.265209 0.8 0 0
0.526715 0.045087 0.225636 0.8 0 0
0.392985 0.155015 0.386144 0.8 0 0
0.933299 0.252318 0.243495 0.8 0 0
0.652411 0.182716 0.334644 0.8 0 0
0.702452 0.197247 0.372927 0.8 0 0
0.812970 0.244579 0.313428 0.8 0 0
0.708343 0.200073 0.309861 0.8 0 0
0.187311 0.234483 0.247371 0.8 0 0
0.319502 0.186804 0.273809 0.8 0 0
0.478231 0.027425 0.311395 0.8 0 0
0.495676 0.101817 0.104319 0.8 0 0
0.452112 0.123537 0.378949 0.8 0 0
0.540393 0.100358 0.107481 0.8 0 0
0.777226 0.231030 0.253393 0.8 0 0
0.230803 0.235685 0.351017 0.8 0 0
0.558100 0.074829 0.249965 0.8 0 0
0.681938 0.187527 0.271628 0.8 0 0
0.440096 0.085408 0.252597 0.8 0 0
0.954997 0.252921 0.236445 0.8 0 0
0.768905 0.234311 0.312512 0.8 0 0
0.215247 0.230014 0.236795 0.8 0 0
0.179096 0.235572 0.246383 0.8 0 0
0.381530 0.164916 0.381591 0.8 0 0
0.497905 0.031130 0.268859 0.8 0 0
0.598416 0.142496 0.276828 0.8 0 0
0.143609 0.240665 0.221562 0.8 0 0
0.622491 0.156034 0.298208 0.8 0 0
0.645458 0.180450 0.366481 0.8 0 0
0.631317 0.160697 0.368808 0.8 0 0
0.463599 0.056096 0.415987 0.8 0 0
0.329373 0.192284 0.364609 0.8 0 0
0.559005 0.102361 0.375965 0.8 0 0
0.385633 0.163482 0.365322 0.8 0 0
0.463137 0.094673 0.106633 0.8 0 0
0.268375 0.213213 0.275916 0.8 0 0
0.349787 0.172284 0.259152 0.8 0 0
0.546519 0.121224 0.315859 0.8 0 0
0.530481 0.033494 0.378032 0.8 0 0
0.323845 0.185031 0.254992 0.8 0 0
0.456703 0.042657 0.381092 0.8 0 0
0.591455 0.148611 0.308475 0.8 0 0
0.732368 0.211801 0.244101 0.8 0 0
0.446151 0.072849 0.227200 0.8 0 0
0.053278 0.251191 0.226129 0.8 0 0
0.705654 0.199627 0.344938 0.8 0 0
0.522980 0.116252 0.356273 0.8 0 0
0.370033 0.160748 0.234613 0.8 0 0
0.475776 0.109475 0.276793 0.8 0 0
0.559785 0.085221 0.249995 0.8 0 0
0.457873 0.036983 0.333096 0.8 0 0
0.342190 0.183959 0.298504 0.8 0 0
0.746514 0.218320 0.290965 0.8 0 0
0.206340 0.233215 0.284256 0.8 0 0
0.611536 0.150180 0.325651 0.8 0 0
0.482044 0.050209 0.445598 0.8 0 0
0.552046 0.126117 0.353382 0.8 0 0
0.429432 0.098271 0.068226 0.8 0 0
0.599045 0.143298 0.325234 0.8 0 0
0.434459 0.095762 0.364355 0.8 0 0
0.604437 0.145938 0.355926 0.8 0 0
0.512818 0.099130 0.098291 0.8 0 0
0.543629 0.041029 0.367700 0.8 0 0
0.532916 0.055078 0.421256 0.8 0 0
0.804007 0.237766 0.251936 0.8 0 0
0.632716 0.162560 0.235658 0.8 0 0
0.294466 0.206695 0.293970 0.8 0 0
0.641052 0.174723 0.287344 0.8 0 0
0.227301 0.226702 0.230299 0.8 0 0
0.606328 0.146968 0.357472 0.8 0 0
0.636043 0.163824 0.286970 0.8 0 0
