0.474863 0.306246 0.853717 0.8 0 0
0.522651 0.377165 0.263676 0.8 0 0
0.248991 0.477998 0.330561 0.8 0 0
0.455361 0.371873 0.665060 0.8 0 0
0.478472 0.275823 0.682994 0.8 0 0
0.806162 0.578234 0.457662 0.8 0 0
0.628929 0.461511 0.771469 0.8 0 0
0.393666 0.319893 0.271119 0.8 0 0
0.891414 0.706191 0.362900 0.8 0 0
0.453729 0.233256 0.601935 0.8 0 0
0.661387 0.215930 0.311982 0.8 0 0
0.658296 0.226442 0.510537 0.8 0 0
0.605239 0.371965 0.890469 0.8 0 0
0.723729 0.421670 0.445305 0.8 0 0
0.542727 0.378271 0.661512 0.8 0 0
0.388686 0.337501 0.360028 0.8 0 0
0.483456 0.304142 0.780445 0.8 0 0
0.500192 0.160256 0.345872 0.8 0 0
0.367915 0.374421 0.470093 0.8 0 0
0.409200 0.259622 0.482613 0.8 0 0
0.674031 0.350241 0.514972 0.8 0 0
0.392668 0.326033 0.307581 0.8 0 0
0.808487 0.589270 0.478973 0.8 0 0
0.444117 0.393008 0.619383 0.8 0 0
0.351037 0.404088 0.557154 0.8 0 0
0.604898 0.167798 0.457807 0.8 0 0
0.530631 0.413944 0.685911 0.8 0 0
0.630701 0.420722 0.686245 0.8 0 0
0.745404 0.447093 0.398704 0.8 0 0
0.558744 0.435174 0.649704 0.8 0 0
0.625239 0.427056 0.830565 0.8 0 0
0.465767 0.118946 0.385269 0.8 0 0
0.465766 0.313934 0.900726 0.8 0 0
0.688401 0.382726 0.529155 0.8 0 0
0.427942 0.235902 0.359478 0.8 0 0
0.715870 0.385140 0.375720 0.8 0 0
0.435584 0.254960 0.297902 0.8 0 0
0.493020 0.401463 0.839913 0.8 0 0
0.626583 0.283338 0.650972 0.8 0 0
0.549480 0.315145 0.748104 0.8 0 0
0.671801 0.073045 0.385354 0.8 0 0
0.630453 0.348697 0.832479 0.8 0 0
0.563011 0.202894 0.608819 0.8 0 0
0.794443 0.567947 0.493806 0.8 0 0
0.163767 0.563698 0.312488 0.8 0 0
0.632698 0.353611 0.778411 0.8 0 0
0.660403 0.227943 0.293149 0.8 0 0
0.643048 0.185732 0.348064 0.8 0 0
0.438332 0.204204 0.460584 0.8 0 0
0.449563 0.206853 0.434767 0.8 0 0
0.788331 0.562862 0.513551 0.8 0 0
0.485247 0.073222 0.370193 0.8 0 0
0.482539 0.298349 0.707979 0.8 0 0
0.539653 0.293032 0.715105 0.8 0 0
0.430765 0.073400 0.373470 0.8 0 0
0.432756 0.210155 0.439718 0.8 0 0
0.689804 0.288389 0.455667 0.8 0 0
0.463761 0.397661 0.654622 0.8 0 0
0.539382 0.162181 0.501466 0.8 0 0
0.427479 0.321626 0.800318 0.8 0 0
0.738312 0.435499 0.403580 0.8 0 0
0.562896 0.296620 0.804161 0.8 0 0
0.491918 0.394748 0.315149 0.8 0 0
0.443373 0.208468 0.500200 0.8 0 0
0.598620 0.308522 0.818576 0.8 0 0
0.518339 0.273317 0.851679 0.8 0 0
0.317561 0.415247 0.389381 0.8 0 0
0.567030 0.385167 0.270290 0.8 0 0
0.828012 0.575979 0.322387 0.8 0 0
0.604084 0.245949 0.642860 0.8 0 0
0.491601 0.435524 0.627624 0.8 0 0
0.515843 0.167146 0.507669 0.8 0 0
0.303792 0.430122 0.393808 0.8 0 0
0.572809 0.328537 0.208676 0.8 0 0
0.462372 0.425033 0.578092 0.8 0 0
0.676971 0.362805 0.446572 0.8 0 0
0.765546 0.505079 0.464196 0.8 0 0
0.463181 0.352594 0.842078 0.8 0 0
0.651718 0.056034 0.403185 0.8 0 0
0.421726 0.375156 0.589852 0.8 0 0
0.648416 0.154095 0.337133 0.8 0 0
0.486194 0.379171 0.298838 0.8 0 0
0.569024 0.368492 0.913858 0.8 0 0
0.506350 0.304702 0.790328 0.8 0 0
0.477256 0.076608 0.398220 0.8 0 0
0.567294 0.257321 0.182389 0.8 0 0
0.403841 0.290030 0.476966 0.8 0 0
0.608225 0.385054 0.118136 0.8 0 0
0.465447 0.071793 0.394729 0.8 0 0
0.648349 0.216886 0.516063 0.8 0 0
0.213073 0.527130 0.415855 0.8 0 0
0.541503 0.357636 0.140753 0.8 0 0
0.417906 0.138744 0.348083 0.8 0 0
0.590238 0.508222 0.700552 0.8 0 0
0.641738 0.144521 0.348950 0.8 0 0
0.645938 0.390582 0.594026 0.8 0 0
0.595775 0.383092 0.119288 0.8 0 0
0.536821 0.258326 0.927501 0.8 0 0
0.535761 0.506694 0.772878 0.8 0 0
0.614455 0.077802 0.377008 0.8 0 0
0.616220 0.197651 0.547404 0.8 0 0
0.461936 0.213442 0.579961 0.8 0 0
0.436276 0.438015 0.662525 0.8 0 0
0.458779 0.486111 0.777073 0.8 0 0
0.372036 0.365328 0.435629 0.8 0 0
0.478669 0.312078 0.817128 0.8 0 0
0.796175 0.525119 0.348041 0.8 0 0
0.869624 0.687209 0.430576 0.8 0 0
0.711636 0.370337 0.353678 0.8 0 0
0.479257 0.450280 0.630432 0.8 0 0
0.309314 0.425223 0.399652 0.8 0 0
0.491220 0.493287 0.791633 0.8 0 0
0.451973 0.315524 0.784892 0.8 0 0
0.188535 0.557560 0.451740 0.8 0 0
0.539565 0.316079 0.744189 0.8 0 0
0.582022 0.309655 0.716364 0.8 0 0
0.538085 0.386369 0.714712 0.8 0 0
0.539655 0.393856 0.646512 0.8 0 0
0.663342 0.081016 0.400682 0.8 0 0
0.590062 0.308962 0.793147 0.8 0 0
0.626785 0.333640 0.850166 0.8 0 0
0.538271 0.442458 0.416352 0.8 0 0
0.487653 0.403760 0.696556 0.8 0 0
0.565524 0.148801 0.410664 0.8 0 0
0.517224 0.171384 0.259207 0.8 0 0
0.619917 0.177451 0.471883 0.8 0 0
0.570228 0.344455 0.868922 0.8 0 0
0.407439 0.434428 0.778258 0.8 0 0
0.491495 0.426826 0.881970 0.8 0 0
0.515812 0.272474 0.855277 0.8 0 0
0.577623 0.364311 0.811808 0.8 0 0
0.572996 0.215843 0.197861 0.8 0 0
0.332038 0.396720 0.364114 0.8 0 0
0.424446 0.392007 0.710251 0.8 0 0
0.622807 0.483867 0.695895 0.8 0 0
0.504260 0.448836 0.490642 0.8 0 0
0.587105 0.463416 0.827882 0.8 0 0
0.676632 0.332509 0.439163 0.8 0 0
0.475677 0.444218 0.857292 0.8 0 0
0.423874 0.355378 0.397090 0.8 0 0
0.730940 0.381869 0.276993 0.8 0 0
0.511777 0.406646 0.326713 0.8 0 0
0.467224 0.197549 0.543536 0.8 0 0
0.509285 0.450458 0.504552 0.8 0 0
0.808424 0.567860 0.411546 0.8 0 0
0.456385 0.380802 0.819189 0.8 0 0
0.460924 0.344182 0.719585 0.8 0 0
0.575749 0.173633 0.248777 0.8 0 0
0.568480 0.193407 0.584432 0.8 0 0
0.438849 0.065169 0.394331 0.8 0 0
0.534171 0.405900 0.864300 0.8 0 0
0.564396 0.235814 0.664215 0.8 0 0
0.460930 0.240933 0.428601 0.8 0 0
0.414157 0.336710 0.402106 0.8 0 0
0.462395 0.181446 0.412064 0.8 0 0
0.569059 0.450873 0.560451 0.8 0 0
0.636468 0.213197 0.535451 0.8 0 0
0.513023 0.213298 0.630547 0.8 0 0
0.558775 0.186228 0.229340 0.8 0 0
0.668882 0.267762 0.279595 0.8 0 0
0.775958 0.500753 0.389438 0.8 0 0
0.606198 0.498306 0.709418 0.8 0 0
0.420522 0.143866 0.328702 0.8 0 0
0.648732 0.245376 0.567403 0.8 0 0
0.225364 0.499444 0.309036 0.8 0 0
0.634679 0.377143 0.636647 0.8 0 0
0.850377 0.656827 0.447242 0.8 0 0
0.879189 0.693378 0.394020 0.8 0 0
0.477020 0.427587 0.431618 0.8 0 0
0.621306 0.304899 0.667914 0.8 0 0
0.573790 0.160045 0.291366 0.8 0 0
0.657694 0.084729 0.409313 0.8 0 0
0.568153 0.269642 0.183588 0.8 0 0
0.483996 0.443044 0.861759 0.8 0 0
0.688374 0.339354 0.391983 0.8 0 0
0.639664 0.420620 0.712312 0.8 0 0
0.569289 0.196513 0.214953 0.8 0 0
0.513781 0.225488 0.971081 0.8 0 0
0.615896 0.171113 0.329255 0.8 0 0
0.473531 0.424644 0.619406 0.8 0 0
0.616187 0.381608 0.660105 0.8 0 0
0.630921 0.229427 0.585209 0.8 0 0
0.453821 0.271959 0.646322 0.8 0 0
0.621333 0.178826 0.302703 0.8 0 0
0.369350 0.343990 0.263434 0.8 0 0
0.100920 0.634786 0.355495 0.8 0 0
0.594529 0.320350 0.771427 0.8 0 0
0.507679 0.450027 0.516606 0.8 0 0
0.531036 0.522095 0.708924 0.8 0 0
0.648955 0.342539 0.633223 0.8 0 0
0.532771 0.251618 0.919281 0.8 0 0
0.456708 0.373205 0.812409 0.8 0 0
0.575505 0.338474 0.720424 0.8 0 0
0.710328 0.403632 0.466775 0.8 0 0
0.550361 0.405969 0.859598 0.8 0 0
0.557972 0.447284 0.608092 0.8 0 0
0.689472 0.319990 0.324226 0.8 0 0
0.621701 0.361026 0.142337 0.8 0 0
0.736460 0.395255 0.287010 0.8 0 0
0.404628 0.394129 0.796272 0.8 0 0
0.418862 0.343736 0.627591 0.8 0 0
0.464209 0.423593 0.448101 0.8 0 0
0.546443 0.431499 0.624438 0.8 0 0
0.447614 0.060135 0.399361 0.8 0 0
0.871499 0.669649 0.363976 0.8 0 0
0.668939 0.269958 0.541314 0.8 0 0
0.645406 0.364239 0.628896 0.8 0 0
0.544777 0.340220 0.930874 0.8 0 0
0.496183 0.379694 0.917914 0.8 0 0
0.506766 0.157004 0.356485 0.8 0 0
0.498799 0.160924 0.444100 0.8 0 0
0.543095 0.174116 0.543009 0.8 0 0
0.454387 0.348762 0.901148 0.8 0 0
0.621681 0.074587 0.404536 0.8 0 0
0.617761 0.368166 0.881352 0.8 0 0
0.430262 0.317111 0.831191 0.8 0 0
0.342814 0.388023 0.381668 0.8 0 0
0.535866 0.277882 0.182389 0.8 0 0
0.527834 0.522408 0.703981 0.8 0 0
0.642908 0.234184 0.567996 0.8 0 0
0.464513 0.328395 0.743193 0.8 0 0
0.342036 0.398611 0.451510 0.8 0 0
0.643595 0.133185 0.326891 0.8 0 0
0.273076 0.466320 0.425213 0.8 0 0
0.436136 0.178921 0.334119 0.8 0 0
0.559663 0.149043 0.416198 0.8 0 0
0.446257 0.210082 0.321638 0.8 0 0
0.558058 0.170268 0.255321 0.8 0 0
0.517812 0.324249 0.925021 0.8 0 0
0.721439 0.382124 0.333514 0.8 0 0
0.756796 0.492200 0.474724 0.8 0 0
0.653091 0.419245 0.087600 0.8 0 0
0.627997 0.385888 0.322493 0.8 0 0
0.438115 0.384364 0.695192 0.8 0 0
0.650140 0.392151 0.763224 0.8 0 0
0.408357 0.315575 0.536393 0.8 0 0
0.531261 0.401424 0.641444 0.8 0 0
0.325187 0.422472 0.497339 0.8 0 0
0.557227 0.240832 0.670368 0.8 0 0
0.406245 0.305034 0.258012 0.8 0 0
0.684364 0.255581 0.466591 0.8 0 0
0.505890 0.508460 0.760106 0.8 0 0
0.517885 0.416528 0.860861 0.8 0 0
0.729609 0.397297 0.333648 0.8 0 0
0.598652 0.452845 0.643215 0.8 0 0
0.826568 0.596360 0.395389 0.8 0 0
0.458098 0.352430 0.710862 0.8 0 0
0.450719 0.494948 0.696684 0.8 0 0
0.491883 0.444308 0.567423 0.8 0 0
0.643548 0.387270 0.814272 0.8 0 0
0.505665 0.309859 0.723836 0.8 0 0
0.448433 0.447678 0.831426 0.8 0 0
0.689080 0.372523 0.492871 0.8 0 0
0.575551 0.449727 0.534178 0.8 0 0
0.654534 0.200268 0.391904 0.8 0 0
0.595507 0.453436 0.050827 0.8 0 0
0.638980 0.403428 0.102131 0.8 0 0
0.540450 0.289200 0.827188 0.8 0 0
0.651379 0.203928 0.314295 0.8 0 0
0.448909 0.378343 0.889829 0.8 0 0
0.477291 0.303081 0.786949 0.8 0 0
0.644817 0.194666 0.444653 0.8 0 0
0.510108 0.203663 0.607634 0.8 0 0
0.571817 0.449969 0.562293 0.8 0 0
0.426735 0.090569 0.383187 0.8 0 0
0.682689 0.373348 0.532961 0.8 0 0
0.410344 0.270322 0.415372 0.8 0 0
0.684565 0.404676 0.621157 0.8 0 0
0.698181 0.320315 0.274190 0.8 0 0
0.554893 0.449968 0.462256 0.8 0 0
0.511893 0.168938 0.512669 0.8 0 0
0.550897 0.410993 0.691458 0.8 0 0
0.830747 0.606190 0.402009 0.8 0 0
0.515268 0.330637 0.726427 0.8 0 0
0.340005 0.389285 0.369918 0.8 0 0
0.484599 0.500753 0.766982 0.8 0 0
0.688327 0.337672 0.386934 0.8 0 0
0.553741 0.357546 0.141586 0.8 0 0
0.446237 0.053442 0.383997 0.8 0 0
0.520859 0.360841 0.893425 0.8 0 0
0.664455 0.317425 0.462806 0.8 0 0
0.650486 0.401672 0.447891 0.8 0 0
0.701086 0.359964 0.382700 0.8 0 0
0.538668 0.303254 0.918680 0.8 0 0
0.340382 0.397161 0.428935 0.8 0 0
0.424840 0.328944 0.566171 0.8 0 0
0.683994 0.281442 0.489258 0.8 0 0
0.452634 0.342903 0.290839 0.8 0 0
0.626819 0.272697 0.642764 0.8 0 0
0.447056 0.172145 0.346790 0.8 0 0
0.476133 0.456770 0.841276 0.8 0 0
0.622977 0.178993 0.471901 0.8 0 0
0.657459 0.320113 0.612451 0.8 0 0
0.567559 0.519904 0.697937 0.8 0 0
0.665363 0.320676 0.467776 0.8 0 0
0.447565 0.322039 0.279519 0.8 0 0
0.618755 0.434324 0.665436 0.8 0 0
0.626475 0.369851 0.134041 0.8 0 0
0.605389 0.260161 0.656005 0.8 0 0
0.486450 0.367202 0.282169 0.8 0 0
0.636749 0.413097 0.549741 0.8 0 0
0.402715 0.301273 0.478855 0.8 0 0
0.617486 0.476751 0.766521 0.8 0 0
0.865972 0.680868 0.431911 0.8 0 0
0.655789 0.348312 0.611429 0.8 0 0
0.415570 0.360640 0.537865 0.8 0 0
0.634014 0.363270 0.842114 0.8 0 0
0.440684 0.368616 0.364885 0.8 0 0
0.671587 0.102711 0.398439 0.8 0 0
0.706276 0.340673 0.291179 0.8 0 0
0.656861 0.366029 0.589568 0.8 0 0
0.616305 0.433392 0.545493 0.8 0 0
0.278825 0.457679 0.406012 0.8 0 0
0.449804 0.486440 0.757249 0.8 0 0
0.566747 0.391207 0.905483 0.8 0 0
0.333111 0.389451 0.320145 0.8 0 0
0.447944 0.074755 0.399813 0.8 0 0
0.539234 0.380572 0.877057 0.8 0 0
0.625151 0.292753 0.219046 0.8 0 0
0.381733 0.370562 0.544683 0.8 0 0
0.377335 0.364597 0.469585 0.8 0 0
0.149411 0.592917 0.414986 0.8 0 0
0.469768 0.060703 0.400462 0.8 0 0
0.730084 0.432313 0.441737 0.8 0 0
0.907665 0.735718 0.361101 0.8 0 0
0.449498 0.202684 0.502780 0.8 0 0
0.195811 0.534428 0.340365 0.8 0 0
0.641287 0.365569 0.778187 0.8 0 0
0.513881 0.378984 0.273971 0.8 0 0
0.167841 0.562313 0.332716 0.8 0 0
0.362745 0.350012 0.257608 0.8 0 0
0.573910 0.150508 0.343156 0.8 0 0
0.623600 0.341396 0.670447 0.8 0 0
0.432387 0.357443 0.729984 0.8 0 0
0.527932 0.299785 0.925658 0.8 0 0
0.515593 0.379368 0.272976 0.8 0 0
0.465626 0.357449 0.699602 0.8 0 0
0.605242 0.354242 0.721756 0.8 0 0
0.388229 0.355272 0.483533 0.8 0 0
0.488231 0.451344 0.854534 0.8 0 0
0.680354 0.330261 0.394087 0.8 0 0
0.285711 0.448935 0.394476 0.8 0 0
0.504792 0.245779 0.950919 0.8 0 0
0.839575 0.646217 0.476987 0.8 0 0
0.446338 0.306802 0.272922 0.8 0 0
0.609451 0.133189 0.337990 0.8 0 0
0.581968 0.297228 0.201994 0.8 0 0
0.685278 0.286060 0.486474 0.8 0 0
0.561248 0.158063 0.475541 0.8 0 0
0.458346 0.267533 0.648611 0.8 0 0
0.571459 0.355153 0.863927 0.8 0 0
0.783743 0.503173 0.351451 0.8 0 0
0.436908 0.481637 0.739335 0.8 0 0
0.550332 0.415113 0.329056 0.8 0 0
0.176133 0.563895 0.405299 0.8 0 0
0.548813 0.396936 0.292367 0.8 0 0
0.480121 0.431109 0.604261 0.8 0 0
0.184433 0.544783 0.330193 0.8 0 0
0.416263 0.356083 0.854638 0.8 0 0
0.204547 0.524722 0.335637 0.8 0 0
0.614455 0.322242 0.815730 0.8 0 0
0.415619 0.364404 0.522898 0.8 0 0
0.643315 0.401841 0.565569 0.8 0 0
0.585885 0.483879 0.635406 0.8 0 0
0.549520 0.164975 0.510928 0.8 0 0
0.389124 0.332643 0.328585 0.8 0 0
0.448617 0.073148 0.378867 0.8 0 0
0.504892 0.191304 0.243718 0.8 0 0
0.581636 0.512762 0.688153 0.8 0 0
0.497267 0.290552 0.809816 0.8 0 0
0.424878 0.374805 0.871929 0.8 0 0
0.550506 0.449926 0.860967 0.8 0 0
0.852027 0.632436 0.360329 0.8 0 0
0.787010 0.494427 0.304604 0.8 0 0
0.435926 0.144597 0.363812 0.8 0 0
0.765640 0.482072 0.390796 0.8 0 0
0.316702 0.416032 0.388638 0.8 0 0
0.626368 0.164544 0.329471 0.8 0 0
0.557661 0.293395 0.883371 0.8 0 0
0.478679 0.172403 0.456403 0.8 0 0
0.585544 0.503231 0.752437 0.8 0 0
0.519020 0.290230 0.813729 0.8 0 0
0.630319 0.420921 0.480215 0.8 0 0
0.574834 0.390987 0.281973 0.8 0 0
0.768000 0.535153 0.545030 0.8 0 0
0.593048 0.232990 0.189861 0.8 0 0
0.449861 0.399757 0.618349 0.8 0 0
0.503065 0.431941 0.657411 0.8 0 0
0.456186 0.146015 0.309652 0.8 0 0
0.674702 0.376803 0.590732 0.8 0 0
0.416859 0.323280 0.466741 0.8 0 0
0.533869 0.207573 0.199926 0.8 0 0
0.484485 0.414985 0.641222 0.8 0 0
0.710579 0.378975 0.387228 0.8 0 0
0.428727 0.300196 0.389657 0.8 0 0
0.663202 0.069604 0.379911 0.8 0 0
0.642407 0.197181 0.430520 0.8 0 0
0.563697 0.307739 0.813522 0.8 0 0
0.406035 0.333457 0.459392 0.8 0 0
0.609903 0.431012 0.438955 0.8 0 0
0.627736 0.442786 0.673676 0.8 0 0
0.421741 0.228409 0.445030 0.8 0 0
0.457362 0.186769 0.395568 0.8 0 0
0.456823 0.107196 0.390537 0.8 0 0
0.651653 0.193377 0.360320 0.8 0 0
0.627631 0.324812 0.835691 0.8 0 0
0.530098 0.297965 0.782329 0.8 0 0
0.448645 0.492199 0.689333 0.8 0 0
0.551631 0.351764 0.929008 0.8 0 0
0.163667 0.573518 0.381859 0.8 0 0
0.409885 0.439683 0.766783 0.8 0 0
0.668207 0.064857 0.397170 0.8 0 0
0.588606 0.351384 0.822051 0.8 0 0
0.518536 0.446134 0.053246 0.8 0 0
0.490745 0.277953 0.701430 0.8 0 0
0.655018 0.049779 0.417210 0.8 0 0
0.527146 0.378297 0.660539 0.8 0 0
0.683034 0.253006 0.453639 0.8 0 0
0.585777 0.343648 0.220413 0.8 0 0
0.467727 0.306136 0.893244 0.8 0 0
0.246927 0.494984 0.436574 0.8 0 0
0.512020 0.393331 0.104227 0.8 0 0
0.606924 0.170277 0.330857 0.8 0 0
0.602877 0.430578 0.418533 0.8 0 0
0.308703 0.422258 0.373963 0.8 0 0
0.542480 0.324716 0.729101 0.8 0 0
0.648301 0.221608 0.457875 0.8 0 0
0.600290 0.130959 0.360885 0.8 0 0
0.179184 0.557814 0.384433 0.8 0 0
0.463021 0.462868 0.033584 0.8 0 0
0.664661 0.375995 0.414842 0.8 0 0
0.671583 0.147399 0.329301 0.8 0 0
0.566528 0.291444 0.847927 0.8 0 0
0.286236 0.439775 0.332966 0.8 0 0
0.578974 0.307055 0.785195 0.8 0 0
0.527669 0.451367 0.863124 0.8 0 0
0.405350 0.312353 0.303652 0.8 0 0
0.587590 0.213429 0.612848 0.8 0 0
0.630461 0.348655 0.658751 0.8 0 0
0.625837 0.066318 0.383313 0.8 0 0
0.433097 0.347199 0.641033 0.8 0 0
0.477923 0.310603 0.238924 0.8 0 0
0.526676 0.431544 0.067938 0.8 0 0
0.474215 0.309560 0.853968 0.8 0 0
0.387415 0.334626 0.330114 0.8 0 0
0.394897 0.330420 0.355386 0.8 0 0
0.636118 0.198902 0.323981 0.8 0 0
0.468159 0.471757 0.640800 0.8 0 0
0.460401 0.377049 0.681792 0.8 0 0
0.404562 0.314300 0.502152 0.8 0 0
0.598835 0.433159 0.419998 0.8 0 0
0.487420 0.283019 0.898282 0.8 0 0
0.760406 0.513615 0.521363 0.8 0 0
0.654283 0.397195 0.482137 0.8 0 0
0.451269 0.467174 0.028679 0.8 0 0
0.614244 0.401188 0.335445 0.8 0 0
0.405823 0.260447 0.464338 0.8 0 0
0.699897 0.389048 0.481763 0.8 0 0
0.492530 0.176640 0.295671 0.8 0 0
0.662555 0.213885 0.354520 0.8 0 0
0.485924 0.349919 0.698709 0.8 0 0
0.546909 0.505902 0.770480 0.8 0 0
0.563843 0.154081 0.449662 0.8 0 0
0.625205 0.421590 0.573950 0.8 0 0
0.654797 0.344330 0.622038 0.8 0 0
0.835369 0.637912 0.475354 0.8 0 0
0.663531 0.363255 0.613344 0.8 0 0
0.638271 0.079528 0.411192 0.8 0 0
0.540395 0.354495 0.230980 0.8 0 0
0.463288 0.331793 0.817626 0.8 0 0
0.433735 0.217866 0.497090 0.8 0 0
0.478956 0.421219 0.405651 0.8 0 0
0.592132 0.377866 0.829212 0.8 0 0
0.545341 0.186572 0.578707 0.8 0 0
0.469980 0.425372 0.070492 0.8 0 0
0.591742 0.178656 0.527192 0.8 0 0
0.554259 0.459259 0.042650 0.8 0 0
0.549008 0.195418 0.215318 0.8 0 0
0.620083 0.316149 0.832282 0.8 0 0
0.415996 0.438360 0.709911 0.8 0 0
0.656010 0.284818 0.600864 0.8 0 0
0.253935 0.488377 0.441206 0.8 0 0
0.659400 0.093672 0.355237 0.8 0 0
0.520722 0.163015 0.492757 0.8 0 0
0.628396 0.343721 0.262793 0.8 0 0
0.527767 0.377137 0.661679 0.8 0 0
0.473919 0.413439 0.389466 0.8 0 0
0.639959 0.192940 0.475510 0.8 0 0
0.471068 0.313942 0.699951 0.8 0 0
0.457091 0.401845 0.396786 0.8 0 0
0.544429 0.383739 0.918439 0.8 0 0
0.607212 0.497681 0.710031 0.8 0 0
0.778796 0.510302 0.403031 0.8 0 0
0.559067 0.516763 0.653613 0.8 0 0
0.684875 0.373946 0.522030 0.8 0 0
0.462161 0.295603 0.678053 0.8 0 0
0.107643 0.634108 0.400346 0.8 0 0
0.562956 0.243817 0.674384 0.8 0 0
0.497057 0.168628 0.494451 0.8 0 0
0.560655 0.152892 0.443192 0.8 0 0
0.457533 0.181883 0.330981 0.8 0 0
0.719269 0.381380 0.343883 0.8 0 0
0.430796 0.313289 0.498424 0.8 0 0
0.587213 0.218529 0.197282 0.8 0 0
0.422001 0.293394 0.350078 0.8 0 0
0.455803 0.190724 0.328349 0.8 0 0
0.471942 0.197181 0.388584 0.8 0 0
0.621626 0.428828 0.483766 0.8 0 0
0.562124 0.314961 0.752353 0.8 0 0
0.610093 0.427527 0.584926 0.8 0 0
0.673196 0.346932 0.504981 0.8 0 0
0.541260 0.407675 0.313529 0.8 0 0
0.694936 0.344283 0.369110 0.8 0 0
0.289786 0.461657 0.515432 0.8 0 0
0.505278 0.474545 0.827808 0.8 0 0
0.537374 0.473478 0.832056 0.8 0 0
0.727487 0.434700 0.464525 0.8 0 0
0.633938 0.378566 0.636881 0.8 0 0
0.554172 0.299571 0.188952 0.8 0 0
0.445330 0.237049 0.283913 0.8 0 0
0.416284 0.392467 0.722449 0.8 0 0
0.392268 0.346949 0.453965 0.8 0 0
0.422988 0.419957 0.694479 0.8 0 0
0.580278 0.366194 0.685956 0.8 0 0
0.581342 0.333652 0.166515 0.8 0 0
0.421194 0.320939 0.482066 0.8 0 0
0.481249 0.288824 0.848647 0.8 0 0
0.786725 0.537092 0.441368 0.8 0 0
0.545123 0.316219 0.924566 0.8 0 0
0.653308 0.185426 0.357735 0.8 0 0
0.614922 0.170347 0.351209 0.8 0 0
0.609722 0.412998 0.626006 0.8 0 0
0.565035 0.434389 0.389821 0.8 0 0
0.578861 0.153529 0.435970 0.8 0 0
0.641607 0.065919 0.400155 0.8 0 0
0.497122 0.505664 0.632757 0.8 0 0
0.456375 0.388451 0.655482 0.8 0 0
0.284604 0.454821 0.428326 0.8 0 0
0.529703 0.444207 0.616934 0.8 0 0
0.643049 0.378334 0.340804 0.8 0 0
0.458195 0.184627 0.474280 0.8 0 0
0.417337 0.121874 0.358160 0.8 0 0
0.507858 0.293714 0.813647 0.8 0 0
0.455491 0.349069 0.902449 0.8 0 0
0.622892 0.366855 0.872818 0.8 0 0
0.749294 0.498165 0.537603 0.8 0 0
0.533029 0.243905 0.672670 0.8 0 0
0.663737 0.454501 0.053943 0.8 0 0
0.658695 0.374745 0.383154 0.8 0 0
0.441351 0.184509 0.347428 0.8 0 0
0.669619 0.371200 0.602800 0.8 0 0
0.552028 0.313020 0.197452 0.8 0 0
0.755465 0.484798 0.459090 0.8 0 0
0.649768 0.135042 0.387097 0.8 0 0
0.502743 0.157521 0.378788 0.8 0 0
0.600405 0.475598 0.796645 0.8 0 0
0.134408 0.603684 0.380962 0.8 0 0
0.442883 0.237365 0.590897 0.8 0 0
0.448778 0.416483 0.523127 0.8 0 0
0.575691 0.400616 0.301412 0.8 0 0
0.434550 0.225337 0.351416 0.8 0 0
0.498294 0.506390 0.633645 0.8 0 0
0.466649 0.194367 0.324386 0.8 0 0
0.432754 0.303957 0.313000 0.8 0 0
0.636163 0.225213 0.563410 0.8 0 0
0.416648 0.366388 0.531295 0.8 0 0
0.424572 0.317373 0.830810 0.8 0 0
0.663297 0.312320 0.453436 0.8 0 0
0.480042 0.363088 0.684494 0.8 0 0
0.437194 0.472870 0.767351 0.8 0 0
0.746607 0.485824 0.514286 0.8 0 0
0.248019 0.481386 0.347567 0.8 0 0
0.440870 0.213626 0.350914 0.8 0 0
0.677903 0.282508 0.513713 0.8 0 0
0.628989 0.421690 0.506029 0.8 0 0
0.433601 0.318743 0.316915 0.8 0 0
0.450338 0.061032 0.375061 0.8 0 0
0.564758 0.307992 0.820161 0.8 0 0
0.462623 0.222000 0.594549 0.8 0 0
0.770683 0.503776 0.429950 0.8 0 0
0.204142 0.545889 0.483777 0.8 0 0
0.643791 0.439266 0.755072 0.8 0 0
0.463073 0.186448 0.398167 0.8 0 0
0.464677 0.381992 0.820759 0.8 0 0
0.463494 0.183512 0.335667 0.8 0 0
0.638022 0.413063 0.491851 0.8 0 0
0.526230 0.195177 0.594868 0.8 0 0
0.543214 0.485793 0.621422 0.8 0 0
0.448799 0.193669 0.469573 0.8 0 0
0.819234 0.593515 0.429391 0.8 0 0
0.360884 0.377384 0.439284 0.8 0 0
0.550478 0.350413 0.929240 0.8 0 0
0.497060 0.088144 0.379931 0.8 0 0
0.437674 0.241398 0.584814 0.8 0 0
0.553121 0.433899 0.653738 0.8 0 0
0.550712 0.208433 0.623046 0.8 0 0
0.433410 0.397792 0.498414 0.8 0 0
0.604935 0.294445 0.682127 0.8 0 0
0.409207 0.332172 0.521949 0.8 0 0
0.420277 0.311744 0.619764 0.8 0 0
0.493122 0.289415 0.213510 0.8 0 0
0.639038 0.053041 0.407741 0.8 0 0
0.529252 0.233686 0.659884 0.8 0 0
0.504106 0.376831 0.663903 0.8 0 0
0.473853 0.307190 0.777640 0.8 0 0
0.476938 0.307352 0.838936 0.8 0 0
0.535363 0.409278 0.316564 0.8 0 0
0.258285 0.480509 0.417188 0.8 0 0
0.422175 0.098037 0.356947 0.8 0 0
0.522439 0.300241 0.926984 0.8 0 0
0.636205 0.427441 0.696227 0.8 0 0
0.295780 0.433521 0.358856 0.8 0 0
0.410329 0.301186 0.260726 0.8 0 0
0.438130 0.276557 0.290375 0.8 0 0
0.619617 0.310903 0.222534 0.8 0 0
0.478087 0.330037 0.923771 0.8 0 0
0.454953 0.498920 0.702928 0.8 0 0
0.566169 0.431863 0.661519 0.8 0 0
0.460543 0.213056 0.573938 0.8 0 0
0.537335 0.370361 0.128118 0.8 0 0
0.421058 0.291438 0.352824 0.8 0 0
0.618579 0.210774 0.423593 0.8 0 0
0.890060 0.712771 0.391675 0.8 0 0
0.437042 0.286832 0.355695 0.8 0 0
0.583446 0.290378 0.208749 0.8 0 0
0.667936 0.367440 0.600763 0.8 0 0
0.684726 0.341745 0.420945 0.8 0 0
0.544017 0.399984 0.298212 0.8 0 0
0.521569 0.453473 0.495415 0.8 0 0
0.452989 0.333603 0.896415 0.8 0 0
0.506168 0.364344 0.676207 0.8 0 0
0.587648 0.337936 0.713650 0.8 0 0
0.536359 0.310061 0.772758 0.8 0 0
0.658275 0.039019 0.412147 0.8 0 0
0.460481 0.361156 0.681907 0.8 0 0
0.481880 0.279040 0.225665 0.8 0 0
0.269264 0.484717 0.528384 0.8 0 0
0.409808 0.248161 0.456559 0.8 0 0
0.648038 0.390139 0.801294 0.8 0 0
0.417496 0.341840 0.838453 0.8 0 0
0.916492 0.757937 0.379689 0.8 0 0
0.667355 0.342616 0.350287 0.8 0 0
0.582465 0.485507 0.631918 0.8 0 0
0.296080 0.457752 0.534078 0.8 0 0
0.455612 0.425458 0.545896 0.8 0 0
0.609539 0.079082 0.389921 0.8 0 0
0.543185 0.214957 0.196523 0.8 0 0
0.506362 0.395642 0.645315 0.8 0 0
0.463213 0.380286 0.333602 0.8 0 0
0.672783 0.148721 0.329530 0.8 0 0
0.215224 0.531428 0.462446 0.8 0 0
0.437593 0.237051 0.571696 0.8 0 0
0.526162 0.376707 0.121263 0.8 0 0
0.643039 0.224850 0.546526 0.8 0 0
0.518337 0.366636 0.130586 0.8 0 0
0.596090 0.388422 0.673854 0.8 0 0
0.440146 0.477932 0.677568 0.8 0 0
0.506840 0.285010 0.839657 0.8 0 0
0.416763 0.326163 0.811144 0.8 0 0
0.412893 0.257241 0.495826 0.8 0 0
0.510633 0.360761 0.135834 0.8 0 0
0.663581 0.292712 0.389680 0.8 0 0
0.618770 0.330572 0.822730 0.8 0 0
0.660900 0.294816 0.586546 0.8 0 0
0.453931 0.281389 0.259985 0.8 0 0
0.688388 0.435733 0.073705 0.8 0 0
0.425128 0.391284 0.709767 0.8 0 0
0.483026 0.376179 0.867799 0.8 0 0
0.460169 0.305832 0.799360 0.8 0 0
0.147813 0.594440 0.414055 0.8 0 0
0.446380 0.220833 0.550076 0.8 0 0
0.603820 0.384304 0.682594 0.8 0 0
0.244857 0.488099 0.372126 0.8 0 0
0.529847 0.353234 0.895106 0.8 0 0
0.410871 0.377339 0.826566 0.8 0 0
0.663958 0.444701 0.063492 0.8 0 0
0.561662 0.340312 0.925414 0.8 0 0
0.547822 0.451905 0.584074 0.8 0 0
0.477241 0.381291 0.309708 0.8 0 0
0.494756 0.080084 0.376419 0.8 0 0
0.662157 0.135690 0.384427 0.8 0 0
0.256959 0.470970 0.339276 0.8 0 0
0.490980 0.304811 0.719702 0.8 0 0
0.595819 0.274965 0.677178 0.8 0 0
0.440752 0.414014 0.863955 0.8 0 0
0.441827 0.489747 0.700348 0.8 0 0
0.441216 0.244137 0.604635 0.8 0 0
0.588883 0.426242 0.373462 0.8 0 0
0.799277 0.555992 0.427607 0.8 0 0
0.592507 0.374373 0.825483 0.8 0 0
0.456799 0.070965 0.360795 0.8 0 0
0.723141 0.450141 0.538906 0.8 0 0
0.702951 0.433265 0.603864 0.8 0 0
0.300542 0.440758 0.445731 0.8 0 0
0.539318 0.450739 0.464687 0.8 0 0
0.778507 0.510820 0.406371 0.8 0 0
0.461181 0.420944 0.444891 0.8 0 0
0.654619 0.209290 0.419312 0.8 0 0
0.455901 0.422344 0.511535 0.8 0 0
0.298098 0.437349 0.403323 0.8 0 0
0.616400 0.303402 0.211695 0.8 0 0
0.464062 0.190698 0.329324 0.8 0 0
0.590689 0.312460 0.784864 0.8 0 0
0.191617 0.548655 0.410937 0.8 0 0
0.465175 0.365123 0.805689 0.8 0 0
0.658317 0.379291 0.540848 0.8 0 0
0.570008 0.420101 0.679313 0.8 0 0
0.484109 0.356514 0.877113 0.8 0 0
0.479595 0.394954 0.833269 0.8 0 0
0.574199 0.399959 0.299998 0.8 0 0
0.410938 0.362277 0.801644 0.8 0 0
0.668767 0.259666 0.254634 0.8 0 0
0.277325 0.465086 0.447802 0.8 0 0
0.455102 0.417854 0.474084 0.8 0 0
0.508508 0.349407 0.794258 0.8 0 0
0.878963 0.681975 0.359236 0.8 0 0
0.638390 0.156404 0.367536 0.8 0 0
0.476987 0.320549 0.749192 0.8 0 0
0.458837 0.352099 0.816379 0.8 0 0
0.415746 0.237454 0.454760 0.8 0 0
0.540743 0.304443 0.790305 0.8 0 0
0.415579 0.349250 0.570002 0.8 0 0
0.817779 0.592491 0.434678 0.8 0 0
0.651637 0.393228 0.112826 0.8 0 0
0.437148 0.259051 0.612614 0.8 0 0
0.566511 0.452878 0.522302 0.8 0 0
0.749039 0.423169 0.301633 0.8 0 0
0.511320 0.454914 0.044263 0.8 0 0
0.527316 0.264512 0.180625 0.8 0 0
0.544793 0.345793 0.894977 0.8 0 0
0.583765 0.447441 0.526980 0.8 0 0
0.503228 0.318287 0.912206 0.8 0 0
0.500035 0.370774 0.125446 0.8 0 0
0.598977 0.375540 0.687741 0.8 0 0
0.464150 0.421326 0.605722 0.8 0 0
0.041123 0.696313 0.352780 0.8 0 0
0.483193 0.180421 0.301982 0.8 0 0
0.755374 0.465591 0.398810 0.8 0 0
0.476197 0.391416 0.829896 0.8 0 0
0.412888 0.296415 0.387363 0.8 0 0
0.471728 0.347465 0.862546 0.8 0 0
0.526753 0.256599 0.947913 0.8 0 0
0.599042 0.164567 0.455892 0.8 0 0
0.523161 0.384050 0.654828 0.8 0 0
0.640831 0.432146 0.802605 0.8 0 0
0.665540 0.315061 0.448959 0.8 0 0
0.433682 0.299007 0.417786 0.8 0 0
0.546433 0.358042 0.681584 0.8 0 0
0.525469 0.415481 0.683352 0.8 0 0
0.540388 0.291995 0.183978 0.8 0 0
0.564543 0.183216 0.234092 0.8 0 0
0.429543 0.341506 0.764067 0.8 0 0
0.497916 0.394328 0.865381 0.8 0 0
0.521896 0.166446 0.268751 0.8 0 0
0.678490 0.142227 0.338719 0.8 0 0
0.423017 0.314270 0.447929 0.8 0 0
0.444860 0.056026 0.406495 0.8 0 0
0.445901 0.377715 0.368213 0.8 0 0
0.472150 0.407250 0.373867 0.8 0 0
0.477497 0.187291 0.296804 0.8 0 0
0.615157 0.228916 0.209016 0.8 0 0
0.778713 0.501385 0.375285 0.8 0 0
0.653100 0.347401 0.299376 0.8 0 0
0.255562 0.484323 0.424293 0.8 0 0
0.613001 0.163525 0.401689 0.8 0 0
0.498504 0.355599 0.727729 0.8 0 0
0.623413 0.391548 0.326082 0.8 0 0
0.211770 0.513268 0.307257 0.8 0 0
0.629508 0.173243 0.380299 0.8 0 0
0.093400 0.642134 0.352372 0.8 0 0
0.727633 0.469198 0.572906 0.8 0 0
0.608621 0.169088 0.453885 0.8 0 0
0.762539 0.523455 0.540014 0.8 0 0
0.495552 0.283773 0.922458 0.8 0 0
0.426031 0.324092 0.540333 0.8 0 0
0.306739 0.416016 0.314883 0.8 0 0
0.499433 0.346302 0.927052 0.8 0 0
0.503197 0.470166 0.834087 0.8 0 0
0.679772 0.161376 0.337510 0.8 0 0
0.648326 0.403362 0.468951 0.8 0 0
0.524730 0.296416 0.787238 0.8 0 0
0.467878 0.269536 0.663231 0.8 0 0
0.629861 0.331833 0.845330 0.8 0 0
0.582078 0.307067 0.715693 0.8 0 0
0.597610 0.272942 0.673775 0.8 0 0
0.445916 0.408941 0.475336 0.8 0 0
0.503768 0.286231 0.875089 0.8 0 0
0.280184 0.457626 0.415675 0.8 0 0
0.680812 0.378353 0.559816 0.8 0 0
0.435599 0.319719 0.804587 0.8 0 0
0.710653 0.403576 0.464688 0.8 0 0
0.417956 0.287572 0.363119 0.8 0 0
0.197191 0.531435 0.329196 0.8 0 0
0.771521 0.525156 0.492731 0.8 0 0
0.082695 0.650683 0.334281 0.8 0 0
0.511632 0.379831 0.918772 0.8 0 0
0.534814 0.304199 0.785681 0.8 0 0
0.516240 0.233598 0.186199 0.8 0 0
0.634644 0.419559 0.695434 0.8 0 0
0.580021 0.248473 0.667716 0.8 0 0
0.602408 0.134755 0.365101 0.8 0 0
0.742384 0.492560 0.560379 0.8 0 0
0.612315 0.320425 0.831394 0.8 0 0
0.272417 0.463514 0.400304 0.8 0 0
0.680779 0.384788 0.580386 0.8 0 0
0.573480 0.327122 0.737310 0.8 0 0
0.670139 0.250120 0.295794 0.8 0 0
0.676116 0.094904 0.397788 0.8 0 0
0.561000 0.290018 0.840737 0.8 0 0
0.513233 0.290730 0.893237 0.8 0 0
0.443266 0.354220 0.723096 0.8 0 0
0.647147 0.267449 0.604406 0.8 0 0
0.570163 0.418007 0.885480 0.8 0 0
0.586307 0.282000 0.185843 0.8 0 0
0.542766 0.427817 0.362680 0.8 0 0
0.528918 0.407406 0.316822 0.8 0 0
0.117516 0.613025 0.322797 0.8 0 0
0.530514 0.218592 0.193797 0.8 0 0
0.468625 0.171854 0.322764 0.8 0 0
0.449468 0.344972 0.894849 0.8 0 0
0.495830 0.271633 0.207626 0.8 0 0
0.573911 0.382561 0.906295 0.8 0 0
0.461302 0.377445 0.331624 0.8 0 0
0.735843 0.463965 0.508189 0.8 0 0
0.469222 0.141631 0.371564 0.8 0 0
0.646973 0.381735 0.790255 0.8 0 0
0.644342 0.437859 0.762047 0.8 0 0
0.641742 0.207189 0.509510 0.8 0 0
0.391662 0.327720 0.312193 0.8 0 0
0.719846 0.373356 0.315092 0.8 0 0
0.610306 0.339120 0.753844 0.8 0 0
0.417080 0.255420 0.394778 0.8 0 0
0.449002 0.200030 0.343666 0.8 0 0
0.773787 0.523068 0.472829 0.8 0 0
0.684148 0.383461 0.556428 0.8 0 0
0.552829 0.517079 0.736282 0.8 0 0
0.473640 0.378960 0.909319 0.8 0 0
0.643839 0.364296 0.631067 0.8 0 0
0.630247 0.383366 0.639344 0.8 0 0
0.437337 0.319604 0.303759 0.8 0 0
0.622726 0.172136 0.426670 0.8 0 0
0.447383 0.379470 0.691602 0.8 0 0
0.627351 0.180757 0.347811 0.8 0 0
0.621021 0.339010 0.844061 0.8 0 0
0.503459 0.444457 0.455586 0.8 0 0
0.404051 0.328218 0.407324 0.8 0 0
0.684587 0.273183 0.419774 0.8 0 0
0.478998 0.387581 0.857420 0.8 0 0
0.442679 0.107908 0.332927 0.8 0 0
0.257609 0.473486 0.362043 0.8 0 0
0.513572 0.154928 0.356178 0.8 0 0
0.800271 0.527916 0.332881 0.8 0 0
0.463155 0.397980 0.662055 0.8 0 0
0.434240 0.217871 0.498842 0.8 0 0
0.310450 0.446316 0.558644 0.8 0 0
0.614442 0.356151 0.730618 0.8 0 0
0.696941 0.338581 0.339299 0.8 0 0
0.857434 0.665800 0.434265 0.8 0 0
0.542908 0.337991 0.159954 0.8 0 0
0.632044 0.178850 0.340016 0.8 0 0
0.658303 0.205844 0.349027 0.8 0 0
0.885341 0.698912 0.375462 0.8 0 0
0.414197 0.306150 0.572957 0.8 0 0
0.483377 0.280035 0.693270 0.8 0 0
0.415837 0.309045 0.381959 0.8 0 0
0.533744 0.397178 0.838557 0.8 0 0
0.319349 0.402488 0.311506 0.8 0 0
0.427111 0.333131 0.634193 0.8 0 0
0.535770 0.451585 0.472656 0.8 0 0
0.500169 0.349030 0.793414 0.8 0 0
0.577092 0.151244 0.391822 0.8 0 0
0.668988 0.311393 0.291144 0.8 0 0
0.579111 0.495958 0.776403 0.8 0 0
0.878378 0.704247 0.433189 0.8 0 0
0.606248 0.174394 0.276137 0.8 0 0
0.499343 0.245219 0.672235 0.8 0 0
0.494255 0.411670 0.351749 0.8 0 0
0.459265 0.244177 0.431829 0.8 0 0
0.673194 0.247986 0.318872 0.8 0 0
0.418519 0.140387 0.335140 0.8 0 0
0.428759 0.288236 0.304496 0.8 0 0
0.435159 0.212931 0.406648 0.8 0 0
0.527243 0.151087 0.423059 0.8 0 0
0.580961 0.302792 0.871517 0.8 0 0
0.713231 0.416418 0.490236 0.8 0 0
0.511419 0.360312 0.250508 0.8 0 0
0.668827 0.308716 0.409594 0.8 0 0
0.514956 0.452393 0.540051 0.8 0 0
0.599207 0.169950 0.277770 0.8 0 0
0.484839 0.414626 0.890840 0.8 0 0
0.345313 0.369351 0.266832 0.8 0 0
0.481840 0.333570 0.720265 0.8 0 0
0.614003 0.408607 0.356826 0.8 0 0
0.766282 0.523302 0.517580 0.8 0 0
0.747763 0.455593 0.411783 0.8 0 0
0.537466 0.517520 0.736444 0.8 0 0
0.407922 0.253055 0.450436 0.8 0 0
0.128695 0.611472 0.394343 0.8 0 0
0.356376 0.383058 0.446468 0.8 0 0
0.503754 0.399057 0.865092 0.8 0 0
0.436223 0.191047 0.380015 0.8 0 0
0.471186 0.384662 0.667862 0.8 0 0
0.649847 0.157046 0.372393 0.8 0 0
0.519003 0.219640 0.642002 0.8 0 0
0.801856 0.527652 0.322750 0.8 0 0
0.530995 0.257948 0.895014 0.8 0 0
0.517363 0.247557 0.676205 0.8 0 0
0.550787 0.283935 0.858625 0.8 0 0
0.612164 0.164215 0.356953 0.8 0 0
0.448843 0.397782 0.670221 0.8 0 0
0.231886 0.510708 0.437661 0.8 0 0
0.644707 0.210348 0.388133 0.8 0 0
0.504781 0.309357 0.756590 0.8 0 0
0.735516 0.459628 0.496375 0.8 0 0
0.594112 0.391824 0.685333 0.8 0 0
0.752384 0.450224 0.367685 0.8 0 0
0.431480 0.312986 0.817488 0.8 0 0
0.652415 0.175436 0.339747 0.8 0 0
0.509847 0.511976 0.640625 0.8 0 0
0.443796 0.209969 0.380503 0.8 0 0
0.544808 0.412630 0.323722 0.8 0 0
0.482911 0.380680 0.709799 0.8 0 0
0.506677 0.391662 0.911418 0.8 0 0
0.638670 0.247385 0.601148 0.8 0 0
0.495276 0.440777 0.458521 0.8 0 0
0.621807 0.169716 0.358174 0.8 0 0
0.456385 0.188172 0.374847 0.8 0 0
0.673530 0.305764 0.372669 0.8 0 0
0.607982 0.416765 0.375740 0.8 0 0
0.415489 0.350890 0.653739 0.8 0 0
0.668057 0.148154 0.373694 0.8 0 0
0.786757 0.540662 0.452485 0.8 0 0
0.649260 0.092952 0.353058 0.8 0 0
0.454589 0.225077 0.398068 0.8 0 0
0.685090 0.111195 0.369334 0.8 0 0
0.676324 0.360360 0.529160 0.8 0 0
0.268544 0.485598 0.529348 0.8 0 0
0.582436 0.449058 0.489305 0.8 0 0
0.617638 0.421574 0.591906 0.8 0 0
0.420297 0.331811 0.623258 0.8 0 0
0.644649 0.348296 0.639012 0.8 0 0
0.630341 0.459287 0.772401 0.8 0 0
0.650969 0.267577 0.592883 0.8 0 0
0.471349 0.403662 0.367602 0.8 0 0
0.730341 0.388352 0.301031 0.8 0 0
0.554970 0.290476 0.852120 0.8 0 0
0.569411 0.167252 0.266363 0.8 0 0
0.588412 0.374667 0.680053 0.8 0 0
0.474304 0.497562 0.767308 0.8 0 0
0.722354 0.458419 0.569730 0.8 0 0
0.234594 0.491222 0.318560 0.8 0 0
0.646544 0.305828 0.254917 0.8 0 0
0.465679 0.207947 0.575270 0.8 0 0
0.583142 0.360852 0.846907 0.8 0 0
0.463661 0.184832 0.299622 0.8 0 0
0.414339 0.440126 0.725709 0.8 0 0
0.548434 0.360677 0.806777 0.8 0 0
0.854086 0.655980 0.422808 0.8 0 0
0.623402 0.346336 0.669990 0.8 0 0
0.423192 0.298845 0.339096 0.8 0 0
0.315574 0.403433 0.290343 0.8 0 0
0.653747 0.199660 0.385320 0.8 0 0
0.508096 0.243492 0.956654 0.8 0 0
0.437764 0.486213 0.718435 0.8 0 0
0.415035 0.336224 0.598385 0.8 0 0
0.468897 0.257764 0.239023 0.8 0 0
0.424035 0.355931 0.742299 0.8 0 0
0.505317 0.315693 0.213818 0.8 0 0
0.800784 0.534232 0.349866 0.8 0 0
0.679349 0.324661 0.512476 0.8 0 0
0.593345 0.258910 0.667781 0.8 0 0
0.419833 0.320767 0.470778 0.8 0 0
0.473226 0.162782 0.344840 0.8 0 0
0.574911 0.353411 0.231748 0.8 0 0
0.389913 0.366837 0.578552 0.8 0 0
0.419210 0.336541 0.821091 0.8 0 0
0.394643 0.319676 0.276798 0.8 0 0
0.763598 0.520280 0.523750 0.8 0 0
0.620617 0.347936 0.672997 0.8 0 0
0.620462 0.402895 0.682578 0.8 0 0
0.426315 0.160285 0.344374 0.8 0 0
0.587385 0.357105 0.830172 0.8 0 0
0.409118 0.346736 0.576987 0.8 0 0
0.770514 0.478816 0.351901 0.8 0 0
0.504326 0.155963 0.412219 0.8 0 0
0.439791 0.333644 0.654206 0.8 0 0
0.157304 0.586373 0.426607 0.8 0 0
0.585612 0.306568 0.875240 0.8 0 0
0.625991 0.175326 0.436333 0.8 0 0
0.530846 0.280069 0.840982 0.8 0 0
0.547061 0.306623 0.917467 0.8 0 0
0.480820 0.318651 0.887182 0.8 0 0
0.420522 0.320035 0.368935 0.8 0 0
0.525399 0.440761 0.628500 0.8 0 0
0.646783 0.386800 0.603886 0.8 0 0
0.577861 0.351108 0.229097 0.8 0 0
0.851979 0.660272 0.448751 0.8 0 0
0.409795 0.288654 0.522057 0.8 0 0
0.362925 0.384717 0.506717 0.8 0 0
0.592410 0.383834 0.118361 0.8 0 0
0.518285 0.342359 0.788545 0.8 0 0
0.444555 0.158989 0.352017 0.8 0 0
0.402964 0.316427 0.472109 0.8 0 0
0.456814 0.084279 0.348559 0.8 0 0
0.490455 0.513431 0.654886 0.8 0 0
0.598274 0.337767 0.700707 0.8 0 0
0.759538 0.510770 0.517444 0.8 0 0
0.560778 0.311631 0.186690 0.8 0 0
0.672614 0.382650 0.621494 0.8 0 0
0.751575 0.453642 0.383253 0.8 0 0
0.608892 0.162769 0.354055 0.8 0 0
0.448136 0.197326 0.303447 0.8 0 0
0.496802 0.476915 0.821797 0.8 0 0
0.625752 0.338414 0.841623 0.8 0 0
0.406555 0.375020 0.774064 0.8 0 0
0.611862 0.177087 0.327616 0.8 0 0
0.566135 0.300910 0.190539 0.8 0 0
0.628944 0.456416 0.786878 0.8 0 0
0.382526 0.341804 0.345221 0.8 0 0
0.245105 0.500797 0.464614 0.8 0 0
0.679791 0.289419 0.350947 0.8 0 0
0.633286 0.443338 0.062951 0.8 0 0
0.475461 0.318271 0.809962 0.8 0 0
0.676850 0.343176 0.399931 0.8 0 0
0.585045 0.219928 0.624037 0.8 0 0
0.577412 0.425448 0.660164 0.8 0 0
0.508194 0.165565 0.494322 0.8 0 0
0.700697 0.349329 0.351303 0.8 0 0
0.409661 0.366268 0.798608 0.8 0 0
0.669065 0.358136 0.533237 0.8 0 0
0.663883 0.307090 0.433441 0.8 0 0
0.593836 0.387379 0.114999 0.8 0 0
0.567648 0.321820 0.743068 0.8 0 0
0.475528 0.281342 0.683788 0.8 0 0
0.485536 0.287372 0.847107 0.8 0 0
0.543461 0.307220 0.911894 0.8 0 0
0.369311 0.356062 0.349339 0.8 0 0
0.538036 0.398482 0.294824 0.8 0 0
0.634110 0.180899 0.411945 0.8 0 0
0.717456 0.408644 0.440841 0.8 0 0
0.515698 0.300580 0.191558 0.8 0 0
0.800480 0.550720 0.403856 0.8 0 0
0.430078 0.282797 0.313154 0.8 0 0
0.409432 0.343113 0.553441 0.8 0 0
0.434050 0.388031 0.419284 0.8 0 0
0.343919 0.373679 0.287430 0.8 0 0
0.574482 0.150539 0.410472 0.8 0 0
0.596170 0.425782 0.625116 0.8 0 0
0.584779 0.172849 0.520187 0.8 0 0
0.297074 0.424782 0.306029 0.8 0 0
0.522942 0.359147 0.893776 0.8 0 0
0.455556 0.173637 0.318303 0.8 0 0
0.543657 0.253022 0.684520 0.8 0 0
0.653852 0.167785 0.314150 0.8 0 0
0.755843 0.453262 0.357019 0.8 0 0
0.482599 0.429474 0.425517 0.8 0 0
0.272691 0.478670 0.510543 0.8 0 0
0.672637 0.233410 0.452721 0.8 0 0
0.561993 0.452375 0.577324 0.8 0 0
0.584212 0.174493 0.248035 0.8 0 0
0.575132 0.426891 0.661639 0.8 0 0
0.508878 0.269702 0.943083 0.8 0 0
0.664155 0.433642 0.074265 0.8 0 0
0.655255 0.192751 0.380283 0.8 0 0
0.333126 0.423122 0.560664 0.8 0 0
0.440402 0.080715 0.394088 0.8 0 0
0.051831 0.686057 0.358703 0.8 0 0
0.468567 0.226693 0.437337 0.8 0 0
0.415079 0.362944 0.440831 0.8 0 0
0.569491 0.253066 0.182127 0.8 0 0
0.496044 0.372547 0.719586 0.8 0 0
0.611331 0.279625 0.195065 0.8 0 0
0.472219 0.188049 0.300885 0.8 0 0
0.695109 0.422290 0.615096 0.8 0 0
0.572702 0.516449 0.665522 0.8 0 0
0.473009 0.175545 0.458792 0.8 0 0
0.584273 0.336956 0.904954 0.8 0 0
0.553720 0.256670 0.181502 0.8 0 0
0.536138 0.446146 0.620482 0.8 0 0
0.516397 0.369369 0.668467 0.8 0 0
0.531987 0.398050 0.643499 0.8 0 0
0.673902 0.104180 0.355756 0.8 0 0
0.616247 0.258128 0.643025 0.8 0 0
0.466957 0.230794 0.449741 0.8 0 0
0.412016 0.353655 0.503942 0.8 0 0
0.360022 0.392966 0.544159 0.8 0 0
0.504439 0.283403 0.864080 0.8 0 0
0.436265 0.330559 0.648133 0.8 0 0
0.604618 0.321270 0.790735 0.8 0 0
0.817110 0.558258 0.330207 0.8 0 0
0.603863 0.370262 0.270858 0.8 0 0
0.490654 0.414804 0.367189 0.8 0 0
0.840563 0.617490 0.380234 0.8 0 0
0.424080 0.309321 0.420447 0.8 0 0
0.663018 0.306159 0.583778 0.8 0 0
0.478356 0.168721 0.411982 0.8 0 0
0.581990 0.346614 0.223827 0.8 0 0
0.561852 0.302505 0.785808 0.8 0 0
0.537671 0.150487 0.341293 0.8 0 0
0.447232 0.191417 0.410107 0.8 0 0
0.608717 0.273531 0.189906 0.8 0 0
0.180209 0.547047 0.315139 0.8 0 0
0.543171 0.406210 0.697975 0.8 0 0
0.650301 0.069808 0.407740 0.8 0 0
0.629900 0.466292 0.683877 0.8 0 0
0.633488 0.226940 0.464912 0.8 0 0
0.602522 0.311624 0.842439 0.8 0 0
0.485106 0.233135 0.230225 0.8 0 0
0.510854 0.155830 0.354035 0.8 0 0
0.602653 0.207390 0.204212 0.8 0 0
0.520830 0.272964 0.181016 0.8 0 0
0.478407 0.389100 0.695674 0.8 0 0
0.600244 0.435422 0.432163 0.8 0 0
0.489354 0.322286 0.898246 0.8 0 0
0.546996 0.481559 0.818052 0.8 0 0
0.497274 0.155635 0.339299 0.8 0 0
0.469186 0.299669 0.886737 0.8 0 0
0.634311 0.177730 0.377907 0.8 0 0
0.544006 0.424316 0.350697 0.8 0 0
0.671762 0.311484 0.401152 0.8 0 0
0.441390 0.375173 0.372985 0.8 0 0
0.487974 0.400652 0.902927 0.8 0 0
0.419064 0.365106 0.577961 0.8 0 0
0.455785 0.364279 0.314658 0.8 0 0
0.620131 0.234096 0.436373 0.8 0 0
0.671890 0.293607 0.343789 0.8 0 0
0.465543 0.433616 0.538483 0.8 0 0
0.581693 0.328258 0.719477 0.8 0 0
0.518347 0.278331 0.704373 0.8 0 0
0.818415 0.613112 0.496249 0.8 0 0
0.588366 0.446709 0.505860 0.8 0 0
0.666847 0.314926 0.573027 0.8 0 0
0.753594 0.515308 0.566674 0.8 0 0
0.676984 0.430465 0.078136 0.8 0 0
0.497230 0.369812 0.276172 0.8 0 0
0.515044 0.395767 0.909480 0.8 0 0
0.678816 0.297277 0.314797 0.8 0 0
0.634493 0.319115 0.653956 0.8 0 0
0.598082 0.327134 0.699390 0.8 0 0
0.569874 0.287574 0.185362 0.8 0 0
0.608203 0.384764 0.118418 0.8 0 0
0.622782 0.109690 0.396630 0.8 0 0
0.511779 0.294721 0.929654 0.8 0 0
0.183113 0.556093 0.401188 0.8 0 0
0.812231 0.574131 0.409076 0.8 0 0
0.482143 0.318477 0.783176 0.8 0 0
0.638138 0.406431 0.588400 0.8 0 0
0.707721 0.370210 0.376235 0.8 0 0
0.562894 0.218014 0.641098 0.8 0 0
0.426495 0.470201 0.720733 0.8 0 0
0.666001 0.371115 0.623745 0.8 0 0
0.477892 0.084315 0.352620 0.8 0 0
0.433314 0.288195 0.303083 0.8 0 0
0.629314 0.296867 0.657008 0.8 0 0
0.537354 0.486324 0.811478 0.8 0 0
0.471917 0.307149 0.242680 0.8 0 0
0.616540 0.484186 0.751722 0.8 0 0
0.800691 0.533152 0.346995 0.8 0 0
0.228593 0.499152 0.330819 0.8 0 0
0.484622 0.108860 0.337013 0.8 0 0
0.783032 0.554345 0.517649 0.8 0 0
0.558007 0.362635 0.242053 0.8 0 0
0.550196 0.486069 0.621920 0.8 0 0
0.655572 0.194663 0.398702 0.8 0 0
0.405686 0.307574 0.507990 0.8 0 0
0.265335 0.477860 0.450384 0.8 0 0
0.651555 0.233383 0.444413 0.8 0 0
0.441295 0.271033 0.274330 0.8 0 0
0.314464 0.404382 0.288924 0.8 0 0
0.480509 0.173632 0.336634 0.8 0 0
0.456836 0.249000 0.439968 0.8 0 0
0.664567 0.306869 0.428726 0.8 0 0
0.638112 0.201921 0.506042 0.8 0 0
0.430141 0.322299 0.804465 0.8 0 0
0.424725 0.343577 0.628091 0.8 0 0
0.576342 0.447229 0.582570 0.8 0 0
0.625005 0.326194 0.845681 0.8 0 0
0.545993 0.430607 0.070025 0.8 0 0
0.614029 0.433645 0.493972 0.8 0 0
0.432951 0.232458 0.539809 0.8 0 0
0.460836 0.174874 0.384630 0.8 0 0
0.456062 0.420267 0.488941 0.8 0 0
0.459948 0.369417 0.675217 0.8 0 0
0.652201 0.373743 0.357610 0.8 0 0
0.518309 0.438252 0.621164 0.8 0 0
0.500384 0.143489 0.345264 0.8 0 0
0.540637 0.350902 0.928531 0.8 0 0
0.541172 0.281001 0.923306 0.8 0 0
0.519190 0.403126 0.701021 0.8 0 0
0.587005 0.445998 0.541032 0.8 0 0
0.611210 0.343486 0.743766 0.8 0 0
0.631492 0.374769 0.309195 0.8 0 0
0.803429 0.578244 0.473715 0.8 0 0
0.587178 0.428212 0.074862 0.8 0 0
0.404142 0.278529 0.439824 0.8 0 0
0.630345 0.317763 0.658801 0.8 0 0
0.665872 0.297628 0.391815 0.8 0 0
0.524116 0.198840 0.208803 0.8 0 0
0.801706 0.560491 0.427607 0.8 0 0
0.623174 0.394836 0.858905 0.8 0 0
0.324873 0.421792 0.490164 0.8 0 0
0.428283 0.359056 0.388942 0.8 0 0
0.290590 0.455667 0.478604 0.8 0 0
0.440437 0.350296 0.652434 0.8 0 0
0.620613 0.174014 0.328612 0.8 0 0
0.512206 0.451361 0.505229 0.8 0 0
0.539324 0.315285 0.198133 0.8 0 0
0.552351 0.315141 0.924722 0.8 0 0
0.774496 0.531332 0.494839 0.8 0 0
0.528164 0.235372 0.661889 0.8 0 0
0.601168 0.182030 0.522732 0.8 0 0
0.441199 0.330393 0.879493 0.8 0 0
0.472129 0.199419 0.389271 0.8 0 0
0.389785 0.366651 0.576271 0.8 0 0
0.416694 0.314582 0.403418 0.8 0 0
0.657941 0.364007 0.648502 0.8 0 0
0.571978 0.390266 0.834697 0.8 0 0
0.654208 0.254373 0.563736 0.8 0 0
0.504461 0.309533 0.918143 0.8 0 0
0.408442 0.386365 0.814074 0.8 0 0
0.582828 0.188592 0.227350 0.8 0 0
0.665380 0.054483 0.411624 0.8 0 0
0.803438 0.570188 0.448160 0.8 0 0
0.509838 0.160250 0.468174 0.8 0 0
0.428271 0.405882 0.693532 0.8 0 0
0.634943 0.416416 0.823946 0.8 0 0
0.653267 0.337162 0.633220 0.8 0 0
0.417325 0.388055 0.848003 0.8 0 0
0.428397 0.254287 0.567816 0.8 0 0
0.633199 0.184729 0.459717 0.8 0 0
0.479182 0.418302 0.641179 0.8 0 0
0.658883 0.351904 0.328939 0.8 0 0
0.422034 0.362097 0.610336 0.8 0 0
0.416717 0.329525 0.614778 0.8 0 0
0.742568 0.441438 0.397423 0.8 0 0
0.519287 0.289622 0.711676 0.8 0 0
0.636245 0.426263 0.079746 0.8 0 0
0.205932 0.518930 0.304524 0.8 0 0
0.591902 0.311509 0.188704 0.8 0 0
0.510453 0.250544 0.186774 0.8 0 0
0.616837 0.431411 0.484966 0.8 0 0
0.396512 0.331882 0.377763 0.8 0 0
0.693618 0.317866 0.293191 0.8 0 0
0.567197 0.148849 0.369631 0.8 0 0
0.473045 0.340185 0.707586 0.8 0 0
0.630280 0.069812 0.385012 0.8 0 0
0.448361 0.182357 0.337881 0.8 0 0
0.704208 0.379059 0.424854 0.8 0 0
0.548240 0.288063 0.836818 0.8 0 0
0.813542 0.603983 0.495916 0.8 0 0
0.538859 0.287660 0.711609 0.8 0 0
0.650351 0.391362 0.787430 0.8 0 0
0.481428 0.316188 0.754294 0.8 0 0
0.660865 0.410633 0.096453 0.8 0 0
0.600923 0.116181 0.362642 0.8 0 0
0.253685 0.494333 0.481883 0.8 0 0
0.487409 0.288019 0.904244 0.8 0 0
0.555994 0.452595 0.483816 0.8 0 0
0.821188 0.602156 0.445294 0.8 0 0
0.489629 0.155155 0.316444 0.8 0 0
0.349052 0.369027 0.292151 0.8 0 0
0.626190 0.320410 0.820150 0.8 0 0
0.414309 0.334523 0.592219 0.8 0 0
0.505806 0.250297 0.950627 0.8 0 0
0.424228 0.260840 0.561957 0.8 0 0
0.605509 0.320439 0.689385 0.8 0 0
0.558552 0.155534 0.305922 0.8 0 0
0.560256 0.308269 0.885354 0.8 0 0
0.688291 0.313334 0.476717 0.8 0 0
0.180033 0.562389 0.423374 0.8 0 0
0.677277 0.314793 0.379288 0.8 0 0
0.363766 0.378135 0.465940 0.8 0 0
0.375589 0.377975 0.552194 0.8 0 0
0.566453 0.301098 0.793492 0.8 0 0
0.518901 0.374799 0.885750 0.8 0 0
0.488698 0.294552 0.900352 0.8 0 0
0.604220 0.364989 0.137416 0.8 0 0
0.554270 0.414951 0.894349 0.8 0 0
0.502736 0.177613 0.270044 0.8 0 0
0.678956 0.331887 0.423568 0.8 0 0
0.528038 0.361748 0.806494 0.8 0 0
0.434129 0.361858 0.632813 0.8 0 0
0.474207 0.436942 0.503998 0.8 0 0
0.674389 0.074185 0.388441 0.8 0 0
0.865659 0.664823 0.382940 0.8 0 0
0.646132 0.381883 0.362753 0.8 0 0
0.593469 0.434784 0.857511 0.8 0 0
0.619041 0.409271 0.370066 0.8 0 0
0.121169 0.614713 0.361853 0.8 0 0
0.422316 0.293980 0.297887 0.8 0 0
0.500834 0.445259 0.593098 0.8 0 0
0.443249 0.386366 0.688030 0.8 0 0
0.431372 0.224933 0.379868 0.8 0 0
0.532628 0.484307 0.815695 0.8 0 0
0.673778 0.336694 0.469154 0.8 0 0
0.817699 0.566341 0.352350 0.8 0 0
0.439121 0.074598 0.362872 0.8 0 0
0.585101 0.324889 0.752552 0.8 0 0
0.836052 0.613162 0.392981 0.8 0 0
0.643184 0.223898 0.544028 0.8 0 0
0.527876 0.337373 0.784666 0.8 0 0
0.419094 0.316090 0.372611 0.8 0 0
0.443845 0.494379 0.717964 0.8 0 0
0.537021 0.304157 0.914085 0.8 0 0
0.430370 0.142744 0.361608 0.8 0 0
0.514454 0.297219 0.801363 0.8 0 0
0.516525 0.306507 0.779361 0.8 0 0
0.641259 0.409540 0.507147 0.8 0 0
0.523037 0.162057 0.490246 0.8 0 0
0.505958 0.465200 0.614382 0.8 0 0
0.570109 0.499536 0.774515 0.8 0 0
0.560455 0.445839 0.437599 0.8 0 0
0.549878 0.481369 0.817907 0.8 0 0
0.225275 0.499857 0.311334 0.8 0 0
0.581291 0.362600 0.690226 0.8 0 0
0.449566 0.194149 0.415080 0.8 0 0
0.633907 0.060976 0.384109 0.8 0 0
0.585300 0.384295 0.670663 0.8 0 0
0.580105 0.380286 0.826258 0.8 0 0
0.486061 0.305028 0.810659 0.8 0 0
0.684253 0.259399 0.453451 0.8 0 0
0.442775 0.364521 0.712323 0.8 0 0
0.535314 0.318700 0.768404 0.8 0 0
0.821395 0.618195 0.494867 0.8 0 0
0.381545 0.369874 0.538374 0.8 0 0
0.217068 0.533707 0.492344 0.8 0 0
0.569496 0.150815 0.337908 0.8 0 0
0.527672 0.314769 0.181622 0.8 0 0
0.679884 0.308877 0.345266 0.8 0 0
0.505498 0.339526 0.900723 0.8 0 0
0.648299 0.216733 0.515832 0.8 0 0
0.683889 0.273280 0.408984 0.8 0 0
0.533934 0.456221 0.513291 0.8 0 0
0.124887 0.617152 0.406743 0.8 0 0
0.611499 0.308415 0.209405 0.8 0 0
0.622522 0.386194 0.866657 0.8 0 0
0.547061 0.203725 0.613346 0.8 0 0
0.435169 0.228837 0.330547 0.8 0 0
0.627927 0.412734 0.402313 0.8 0 0
0.456665 0.128945 0.317991 0.8 0 0
0.516763 0.523024 0.693969 0.8 0 0
0.530613 0.505033 0.775865 0.8 0 0
0.534318 0.404022 0.095182 0.8 0 0
0.497251 0.476052 0.616071 0.8 0 0
0.532595 0.303107 0.768510 0.8 0 0
0.184694 0.542331 0.314617 0.8 0 0
0.676490 0.290145 0.325914 0.8 0 0
0.623535 0.422225 0.429846 0.8 0 0
0.219097 0.509667 0.335702 0.8 0 0
0.519294 0.285045 0.839878 0.8 0 0
0.621801 0.069833 0.402124 0.8 0 0
0.306659 0.419591 0.339813 0.8 0 0
0.441760 0.221910 0.537627 0.8 0 0
0.515129 0.337997 0.928483 0.8 0 0
0.597409 0.355759 0.896911 0.8 0 0
0.639629 0.056403 0.402680 0.8 0 0
0.423966 0.318188 0.482918 0.8 0 0
0.460893 0.420885 0.447151 0.8 0 0
0.656533 0.337575 0.295517 0.8 0 0
0.658397 0.163988 0.365165 0.8 0 0
0.618088 0.458565 0.805485 0.8 0 0
0.327287 0.421001 0.502353 0.8 0 0
0.532602 0.213224 0.631591 0.8 0 0
0.467505 0.186098 0.334521 0.8 0 0
0.622406 0.480400 0.741005 0.8 0 0
0.543552 0.165047 0.511804 0.8 0 0
0.465689 0.479500 0.797163 0.8 0 0
0.593806 0.422685 0.870393 0.8 0 0
0.498562 0.285505 0.838206 0.8 0 0
0.599812 0.121007 0.363945 0.8 0 0
0.823500 0.603099 0.434721 0.8 0 0
