0.610458 0.173986 0.133131 0.8 0 0
0.537308 0.134329 0.213145 0.8 0 0
0.402266 0.164682 0.190771 0.8 0 0
0.405050 0.170033 0.179922 0.8 0 0
0.685031 0.204613 0.165523 0.8 0 0
0.586569 0.162315 0.159795 0.8 0 0
0.522726 0.081294 0.149989 0.8 0 0
0.469966 0.127373 0.177944 0.8 0 0
0.751852 0.237334 0.282973 0.8 0 0
0.729576 0.228098 0.150203 0.8 0 0
0.264481 0.233089 0.238978 0.8 0 0
0.633226 0.189655 0.187749 0.8 0 0
0.831922 0.255827 0.188822 0.8 0 0
0.196595 0.246841 0.266725 0.8 0 0
0.750712 0.228639 0.200759 0.8 0 0
0.597217 0.166576 0.155719 0.8 0 0
0.222759 0.240856 0.227333 0.8 0 0
0.344193 0.208942 0.241893 0.8 0 0
0.180485 0.251261 0.252259 0.8 0 0
0.595653 0.174120 0.214167 0.8 0 0
0.733438 0.216978 0.260674 0.8 0 0
0.800647 0.245177 0.211431 0.8 0 0
0.629536 0.188522 0.267125 0.8 0 0
0.141151 0.254667 0.217016 0.8 0 0
0.209922 0.247184 0.191480 0.8 0 0
0.713256 0.232031 0.265773 0.8 0 0
0.301846 0.217760 0.212999 0.8 0 0
0.391556 0.165722 0.212999 0.8 0 0
0.417903 0.158837 0.141374 0.8 0 0
0.329813 0.203092 0.185521 0.8 0 0
0.483997 0.143201 0.161399 0.8 0 0
0.475287 0.144724 0.177315 0.8 0 0
0.747802 0.224455 0.219643 0.8 0 0
0.190707 0.248143 0.180251 0.8 0 0
0.271872 0.216623 0.243719 0.8 0 0
0.449918 0.153552 0.181435 0.8 0 0
0.298493 0.226658 0.268192 0.8 0 0
0.573527 0.160544 0.175446 0.8 0 0
0.500789 0.101628 0.190492 0.8 0 0
0.896409 0.267769 0.179195 0.8 0 0
0.654201 0.194184 0.164041 0.8 0 0
0.846042 0.257305 0.183488 0.8 0 0
0.677362 0.203404 0.157788 0.8 0 0
0.519863 0.128405 0.075494 0.8 0 0
0.645079 0.202209 0.230612 0.8 0 0
0.276128 0.218002 0.205915 0.8 0 0
0.333533 0.203755 0.175636 0.8 0 0
0.768700 0.233051 0.205703 0.8 0 0
0.494548 0.125046 0.077048 0.8 0 0
0.413886 0.160956 0.115567 0.8 0 0
0.341004 0.188126 0.248669 0.8 0 0
0.156512 0.247685 0.226119 0.8 0 0
0.641461 0.201689 0.235483 0.8 0 0
0.918891 0.267527 0.224318 0.8 0 0
0.480924 0.090064 0.197905 0.8 0 0
0.233278 0.235021 0.188088 0.8 0 0
0.530687 0.119506 0.176892 0.8 0 0
0.436453 0.161231 0.249391 0.8 0 0
0.549333 0.147886 0.192047 0.8 0 0
0.913065 0.268382 0.240168 0.8 0 0
0.785237 0.237031 0.283555 0.8 0 0
0.584555 0.166286 0.186922 0.8 0 0
0.446408 0.154397 0.176180 0.8 0 0
0.270402 0.217019 0.243584 0.8 0 0
0.712930 0.223976 0.212806 0.8 0 0
0.726345 0.225173 0.143596 0.8 0 0
0.641566 0.201589 0.234772 0.8 0 0
0.254117 0.231755 0.220526 0.8 0 0
0.520077 0.149493 0.191973 0.8 0 0
0.650881 0.195607 0.150469 0.8 0 0
0.473153 0.129534 0.149388 0.8 0 0
0.814250 0.239610 0.269089 0.8 0 0
0.547367 0.122305 0.064464 0.8 0 0
0.462758 0.136411 0.198085 0.8 0 0
0.754582 0.232524 0.152007 0.8 0 0
0.801811 0.249532 0.194049 0.8 0 0
0.847615 0.252828 0.213757 0.8 0 0
0.657538 0.189170 0.227320 0.8 0 0
0.641191 0.178068 0.251575 0.8 0 0
0.877413 0.262002 0.187264 0.8 0 0
0.223514 0.241537 0.205238 0.8 0 0
0.904114 0.267512 0.210800 0.8 0 0
0.475811 0.128171 0.089189 0.8 0 0
0.460853 0.136851 0.209640 0.8 0 0
0.550474 0.119937 0.092069 0.8 0 0
0.208412 0.232964 0.249925 0.8 0 0
0.487766 0.141895 0.294735 0.8 0 0
0.356583 0.182259 0.220866 0.8 0 0
0.224605 0.243149 0.266445 0.8 0 0
0.124424 0.261251 0.215309 0.8 0 0
0.645193 0.182708 0.228557 0.8 0 0
0.319737 0.196958 0.245414 0.8 0 0
0.861593 0.259390 0.176613 0.8 0 0
0.847415 0.247971 0.244836 0.8 0 0
0.692731 0.213706 0.189579 0.8 0 0
0.564908 0.151235 0.262705 0.8 0 0
0.465545 0.038609 0.150942 0.8 0 0
0.518325 0.153818 0.247505 0.8 0 0
0.161347 0.258150 0.177922 0.8 0 0
0.475298 0.104890 0.221354 0.8 0 0
0.404232 0.174723 0.224651 0.8 0 0
0.863532 0.265045 0.162911 0.8 0 0
0.705881 0.216457 0.191419 0.8 0 0
0.819731 0.249388 0.208036 0.8 0 0
0.746397 0.236321 0.245854 0.8 0 0
0.495767 0.136349 0.127748 0.8 0 0
0.748908 0.234499 0.176108 0.8 0 0
0.208896 0.247519 0.191424 0.8 0 0
0.094591 0.267578 0.254741 0.8 0 0
0.603327 0.172380 0.150101 0.8 0 0
0.156826 0.246322 0.256112 0.8 0 0
0.874217 0.263092 0.168286 0.8 0 0
0.838290 0.258829 0.170681 0.8 0 0
0.337406 0.197342 0.144070 0.8 0 0
0.349581 0.195777 0.173281 0.8 0 0
0.172680 0.247232 0.207968 0.8 0 0
0.249750 0.221113 0.278801 0.8 0 0
0.663778 0.208244 0.222924 0.8 0 0
0.515127 0.123889 0.053151 0.8 0 0
0.869595 0.259548 0.202255 0.8 0 0
0.788730 0.239461 0.281230 0.8 0 0
0.421400 0.157623 0.148349 0.8 0 0
0.771553 0.239382 0.191492 0.8 0 0
0.085477 0.268540 0.241917 0.8 0 0
0.271760 0.225823 0.139632 0.8 0 0
0.808295 0.249065 0.170606 0.8 0 0
0.668980 0.203444 0.153498 0.8 0 0
0.269453 0.218645 0.227820 0.8 0 0
0.812890 0.242767 0.227030 0.8 0 0
0.419507 0.148850 0.254534 0.8 0 0
0.139871 0.257836 0.234453 0.8 0 0
0.507649 0.094463 0.200090 0.8 0 0
0.583825 0.159105 0.128351 0.8 0 0
0.197104 0.236643 0.273847 0.8 0 0
0.288036 0.210192 0.250859 0.8 0 0
0.693677 0.220794 0.275680 0.8 0 0
0.477888 0.132774 0.133710 0.8 0 0
0.970023 0.283698 0.255249 0.8 0 0
0.131138 0.254891 0.260072 0.8 0 0
0.559374 0.144667 0.116464 0.8 0 0
0.142801 0.255077 0.225525 0.8 0 0
0.770431 0.239224 0.173263 0.8 0 0
0.337228 0.206357 0.215982 0.8 0 0
0.530243 0.120534 0.052105 0.8 0 0
0.503766 0.152852 0.227378 0.8 0 0
0.629168 0.192300 0.214144 0.8 0 0
0.439585 0.148880 0.131115 0.8 0 0
0.672688 0.201227 0.142929 0.8 0 0
0.759612 0.229645 0.201053 0.8 0 0
0.445206 0.138052 0.247130 0.8 0 0
0.157627 0.254963 0.214893 0.8 0 0
0.536404 0.144515 0.175366 0.8 0 0
0.389275 0.172692 0.132245 0.8 0 0
0.772494 0.226517 0.268601 0.8 0 0
0.901864 0.266426 0.258815 0.8 0 0
0.717301 0.231889 0.272044 0.8 0 0
0.114873 0.262370 0.254283 0.8 0 0
0.353476 0.202494 0.229047 0.8 0 0
0.727082 0.236264 0.263508 0.8 0 0
0.371738 0.183871 0.128578 0.8 0 0
0.176816 0.255053 0.188661 0.8 0 0
0.225604 0.237743 0.219847 0.8 0 0
0.440107 0.160981 0.223362 0.8 0 0
0.630300 0.176243 0.217950 0.8 0 0
0.823937 0.251228 0.203763 0.8 0 0
0.773623 0.236052 0.287536 0.8 0 0
0.487589 0.128205 0.042402 0.8 0 0
0.336157 0.200577 0.138047 0.8 0 0
0.660618 0.188958 0.267070 0.8 0 0
0.715571 0.215557 0.202954 0.8 0 0
0.740667 0.226645 0.159638 0.8 0 0
0.462409 0.119137 0.068190 0.8 0 0
0.866101 0.254465 0.257734 0.8 0 0
0.362440 0.186944 0.143098 0.8 0 0
0.524328 0.052091 0.145295 0.8 0 0
0.419283 0.167373 0.205598 0.8 0 0
0.868582 0.258970 0.225241 0.8 0 0
0.239763 0.241716 0.148200 0.8 0 0
0.490275 0.125249 0.091432 0.8 0 0
0.249273 0.231726 0.203172 0.8 0 0
0.594010 0.165242 0.184052 0.8 0 0
0.726863 0.235068 0.255622 0.8 0 0
0.553669 0.156463 0.198356 0.8 0 0
0.245590 0.233047 0.149688 0.8 0 0
0.509344 0.141594 0.151755 0.8 0 0
0.487784 0.128965 0.059296 0.8 0 0
0.238261 0.223765 0.274833 0.8 0 0
0.500393 0.143226 0.329799 0.8 0 0
0.700778 0.206389 0.242707 0.8 0 0
0.295718 0.215107 0.172332 0.8 0 0
0.109036 0.261071 0.221696 0.8 0 0
0.600703 0.175572 0.205003 0.8 0 0
0.846653 0.248617 0.248612 0.8 0 0
0.351338 0.194126 0.130438 0.8 0 0
0.711440 0.221381 0.200288 0.8 0 0
0.587840 0.170455 0.245437 0.8 0 0
0.672516 0.195264 0.239825 0.8 0 0
0.192010 0.237702 0.250577 0.8 0 0
0.525980 0.122515 0.152810 0.8 0 0
0.459298 0.121648 0.034795 0.8 0 0
0.570265 0.146824 0.229177 0.8 0 0
0.544064 0.125302 0.102315 0.8 0 0
0.360526 0.195261 0.262336 0.8 0 0
0.507974 0.151510 0.211076 0.8 0 0
0.383731 0.176373 0.141805 0.8 0 0
0.331176 0.199545 0.168867 0.8 0 0
0.444561 0.155042 0.186516 0.8 0 0
0.379841 0.169463 0.233930 0.8 0 0
0.909299 0.272867 0.179550 0.8 0 0
0.777463 0.241115 0.220095 0.8 0 0
0.672733 0.199499 0.199674 0.8 0 0
0.682788 0.202389 0.183118 0.8 0 0
0.925454 0.270220 0.261341 0.8 0 0
0.513245 0.087794 0.170945 0.8 0 0
0.880513 0.265263 0.184945 0.8 0 0
0.349925 0.186195 0.210287 0.8 0 0
0.591528 0.170658 0.259229 0.8 0 0
0.711769 0.218432 0.178252 0.8 0 0
0.512459 0.121135 0.123185 0.8 0 0
0.181741 0.242422 0.233871 0.8 0 0
0.184941 0.248998 0.176002 0.8 0 0
0.518844 0.123661 0.039204 0.8 0 0
0.505536 0.134848 0.326932 0.8 0 0
0.526913 0.120039 0.160346 0.8 0 0
0.607898 0.178973 0.202589 0.8 0 0
0.469097 0.098678 0.179425 0.8 0 0
0.286825 0.212879 0.211574 0.8 0 0
0.432174 0.147880 0.221746 0.8 0 0
0.432433 0.153033 0.152540 0.8 0 0
0.370955 0.171289 0.253593 0.8 0 0
0.525095 0.128082 0.090620 0.8 0 0
0.225154 0.233424 0.227716 0.8 0 0
0.357841 0.181059 0.230237 0.8 0 0
0.844389 0.254688 0.238486 0.8 0 0
0.517224 0.125131 0.027472 0.8 0 0
0.112277 0.262968 0.187863 0.8 0 0
0.724182 0.227284 0.159061 0.8 0 0
0.515046 0.082618 0.164900 0.8 0 0
0.479612 0.154069 0.242841 0.8 0 0
0.472239 0.101401 0.209231 0.8 0 0
0.368649 0.196245 0.242898 0.8 0 0
0.599294 0.167071 0.137834 0.8 0 0
0.341616 0.189606 0.227392 0.8 0 0
0.260474 0.233351 0.236997 0.8 0 0
0.661341 0.203230 0.204046 0.8 0 0
0.391649 0.167792 0.264577 0.8 0 0
0.151905 0.247459 0.268189 0.8 0 0
0.497168 0.103454 0.185204 0.8 0 0
0.687979 0.204084 0.186494 0.8 0 0
0.720369 0.234658 0.258799 0.8 0 0
0.517562 0.119036 0.260429 0.8 0 0
0.413486 0.163724 0.185275 0.8 0 0
0.447808 0.143255 0.120914 0.8 0 0
0.808378 0.237541 0.254583 0.8 0 0
0.510086 0.127745 0.034351 0.8 0 0
0.352220 0.190053 0.152907 0.8 0 0
0.755378 0.224677 0.243994 0.8 0 0
0.266144 0.222845 0.202364 0.8 0 0
0.417813 0.160943 0.128618 0.8 0 0
0.468097 0.044504 0.144929 0.8 0 0
0.351785 0.194603 0.139283 0.8 0 0
0.436525 0.152167 0.147861 0.8 0 0
0.406518 0.163583 0.191700 0.8 0 0
0.916120 0.269206 0.240014 0.8 0 0
0.647211 0.190076 0.158170 0.8 0 0
0.170785 0.242740 0.255882 0.8 0 0
0.733748 0.233345 0.284331 0.8 0 0
0.170459 0.249057 0.203872 0.8 0 0
0.896982 0.266819 0.213058 0.8 0 0
0.174590 0.254598 0.163876 0.8 0 0
0.663966 0.195682 0.191881 0.8 0 0
0.637517 0.187077 0.171802 0.8 0 0
0.471478 0.112990 0.166033 0.8 0 0
0.169337 0.247884 0.224989 0.8 0 0
0.429873 0.155874 0.158075 0.8 0 0
0.531131 0.122154 0.226639 0.8 0 0
0.288344 0.216438 0.170015 0.8 0 0
0.347883 0.186502 0.223969 0.8 0 0
0.601618 0.170653 0.130943 0.8 0 0
0.443256 0.148280 0.205253 0.8 0 0
0.394437 0.170405 0.184053 0.8 0 0
0.786435 0.247991 0.133170 0.8 0 0
0.400115 0.167301 0.138585 0.8 0 0
0.499858 0.121398 0.101545 0.8 0 0
0.170693 0.251359 0.164164 0.8 0 0
0.351275 0.194794 0.144985 0.8 0 0
0.087866 0.268865 0.246536 0.8 0 0
0.394689 0.169790 0.138336 0.8 0 0
0.836353 0.253257 0.226948 0.8 0 0
0.745608 0.224422 0.211322 0.8 0 0
0.530859 0.104290 0.191873 0.8 0 0
0.493855 0.106428 0.175431 0.8 0 0
0.283833 0.231406 0.247428 0.8 0 0
0.609124 0.174313 0.132235 0.8 0 0
0.536232 0.119717 0.039559 0.8 0 0
0.719312 0.232524 0.248853 0.8 0 0
0.537754 0.119569 0.050793 0.8 0 0
0.625991 0.184027 0.139216 0.8 0 0
0.542272 0.118376 0.071241 0.8 0 0
0.167576 0.249976 0.270382 0.8 0 0
0.598375 0.171019 0.167875 0.8 0 0
0.559534 0.148590 0.207343 0.8 0 0
0.945644 0.276272 0.248637 0.8 0 0
0.481510 0.116515 0.253945 0.8 0 0
0.800286 0.244266 0.209078 0.8 0 0
0.469212 0.105855 0.200593 0.8 0 0
0.688524 0.207196 0.285907 0.8 0 0
0.693907 0.205619 0.221065 0.8 0 0
0.871222 0.257497 0.244655 0.8 0 0
0.155115 0.260625 0.168251 0.8 0 0
0.167235 0.252399 0.162856 0.8 0 0
0.464079 0.131734 0.213848 0.8 0 0
0.316424 0.197971 0.251078 0.8 0 0
0.190425 0.239827 0.236626 0.8 0 0
0.331781 0.194470 0.226299 0.8 0 0
0.410695 0.171511 0.236764 0.8 0 0
0.477256 0.152695 0.210021 0.8 0 0
0.540067 0.155746 0.251758 0.8 0 0
0.466274 0.152064 0.257342 0.8 0 0
0.614667 0.166942 0.229680 0.8 0 0
0.835262 0.253821 0.242059 0.8 0 0
0.292889 0.220845 0.159368 0.8 0 0
0.282869 0.230894 0.242812 0.8 0 0
0.325377 0.203741 0.183797 0.8 0 0
0.824085 0.242909 0.271750 0.8 0 0
0.753330 0.238996 0.159934 0.8 0 0
0.501574 0.141048 0.143040 0.8 0 0
0.779458 0.244708 0.166161 0.8 0 0
0.716240 0.213541 0.216626 0.8 0 0
0.429977 0.147390 0.226459 0.8 0 0
0.311784 0.204226 0.189246 0.8 0 0
0.420983 0.159503 0.175690 0.8 0 0
0.469069 0.131085 0.183468 0.8 0 0
0.559019 0.151424 0.191349 0.8 0 0
0.665018 0.203048 0.172636 0.8 0 0
0.596160 0.173991 0.210733 0.8 0 0
0.456963 0.120174 0.103008 0.8 0 0
0.528427 0.092865 0.162668 0.8 0 0
0.447772 0.158931 0.217831 0.8 0 0
0.081430 0.272849 0.207858 0.8 0 0
0.702398 0.211730 0.287469 0.8 0 0
0.743996 0.229973 0.192585 0.8 0 0
0.300678 0.208752 0.153355 0.8 0 0
0.706288 0.218324 0.158707 0.8 0 0
0.375578 0.187045 0.197953 0.8 0 0
0.372997 0.174652 0.216270 0.8 0 0
0.784670 0.247692 0.133224 0.8 0 0
0.930859 0.274144 0.260040 0.8 0 0
0.442192 0.160976 0.227034 0.8 0 0
0.681748 0.206973 0.160294 0.8 0 0
0.635767 0.191272 0.268810 0.8 0 0
0.202348 0.245712 0.263364 0.8 0 0
0.495372 0.117641 0.134952 0.8 0 0
0.469086 0.130757 0.252873 0.8 0 0
0.348131 0.201902 0.215114 0.8 0 0
0.322618 0.196347 0.242590 0.8 0 0
0.626449 0.182512 0.170347 0.8 0 0
0.474424 0.032548 0.150038 0.8 0 0
0.553042 0.138588 0.236436 0.8 0 0
0.559230 0.148874 0.155226 0.8 0 0
0.621225 0.167566 0.245760 0.8 0 0
0.512795 0.128477 0.296437 0.8 0 0
0.335546 0.203805 0.194270 0.8 0 0
0.244351 0.239414 0.268908 0.8 0 0
0.808505 0.247557 0.267487 0.8 0 0
0.367124 0.184925 0.150551 0.8 0 0
0.448554 0.142227 0.127007 0.8 0 0
0.463933 0.036875 0.147857 0.8 0 0
0.695879 0.206717 0.219389 0.8 0 0
0.586285 0.163583 0.184924 0.8 0 0
0.154529 0.250074 0.233996 0.8 0 0
0.668774 0.214787 0.244261 0.8 0 0
0.859847 0.256418 0.244872 0.8 0 0
0.499186 0.127093 0.330835 0.8 0 0
0.420892 0.166421 0.202395 0.8 0 0
0.502163 0.151004 0.303291 0.8 0 0
0.566593 0.150842 0.141512 0.8 0 0
0.161669 0.254610 0.243436 0.8 0 0
0.822975 0.253231 0.174579 0.8 0 0
0.375166 0.172424 0.228408 0.8 0 0
0.847605 0.257184 0.200530 0.8 0 0
0.611805 0.185192 0.237166 0.8 0 0
0.821745 0.242472 0.239918 0.8 0 0
0.538538 0.118533 0.061515 0.8 0 0
0.851546 0.249397 0.261044 0.8 0 0
0.299694 0.210207 0.286058 0.8 0 0
0.662185 0.201494 0.163914 0.8 0 0
0.541857 0.123821 0.079628 0.8 0 0
0.897608 0.269255 0.176974 0.8 0 0
0.831538 0.255684 0.158694 0.8 0 0
0.218356 0.236624 0.194741 0.8 0 0
0.273772 0.233343 0.247734 0.8 0 0
0.187850 0.247667 0.209450 0.8 0 0
0.701897 0.221385 0.223025 0.8 0 0
0.346312 0.187082 0.229351 0.8 0 0
0.335589 0.190220 0.254724 0.8 0 0
0.224255 0.238405 0.208236 0.8 0 0
0.247966 0.226593 0.223401 0.8 0 0
0.687237 0.204641 0.176624 0.8 0 0
0.208939 0.244375 0.233980 0.8 0 0
0.519133 0.049867 0.140115 0.8 0 0
0.647308 0.180584 0.259085 0.8 0 0
0.344222 0.208531 0.239915 0.8 0 0
0.488679 0.133098 0.116099 0.8 0 0
0.270881 0.223832 0.295968 0.8 0 0
0.114465 0.264633 0.212619 0.8 0 0
0.288541 0.210510 0.239514 0.8 0 0
0.680519 0.203926 0.154084 0.8 0 0
0.872719 0.259413 0.254261 0.8 0 0
0.262211 0.232559 0.141792 0.8 0 0
0.472558 0.131994 0.154933 0.8 0 0
0.262590 0.236978 0.256342 0.8 0 0
0.526351 0.146939 0.265691 0.8 0 0
0.628753 0.182474 0.150626 0.8 0 0
0.269533 0.222298 0.140249 0.8 0 0
0.251235 0.221257 0.280779 0.8 0 0
0.753765 0.236099 0.168206 0.8 0 0
0.275230 0.230142 0.286716 0.8 0 0
0.293137 0.211040 0.218531 0.8 0 0
0.731410 0.228541 0.148106 0.8 0 0
0.706846 0.212090 0.212204 0.8 0 0
0.541495 0.118272 0.066996 0.8 0 0
0.287798 0.215385 0.192287 0.8 0 0
0.757807 0.231965 0.151118 0.8 0 0
0.792408 0.243582 0.203918 0.8 0 0
0.742657 0.223421 0.212020 0.8 0 0
0.691228 0.204532 0.219812 0.8 0 0
0.652012 0.195650 0.154708 0.8 0 0
0.649322 0.195185 0.156707 0.8 0 0
0.326004 0.204399 0.166139 0.8 0 0
0.700332 0.213465 0.179823 0.8 0 0
0.452965 0.136442 0.244488 0.8 0 0
0.486765 0.127374 0.031680 0.8 0 0
0.755622 0.230671 0.207319 0.8 0 0
0.706120 0.218685 0.156597 0.8 0 0
0.401812 0.155073 0.244510 0.8 0 0
0.230498 0.232635 0.209217 0.8 0 0
0.613202 0.180912 0.261987 0.8 0 0
0.514361 0.128735 0.061649 0.8 0 0
0.496123 0.136087 0.125233 0.8 0 0
0.545630 0.144675 0.200618 0.8 0 0
0.723474 0.227256 0.293738 0.8 0 0
0.807045 0.240434 0.227068 0.8 0 0
0.348544 0.186476 0.216736 0.8 0 0
0.207113 0.250405 0.142544 0.8 0 0
0.730990 0.225573 0.181357 0.8 0 0
0.674243 0.216915 0.244745 0.8 0 0
0.870361 0.255955 0.253165 0.8 0 0
0.285286 0.224995 0.144925 0.8 0 0
0.521259 0.154098 0.228299 0.8 0 0
0.566817 0.162324 0.247983 0.8 0 0
0.210885 0.245162 0.156931 0.8 0 0
0.434328 0.147944 0.218132 0.8 0 0
0.090160 0.268425 0.248037 0.8 0 0
0.542784 0.118968 0.087567 0.8 0 0
0.675901 0.204499 0.180582 0.8 0 0
0.230437 0.227439 0.254529 0.8 0 0
0.427701 0.149887 0.260098 0.8 0 0
0.796708 0.242126 0.176062 0.8 0 0
0.386279 0.179359 0.266357 0.8 0 0
0.481943 0.123843 0.056811 0.8 0 0
0.885985 0.258976 0.200561 0.8 0 0
0.486162 0.122166 0.273472 0.8 0 0
0.746438 0.225987 0.177868 0.8 0 0
0.503283 0.127423 0.342762 0.8 0 0
0.192968 0.244429 0.216403 0.8 0 0
0.471086 0.128862 0.132231 0.8 0 0
0.453053 0.138014 0.233288 0.8 0 0
0.410331 0.171044 0.247644 0.8 0 0
0.729990 0.228225 0.205646 0.8 0 0
0.806169 0.235945 0.261561 0.8 0 0
0.381261 0.174076 0.198014 0.8 0 0
0.173355 0.241977 0.253095 0.8 0 0
0.799136 0.243829 0.275066 0.8 0 0
0.228148 0.244339 0.257686 0.8 0 0
0.365213 0.194335 0.212715 0.8 0 0
0.914043 0.269062 0.243820 0.8 0 0
0.846711 0.259806 0.166967 0.8 0 0
0.707824 0.224511 0.225948 0.8 0 0
0.586925 0.163947 0.174611 0.8 0 0
0.843144 0.249878 0.228433 0.8 0 0
0.539191 0.152760 0.192308 0.8 0 0
0.529358 0.129019 0.128602 0.8 0 0
0.411265 0.170174 0.202046 0.8 0 0
0.258511 0.219633 0.260424 0.8 0 0
0.722800 0.214546 0.251534 0.8 0 0
0.287343 0.216838 0.291593 0.8 0 0
0.417633 0.166790 0.258761 0.8 0 0
0.902754 0.266717 0.257474 0.8 0 0
0.121032 0.260464 0.192266 0.8 0 0
0.314236 0.207181 0.196426 0.8 0 0
0.181160 0.243128 0.274570 0.8 0 0
0.711331 0.210286 0.243118 0.8 0 0
0.829472 0.254926 0.193146 0.8 0 0
0.773165 0.232617 0.214089 0.8 0 0
0.107731 0.262108 0.191852 0.8 0 0
0.628531 0.188376 0.265714 0.8 0 0
0.611632 0.175156 0.178481 0.8 0 0
0.738645 0.232225 0.185185 0.8 0 0
0.523199 0.154000 0.252196 0.8 0 0
0.508259 0.116216 0.148629 0.8 0 0
0.558543 0.123793 0.080271 0.8 0 0
0.868147 0.254633 0.210522 0.8 0 0
0.470140 0.081211 0.165803 0.8 0 0
0.447651 0.160875 0.235281 0.8 0 0
0.149105 0.248705 0.263746 0.8 0 0
0.417787 0.158520 0.135451 0.8 0 0
0.689464 0.220809 0.269367 0.8 0 0
0.322035 0.203309 0.156533 0.8 0 0
0.622168 0.191893 0.229406 0.8 0 0
0.815870 0.245121 0.276251 0.8 0 0
0.193507 0.248146 0.248329 0.8 0 0
0.224325 0.227311 0.269979 0.8 0 0
0.705633 0.214987 0.204059 0.8 0 0
0.236243 0.228105 0.230732 0.8 0 0
0.547655 0.141976 0.213521 0.8 0 0
0.555851 0.122115 0.058654 0.8 0 0
0.593271 0.171404 0.198015 0.8 0 0
0.093077 0.268120 0.252384 0.8 0 0
0.555911 0.158095 0.208000 0.8 0 0
0.519215 0.123806 0.053317 0.8 0 0
0.375195 0.186820 0.196683 0.8 0 0
0.458403 0.118740 0.078888 0.8 0 0
0.489403 0.115318 0.153116 0.8 0 0
0.732656 0.230555 0.149680 0.8 0 0
0.584177 0.157066 0.215215 0.8 0 0
0.532597 0.122196 0.212872 0.8 0 0
0.306083 0.202872 0.277578 0.8 0 0
0.696726 0.215337 0.178689 0.8 0 0
0.533618 0.119816 0.056916 0.8 0 0
0.511949 0.147226 0.179460 0.8 0 0
0.517628 0.110814 0.240402 0.8 0 0
0.891317 0.261124 0.221697 0.8 0 0
0.575588 0.157614 0.201346 0.8 0 0
0.262035 0.231204 0.187814 0.8 0 0
0.529241 0.105608 0.211285 0.8 0 0
0.651575 0.185197 0.266067 0.8 0 0
0.918526 0.268810 0.214498 0.8 0 0
0.767003 0.230628 0.286218 0.8 0 0
0.373085 0.189257 0.258153 0.8 0 0
0.716168 0.215369 0.176709 0.8 0 0
0.351882 0.190328 0.146591 0.8 0 0
0.185822 0.248134 0.185494 0.8 0 0
0.543004 0.154456 0.256795 0.8 0 0
0.249093 0.227101 0.164510 0.8 0 0
0.210888 0.247782 0.130855 0.8 0 0
0.665488 0.211546 0.259601 0.8 0 0
0.755255 0.238088 0.242877 0.8 0 0
0.774857 0.234422 0.205998 0.8 0 0
0.851742 0.250377 0.235221 0.8 0 0
0.508781 0.152350 0.265927 0.8 0 0
0.459027 0.150476 0.179627 0.8 0 0
0.653984 0.199526 0.274146 0.8 0 0
0.258310 0.228313 0.151254 0.8 0 0
0.311546 0.206195 0.284117 0.8 0 0
0.757432 0.236621 0.230958 0.8 0 0
0.668260 0.204560 0.188687 0.8 0 0
0.267964 0.221269 0.289888 0.8 0 0
0.566172 0.141850 0.238326 0.8 0 0
0.361896 0.192020 0.269803 0.8 0 0
0.114334 0.264544 0.211011 0.8 0 0
0.657430 0.199281 0.180672 0.8 0 0
0.428751 0.152753 0.130590 0.8 0 0
0.393826 0.176145 0.190685 0.8 0 0
0.503389 0.122308 0.107457 0.8 0 0
0.319463 0.215004 0.273706 0.8 0 0
0.414784 0.156781 0.217616 0.8 0 0
0.209376 0.234628 0.279402 0.8 0 0
0.197864 0.250402 0.179416 0.8 0 0
0.649464 0.196120 0.179638 0.8 0 0
0.698087 0.207734 0.161079 0.8 0 0
0.535587 0.132422 0.246892 0.8 0 0
0.458059 0.118511 0.072692 0.8 0 0
0.748980 0.238294 0.253344 0.8 0 0
0.326271 0.200845 0.157272 0.8 0 0
0.351759 0.184098 0.266194 0.8 0 0
0.548926 0.124469 0.094482 0.8 0 0
0.449715 0.146617 0.162715 0.8 0 0
0.620313 0.190543 0.240440 0.8 0 0
0.377136 0.180799 0.172339 0.8 0 0
0.633044 0.195226 0.249772 0.8 0 0
0.401020 0.166555 0.184855 0.8 0 0
0.614961 0.184483 0.212689 0.8 0 0
0.494295 0.099492 0.222964 0.8 0 0
0.230722 0.237900 0.202930 0.8 0 0
0.840442 0.254399 0.240670 0.8 0 0
0.531061 0.132837 0.181740 0.8 0 0
0.419732 0.168043 0.214687 0.8 0 0
0.240257 0.236992 0.181091 0.8 0 0
0.518908 0.123816 0.054317 0.8 0 0
0.372722 0.174010 0.263320 0.8 0 0
0.377900 0.180816 0.128196 0.8 0 0
0.068543 0.269724 0.218876 0.8 0 0
0.476175 0.127750 0.079037 0.8 0 0
0.317248 0.197513 0.251670 0.8 0 0
0.168552 0.243869 0.247529 0.8 0 0
0.650346 0.203903 0.228161 0.8 0 0
0.181826 0.240363 0.251474 0.8 0 0
0.854005 0.258626 0.170003 0.8 0 0
0.118140 0.261274 0.258209 0.8 0 0
0.858465 0.260526 0.191845 0.8 0 0
0.298891 0.210662 0.157548 0.8 0 0
0.400516 0.160316 0.221044 0.8 0 0
0.417836 0.154223 0.221568 0.8 0 0
0.761170 0.226061 0.245088 0.8 0 0
0.574087 0.155622 0.154045 0.8 0 0
0.954998 0.281029 0.205680 0.8 0 0
0.115275 0.260527 0.194176 0.8 0 0
0.289402 0.222262 0.208540 0.8 0 0
0.317322 0.202296 0.202742 0.8 0 0
0.747059 0.220002 0.269232 0.8 0 0
0.470777 0.087861 0.163058 0.8 0 0
0.769136 0.232386 0.287757 0.8 0 0
0.235847 0.227603 0.283385 0.8 0 0
0.609045 0.171701 0.140171 0.8 0 0
0.417012 0.153734 0.259399 0.8 0 0
0.663652 0.197517 0.149883 0.8 0 0
0.782869 0.246595 0.157402 0.8 0 0
0.398608 0.177752 0.239042 0.8 0 0
0.385675 0.186304 0.243241 0.8 0 0
0.925526 0.270836 0.248904 0.8 0 0
0.177244 0.249731 0.177072 0.8 0 0
0.226748 0.243905 0.148221 0.8 0 0
0.087570 0.272480 0.183058 0.8 0 0
0.516076 0.083110 0.153102 0.8 0 0
0.704178 0.216839 0.203800 0.8 0 0
0.460139 0.136153 0.220294 0.8 0 0
0.519774 0.123486 0.100510 0.8 0 0
0.599937 0.160570 0.220722 0.8 0 0
0.894443 0.266005 0.219558 0.8 0 0
0.599714 0.163965 0.263769 0.8 0 0
0.690868 0.210566 0.160442 0.8 0 0
0.467113 0.130989 0.195023 0.8 0 0
0.543140 0.136661 0.232405 0.8 0 0
0.535931 0.131789 0.213802 0.8 0 0
0.478951 0.113198 0.239616 0.8 0 0
0.482721 0.075874 0.149499 0.8 0 0
0.420193 0.158157 0.205467 0.8 0 0
0.540030 0.155210 0.254248 0.8 0 0
0.495497 0.152667 0.231973 0.8 0 0
0.220823 0.242571 0.201204 0.8 0 0
0.876600 0.260432 0.230054 0.8 0 0
0.172421 0.246642 0.273948 0.8 0 0
0.464964 0.121321 0.118475 0.8 0 0
0.392857 0.166532 0.202581 0.8 0 0
0.677647 0.195579 0.249995 0.8 0 0
0.730720 0.217915 0.236687 0.8 0 0
0.465842 0.140989 0.177890 0.8 0 0
0.487827 0.123197 0.282595 0.8 0 0
0.644889 0.195774 0.189856 0.8 0 0
0.309113 0.207302 0.148922 0.8 0 0
0.562854 0.147903 0.213122 0.8 0 0
0.442778 0.122589 0.061394 0.8 0 0
0.766423 0.226836 0.255644 0.8 0 0
0.553837 0.147479 0.142463 0.8 0 0
0.223455 0.246277 0.133604 0.8 0 0
0.844806 0.258784 0.169949 0.8 0 0
0.542565 0.147195 0.168467 0.8 0 0
0.196675 0.237609 0.240796 0.8 0 0
0.262895 0.218079 0.260790 0.8 0 0
0.708998 0.218657 0.157312 0.8 0 0
0.340998 0.200474 0.183862 0.8 0 0
0.483681 0.123935 0.061617 0.8 0 0
0.414460 0.168343 0.256712 0.8 0 0
0.135371 0.254672 0.268107 0.8 0 0
0.495037 0.152656 0.232574 0.8 0 0
0.693014 0.201729 0.262264 0.8 0 0
0.274489 0.224638 0.201693 0.8 0 0
0.347763 0.195012 0.164825 0.8 0 0
0.241697 0.238859 0.242740 0.8 0 0
0.687264 0.216428 0.279573 0.8 0 0
0.860127 0.259090 0.202852 0.8 0 0
0.506383 0.125188 0.100675 0.8 0 0
0.264666 0.234645 0.280987 0.8 0 0
0.670034 0.199735 0.179466 0.8 0 0
0.713436 0.222792 0.203572 0.8 0 0
0.320849 0.201821 0.190866 0.8 0 0
0.206769 0.247930 0.145258 0.8 0 0
0.282031 0.218764 0.292398 0.8 0 0
0.277948 0.220417 0.181364 0.8 0 0
0.797454 0.234384 0.250939 0.8 0 0
0.558503 0.123824 0.079290 0.8 0 0
0.341922 0.195585 0.155597 0.8 0 0
0.599289 0.166514 0.185852 0.8 0 0
0.860243 0.254996 0.208334 0.8 0 0
0.466672 0.137296 0.181343 0.8 0 0
0.767747 0.225219 0.275044 0.8 0 0
0.778164 0.240350 0.166379 0.8 0 0
0.423270 0.158908 0.138171 0.8 0 0
0.264882 0.218653 0.284043 0.8 0 0
0.450428 0.144172 0.147584 0.8 0 0
0.459726 0.135991 0.223698 0.8 0 0
0.410383 0.164204 0.130208 0.8 0 0
0.928543 0.272412 0.242310 0.8 0 0
0.796221 0.242924 0.170785 0.8 0 0
0.226265 0.226790 0.270450 0.8 0 0
0.681076 0.197888 0.239893 0.8 0 0
0.137100 0.254070 0.253145 0.8 0 0
0.175774 0.243945 0.273134 0.8 0 0
0.448747 0.147061 0.147624 0.8 0 0
0.246306 0.233723 0.220166 0.8 0 0
0.344072 0.202564 0.210797 0.8 0 0
0.272532 0.225323 0.162202 0.8 0 0
0.058513 0.278767 0.206133 0.8 0 0
0.278534 0.222557 0.138666 0.8 0 0
0.537628 0.134575 0.261260 0.8 0 0
0.298952 0.209610 0.154338 0.8 0 0
0.505905 0.125051 0.099825 0.8 0 0
0.821976 0.247314 0.273975 0.8 0 0
0.735860 0.229315 0.214020 0.8 0 0
0.382449 0.168265 0.260655 0.8 0 0
0.859044 0.254118 0.211030 0.8 0 0
0.737513 0.237748 0.261691 0.8 0 0
0.513461 0.134113 0.127142 0.8 0 0
0.442601 0.149440 0.202727 0.8 0 0
0.743908 0.229621 0.164076 0.8 0 0
0.769683 0.238490 0.216183 0.8 0 0
0.778553 0.235290 0.205909 0.8 0 0
0.236118 0.239928 0.149837 0.8 0 0
0.482179 0.151714 0.214013 0.8 0 0
0.195987 0.247154 0.261370 0.8 0 0
0.180457 0.243550 0.274670 0.8 0 0
0.330506 0.199757 0.168139 0.8 0 0
0.659211 0.187083 0.258281 0.8 0 0
0.281354 0.224215 0.204030 0.8 0 0
0.542810 0.158231 0.234040 0.8 0 0
0.577651 0.160910 0.159014 0.8 0 0
0.721378 0.219509 0.191994 0.8 0 0
0.593031 0.173351 0.216194 0.8 0 0
0.627933 0.183170 0.167211 0.8 0 0
0.829449 0.248141 0.206406 0.8 0 0
0.416322 0.152330 0.258010 0.8 0 0
0.491066 0.096281 0.191120 0.8 0 0
0.476945 0.154245 0.220296 0.8 0 0
0.510886 0.125154 0.091097 0.8 0 0
0.165662 0.246338 0.228068 0.8 0 0
0.525359 0.114897 0.234492 0.8 0 0
0.547277 0.159405 0.240577 0.8 0 0
0.250868 0.229370 0.167355 0.8 0 0
0.278850 0.224516 0.147117 0.8 0 0
0.817231 0.244403 0.225930 0.8 0 0
0.120208 0.257650 0.261085 0.8 0 0
0.473224 0.131254 0.143091 0.8 0 0
0.636694 0.179058 0.221635 0.8 0 0
0.922942 0.272274 0.252626 0.8 0 0
0.229804 0.237915 0.160343 0.8 0 0
0.462456 0.134436 0.260963 0.8 0 0
0.861927 0.257381 0.227624 0.8 0 0
0.493292 0.124428 0.042606 0.8 0 0
0.516842 0.111972 0.244946 0.8 0 0
0.110793 0.261639 0.192127 0.8 0 0
0.685112 0.213732 0.284493 0.8 0 0
0.496868 0.133808 0.103278 0.8 0 0
0.528935 0.105345 0.212177 0.8 0 0
0.817724 0.252444 0.147927 0.8 0 0
0.332410 0.198878 0.145707 0.8 0 0
0.609185 0.183145 0.240350 0.8 0 0
0.347144 0.194950 0.161831 0.8 0 0
0.587435 0.157593 0.218137 0.8 0 0
0.743407 0.222540 0.286122 0.8 0 0
0.467600 0.121932 0.216130 0.8 0 0
0.630335 0.177982 0.266858 0.8 0 0
0.621650 0.171651 0.218229 0.8 0 0
0.073984 0.272877 0.248647 0.8 0 0
0.586676 0.168224 0.191445 0.8 0 0
0.637070 0.182578 0.199490 0.8 0 0
0.616675 0.186966 0.220403 0.8 0 0
0.232426 0.238003 0.186614 0.8 0 0
0.271408 0.219812 0.200713 0.8 0 0
0.595323 0.174434 0.226403 0.8 0 0
0.515104 0.079333 0.166430 0.8 0 0
0.668953 0.206594 0.206467 0.8 0 0
0.566555 0.152198 0.262732 0.8 0 0
0.892290 0.264848 0.191995 0.8 0 0
0.331974 0.199047 0.163752 0.8 0 0
0.721318 0.225563 0.294696 0.8 0 0
0.705430 0.220766 0.152399 0.8 0 0
0.509661 0.129526 0.063148 0.8 0 0
0.482760 0.117383 0.257404 0.8 0 0
0.565642 0.141836 0.251042 0.8 0 0
0.469053 0.117327 0.223498 0.8 0 0
0.480535 0.047722 0.142315 0.8 0 0
0.484878 0.128175 0.051419 0.8 0 0
0.732080 0.236916 0.263196 0.8 0 0
0.510850 0.147841 0.279368 0.8 0 0
0.914909 0.275167 0.176154 0.8 0 0
0.067304 0.272791 0.265289 0.8 0 0
0.346988 0.205239 0.229297 0.8 0 0
0.329429 0.195062 0.236695 0.8 0 0
0.203235 0.245397 0.267013 0.8 0 0
0.341118 0.200630 0.171835 0.8 0 0
0.376835 0.182220 0.270229 0.8 0 0
0.657732 0.204631 0.217123 0.8 0 0
0.550373 0.122053 0.066239 0.8 0 0
0.761400 0.228259 0.224907 0.8 0 0
0.958765 0.280971 0.247949 0.8 0 0
0.644172 0.194843 0.178595 0.8 0 0
0.713233 0.220029 0.150552 0.8 0 0
0.480869 0.103400 0.157380 0.8 0 0
0.662674 0.200031 0.143244 0.8 0 0
0.486753 0.123895 0.044673 0.8 0 0
0.519585 0.149288 0.191700 0.8 0 0
0.493361 0.124310 0.038500 0.8 0 0
0.754158 0.232985 0.198490 0.8 0 0
0.232822 0.240877 0.144901 0.8 0 0
0.715024 0.212656 0.225798 0.8 0 0
0.526780 0.118360 0.159974 0.8 0 0
0.879621 0.262059 0.195796 0.8 0 0
0.720623 0.230153 0.235912 0.8 0 0
0.459506 0.122351 0.046862 0.8 0 0
0.501981 0.148475 0.316897 0.8 0 0
0.783124 0.245335 0.248428 0.8 0 0
0.787507 0.245452 0.133292 0.8 0 0
0.420524 0.163509 0.261969 0.8 0 0
0.466582 0.153187 0.197447 0.8 0 0
0.678285 0.203274 0.154776 0.8 0 0
0.752691 0.232465 0.200401 0.8 0 0
0.481492 0.123784 0.105843 0.8 0 0
0.809566 0.244155 0.217786 0.8 0 0
0.941390 0.276965 0.259630 0.8 0 0
0.524694 0.123742 0.139767 0.8 0 0
0.830875 0.246437 0.273120 0.8 0 0
0.747799 0.235857 0.241439 0.8 0 0
0.141554 0.254624 0.248194 0.8 0 0
0.507389 0.138502 0.327512 0.8 0 0
0.265874 0.229951 0.155377 0.8 0 0
0.613393 0.174051 0.186430 0.8 0 0
0.559451 0.158712 0.207424 0.8 0 0
0.106486 0.264106 0.261361 0.8 0 0
0.466685 0.042336 0.146174 0.8 0 0
0.958752 0.281305 0.251697 0.8 0 0
0.610300 0.160897 0.249585 0.8 0 0
0.296466 0.220208 0.147594 0.8 0 0
0.502922 0.128196 0.034853 0.8 0 0
0.485638 0.090907 0.155486 0.8 0 0
0.769566 0.240244 0.167634 0.8 0 0
0.658680 0.190487 0.211905 0.8 0 0
0.187842 0.251460 0.155076 0.8 0 0
0.271173 0.216407 0.248277 0.8 0 0
0.794148 0.244982 0.194399 0.8 0 0
0.419863 0.161727 0.152656 0.8 0 0
0.648797 0.195593 0.169881 0.8 0 0
0.781075 0.246107 0.129468 0.8 0 0
0.277847 0.225454 0.167514 0.8 0 0
0.779602 0.244495 0.246465 0.8 0 0
0.535768 0.124587 0.064594 0.8 0 0
0.413144 0.151426 0.254588 0.8 0 0
0.512330 0.124314 0.066158 0.8 0 0
0.298231 0.205634 0.255049 0.8 0 0
0.838882 0.257554 0.174162 0.8 0 0
0.721879 0.221603 0.142432 0.8 0 0
0.514349 0.123739 0.040193 0.8 0 0
0.495922 0.123980 0.319361 0.8 0 0
0.292006 0.221968 0.153049 0.8 0 0
0.417619 0.161216 0.188262 0.8 0 0
0.604936 0.163195 0.260056 0.8 0 0
0.770264 0.244560 0.138904 0.8 0 0
0.429830 0.153553 0.145818 0.8 0 0
0.494284 0.152728 0.248604 0.8 0 0
0.817392 0.253440 0.167548 0.8 0 0
0.830028 0.243692 0.246943 0.8 0 0
0.484590 0.129654 0.084506 0.8 0 0
0.474410 0.126785 0.066860 0.8 0 0
0.372870 0.177273 0.201988 0.8 0 0
0.151422 0.256460 0.202876 0.8 0 0
0.666264 0.202795 0.159864 0.8 0 0
0.252262 0.236875 0.167421 0.8 0 0
0.813590 0.252868 0.159915 0.8 0 0
0.343351 0.186346 0.251858 0.8 0 0
0.174302 0.252149 0.242984 0.8 0 0
0.452503 0.118227 0.073601 0.8 0 0
0.707254 0.216155 0.197920 0.8 0 0
0.400246 0.167901 0.155926 0.8 0 0
0.849770 0.254107 0.209768 0.8 0 0
0.654638 0.198999 0.190760 0.8 0 0
0.336786 0.189278 0.257916 0.8 0 0
0.557676 0.150869 0.189220 0.8 0 0
0.677415 0.211025 0.213364 0.8 0 0
0.809197 0.248380 0.151586 0.8 0 0
0.896730 0.262163 0.221262 0.8 0 0
0.206482 0.246330 0.250857 0.8 0 0
0.403047 0.174940 0.234250 0.8 0 0
0.506264 0.150572 0.203503 0.8 0 0
0.281768 0.219537 0.294212 0.8 0 0
0.808254 0.246328 0.271398 0.8 0 0
0.082785 0.270380 0.247921 0.8 0 0
0.610017 0.179557 0.198432 0.8 0 0
0.351498 0.198291 0.204437 0.8 0 0
0.346217 0.205861 0.230792 0.8 0 0
0.482309 0.123985 0.095353 0.8 0 0
0.518634 0.071191 0.142149 0.8 0 0
0.876046 0.260245 0.230386 0.8 0 0
0.578139 0.159775 0.139099 0.8 0 0
0.529428 0.076676 0.162952 0.8 0 0
0.627115 0.182059 0.157223 0.8 0 0
0.294818 0.219240 0.197889 0.8 0 0
0.871471 0.259604 0.216484 0.8 0 0
0.600408 0.172772 0.176210 0.8 0 0
0.708478 0.218155 0.159653 0.8 0 0
0.311230 0.201550 0.239064 0.8 0 0
0.511851 0.144855 0.314578 0.8 0 0
0.125498 0.263309 0.188680 0.8 0 0
0.512896 0.094176 0.203800 0.8 0 0
0.357137 0.188592 0.137198 0.8 0 0
0.518853 0.150207 0.199596 0.8 0 0
0.680625 0.205317 0.156212 0.8 0 0
0.621711 0.186599 0.203327 0.8 0 0
0.882809 0.262156 0.196641 0.8 0 0
0.951059 0.279404 0.261009 0.8 0 0
0.763941 0.226248 0.281463 0.8 0 0
0.141263 0.255950 0.212654 0.8 0 0
0.530960 0.139033 0.170580 0.8 0 0
0.640108 0.181359 0.266910 0.8 0 0
0.530993 0.100604 0.196365 0.8 0 0
0.640810 0.192255 0.271689 0.8 0 0
0.181550 0.245818 0.216843 0.8 0 0
0.298851 0.209146 0.221680 0.8 0 0
0.289224 0.217959 0.160913 0.8 0 0
0.478446 0.069216 0.166681 0.8 0 0
0.399116 0.162837 0.260947 0.8 0 0
0.760474 0.235045 0.194620 0.8 0 0
0.133968 0.259133 0.194839 0.8 0 0
0.808850 0.248332 0.257443 0.8 0 0
0.480642 0.123476 0.265841 0.8 0 0
0.284922 0.221569 0.161421 0.8 0 0
0.297270 0.205571 0.272028 0.8 0 0
0.488597 0.130520 0.089607 0.8 0 0
0.579474 0.159608 0.189354 0.8 0 0
0.678498 0.219005 0.258639 0.8 0 0
0.469172 0.134985 0.175137 0.8 0 0
0.468676 0.111338 0.208033 0.8 0 0
0.323937 0.203059 0.175181 0.8 0 0
0.870859 0.260383 0.199622 0.8 0 0
0.595170 0.163047 0.194935 0.8 0 0
0.529168 0.096448 0.168771 0.8 0 0
0.124672 0.260901 0.223857 0.8 0 0
0.315340 0.202948 0.196240 0.8 0 0
0.598281 0.166658 0.129111 0.8 0 0
0.830122 0.255176 0.191928 0.8 0 0
0.307538 0.224677 0.261841 0.8 0 0
0.243310 0.240298 0.262924 0.8 0 0
0.181434 0.248918 0.185305 0.8 0 0
0.178453 0.249425 0.179623 0.8 0 0
0.265572 0.229254 0.220919 0.8 0 0
0.351187 0.181904 0.253738 0.8 0 0
0.599477 0.171897 0.264695 0.8 0 0
0.535592 0.131785 0.206948 0.8 0 0
0.626158 0.194574 0.231703 0.8 0 0
0.471087 0.113268 0.167234 0.8 0 0
0.707321 0.217269 0.181776 0.8 0 0
0.163335 0.250283 0.202992 0.8 0 0
0.757411 0.240674 0.255063 0.8 0 0
0.733627 0.217374 0.255550 0.8 0 0
0.749841 0.236737 0.173262 0.8 0 0
0.191241 0.239053 0.239705 0.8 0 0
0.592905 0.165583 0.157607 0.8 0 0
0.681992 0.211848 0.284579 0.8 0 0
0.329793 0.199916 0.171882 0.8 0 0
0.885278 0.258608 0.233628 0.8 0 0
0.700862 0.218156 0.290430 0.8 0 0
0.578492 0.158153 0.161396 0.8 0 0
0.814985 0.245348 0.217230 0.8 0 0
0.597143 0.172602 0.193619 0.8 0 0
0.404722 0.166115 0.155370 0.8 0 0
0.386965 0.180708 0.194594 0.8 0 0
0.604639 0.170816 0.179001 0.8 0 0
0.100282 0.268193 0.208998 0.8 0 0
0.117915 0.258849 0.265628 0.8 0 0
0.271174 0.220920 0.190804 0.8 0 0
0.534511 0.120102 0.083290 0.8 0 0
0.765419 0.236732 0.213148 0.8 0 0
0.077012 0.275843 0.179695 0.8 0 0
0.490522 0.099804 0.180183 0.8 0 0
0.788623 0.243436 0.227388 0.8 0 0
0.372458 0.170449 0.253422 0.8 0 0
0.293332 0.216122 0.197339 0.8 0 0
0.291121 0.224535 0.224120 0.8 0 0
0.663518 0.203001 0.182368 0.8 0 0
0.394535 0.170291 0.152630 0.8 0 0
0.306073 0.211391 0.156012 0.8 0 0
0.339672 0.193964 0.274960 0.8 0 0
0.797981 0.245648 0.267363 0.8 0 0
0.142974 0.265624 0.155801 0.8 0 0
0.736739 0.236737 0.270324 0.8 0 0
0.768000 0.230414 0.219847 0.8 0 0
0.780812 0.230129 0.250658 0.8 0 0
0.431723 0.161787 0.200786 0.8 0 0
0.511277 0.092372 0.183843 0.8 0 0
0.840660 0.254101 0.196009 0.8 0 0
0.492247 0.127729 0.032201 0.8 0 0
0.599566 0.168125 0.178310 0.8 0 0
0.496740 0.099560 0.191744 0.8 0 0
0.388723 0.173323 0.135009 0.8 0 0
0.317889 0.198526 0.238228 0.8 0 0
0.839419 0.247766 0.230393 0.8 0 0
0.090592 0.272557 0.180619 0.8 0 0
0.361446 0.192950 0.268390 0.8 0 0
0.929016 0.272475 0.264802 0.8 0 0
0.810654 0.246414 0.212136 0.8 0 0
0.313538 0.216949 0.276783 0.8 0 0
0.141851 0.252552 0.254859 0.8 0 0
0.741193 0.229045 0.146188 0.8 0 0
0.771083 0.236897 0.166421 0.8 0 0
0.772854 0.242237 0.158410 0.8 0 0
0.755174 0.238276 0.279744 0.8 0 0
0.669134 0.207718 0.278483 0.8 0 0
0.517880 0.138923 0.276102 0.8 0 0
0.300073 0.208491 0.159146 0.8 0 0
0.558848 0.148838 0.135937 0.8 0 0
0.519984 0.114392 0.245766 0.8 0 0
0.357098 0.194333 0.178110 0.8 0 0
0.656948 0.194737 0.276404 0.8 0 0
0.393493 0.171138 0.158353 0.8 0 0
0.661654 0.200865 0.279417 0.8 0 0
0.707393 0.222180 0.146843 0.8 0 0
0.546541 0.153476 0.187115 0.8 0 0
0.519356 0.128792 0.081241 0.8 0 0
0.641920 0.200808 0.230173 0.8 0 0
0.173561 0.255831 0.145333 0.8 0 0
0.655436 0.207184 0.233947 0.8 0 0
0.684667 0.218363 0.269784 0.8 0 0
0.538967 0.134851 0.232135 0.8 0 0
0.489081 0.149668 0.198559 0.8 0 0
0.769363 0.229801 0.242556 0.8 0 0
0.399298 0.160176 0.258673 0.8 0 0
0.221041 0.240907 0.208191 0.8 0 0
0.309346 0.201693 0.248600 0.8 0 0
0.174281 0.246118 0.213532 0.8 0 0
0.471403 0.101620 0.166404 0.8 0 0
0.395202 0.170211 0.156083 0.8 0 0
0.376406 0.180237 0.130453 0.8 0 0
0.628976 0.178724 0.200467 0.8 0 0
0.366029 0.190799 0.267383 0.8 0 0
0.804586 0.248938 0.201744 0.8 0 0
0.534181 0.130153 0.202949 0.8 0 0
0.920358 0.268964 0.257692 0.8 0 0
0.502415 0.143473 0.152148 0.8 0 0
0.747187 0.220596 0.264541 0.8 0 0
0.502794 0.104409 0.244506 0.8 0 0
0.642736 0.192544 0.143000 0.8 0 0
0.947951 0.278002 0.208111 0.8 0 0
0.470792 0.084881 0.188170 0.8 0 0
0.250068 0.229024 0.293552 0.8 0 0
0.068978 0.274221 0.207358 0.8 0 0
0.166154 0.256063 0.155633 0.8 0 0
0.450576 0.151284 0.170137 0.8 0 0
0.180245 0.249363 0.200355 0.8 0 0
0.476815 0.127471 0.070608 0.8 0 0
0.619583 0.182319 0.173693 0.8 0 0
0.545689 0.120801 0.044263 0.8 0 0
0.425337 0.156823 0.165811 0.8 0 0
0.500523 0.125332 0.072654 0.8 0 0
0.367675 0.176523 0.226792 0.8 0 0
0.650589 0.198523 0.199381 0.8 0 0
0.834328 0.247570 0.225726 0.8 0 0
0.296895 0.216043 0.194356 0.8 0 0
0.330713 0.199423 0.184461 0.8 0 0
0.562239 0.123325 0.061296 0.8 0 0
0.715574 0.231553 0.249332 0.8 0 0
0.494154 0.100176 0.224362 0.8 0 0
0.518106 0.126155 0.028809 0.8 0 0
0.816611 0.242671 0.220704 0.8 0 0
0.188459 0.249517 0.167189 0.8 0 0
0.848114 0.249221 0.247621 0.8 0 0
0.720987 0.217311 0.206292 0.8 0 0
0.542509 0.136675 0.224444 0.8 0 0
0.680038 0.210048 0.204906 0.8 0 0
0.243678 0.223178 0.262114 0.8 0 0
0.264241 0.228907 0.145758 0.8 0 0
0.092105 0.273586 0.173580 0.8 0 0
0.522983 0.079870 0.183802 0.8 0 0
0.324865 0.212115 0.221801 0.8 0 0
0.865786 0.254000 0.259783 0.8 0 0
0.270374 0.225366 0.142058 0.8 0 0
0.332122 0.211351 0.229913 0.8 0 0
0.692948 0.215145 0.196763 0.8 0 0
0.740206 0.218195 0.277400 0.8 0 0
0.463362 0.119645 0.080229 0.8 0 0
0.814597 0.244960 0.227260 0.8 0 0
0.517655 0.084912 0.146241 0.8 0 0
0.811927 0.251985 0.143293 0.8 0 0
0.618455 0.177407 0.140182 0.8 0 0
0.187959 0.249693 0.166003 0.8 0 0
0.523311 0.081784 0.186342 0.8 0 0
0.691753 0.201192 0.261194 0.8 0 0
0.550644 0.123372 0.080157 0.8 0 0
0.726833 0.230537 0.142245 0.8 0 0
0.628317 0.186379 0.188994 0.8 0 0
0.156981 0.252517 0.267411 0.8 0 0
0.119031 0.271174 0.156367 0.8 0 0
0.782283 0.240860 0.191950 0.8 0 0
0.511272 0.092417 0.181307 0.8 0 0
0.383769 0.177353 0.129845 0.8 0 0
0.503362 0.150534 0.295339 0.8 0 0
0.497753 0.115728 0.144193 0.8 0 0
0.678781 0.213841 0.223566 0.8 0 0
0.268110 0.225678 0.182209 0.8 0 0
0.177335 0.248130 0.272575 0.8 0 0
0.437603 0.121542 0.073922 0.8 0 0
0.465432 0.125166 0.070778 0.8 0 0
0.673917 0.203116 0.187221 0.8 0 0
0.082836 0.268466 0.214701 0.8 0 0
0.895031 0.266434 0.181814 0.8 0 0
0.617594 0.185636 0.252119 0.8 0 0
0.775205 0.236409 0.221651 0.8 0 0
0.759464 0.240747 0.263973 0.8 0 0
0.267665 0.227479 0.152291 0.8 0 0
0.742589 0.221459 0.234739 0.8 0 0
0.182304 0.250013 0.262064 0.8 0 0
0.238508 0.230203 0.212611 0.8 0 0
0.677197 0.204832 0.186169 0.8 0 0
0.662712 0.192492 0.214610 0.8 0 0
0.612824 0.175403 0.134688 0.8 0 0
0.594133 0.166295 0.135363 0.8 0 0
0.393214 0.171330 0.159227 0.8 0 0
0.729875 0.231499 0.287510 0.8 0 0
0.387751 0.185426 0.238374 0.8 0 0
0.612029 0.181864 0.207853 0.8 0 0
0.452593 0.155348 0.198008 0.8 0 0
0.516515 0.153032 0.259830 0.8 0 0
0.228491 0.243971 0.133969 0.8 0 0
0.161117 0.245803 0.253836 0.8 0 0
0.835313 0.249637 0.221370 0.8 0 0
0.724328 0.222242 0.140038 0.8 0 0
0.203220 0.243287 0.179485 0.8 0 0
0.623618 0.168748 0.247342 0.8 0 0
0.855724 0.249466 0.243916 0.8 0 0
0.262512 0.223439 0.207976 0.8 0 0
0.352965 0.189883 0.147656 0.8 0 0
0.488747 0.129110 0.307583 0.8 0 0
0.428818 0.164200 0.212924 0.8 0 0
0.877394 0.257143 0.259922 0.8 0 0
0.460360 0.155025 0.205156 0.8 0 0
0.271281 0.225924 0.138914 0.8 0 0
0.890753 0.262844 0.241128 0.8 0 0
0.587058 0.151247 0.237479 0.8 0 0
0.789670 0.234694 0.279939 0.8 0 0
0.100698 0.265959 0.255396 0.8 0 0
0.611809 0.171219 0.266352 0.8 0 0
0.537076 0.124535 0.067982 0.8 0 0
0.888393 0.267065 0.178349 0.8 0 0
0.410621 0.154947 0.258096 0.8 0 0
0.408342 0.165735 0.156276 0.8 0 0
0.700855 0.210574 0.149642 0.8 0 0
0.320112 0.210917 0.209054 0.8 0 0
0.572938 0.157430 0.183766 0.8 0 0
0.291334 0.220171 0.190703 0.8 0 0
0.716700 0.222876 0.196033 0.8 0 0
0.478827 0.123123 0.106368 0.8 0 0
0.801760 0.248169 0.177585 0.8 0 0
0.335493 0.191204 0.247859 0.8 0 0
0.214125 0.239021 0.282108 0.8 0 0
0.372726 0.182934 0.171129 0.8 0 0
0.747072 0.235737 0.177086 0.8 0 0
0.506807 0.130272 0.070213 0.8 0 0
0.762907 0.225943 0.250962 0.8 0 0
0.355757 0.189418 0.179225 0.8 0 0
0.531864 0.119094 0.216043 0.8 0 0
0.577489 0.163142 0.174953 0.8 0 0
0.477610 0.106961 0.159884 0.8 0 0
0.806189 0.251370 0.164492 0.8 0 0
0.319238 0.204161 0.162411 0.8 0 0
0.479061 0.050413 0.140818 0.8 0 0
0.425605 0.157419 0.198731 0.8 0 0
0.487344 0.137353 0.306677 0.8 0 0
0.755833 0.237891 0.172987 0.8 0 0
0.598092 0.175240 0.213575 0.8 0 0
0.541283 0.136582 0.223045 0.8 0 0
0.832719 0.250751 0.217331 0.8 0 0
0.703129 0.207612 0.236817 0.8 0 0
0.731218 0.226808 0.173051 0.8 0 0
0.749910 0.220394 0.271419 0.8 0 0
0.228208 0.239150 0.224691 0.8 0 0
0.283746 0.220521 0.147932 0.8 0 0
0.202995 0.246192 0.206456 0.8 0 0
0.288747 0.212839 0.192062 0.8 0 0
0.713593 0.226496 0.224870 0.8 0 0
0.587520 0.161113 0.129676 0.8 0 0
0.200860 0.234939 0.250531 0.8 0 0
0.327580 0.196518 0.225902 0.8 0 0
0.465011 0.132560 0.232093 0.8 0 0
0.298679 0.214998 0.171044 0.8 0 0
0.519792 0.060721 0.133243 0.8 0 0
0.506021 0.124959 0.075698 0.8 0 0
0.705467 0.208547 0.281940 0.8 0 0
0.510401 0.152974 0.253245 0.8 0 0
0.336078 0.212387 0.242262 0.8 0 0
0.737516 0.216883 0.272130 0.8 0 0
0.272953 0.227038 0.165477 0.8 0 0
0.913015 0.272156 0.184301 0.8 0 0
0.520403 0.078180 0.145147 0.8 0 0
0.081299 0.274749 0.180176 0.8 0 0
0.528954 0.116059 0.167346 0.8 0 0
0.857898 0.263786 0.158723 0.8 0 0
0.475148 0.129602 0.115435 0.8 0 0
0.348786 0.192298 0.274840 0.8 0 0
0.600941 0.168215 0.181829 0.8 0 0
0.824007 0.248068 0.224943 0.8 0 0
0.217037 0.242436 0.185349 0.8 0 0
0.407475 0.170915 0.196122 0.8 0 0
0.466388 0.125274 0.069516 0.8 0 0
0.757337 0.228900 0.288697 0.8 0 0
0.429599 0.143860 0.246844 0.8 0 0
0.795675 0.245871 0.254751 0.8 0 0
0.292253 0.217356 0.181104 0.8 0 0
0.778709 0.239803 0.216447 0.8 0 0
0.490585 0.131004 0.317615 0.8 0 0
0.543353 0.157132 0.213680 0.8 0 0
0.495365 0.153135 0.256428 0.8 0 0
0.524071 0.120106 0.154608 0.8 0 0
0.511863 0.105625 0.157748 0.8 0 0
0.116652 0.266767 0.180839 0.8 0 0
0.190226 0.239636 0.237862 0.8 0 0
0.123163 0.256845 0.204453 0.8 0 0
0.290465 0.222119 0.157646 0.8 0 0
0.205075 0.248590 0.192490 0.8 0 0
0.484350 0.076176 0.165024 0.8 0 0
0.785467 0.243787 0.235792 0.8 0 0
0.346548 0.206116 0.254337 0.8 0 0
0.679936 0.195671 0.265224 0.8 0 0
0.490506 0.149383 0.276282 0.8 0 0
0.374186 0.183923 0.137958 0.8 0 0
0.478227 0.068183 0.164818 0.8 0 0
0.891801 0.264145 0.253488 0.8 0 0
0.490260 0.133496 0.116171 0.8 0 0
0.312554 0.201459 0.233181 0.8 0 0
0.250245 0.231278 0.157645 0.8 0 0
0.497738 0.136396 0.124281 0.8 0 0
0.538942 0.153166 0.194900 0.8 0 0
0.581307 0.160426 0.172570 0.8 0 0
0.492419 0.123733 0.113587 0.8 0 0
0.187907 0.241756 0.225418 0.8 0 0
0.056043 0.277666 0.256485 0.8 0 0
0.881091 0.259759 0.246080 0.8 0 0
0.486669 0.089694 0.166482 0.8 0 0
0.234996 0.237372 0.188253 0.8 0 0
0.566753 0.154888 0.167882 0.8 0 0
0.581162 0.166722 0.196732 0.8 0 0
0.493005 0.128288 0.039153 0.8 0 0
0.305328 0.204069 0.244023 0.8 0 0
0.688486 0.209439 0.188133 0.8 0 0
0.221176 0.235378 0.211569 0.8 0 0
0.163439 0.248707 0.234313 0.8 0 0
0.293306 0.221411 0.152171 0.8 0 0
0.599515 0.161427 0.213570 0.8 0 0
0.527354 0.125814 0.249625 0.8 0 0
0.776476 0.242157 0.160122 0.8 0 0
0.737024 0.227749 0.171134 0.8 0 0
0.621346 0.183710 0.178670 0.8 0 0
0.744118 0.231476 0.202498 0.8 0 0
0.466207 0.126817 0.124056 0.8 0 0
0.568881 0.156304 0.170372 0.8 0 0
0.346921 0.192146 0.152271 0.8 0 0
0.249620 0.222346 0.254871 0.8 0 0
0.853922 0.261479 0.169192 0.8 0 0
0.725989 0.214289 0.267296 0.8 0 0
0.278815 0.223485 0.196870 0.8 0 0
0.189052 0.241437 0.230280 0.8 0 0
0.364942 0.195740 0.252117 0.8 0 0
0.219066 0.243508 0.154519 0.8 0 0
0.284652 0.212653 0.229341 0.8 0 0
0.558078 0.152091 0.158676 0.8 0 0
0.872105 0.259647 0.221994 0.8 0 0
0.725545 0.214319 0.264814 0.8 0 0
0.931202 0.272969 0.264810 0.8 0 0
0.455826 0.122514 0.057710 0.8 0 0
0.462050 0.134982 0.223971 0.8 0 0
0.517132 0.139578 0.151596 0.8 0 0
0.098449 0.267827 0.213052 0.8 0 0
0.706494 0.221706 0.147199 0.8 0 0
0.551225 0.138332 0.235850 0.8 0 0
0.876783 0.261420 0.188509 0.8 0 0
0.743373 0.226065 0.164248 0.8 0 0
0.421313 0.160367 0.143647 0.8 0 0
0.812691 0.249161 0.259378 0.8 0 0
0.829673 0.247860 0.207305 0.8 0 0
0.325257 0.203761 0.175273 0.8 0 0
0.632810 0.176868 0.225803 0.8 0 0
0.244342 0.232973 0.150181 0.8 0 0
0.254524 0.225154 0.289049 0.8 0 0
0.624132 0.193139 0.229948 0.8 0 0
0.601541 0.177865 0.238921 0.8 0 0
0.483596 0.081284 0.152720 0.8 0 0
0.117147 0.260164 0.246275 0.8 0 0
0.792790 0.232066 0.260931 0.8 0 0
0.497728 0.125027 0.060209 0.8 0 0
0.209378 0.245454 0.191765 0.8 0 0
0.446559 0.122320 0.064589 0.8 0 0
0.517018 0.031447 0.149495 0.8 0 0
0.673937 0.193608 0.260138 0.8 0 0
0.205141 0.232503 0.264489 0.8 0 0
0.530708 0.126138 0.075084 0.8 0 0
0.131080 0.257930 0.234900 0.8 0 0
0.472130 0.030574 0.151852 0.8 0 0
0.530890 0.103456 0.187756 0.8 0 0
0.446238 0.118940 0.067215 0.8 0 0
0.610627 0.174253 0.145476 0.8 0 0
0.592086 0.171655 0.204179 0.8 0 0
0.082842 0.271329 0.207405 0.8 0 0
0.225148 0.233475 0.215336 0.8 0 0
0.564359 0.153297 0.199862 0.8 0 0
0.388582 0.170153 0.197877 0.8 0 0
0.677742 0.203116 0.149224 0.8 0 0
0.272214 0.214689 0.276971 0.8 0 0
0.724558 0.223813 0.187033 0.8 0 0
0.244561 0.236486 0.233265 0.8 0 0
0.801994 0.246692 0.187193 0.8 0 0
0.256543 0.231381 0.137205 0.8 0 0
0.394409 0.169728 0.129506 0.8 0 0
0.475500 0.056698 0.136371 0.8 0 0
0.219877 0.245447 0.144218 0.8 0 0
0.468629 0.118596 0.200425 0.8 0 0
0.631008 0.185365 0.173512 0.8 0 0
0.308982 0.210392 0.166580 0.8 0 0
0.377149 0.182947 0.154819 0.8 0 0
0.477023 0.118543 0.155770 0.8 0 0
0.821480 0.249748 0.266455 0.8 0 0
0.778182 0.239770 0.153051 0.8 0 0
0.912962 0.273481 0.180171 0.8 0 0
0.666179 0.204753 0.202002 0.8 0 0
0.561286 0.120018 0.062905 0.8 0 0
0.191790 0.248377 0.203389 0.8 0 0
0.493071 0.146548 0.168852 0.8 0 0
0.483322 0.113454 0.249478 0.8 0 0
0.431756 0.155550 0.187909 0.8 0 0
0.547974 0.158027 0.215538 0.8 0 0
0.687406 0.209294 0.174922 0.8 0 0
0.422797 0.165724 0.203185 0.8 0 0
0.516221 0.078426 0.173299 0.8 0 0
0.272924 0.214211 0.271112 0.8 0 0
0.162688 0.257066 0.149159 0.8 0 0
0.209472 0.234211 0.233637 0.8 0 0
0.063675 0.273747 0.248770 0.8 0 0
0.380583 0.179209 0.128736 0.8 0 0
0.655083 0.202604 0.267860 0.8 0 0
0.226013 0.239946 0.150486 0.8 0 0
0.257358 0.233024 0.132443 0.8 0 0
0.068869 0.275280 0.211070 0.8 0 0
0.606751 0.169636 0.190157 0.8 0 0
0.039932 0.280073 0.261621 0.8 0 0
0.572923 0.149850 0.222609 0.8 0 0
0.774841 0.241200 0.175540 0.8 0 0
0.644319 0.197733 0.263482 0.8 0 0
0.287344 0.224096 0.149338 0.8 0 0
0.484653 0.087759 0.149529 0.8 0 0
0.830579 0.252582 0.151471 0.8 0 0
0.611334 0.174282 0.155384 0.8 0 0
0.403090 0.154229 0.247845 0.8 0 0
0.084274 0.273657 0.177658 0.8 0 0
0.552934 0.160432 0.242320 0.8 0 0
0.715598 0.213364 0.213733 0.8 0 0
0.833631 0.256252 0.187100 0.8 0 0
0.512308 0.134093 0.308856 0.8 0 0
0.588013 0.164598 0.156064 0.8 0 0
0.036401 0.281369 0.253372 0.8 0 0
0.476375 0.140284 0.159425 0.8 0 0
0.809884 0.241525 0.276996 0.8 0 0
0.857648 0.256335 0.258849 0.8 0 0
0.518181 0.108752 0.234224 0.8 0 0
0.779115 0.245133 0.159383 0.8 0 0
0.755325 0.234935 0.224412 0.8 0 0
0.498797 0.120330 0.344769 0.8 0 0
0.822172 0.252618 0.199224 0.8 0 0
0.696617 0.226206 0.254427 0.8 0 0
0.718922 0.225320 0.211666 0.8 0 0
0.602323 0.177863 0.216443 0.8 0 0
0.257226 0.223896 0.177943 0.8 0 0
0.674887 0.217105 0.244332 0.8 0 0
0.074182 0.270982 0.248189 0.8 0 0
0.167599 0.247161 0.226429 0.8 0 0
0.401319 0.166857 0.136581 0.8 0 0
