0.341854 0.183439 0.038963 0.8 0 0
0.205761 0.522561 0.085521 0.8 0 0
0.319815 0.219050 0.046709 0.8 0 0
0.289186 0.368436 0.025000 0.8 0 0
0.180477 0.045303 0.084364 0.8 0 0
0.097470 0.108794 0.084364 0.8 0 0
0.192577 0.883978 0.049951 0.8 0 0
0.208723 0.769569 0.084394 0.8 0 0
0.080067 0.468890 0.080686 0.8 0 0
0.252030 0.154444 0.087249 0.8 0 0
0.142615 0.172820 0.025000 0.8 0 0
0.025019 0.130769 0.040387 0.8 0 0
0.106650 0.159921 0.084403 0.8 0 0
0.169935 0.070432 0.084364 0.8 0 0
0.322386 0.384671 0.025000 0.8 0 0
0.231115 0.349758 0.044166 0.8 0 0
0.082012 0.053151 0.028054 0.8 0 0
0.301946 0.158883 0.087249 0.8 0 0
0.347316 0.169691 0.071085 0.8 0 0
0.208752 0.413054 0.053601 0.8 0 0
0.089795 0.045640 0.050218 0.8 0 0
0.158202 0.837460 0.059623 0.8 0 0
0.180961 0.859045 0.058114 0.8 0 0
0.207978 0.423000 0.076020 0.8 0 0
0.153531 0.858791 0.053687 0.8 0 0
0.173006 0.401849 0.025000 0.8 0 0
0.103330 0.121995 0.084364 0.8 0 0
0.026892 0.128715 0.030985 0.8 0 0
0.059908 0.169302 0.025000 0.8 0 0
0.161335 0.109972 0.084364 0.8 0 0
0.071938 0.239683 0.027227 0.8 0 0
0.219172 0.885169 0.075097 0.8 0 0
0.069827 0.506919 0.062615 0.8 0 0
0.245921 0.038316 0.027350 0.8 0 0
0.163439 0.371103 0.025000 0.8 0 0
0.184247 0.529230 0.086530 0.8 0 0
0.132954 0.375901 0.025000 0.8 0 0
0.030446 0.472208 0.049223 0.8 0 0
0.197278 0.639129 0.083955 0.8 0 0
0.176525 0.259410 0.089270 0.8 0 0
0.238027 0.261617 0.087249 0.8 0 0
0.061857 0.232871 0.034524 0.8 0 0
0.344251 0.149901 0.084079 0.8 0 0
0.209167 0.618928 0.085823 0.8 0 0
0.026704 0.156417 0.068306 0.8 0 0
0.223912 0.401685 0.035358 0.8 0 0
0.213899 0.681384 0.083387 0.8 0 0
0.169479 0.421489 0.087550 0.8 0 0
0.202365 0.070662 0.025000 0.8 0 0
0.168002 0.476007 0.086147 0.8 0 0
0.156146 0.335507 0.025000 0.8 0 0
0.174458 0.336338 0.088542 0.8 0 0
0.183019 0.801834 0.061945 0.8 0 0
0.122230 0.165862 0.087249 0.8 0 0
0.046158 0.386776 0.042853 0.8 0 0
0.068126 0.223183 0.084364 0.8 0 0
0.037148 0.100263 0.083388 0.8 0 0
0.352326 0.092428 0.071334 0.8 0 0
0.217371 0.253285 0.089270 0.8 0 0
0.152009 0.856408 0.054630 0.8 0 0
0.115852 0.226886 0.084364 0.8 0 0
0.266608 0.161732 0.087240 0.8 0 0
0.285005 0.114545 0.084364 0.8 0 0
0.152038 0.258718 0.025000 0.8 0 0
0.224486 0.135699 0.025000 0.8 0 0
0.189994 0.373737 0.087521 0.8 0 0
0.089828 0.231374 0.025000 0.8 0 0
0.174682 0.661696 0.083652 0.8 0 0
0.183074 0.450759 0.086486 0.8 0 0
0.167823 0.333099 0.078937 0.8 0 0
0.045834 0.197231 0.081712 0.8 0 0
0.275216 0.083360 0.025000 0.8 0 0
0.170120 0.599086 0.076573 0.8 0 0
0.168717 0.816309 0.056162 0.8 0 0
0.217325 0.897187 0.055447 0.8 0 0
0.057726 0.227947 0.065418 0.8 0 0
0.180054 0.223619 0.087249 0.8 0 0
0.181882 0.929299 0.060235 0.8 0 0
0.210634 0.959913 0.051060 0.8 0 0
0.301441 0.065597 0.025000 0.8 0 0
0.301062 0.399402 0.025000 0.8 0 0
0.247889 0.942850 0.070396 0.8 0 0
0.050295 0.196164 0.084169 0.8 0 0
0.222686 0.119260 0.025000 0.8 0 0
0.217399 0.556476 0.085385 0.8 0 0
0.123644 0.043693 0.025460 0.8 0 0
0.192796 0.025791 0.062040 0.8 0 0
0.303279 0.249194 0.037275 0.8 0 0
0.084384 0.262737 0.082168 0.8 0 0
0.025125 0.127010 0.047346 0.8 0 0
0.104523 0.397828 0.084364 0.8 0 0
0.215466 0.587185 0.084653 0.8 0 0
0.034913 0.184481 0.063937 0.8 0 0
0.027512 0.148413 0.031368 0.8 0 0
0.186479 0.943483 0.052417 0.8 0 0
0.324873 0.334764 0.036067 0.8 0 0
0.077841 0.492292 0.077502 0.8 0 0
0.245335 0.083650 0.025000 0.8 0 0
0.148123 0.876044 0.050670 0.8 0 0
0.160701 0.412381 0.034014 0.8 0 0
0.192755 0.818296 0.079773 0.8 0 0
0.134958 0.269680 0.025000 0.8 0 0
0.245922 0.952342 0.051590 0.8 0 0
0.079463 0.435658 0.025000 0.8 0 0
0.052873 0.369003 0.073646 0.8 0 0
0.177282 0.033052 0.078159 0.8 0 0
0.195821 0.405156 0.073903 0.8 0 0
0.179877 0.220131 0.025000 0.8 0 0
0.292812 0.056559 0.025000 0.8 0 0
0.061050 0.207329 0.084364 0.8 0 0
0.204673 0.932408 0.052039 0.8 0 0
0.313997 0.221312 0.079740 0.8 0 0
0.175046 0.886801 0.051535 0.8 0 0
0.077669 0.434672 0.084364 0.8 0 0
0.175647 0.586504 0.074606 0.8 0 0
0.316738 0.339441 0.025087 0.8 0 0
0.336107 0.113507 0.025000 0.8 0 0
0.143425 0.186759 0.087249 0.8 0 0
0.082605 0.370600 0.025000 0.8 0 0
0.129887 0.337776 0.025000 0.8 0 0
0.043015 0.195825 0.079603 0.8 0 0
0.204534 0.508873 0.074841 0.8 0 0
0.153584 0.266924 0.089270 0.8 0 0
0.277407 0.359106 0.025087 0.8 0 0
0.162366 0.532228 0.085698 0.8 0 0
0.057325 0.417720 0.084364 0.8 0 0
0.211287 0.669256 0.083768 0.8 0 0
0.148943 0.298707 0.089270 0.8 0 0
0.243372 0.220880 0.025000 0.8 0 0
0.228607 0.224793 0.025000 0.8 0 0
0.167022 0.494773 0.077911 0.8 0 0
0.122074 0.405623 0.074683 0.8 0 0
0.196036 0.887193 0.056145 0.8 0 0
0.242907 0.959784 0.055658 0.8 0 0
0.299098 0.240098 0.082642 0.8 0 0
0.049965 0.114771 0.025000 0.8 0 0
0.161171 0.430932 0.087452 0.8 0 0
0.156742 0.833794 0.054845 0.8 0 0
0.061275 0.364920 0.026228 0.8 0 0
0.296682 0.362478 0.025000 0.8 0 0
0.071298 0.503726 0.078023 0.8 0 0
0.138300 0.257718 0.089180 0.8 0 0
0.179682 0.865473 0.057664 0.8 0 0
0.125169 0.295619 0.084364 0.8 0 0
0.292223 0.060676 0.025000 0.8 0 0
0.116427 0.096588 0.084364 0.8 0 0
0.270748 0.264384 0.087222 0.8 0 0
0.178807 0.306558 0.087249 0.8 0 0
0.067590 0.193291 0.084364 0.8 0 0
0.189247 0.444646 0.073452 0.8 0 0
0.192199 0.672689 0.083504 0.8 0 0
0.178500 0.668207 0.073791 0.8 0 0
0.272931 0.367488 0.032554 0.8 0 0
0.168580 0.839686 0.078278 0.8 0 0
0.095686 0.147283 0.084364 0.8 0 0
0.035835 0.427026 0.034130 0.8 0 0
0.067527 0.345461 0.080844 0.8 0 0
0.213051 0.411079 0.030834 0.8 0 0
0.170343 0.507114 0.085729 0.8 0 0
0.216292 0.346984 0.084364 0.8 0 0
0.210643 0.796466 0.075580 0.8 0 0
0.042286 0.412778 0.080807 0.8 0 0
0.180041 0.739952 0.073303 0.8 0 0
0.065235 0.134555 0.084364 0.8 0 0
0.041156 0.080054 0.032798 0.8 0 0
0.265001 0.049385 0.025000 0.8 0 0
0.243589 0.304597 0.025000 0.8 0 0
0.169263 0.129642 0.025000 0.8 0 0
0.329507 0.407847 0.083147 0.8 0 0
0.205424 0.266526 0.089270 0.8 0 0
0.203464 0.729101 0.074310 0.8 0 0
0.060793 0.075360 0.025000 0.8 0 0
0.337370 0.182856 0.081538 0.8 0 0
0.074117 0.130840 0.084364 0.8 0 0
0.107370 0.243662 0.025000 0.8 0 0
0.259259 0.051675 0.084364 0.8 0 0
0.030455 0.454561 0.042490 0.8 0 0
0.064237 0.236060 0.033990 0.8 0 0
0.129247 0.044568 0.084297 0.8 0 0
0.330996 0.085670 0.025000 0.8 0 0
0.195707 0.194246 0.087249 0.8 0 0
0.082015 0.274193 0.052537 0.8 0 0
0.342648 0.159448 0.025594 0.8 0 0
0.181107 0.454192 0.073958 0.8 0 0
0.108342 0.057741 0.025000 0.8 0 0
0.234779 0.917395 0.066563 0.8 0 0
0.217810 0.319051 0.025000 0.8 0 0
0.119944 0.036755 0.035582 0.8 0 0
0.320613 0.058182 0.061885 0.8 0 0
0.193383 0.715313 0.082931 0.8 0 0
0.058519 0.410490 0.025000 0.8 0 0
0.238631 0.134044 0.025000 0.8 0 0
0.177357 0.813756 0.061266 0.8 0 0
0.268506 0.301856 0.025000 0.8 0 0
0.140535 0.380099 0.084364 0.8 0 0
0.301577 0.081141 0.025000 0.8 0 0
0.076199 0.066236 0.025000 0.8 0 0
0.197845 0.472702 0.086191 0.8 0 0
0.333065 0.175617 0.084364 0.8 0 0
0.042502 0.135759 0.025000 0.8 0 0
0.178221 0.703469 0.073735 0.8 0 0
0.212731 0.031178 0.057613 0.8 0 0
0.251366 0.332429 0.086393 0.8 0 0
0.158411 0.070933 0.025000 0.8 0 0
0.157090 0.109956 0.084364 0.8 0 0
0.101660 0.365258 0.025000 0.8 0 0
0.057923 0.164839 0.025000 0.8 0 0
0.140433 0.098798 0.084364 0.8 0 0
0.176567 0.501582 0.074611 0.8 0 0
0.068331 0.339263 0.031726 0.8 0 0
0.160289 0.413171 0.050522 0.8 0 0
0.182651 0.718945 0.082883 0.8 0 0
0.179734 0.544433 0.073940 0.8 0 0
0.167461 0.857810 0.077010 0.8 0 0
0.170281 0.360425 0.084364 0.8 0 0
0.337427 0.134459 0.025000 0.8 0 0
0.105252 0.219105 0.084364 0.8 0 0
0.041577 0.198905 0.066372 0.8 0 0
0.174385 0.600220 0.085862 0.8 0 0
0.344375 0.097943 0.025116 0.8 0 0
0.183493 0.771540 0.082176 0.8 0 0
0.213900 0.182917 0.087249 0.8 0 0
0.116027 0.146721 0.087249 0.8 0 0
0.222823 0.353820 0.025000 0.8 0 0
0.164232 0.814709 0.061210 0.8 0 0
0.183000 0.767882 0.082361 0.8 0 0
0.126515 0.117973 0.084364 0.8 0 0
0.178452 0.564916 0.084952 0.8 0 0
0.244834 0.926995 0.055367 0.8 0 0
0.091574 0.114654 0.084364 0.8 0 0
0.202095 0.270793 0.088820 0.8 0 0
0.154155 0.826303 0.062938 0.8 0 0
0.168527 0.279642 0.025000 0.8 0 0
0.145473 0.160341 0.087249 0.8 0 0
0.243694 0.938311 0.071381 0.8 0 0
0.215061 0.532632 0.085386 0.8 0 0
0.112415 0.183111 0.025000 0.8 0 0
0.106889 0.416475 0.040903 0.8 0 0
0.168209 0.237242 0.087249 0.8 0 0
0.151937 0.405448 0.034749 0.8 0 0
0.169161 0.617412 0.077219 0.8 0 0
0.033929 0.495637 0.052970 0.8 0 0
0.065292 0.238996 0.062641 0.8 0 0
0.046059 0.450514 0.025000 0.8 0 0
0.194418 0.666029 0.083987 0.8 0 0
0.094321 0.102364 0.084364 0.8 0 0
0.066308 0.055985 0.039041 0.8 0 0
0.331421 0.351744 0.054209 0.8 0 0
0.169752 0.510830 0.076593 0.8 0 0
0.268419 0.051869 0.084364 0.8 0 0
0.291764 0.265396 0.084364 0.8 0 0
0.107071 0.397404 0.084364 0.8 0 0
0.170033 0.842656 0.050578 0.8 0 0
0.028702 0.166825 0.062706 0.8 0 0
0.205735 0.874149 0.057057 0.8 0 0
0.111553 0.267738 0.084364 0.8 0 0
0.192764 0.960046 0.061270 0.8 0 0
0.120306 0.204692 0.025000 0.8 0 0
0.163049 0.925520 0.046624 0.8 0 0
0.218418 0.307156 0.089270 0.8 0 0
0.247567 0.287194 0.025000 0.8 0 0
0.292325 0.068266 0.025000 0.8 0 0
0.182563 0.766150 0.082248 0.8 0 0
0.326501 0.337737 0.058714 0.8 0 0
0.179644 0.820966 0.060776 0.8 0 0
0.181730 0.445525 0.086556 0.8 0 0
0.124880 0.393159 0.084364 0.8 0 0
0.126796 0.165783 0.087249 0.8 0 0
0.143861 0.083765 0.084364 0.8 0 0
0.292420 0.342917 0.087249 0.8 0 0
0.202465 0.453553 0.074626 0.8 0 0
0.033016 0.437881 0.035923 0.8 0 0
0.202451 0.302060 0.089270 0.8 0 0
0.210025 0.385254 0.084364 0.8 0 0
0.193372 0.372201 0.025000 0.8 0 0
0.166579 0.667680 0.085772 0.8 0 0
0.272180 0.041229 0.029522 0.8 0 0
0.205270 0.491578 0.088001 0.8 0 0
0.174746 0.846988 0.077767 0.8 0 0
0.279723 0.267743 0.025000 0.8 0 0
0.039692 0.470664 0.084225 0.8 0 0
0.215895 0.492277 0.079760 0.8 0 0
0.090186 0.188420 0.084364 0.8 0 0
0.331446 0.203780 0.068495 0.8 0 0
0.133033 0.283037 0.084364 0.8 0 0
0.195756 0.732017 0.084909 0.8 0 0
0.111419 0.164412 0.025000 0.8 0 0
0.309123 0.192865 0.087249 0.8 0 0
0.180330 0.417156 0.086938 0.8 0 0
0.192309 0.890236 0.055932 0.8 0 0
0.082999 0.472908 0.050989 0.8 0 0
0.230108 0.971237 0.052642 0.8 0 0
0.182226 0.333099 0.086946 0.8 0 0
0.167028 0.354950 0.088647 0.8 0 0
0.028462 0.104730 0.058359 0.8 0 0
0.316753 0.150050 0.087249 0.8 0 0
0.025634 0.146930 0.046267 0.8 0 0
0.188314 0.356901 0.073850 0.8 0 0
0.224561 0.198912 0.089270 0.8 0 0
0.221473 0.967035 0.050562 0.8 0 0
0.044315 0.168686 0.025000 0.8 0 0
0.033433 0.105919 0.027228 0.8 0 0
0.305550 0.186022 0.025000 0.8 0 0
0.064108 0.344053 0.072055 0.8 0 0
0.075144 0.246431 0.028191 0.8 0 0
0.325160 0.090580 0.025000 0.8 0 0
0.203914 0.445332 0.088554 0.8 0 0
0.054571 0.065924 0.031254 0.8 0 0
0.336299 0.113979 0.087249 0.8 0 0
0.209119 0.106388 0.084364 0.8 0 0
0.197855 0.118344 0.084364 0.8 0 0
0.211934 0.043050 0.025000 0.8 0 0
0.074002 0.443324 0.084364 0.8 0 0
0.107118 0.316415 0.025000 0.8 0 0
0.322127 0.405625 0.025000 0.8 0 0
0.294781 0.189355 0.025000 0.8 0 0
0.292633 0.346226 0.087249 0.8 0 0
0.315136 0.388457 0.087249 0.8 0 0
0.298520 0.419019 0.036269 0.8 0 0
0.306767 0.302376 0.028597 0.8 0 0
0.164957 0.537171 0.079201 0.8 0 0
0.190769 0.506773 0.073223 0.8 0 0
0.193540 0.794463 0.081868 0.8 0 0
0.156496 0.254766 0.089270 0.8 0 0
0.071119 0.430088 0.084364 0.8 0 0
0.192497 0.434844 0.073603 0.8 0 0
0.191104 0.081078 0.084364 0.8 0 0
0.187575 0.531781 0.085397 0.8 0 0
0.248136 0.347080 0.062881 0.8 0 0
0.280493 0.327099 0.087249 0.8 0 0
0.080976 0.249143 0.083819 0.8 0 0
0.273526 0.191776 0.087228 0.8 0 0
0.116941 0.225706 0.084364 0.8 0 0
0.181574 0.089705 0.084364 0.8 0 0
0.159325 0.926734 0.049101 0.8 0 0
0.127447 0.178748 0.087249 0.8 0 0
0.143940 0.056177 0.025000 0.8 0 0
0.270342 0.075445 0.025000 0.8 0 0
0.199847 0.232222 0.025000 0.8 0 0
0.203013 0.768462 0.082217 0.8 0 0
0.132527 0.120350 0.084364 0.8 0 0
0.334802 0.197173 0.035358 0.8 0 0
0.209858 0.467667 0.086259 0.8 0 0
0.192277 0.469043 0.086240 0.8 0 0
0.194610 0.761186 0.082315 0.8 0 0
0.273160 0.149712 0.087243 0.8 0 0
0.194902 0.349970 0.084364 0.8 0 0
0.156045 0.202058 0.025000 0.8 0 0
0.340623 0.186306 0.071952 0.8 0 0
0.069606 0.503995 0.079466 0.8 0 0
0.190750 0.380245 0.089310 0.8 0 0
0.060791 0.350565 0.053725 0.8 0 0
0.180435 0.565256 0.084948 0.8 0 0
0.219061 0.041086 0.025055 0.8 0 0
0.093929 0.145718 0.025000 0.8 0 0
0.213506 0.616320 0.079177 0.8 0 0
0.187483 0.700822 0.085331 0.8 0 0
0.170244 0.868223 0.051570 0.8 0 0
0.162443 0.377586 0.087575 0.8 0 0
0.174663 0.382106 0.087409 0.8 0 0
0.237164 0.939937 0.052457 0.8 0 0
0.325363 0.062488 0.033593 0.8 0 0
0.054364 0.465826 0.084364 0.8 0 0
0.226234 0.378887 0.032110 0.8 0 0
0.034151 0.430989 0.046553 0.8 0 0
0.105927 0.128788 0.025000 0.8 0 0
0.207059 0.972381 0.059844 0.8 0 0
0.085988 0.201770 0.025000 0.8 0 0
0.211261 0.959508 0.051089 0.8 0 0
0.074712 0.404481 0.084364 0.8 0 0
0.260422 0.050006 0.084364 0.8 0 0
0.196971 0.610192 0.084344 0.8 0 0
0.089887 0.282124 0.026024 0.8 0 0
0.187153 0.599846 0.084722 0.8 0 0
0.275328 0.163331 0.025000 0.8 0 0
0.121034 0.190315 0.087249 0.8 0 0
0.332033 0.202900 0.065238 0.8 0 0
0.199044 0.817435 0.079834 0.8 0 0
0.204334 0.268678 0.087249 0.8 0 0
0.136623 0.300283 0.025000 0.8 0 0
0.332127 0.156945 0.086245 0.8 0 0
0.330030 0.156555 0.025000 0.8 0 0
0.174591 0.561412 0.074987 0.8 0 0
0.283308 0.397066 0.041480 0.8 0 0
0.219174 0.347941 0.084364 0.8 0 0
0.114772 0.062972 0.084364 0.8 0 0
0.196728 0.557483 0.073359 0.8 0 0
0.177634 0.333099 0.082438 0.8 0 0
0.131819 0.064410 0.025000 0.8 0 0
0.211736 0.239681 0.025000 0.8 0 0
0.153265 0.290153 0.025000 0.8 0 0
0.077923 0.495701 0.073603 0.8 0 0
0.246757 0.191045 0.087249 0.8 0 0
0.196698 0.470851 0.088250 0.8 0 0
0.163241 0.860370 0.066746 0.8 0 0
0.250908 0.226851 0.025000 0.8 0 0
0.054726 0.365008 0.034991 0.8 0 0
0.168460 0.337610 0.088006 0.8 0 0
0.255476 0.143857 0.087249 0.8 0 0
0.213758 0.523795 0.085505 0.8 0 0
0.276397 0.091745 0.025000 0.8 0 0
0.178616 0.696434 0.083185 0.8 0 0
0.151166 0.032799 0.075105 0.8 0 0
0.299612 0.295186 0.025403 0.8 0 0
0.119821 0.200777 0.025000 0.8 0 0
0.170684 0.555341 0.076265 0.8 0 0
0.167780 0.140970 0.087249 0.8 0 0
0.342948 0.081877 0.079574 0.8 0 0
0.290524 0.271670 0.025000 0.8 0 0
0.273498 0.332578 0.025000 0.8 0 0
0.298829 0.076861 0.084363 0.8 0 0
0.112066 0.390978 0.084364 0.8 0 0
0.212096 0.284213 0.025000 0.8 0 0
0.229612 0.253054 0.025000 0.8 0 0
0.075203 0.500322 0.074713 0.8 0 0
0.178019 0.216848 0.087249 0.8 0 0
0.318057 0.144855 0.087249 0.8 0 0
0.193977 0.238958 0.025000 0.8 0 0
0.266501 0.252450 0.025000 0.8 0 0
0.200321 0.389823 0.087305 0.8 0 0
0.104220 0.066065 0.025000 0.8 0 0
0.230345 0.353957 0.050124 0.8 0 0
0.197830 0.401624 0.074029 0.8 0 0
0.159502 0.846394 0.065815 0.8 0 0
0.179707 0.697356 0.073493 0.8 0 0
0.067708 0.195186 0.025000 0.8 0 0
0.150496 0.292378 0.089270 0.8 0 0
0.132664 0.361497 0.087249 0.8 0 0
0.224619 0.115682 0.084364 0.8 0 0
0.223794 0.031506 0.048740 0.8 0 0
0.177529 0.866649 0.057582 0.8 0 0
0.226827 0.092255 0.084364 0.8 0 0
0.074890 0.433242 0.084364 0.8 0 0
0.168511 0.386248 0.077074 0.8 0 0
0.186212 0.027730 0.061593 0.8 0 0
0.302633 0.256549 0.060340 0.8 0 0
0.216736 0.974436 0.062624 0.8 0 0
0.210853 0.194075 0.087249 0.8 0 0
0.113419 0.101212 0.025000 0.8 0 0
0.167167 0.052726 0.025000 0.8 0 0
0.101242 0.208339 0.025000 0.8 0 0
0.229040 0.207471 0.089270 0.8 0 0
0.091459 0.164304 0.025000 0.8 0 0
0.172548 0.572205 0.087004 0.8 0 0
0.122498 0.089054 0.084364 0.8 0 0
0.316770 0.145507 0.087249 0.8 0 0
0.087101 0.451170 0.042880 0.8 0 0
0.055547 0.510263 0.046357 0.8 0 0
0.225287 0.313463 0.087907 0.8 0 0
0.251601 0.331922 0.087249 0.8 0 0
0.307121 0.235444 0.064632 0.8 0 0
0.217408 0.513015 0.081589 0.8 0 0
0.181027 0.041875 0.025000 0.8 0 0
0.081772 0.272656 0.050135 0.8 0 0
0.198583 0.385021 0.025000 0.8 0 0
0.223371 0.273961 0.025000 0.8 0 0
0.081907 0.473233 0.076182 0.8 0 0
0.301488 0.278440 0.079207 0.8 0 0
0.157298 0.819336 0.058756 0.8 0 0
0.122223 0.036735 0.033976 0.8 0 0
0.223045 0.367923 0.025225 0.8 0 0
0.167921 0.408867 0.027900 0.8 0 0
0.160867 0.271883 0.087249 0.8 0 0
0.334780 0.366520 0.043165 0.8 0 0
0.195443 0.870969 0.057280 0.8 0 0
0.199771 0.239723 0.025000 0.8 0 0
0.134669 0.329986 0.025000 0.8 0 0
0.085438 0.401241 0.084364 0.8 0 0
0.286180 0.132756 0.087248 0.8 0 0
0.317267 0.363286 0.025000 0.8 0 0
0.284889 0.137856 0.025000 0.8 0 0
0.183600 0.378149 0.074025 0.8 0 0
0.211799 0.031767 0.034651 0.8 0 0
0.255473 0.290273 0.025000 0.8 0 0
0.164137 0.877561 0.051657 0.8 0 0
0.088711 0.394323 0.025000 0.8 0 0
0.072961 0.250697 0.045455 0.8 0 0
0.121443 0.156831 0.025000 0.8 0 0
0.213069 0.812454 0.061367 0.8 0 0
0.349753 0.087106 0.061746 0.8 0 0
0.185481 0.749753 0.082469 0.8 0 0
0.218115 0.260789 0.025000 0.8 0 0
0.047613 0.177520 0.084364 0.8 0 0
0.167946 0.856951 0.058222 0.8 0 0
0.081736 0.303389 0.038752 0.8 0 0
0.216057 0.817760 0.063654 0.8 0 0
0.086648 0.304449 0.027291 0.8 0 0
0.220077 0.829867 0.060154 0.8 0 0
0.101234 0.420863 0.033806 0.8 0 0
0.168898 0.160170 0.087249 0.8 0 0
0.205061 0.716320 0.082918 0.8 0 0
0.179946 0.398801 0.087184 0.8 0 0
0.266209 0.052625 0.025000 0.8 0 0
0.339725 0.188247 0.039263 0.8 0 0
0.230601 0.970829 0.050783 0.8 0 0
0.204958 0.106284 0.084364 0.8 0 0
0.104063 0.326815 0.084364 0.8 0 0
0.217737 0.433454 0.086719 0.8 0 0
0.243817 0.287051 0.025000 0.8 0 0
0.225833 0.330891 0.086708 0.8 0 0
0.102177 0.229526 0.025000 0.8 0 0
0.187626 0.919308 0.049805 0.8 0 0
0.046882 0.099900 0.025000 0.8 0 0
0.285149 0.063030 0.084362 0.8 0 0
0.156214 0.031783 0.055027 0.8 0 0
0.176804 0.749200 0.082476 0.8 0 0
0.195348 0.233961 0.087249 0.8 0 0
0.292901 0.048823 0.081420 0.8 0 0
0.182558 0.623540 0.073180 0.8 0 0
0.318640 0.118911 0.087249 0.8 0 0
0.281353 0.040687 0.061806 0.8 0 0
0.073872 0.157263 0.084364 0.8 0 0
0.303986 0.156206 0.087249 0.8 0 0
0.178593 0.288791 0.025000 0.8 0 0
0.170662 0.676022 0.076595 0.8 0 0
0.162370 0.844310 0.059144 0.8 0 0
0.288264 0.169354 0.025000 0.8 0 0
0.052999 0.202912 0.084056 0.8 0 0
0.199029 0.229435 0.025000 0.8 0 0
0.159441 0.293473 0.089270 0.8 0 0
0.290081 0.092259 0.085080 0.8 0 0
0.174922 0.685356 0.074800 0.8 0 0
0.183810 0.636051 0.073005 0.8 0 0
0.302369 0.274898 0.033051 0.8 0 0
0.207664 0.558504 0.085038 0.8 0 0
0.153454 0.308135 0.025000 0.8 0 0
0.272903 0.038499 0.062616 0.8 0 0
0.328014 0.065327 0.032056 0.8 0 0
0.102668 0.183960 0.084364 0.8 0 0
0.189364 0.601086 0.072824 0.8 0 0
0.031344 0.481182 0.036464 0.8 0 0
0.161639 0.108839 0.025000 0.8 0 0
0.162605 0.403241 0.079947 0.8 0 0
0.263730 0.356900 0.051279 0.8 0 0
0.235273 0.079964 0.084364 0.8 0 0
0.143796 0.402090 0.046923 0.8 0 0
0.190915 0.212097 0.089270 0.8 0 0
0.326682 0.206176 0.079557 0.8 0 0
0.216872 0.467256 0.086264 0.8 0 0
0.199430 0.664476 0.083615 0.8 0 0
0.227191 0.368116 0.080418 0.8 0 0
0.233044 0.063990 0.084364 0.8 0 0
0.165102 0.682420 0.083129 0.8 0 0
0.324623 0.128645 0.087249 0.8 0 0
0.061338 0.211249 0.084364 0.8 0 0
0.350208 0.088204 0.036509 0.8 0 0
0.303009 0.211376 0.085169 0.8 0 0
0.109032 0.204558 0.025000 0.8 0 0
0.171360 0.822076 0.060695 0.8 0 0
0.226745 0.093900 0.084364 0.8 0 0
0.173960 0.289999 0.025000 0.8 0 0
0.062644 0.447759 0.025000 0.8 0 0
0.081322 0.307188 0.073788 0.8 0 0
0.198502 0.819429 0.060884 0.8 0 0
0.183637 0.270490 0.089270 0.8 0 0
0.157376 0.079027 0.084364 0.8 0 0
0.135781 0.114150 0.025000 0.8 0 0
0.061065 0.434489 0.084364 0.8 0 0
0.266607 0.360646 0.047434 0.8 0 0
0.225217 0.199163 0.087249 0.8 0 0
0.209182 0.936681 0.052685 0.8 0 0
0.198454 0.258398 0.087249 0.8 0 0
0.171653 0.352853 0.087873 0.8 0 0
0.077255 0.246301 0.026617 0.8 0 0
0.213280 0.413178 0.077522 0.8 0 0
0.162052 0.347671 0.087249 0.8 0 0
0.302685 0.265019 0.068160 0.8 0 0
0.204963 0.853852 0.058471 0.8 0 0
0.289741 0.139339 0.025000 0.8 0 0
0.052985 0.484943 0.025000 0.8 0 0
0.078159 0.473032 0.081868 0.8 0 0
0.147384 0.301615 0.088127 0.8 0 0
0.198030 0.620533 0.073346 0.8 0 0
0.188382 0.539086 0.085299 0.8 0 0
0.075815 0.255801 0.044616 0.8 0 0
0.141693 0.067382 0.084364 0.8 0 0
0.083414 0.470333 0.047341 0.8 0 0
0.084877 0.430799 0.025173 0.8 0 0
0.083155 0.313229 0.080999 0.8 0 0
0.252720 0.143326 0.025000 0.8 0 0
0.327560 0.340161 0.055186 0.8 0 0
0.321262 0.398187 0.087249 0.8 0 0
0.188435 0.517454 0.085590 0.8 0 0
0.181283 0.375061 0.025000 0.8 0 0
0.039855 0.111583 0.084364 0.8 0 0
0.304225 0.048826 0.057542 0.8 0 0
0.116834 0.293292 0.084364 0.8 0 0
0.215252 0.041960 0.084364 0.8 0 0
0.172652 0.063558 0.025000 0.8 0 0
0.294443 0.348373 0.025000 0.8 0 0
0.354435 0.141048 0.052289 0.8 0 0
0.254936 0.340624 0.025830 0.8 0 0
0.171763 0.942068 0.045970 0.8 0 0
0.195795 0.704405 0.072734 0.8 0 0
0.213664 0.254893 0.089270 0.8 0 0
0.126218 0.105092 0.025000 0.8 0 0
0.202213 0.413070 0.048028 0.8 0 0
0.315858 0.360042 0.025000 0.8 0 0
0.109343 0.149604 0.025000 0.8 0 0
0.082924 0.295002 0.049768 0.8 0 0
0.084376 0.205873 0.025000 0.8 0 0
0.222421 0.354404 0.084612 0.8 0 0
0.168549 0.200108 0.087249 0.8 0 0
0.104190 0.226052 0.025000 0.8 0 0
0.189440 0.404210 0.025219 0.8 0 0
0.093380 0.073104 0.025000 0.8 0 0
0.352921 0.096513 0.033775 0.8 0 0
0.190888 0.882412 0.054316 0.8 0 0
0.309847 0.189668 0.087249 0.8 0 0
0.055475 0.472463 0.084364 0.8 0 0
0.265785 0.081051 0.084364 0.8 0 0
0.073584 0.348588 0.084364 0.8 0 0
0.123307 0.303838 0.025000 0.8 0 0
0.281049 0.087391 0.025000 0.8 0 0
0.284713 0.358930 0.025000 0.8 0 0
0.057829 0.447099 0.025000 0.8 0 0
0.111737 0.352328 0.025000 0.8 0 0
0.170787 0.464263 0.076295 0.8 0 0
0.326994 0.063880 0.075973 0.8 0 0
0.132347 0.110622 0.025000 0.8 0 0
0.205018 0.046848 0.025000 0.8 0 0
0.240195 0.963863 0.053904 0.8 0 0
0.313651 0.065087 0.025091 0.8 0 0
0.191107 0.568192 0.084908 0.8 0 0
0.321776 0.391902 0.025000 0.8 0 0
0.247289 0.163654 0.087249 0.8 0 0
0.125581 0.232799 0.084693 0.8 0 0
0.231097 0.942502 0.071088 0.8 0 0
0.094452 0.191277 0.084364 0.8 0 0
0.187209 0.946093 0.057228 0.8 0 0
0.170752 0.923438 0.048400 0.8 0 0
0.289677 0.405695 0.029067 0.8 0 0
0.162699 0.313446 0.025000 0.8 0 0
0.290126 0.378817 0.084364 0.8 0 0
0.101870 0.258707 0.084364 0.8 0 0
0.065997 0.340343 0.067293 0.8 0 0
0.061935 0.209552 0.025000 0.8 0 0
0.170901 0.136369 0.084364 0.8 0 0
0.032008 0.442642 0.054369 0.8 0 0
0.143293 0.307261 0.087249 0.8 0 0
0.238298 0.068826 0.084364 0.8 0 0
0.205925 0.803465 0.061835 0.8 0 0
0.145514 0.079700 0.084364 0.8 0 0
0.104556 0.093627 0.084364 0.8 0 0
0.266262 0.339569 0.084364 0.8 0 0
0.218124 0.217438 0.089270 0.8 0 0
0.205280 0.700859 0.074945 0.8 0 0
0.255414 0.114949 0.025000 0.8 0 0
0.043830 0.402810 0.079253 0.8 0 0
0.205221 0.617965 0.084239 0.8 0 0
0.309044 0.297947 0.038847 0.8 0 0
0.186471 0.307333 0.087249 0.8 0 0
0.156888 0.900193 0.048865 0.8 0 0
0.205591 0.747313 0.075045 0.8 0 0
0.225822 0.831532 0.071646 0.8 0 0
0.221585 0.409695 0.085893 0.8 0 0
0.342662 0.117948 0.084364 0.8 0 0
0.025300 0.143316 0.050001 0.8 0 0
0.280869 0.226608 0.087642 0.8 0 0
0.311661 0.381539 0.025000 0.8 0 0
0.184096 0.608717 0.084364 0.8 0 0
0.189715 0.273706 0.025000 0.8 0 0
0.220758 0.380441 0.084364 0.8 0 0
0.279751 0.378115 0.030908 0.8 0 0
0.316423 0.200209 0.084364 0.8 0 0
0.183153 0.882849 0.056449 0.8 0 0
0.184103 0.255490 0.087249 0.8 0 0
0.142199 0.116261 0.084364 0.8 0 0
0.196929 0.610249 0.084343 0.8 0 0
0.308138 0.209595 0.084364 0.8 0 0
0.184157 0.920839 0.053793 0.8 0 0
0.311625 0.215572 0.084066 0.8 0 0
0.149702 0.191959 0.025000 0.8 0 0
0.185844 0.941958 0.058975 0.8 0 0
0.326906 0.103858 0.025000 0.8 0 0
0.172975 0.383340 0.075651 0.8 0 0
0.177370 0.382663 0.025000 0.8 0 0
0.314275 0.320856 0.028747 0.8 0 0
0.104914 0.237228 0.025000 0.8 0 0
0.191004 0.498050 0.085851 0.8 0 0
0.068237 0.223123 0.025000 0.8 0 0
0.168284 0.866892 0.057565 0.8 0 0
0.203504 0.529452 0.085659 0.8 0 0
0.329098 0.357522 0.028470 0.8 0 0
0.206866 0.221108 0.089270 0.8 0 0
0.234801 0.147507 0.025000 0.8 0 0
0.085390 0.050478 0.080135 0.8 0 0
0.235068 0.852723 0.076738 0.8 0 0
0.110122 0.180703 0.025000 0.8 0 0
0.075182 0.492522 0.081169 0.8 0 0
0.221051 0.268921 0.089270 0.8 0 0
0.199807 0.543568 0.085239 0.8 0 0
0.184340 0.335760 0.087249 0.8 0 0
0.219491 0.347821 0.025000 0.8 0 0
0.326780 0.167665 0.025000 0.8 0 0
0.083847 0.383397 0.084364 0.8 0 0
0.085482 0.374956 0.084364 0.8 0 0
0.065215 0.463676 0.084364 0.8 0 0
0.230293 0.176478 0.025000 0.8 0 0
0.166658 0.413156 0.059448 0.8 0 0
0.225658 0.327488 0.025000 0.8 0 0
0.196123 0.031258 0.036537 0.8 0 0
0.355650 0.104333 0.047256 0.8 0 0
0.116018 0.191667 0.087249 0.8 0 0
0.333238 0.090248 0.025000 0.8 0 0
0.138612 0.104104 0.084364 0.8 0 0
0.067314 0.147419 0.025000 0.8 0 0
0.079176 0.050950 0.033316 0.8 0 0
0.312704 0.226885 0.069637 0.8 0 0
0.031110 0.096598 0.049364 0.8 0 0
0.297232 0.053762 0.083514 0.8 0 0
0.054511 0.478976 0.084364 0.8 0 0
0.194786 0.393026 0.084364 0.8 0 0
0.310594 0.085250 0.084364 0.8 0 0
0.226240 0.222170 0.025000 0.8 0 0
0.198809 0.402377 0.087272 0.8 0 0
0.181690 0.602320 0.073406 0.8 0 0
0.180160 0.644306 0.083886 0.8 0 0
0.126373 0.235317 0.085893 0.8 0 0
0.161615 0.194708 0.025000 0.8 0 0
0.153661 0.071797 0.025000 0.8 0 0
0.200717 0.554022 0.074014 0.8 0 0
0.152898 0.273087 0.025000 0.8 0 0
0.025789 0.123569 0.035497 0.8 0 0
0.179513 0.051114 0.084364 0.8 0 0
0.044241 0.392650 0.038453 0.8 0 0
0.104748 0.359697 0.084364 0.8 0 0
0.304787 0.336212 0.025000 0.8 0 0
0.103206 0.042942 0.031027 0.8 0 0
0.217480 0.200358 0.089270 0.8 0 0
0.196592 0.248167 0.025000 0.8 0 0
0.178805 0.767671 0.082364 0.8 0 0
0.168859 0.289445 0.025000 0.8 0 0
0.270775 0.123240 0.025000 0.8 0 0
0.189172 0.897219 0.055444 0.8 0 0
0.230848 0.275159 0.025000 0.8 0 0
0.180802 0.693412 0.083226 0.8 0 0
0.319771 0.166014 0.025000 0.8 0 0
0.196412 0.492518 0.085925 0.8 0 0
0.182166 0.796466 0.071428 0.8 0 0
0.222763 0.412951 0.055453 0.8 0 0
0.167595 0.587753 0.084645 0.8 0 0
0.184245 0.606121 0.084399 0.8 0 0
0.045850 0.437554 0.025000 0.8 0 0
0.107743 0.383754 0.084364 0.8 0 0
0.268668 0.155035 0.025000 0.8 0 0
0.065943 0.135960 0.025000 0.8 0 0
0.108969 0.295970 0.084364 0.8 0 0
0.094670 0.338681 0.084364 0.8 0 0
0.202440 0.808350 0.061623 0.8 0 0
0.086963 0.275224 0.081844 0.8 0 0
0.197178 0.378749 0.089327 0.8 0 0
0.192023 0.433156 0.073584 0.8 0 0
0.296989 0.217853 0.087194 0.8 0 0
0.143640 0.829959 0.053474 0.8 0 0
0.174185 0.822301 0.052001 0.8 0 0
0.061079 0.446962 0.084364 0.8 0 0
0.290916 0.150292 0.087239 0.8 0 0
0.170562 0.434319 0.086707 0.8 0 0
0.215906 0.535596 0.080404 0.8 0 0
0.326527 0.413608 0.082600 0.8 0 0
0.299383 0.341101 0.025000 0.8 0 0
0.176605 0.872176 0.057195 0.8 0 0
0.294183 0.047480 0.029999 0.8 0 0
0.061421 0.349329 0.067726 0.8 0 0
0.110740 0.275839 0.025000 0.8 0 0
0.151262 0.261980 0.089270 0.8 0 0
0.196902 0.896148 0.074329 0.8 0 0
0.180263 0.670732 0.073469 0.8 0 0
0.161242 0.348897 0.025000 0.8 0 0
0.228622 0.367359 0.051078 0.8 0 0
0.303351 0.414834 0.082906 0.8 0 0
0.210206 0.510942 0.086523 0.8 0 0
0.243376 0.138950 0.087249 0.8 0 0
0.207674 0.635696 0.084001 0.8 0 0
0.323558 0.200262 0.084079 0.8 0 0
0.309782 0.373899 0.025000 0.8 0 0
0.073541 0.095194 0.084364 0.8 0 0
0.207838 0.618967 0.085908 0.8 0 0
0.325964 0.096913 0.025000 0.8 0 0
0.194458 0.564192 0.073198 0.8 0 0
0.236405 0.325146 0.087249 0.8 0 0
0.097159 0.069364 0.025000 0.8 0 0
0.299203 0.231096 0.025194 0.8 0 0
0.211272 0.534220 0.085365 0.8 0 0
0.185194 0.827291 0.060327 0.8 0 0
0.183615 0.893572 0.074510 0.8 0 0
0.196375 0.710335 0.072783 0.8 0 0
0.270804 0.222614 0.025000 0.8 0 0
0.195785 0.701200 0.072746 0.8 0 0
0.169120 0.258969 0.090911 0.8 0 0
0.152848 0.247356 0.087249 0.8 0 0
0.195483 0.132987 0.025000 0.8 0 0
0.248523 0.214672 0.087249 0.8 0 0
0.026332 0.154480 0.043875 0.8 0 0
0.169861 0.703526 0.083090 0.8 0 0
0.205490 0.172792 0.087249 0.8 0 0
0.159101 0.845342 0.077882 0.8 0 0
0.031268 0.457254 0.033638 0.8 0 0
0.312015 0.158655 0.025000 0.8 0 0
0.282021 0.254758 0.025000 0.8 0 0
0.152856 0.407237 0.073851 0.8 0 0
0.047940 0.400180 0.082579 0.8 0 0
0.090387 0.250330 0.025000 0.8 0 0
0.220480 0.298317 0.090589 0.8 0 0
0.135038 0.400785 0.076270 0.8 0 0
0.029315 0.160357 0.078210 0.8 0 0
0.300149 0.229973 0.084111 0.8 0 0
0.121525 0.402371 0.080944 0.8 0 0
0.213638 0.641955 0.085374 0.8 0 0
0.208213 0.795810 0.076675 0.8 0 0
0.227364 0.076088 0.084364 0.8 0 0
0.071612 0.329458 0.040795 0.8 0 0
0.190722 0.270632 0.025000 0.8 0 0
0.217933 0.834604 0.059808 0.8 0 0
0.213518 0.031188 0.039583 0.8 0 0
0.044912 0.390592 0.037509 0.8 0 0
0.085321 0.068801 0.084364 0.8 0 0
0.195080 0.699614 0.085347 0.8 0 0
0.172672 0.299848 0.025000 0.8 0 0
0.145683 0.311602 0.025000 0.8 0 0
0.219954 0.835558 0.059740 0.8 0 0
0.104610 0.219149 0.025000 0.8 0 0
0.108017 0.188912 0.025000 0.8 0 0
0.265731 0.036793 0.056553 0.8 0 0
0.316518 0.374598 0.025000 0.8 0 0
0.181395 0.353819 0.089609 0.8 0 0
0.110987 0.413326 0.047110 0.8 0 0
0.280096 0.376728 0.029444 0.8 0 0
0.154237 0.264739 0.089270 0.8 0 0
0.128741 0.223060 0.087249 0.8 0 0
0.309505 0.051573 0.063418 0.8 0 0
0.039881 0.464897 0.025068 0.8 0 0
0.191988 0.336120 0.088073 0.8 0 0
0.051990 0.477077 0.084364 0.8 0 0
0.202495 0.589185 0.084626 0.8 0 0
0.118481 0.309551 0.025000 0.8 0 0
0.212614 0.744377 0.081379 0.8 0 0
0.278943 0.105728 0.025000 0.8 0 0
0.221570 0.919246 0.072714 0.8 0 0
0.027247 0.159248 0.045703 0.8 0 0
0.213911 0.884000 0.075179 0.8 0 0
0.189933 0.886128 0.056220 0.8 0 0
0.225659 0.390414 0.039723 0.8 0 0
0.242824 0.091512 0.025000 0.8 0 0
0.228901 0.359379 0.077353 0.8 0 0
0.162475 0.106451 0.025000 0.8 0 0
0.257761 0.328748 0.087249 0.8 0 0
0.264784 0.267026 0.087221 0.8 0 0
0.197153 0.273352 0.025000 0.8 0 0
0.067785 0.082396 0.084364 0.8 0 0
0.041511 0.174407 0.084317 0.8 0 0
0.076747 0.318694 0.063509 0.8 0 0
0.213819 0.376650 0.084364 0.8 0 0
0.250309 0.173428 0.025000 0.8 0 0
0.174481 0.327407 0.025000 0.8 0 0
0.305753 0.076377 0.025000 0.8 0 0
0.080763 0.245873 0.025170 0.8 0 0
0.225875 0.210495 0.089270 0.8 0 0
0.221690 0.973452 0.050234 0.8 0 0
0.343743 0.148079 0.084223 0.8 0 0
0.203003 0.333099 0.081353 0.8 0 0
0.187776 0.906893 0.052268 0.8 0 0
0.300166 0.420148 0.039109 0.8 0 0
0.147423 0.355814 0.025000 0.8 0 0
0.088909 0.218963 0.084364 0.8 0 0
0.326609 0.080174 0.025000 0.8 0 0
0.075538 0.423873 0.025000 0.8 0 0
0.181847 0.838589 0.078354 0.8 0 0
0.217156 0.955330 0.070191 0.8 0 0
0.176356 0.207590 0.089270 0.8 0 0
0.172875 0.654334 0.075498 0.8 0 0
0.326849 0.148117 0.087249 0.8 0 0
0.201383 0.957710 0.051214 0.8 0 0
0.284878 0.399898 0.075160 0.8 0 0
0.156553 0.835988 0.074191 0.8 0 0
0.235061 0.032121 0.055776 0.8 0 0
0.172191 0.372589 0.075910 0.8 0 0
0.098014 0.152323 0.025000 0.8 0 0
0.181209 0.588745 0.084632 0.8 0 0
0.069921 0.354824 0.084355 0.8 0 0
0.349092 0.086096 0.068630 0.8 0 0
0.315412 0.314543 0.071246 0.8 0 0
0.099525 0.356962 0.025000 0.8 0 0
0.159346 0.826947 0.056679 0.8 0 0
0.267296 0.104963 0.086863 0.8 0 0
0.155639 0.073793 0.025000 0.8 0 0
0.293081 0.079229 0.085080 0.8 0 0
0.248242 0.075069 0.084364 0.8 0 0
0.062624 0.068225 0.084078 0.8 0 0
0.124409 0.047344 0.084364 0.8 0 0
0.084265 0.299292 0.031344 0.8 0 0
0.174822 0.328839 0.025000 0.8 0 0
0.237672 0.274746 0.025000 0.8 0 0
0.285603 0.145164 0.025000 0.8 0 0
0.080854 0.485797 0.043522 0.8 0 0
0.235354 0.293163 0.025000 0.8 0 0
0.166938 0.413181 0.074019 0.8 0 0
0.097122 0.324078 0.025000 0.8 0 0
0.166495 0.458873 0.086377 0.8 0 0
0.215105 0.645228 0.083873 0.8 0 0
0.165192 0.413181 0.079478 0.8 0 0
0.091242 0.201099 0.025000 0.8 0 0
0.104852 0.334023 0.084364 0.8 0 0
0.270829 0.108333 0.079930 0.8 0 0
0.188590 0.098975 0.025000 0.8 0 0
0.267079 0.359860 0.075579 0.8 0 0
0.074931 0.244237 0.027294 0.8 0 0
0.235551 0.032176 0.071390 0.8 0 0
0.187487 0.918212 0.072787 0.8 0 0
0.083226 0.289178 0.045911 0.8 0 0
0.081313 0.199890 0.025000 0.8 0 0
0.303920 0.278377 0.066036 0.8 0 0
0.146890 0.032454 0.054792 0.8 0 0
0.329006 0.344210 0.044058 0.8 0 0
0.299560 0.256845 0.029163 0.8 0 0
0.207854 0.180313 0.087249 0.8 0 0
0.353916 0.144029 0.063274 0.8 0 0
0.097468 0.109841 0.025000 0.8 0 0
0.336852 0.394681 0.042082 0.8 0 0
0.172080 0.318465 0.025000 0.8 0 0
0.047986 0.477730 0.084364 0.8 0 0
0.044212 0.392739 0.042173 0.8 0 0
0.173789 0.084257 0.084364 0.8 0 0
0.175277 0.325310 0.087249 0.8 0 0
0.166640 0.413156 0.064172 0.8 0 0
0.155136 0.334477 0.087249 0.8 0 0
0.230438 0.304935 0.087249 0.8 0 0
0.253025 0.036550 0.030586 0.8 0 0
0.088670 0.428332 0.025999 0.8 0 0
0.220981 0.031362 0.043966 0.8 0 0
0.289038 0.410337 0.046193 0.8 0 0
0.176228 0.031260 0.071253 0.8 0 0
0.166745 0.084811 0.025000 0.8 0 0
0.097244 0.125551 0.025000 0.8 0 0
0.146121 0.363495 0.087249 0.8 0 0
0.190882 0.933168 0.071741 0.8 0 0
0.243724 0.341207 0.026805 0.8 0 0
0.190511 0.459952 0.088203 0.8 0 0
0.201576 0.837244 0.078448 0.8 0 0
0.157414 0.373808 0.087520 0.8 0 0
0.202272 0.953394 0.070326 0.8 0 0
0.198988 0.350560 0.074346 0.8 0 0
0.195112 0.566731 0.073227 0.8 0 0
0.274450 0.068347 0.084363 0.8 0 0
0.113793 0.069325 0.084364 0.8 0 0
0.098142 0.205999 0.025000 0.8 0 0
0.265690 0.324175 0.025000 0.8 0 0
0.056163 0.405175 0.084364 0.8 0 0
0.185979 0.902206 0.073906 0.8 0 0
0.178175 0.308005 0.087249 0.8 0 0
0.180370 0.472884 0.088178 0.8 0 0
0.197507 0.411326 0.073972 0.8 0 0
0.025022 0.131136 0.050159 0.8 0 0
0.262505 0.106239 0.088414 0.8 0 0
0.350343 0.136480 0.027550 0.8 0 0
0.209596 0.112158 0.084364 0.8 0 0
0.225993 0.853730 0.077295 0.8 0 0
0.086702 0.326949 0.025000 0.8 0 0
0.095381 0.358594 0.084364 0.8 0 0
0.264351 0.039872 0.028908 0.8 0 0
0.121645 0.249382 0.084364 0.8 0 0
0.109406 0.412038 0.030806 0.8 0 0
0.219121 0.362103 0.084364 0.8 0 0
0.288639 0.408636 0.034530 0.8 0 0
0.226749 0.183685 0.025000 0.8 0 0
0.204668 0.618349 0.084537 0.8 0 0
0.351488 0.090600 0.050274 0.8 0 0
0.346331 0.172422 0.051606 0.8 0 0
0.062055 0.396321 0.084364 0.8 0 0
0.220308 0.196922 0.087249 0.8 0 0
0.084276 0.189797 0.025000 0.8 0 0
0.222873 0.837074 0.078460 0.8 0 0
0.108670 0.239175 0.084364 0.8 0 0
0.211323 0.416801 0.077093 0.8 0 0
0.198419 0.870680 0.057300 0.8 0 0
0.324529 0.184864 0.025000 0.8 0 0
0.256310 0.110543 0.025000 0.8 0 0
0.107603 0.362938 0.086754 0.8 0 0
0.265720 0.094325 0.025000 0.8 0 0
0.242010 0.923394 0.064972 0.8 0 0
0.200501 0.577128 0.084788 0.8 0 0
0.170099 0.413147 0.043864 0.8 0 0
0.174511 0.083219 0.084364 0.8 0 0
0.090690 0.112758 0.084364 0.8 0 0
0.055394 0.426242 0.084364 0.8 0 0
0.030208 0.469198 0.055479 0.8 0 0
0.166381 0.720278 0.081749 0.8 0 0
0.355373 0.102004 0.058664 0.8 0 0
0.170208 0.494036 0.076459 0.8 0 0
0.133642 0.232371 0.087249 0.8 0 0
0.165863 0.366074 0.084364 0.8 0 0
0.058878 0.060635 0.073060 0.8 0 0
0.184057 0.813016 0.080137 0.8 0 0
0.083643 0.149260 0.025000 0.8 0 0
0.172851 0.892013 0.074619 0.8 0 0
0.199546 0.496844 0.085867 0.8 0 0
0.218818 0.910560 0.073322 0.8 0 0
0.186265 0.681866 0.072688 0.8 0 0
0.028348 0.105136 0.057106 0.8 0 0
0.046446 0.457834 0.084364 0.8 0 0
0.051967 0.085293 0.084364 0.8 0 0
0.197360 0.197414 0.088776 0.8 0 0
0.186798 0.305453 0.087249 0.8 0 0
0.219945 0.308273 0.087249 0.8 0 0
0.183530 0.363298 0.074087 0.8 0 0
0.169368 0.244146 0.025000 0.8 0 0
0.057291 0.227242 0.054215 0.8 0 0
0.194109 0.161684 0.025000 0.8 0 0
0.064002 0.170575 0.025000 0.8 0 0
0.202462 0.444958 0.086564 0.8 0 0
0.307378 0.293186 0.057123 0.8 0 0
0.174667 0.296943 0.025000 0.8 0 0
0.201427 0.651994 0.073869 0.8 0 0
0.219313 0.347746 0.025000 0.8 0 0
0.230464 0.353159 0.050021 0.8 0 0
0.029835 0.099843 0.042523 0.8 0 0
0.274776 0.202363 0.087224 0.8 0 0
0.159774 0.854519 0.053770 0.8 0 0
0.058647 0.387575 0.084364 0.8 0 0
0.194213 0.413089 0.058304 0.8 0 0
0.217343 0.224953 0.025000 0.8 0 0
0.171481 0.248876 0.087249 0.8 0 0
0.272026 0.368376 0.049861 0.8 0 0
0.192256 0.921052 0.053778 0.8 0 0
0.272654 0.307276 0.087241 0.8 0 0
0.105841 0.052450 0.084364 0.8 0 0
0.052367 0.378076 0.080341 0.8 0 0
0.074853 0.426821 0.025000 0.8 0 0
0.228984 0.194484 0.025000 0.8 0 0
0.250944 0.062814 0.025000 0.8 0 0
0.193295 0.433960 0.088535 0.8 0 0
0.181893 0.083254 0.084364 0.8 0 0
0.343014 0.172412 0.029106 0.8 0 0
0.291994 0.338467 0.087249 0.8 0 0
0.054856 0.510273 0.069850 0.8 0 0
0.211929 0.389057 0.087315 0.8 0 0
0.223972 0.252856 0.087249 0.8 0 0
0.231223 0.970949 0.057569 0.8 0 0
0.059460 0.230511 0.057892 0.8 0 0
0.083267 0.405968 0.084364 0.8 0 0
0.309243 0.104162 0.025000 0.8 0 0
0.055571 0.361673 0.042836 0.8 0 0
0.205537 0.047429 0.084364 0.8 0 0
0.229245 0.965553 0.050666 0.8 0 0
0.221624 0.971784 0.069041 0.8 0 0
0.262857 0.090603 0.085080 0.8 0 0
0.224142 0.233065 0.025000 0.8 0 0
0.289974 0.048048 0.081678 0.8 0 0
0.137286 0.208334 0.087249 0.8 0 0
0.129219 0.125292 0.084364 0.8 0 0
0.252763 0.249071 0.087249 0.8 0 0
0.086632 0.451769 0.035769 0.8 0 0
0.170958 0.871072 0.052901 0.8 0 0
0.047503 0.123517 0.025000 0.8 0 0
0.281378 0.225621 0.025000 0.8 0 0
0.188985 0.555965 0.073026 0.8 0 0
0.083593 0.469225 0.042478 0.8 0 0
0.189984 0.397329 0.084364 0.8 0 0
0.204506 0.336474 0.088255 0.8 0 0
0.162332 0.857469 0.077034 0.8 0 0
0.143794 0.179390 0.087249 0.8 0 0
0.060603 0.350934 0.061492 0.8 0 0
0.101742 0.359786 0.025000 0.8 0 0
0.203050 0.078395 0.084364 0.8 0 0
0.176113 0.343859 0.087980 0.8 0 0
0.159203 0.825589 0.051771 0.8 0 0
0.208336 0.173440 0.025000 0.8 0 0
0.258833 0.350842 0.073371 0.8 0 0
0.033422 0.455104 0.029277 0.8 0 0
0.264918 0.048276 0.084364 0.8 0 0
0.182640 0.816833 0.079876 0.8 0 0
0.098261 0.235013 0.084364 0.8 0 0
0.164700 0.071208 0.025000 0.8 0 0
0.229399 0.043154 0.084364 0.8 0 0
0.167960 0.226377 0.089270 0.8 0 0
0.073146 0.052472 0.052355 0.8 0 0
0.290456 0.128282 0.025000 0.8 0 0
0.306989 0.417694 0.081673 0.8 0 0
0.271401 0.085847 0.083915 0.8 0 0
0.166538 0.854542 0.058429 0.8 0 0
0.095503 0.327280 0.084364 0.8 0 0
0.329923 0.128623 0.087249 0.8 0 0
0.191844 0.651072 0.083795 0.8 0 0
0.151860 0.242988 0.087249 0.8 0 0
0.209930 0.550774 0.076596 0.8 0 0
0.125927 0.166121 0.087249 0.8 0 0
0.224159 0.402085 0.046237 0.8 0 0
0.176807 0.076437 0.084364 0.8 0 0
0.049728 0.126756 0.025000 0.8 0 0
0.054286 0.125902 0.025000 0.8 0 0
0.101977 0.391483 0.025000 0.8 0 0
0.241551 0.962599 0.069683 0.8 0 0
0.162945 0.822665 0.051976 0.8 0 0
0.047536 0.506259 0.079354 0.8 0 0
0.151930 0.323747 0.025000 0.8 0 0
0.201460 0.333399 0.025000 0.8 0 0
0.039751 0.411690 0.075795 0.8 0 0
0.088685 0.440375 0.078306 0.8 0 0
0.219185 0.031270 0.041772 0.8 0 0
0.214278 0.280132 0.087249 0.8 0 0
0.228666 0.263685 0.025000 0.8 0 0
0.255239 0.193314 0.025000 0.8 0 0
0.155319 0.823511 0.060598 0.8 0 0
0.215143 0.046637 0.084364 0.8 0 0
0.321594 0.350465 0.025195 0.8 0 0
0.135814 0.294658 0.087249 0.8 0 0
0.336690 0.403420 0.067485 0.8 0 0
0.169827 0.755157 0.077521 0.8 0 0
0.151401 0.405544 0.047101 0.8 0 0
0.330921 0.402201 0.026651 0.8 0 0
0.211853 0.393312 0.087258 0.8 0 0
0.232337 0.866383 0.064680 0.8 0 0
0.227176 0.970606 0.069123 0.8 0 0
0.198485 0.911072 0.054475 0.8 0 0
0.226176 0.251396 0.025000 0.8 0 0
0.126190 0.258950 0.025000 0.8 0 0
0.214996 0.643327 0.081651 0.8 0 0
0.071178 0.366769 0.025000 0.8 0 0
0.169286 0.413180 0.080500 0.8 0 0
0.160127 0.302545 0.087249 0.8 0 0
0.119367 0.354723 0.087249 0.8 0 0
0.284124 0.041537 0.057737 0.8 0 0
0.267723 0.117105 0.085965 0.8 0 0
0.209510 0.313040 0.025000 0.8 0 0
0.227473 0.375180 0.036141 0.8 0 0
0.227716 0.207109 0.089270 0.8 0 0
0.204030 0.266501 0.087249 0.8 0 0
0.200118 0.289406 0.025000 0.8 0 0
0.266619 0.360661 0.058765 0.8 0 0
0.201287 0.896972 0.055462 0.8 0 0
0.152936 0.031923 0.038578 0.8 0 0
0.173034 0.454433 0.075585 0.8 0 0
0.078391 0.099123 0.025000 0.8 0 0
0.217493 0.857601 0.058206 0.8 0 0
0.354205 0.142367 0.068284 0.8 0 0
0.296153 0.049537 0.080839 0.8 0 0
0.216701 0.066033 0.084364 0.8 0 0
0.285134 0.394521 0.030151 0.8 0 0
0.131286 0.105026 0.084364 0.8 0 0
0.314023 0.419204 0.028509 0.8 0 0
0.084156 0.132490 0.025000 0.8 0 0
0.224098 0.193912 0.025000 0.8 0 0
0.115279 0.147156 0.025000 0.8 0 0
0.311708 0.305407 0.036963 0.8 0 0
0.180456 0.761938 0.082305 0.8 0 0
0.191438 0.360560 0.087698 0.8 0 0
0.196749 0.796438 0.083996 0.8 0 0
0.035788 0.430381 0.032035 0.8 0 0
0.199549 0.509717 0.087780 0.8 0 0
0.130403 0.363695 0.087249 0.8 0 0
0.306829 0.223965 0.026276 0.8 0 0
0.129009 0.098006 0.025000 0.8 0 0
0.246462 0.036377 0.029307 0.8 0 0
0.101124 0.104641 0.025000 0.8 0 0
0.176630 0.413131 0.045828 0.8 0 0
0.210738 0.070759 0.084364 0.8 0 0
0.116053 0.203189 0.025000 0.8 0 0
0.035165 0.426581 0.044424 0.8 0 0
0.097834 0.246816 0.025000 0.8 0 0
0.218365 0.260571 0.025000 0.8 0 0
0.173083 0.687058 0.083311 0.8 0 0
0.245445 0.079071 0.025000 0.8 0 0
0.162716 0.858962 0.074706 0.8 0 0
0.189440 0.849782 0.058760 0.8 0 0
0.325256 0.344035 0.080627 0.8 0 0
0.046016 0.207641 0.053482 0.8 0 0
0.353772 0.144858 0.041986 0.8 0 0
0.173483 0.772051 0.082169 0.8 0 0
0.198445 0.611143 0.084331 0.8 0 0
0.326482 0.159470 0.025000 0.8 0 0
0.269145 0.139729 0.025000 0.8 0 0
0.181655 0.137130 0.084364 0.8 0 0
0.197729 0.963923 0.069590 0.8 0 0
0.315643 0.353533 0.086914 0.8 0 0
0.087082 0.325195 0.025000 0.8 0 0
0.312133 0.225541 0.076886 0.8 0 0
0.160692 0.303519 0.089270 0.8 0 0
0.216788 0.440787 0.079954 0.8 0 0
0.052490 0.369029 0.051620 0.8 0 0
0.197837 0.944063 0.043661 0.8 0 0
0.181660 0.684448 0.073166 0.8 0 0
0.229262 0.944854 0.052113 0.8 0 0
0.305146 0.240121 0.066901 0.8 0 0
0.214955 0.925245 0.053484 0.8 0 0
0.150644 0.404326 0.035681 0.8 0 0
0.211650 0.297562 0.087249 0.8 0 0
0.345159 0.154836 0.083078 0.8 0 0
0.108951 0.112461 0.025000 0.8 0 0
0.183576 0.413114 0.046489 0.8 0 0
0.299946 0.415634 0.028322 0.8 0 0
0.269435 0.306537 0.087236 0.8 0 0
0.282217 0.132070 0.087249 0.8 0 0
0.348973 0.147902 0.027976 0.8 0 0
0.048323 0.206778 0.030105 0.8 0 0
0.215869 0.966325 0.069422 0.8 0 0
0.195161 0.225010 0.025000 0.8 0 0
0.209836 0.767846 0.084376 0.8 0 0
0.103158 0.419662 0.035782 0.8 0 0
0.240135 0.955699 0.051355 0.8 0 0
0.336815 0.082904 0.025366 0.8 0 0
0.227296 0.303442 0.089270 0.8 0 0
0.327213 0.339366 0.053650 0.8 0 0
0.063787 0.138065 0.025000 0.8 0 0
0.078063 0.459917 0.025960 0.8 0 0
0.276852 0.096610 0.075642 0.8 0 0
0.081514 0.372083 0.025000 0.8 0 0
0.149191 0.194698 0.087249 0.8 0 0
0.221150 0.411794 0.087311 0.8 0 0
0.131125 0.039442 0.027293 0.8 0 0
0.198998 0.775711 0.082120 0.8 0 0
0.202560 0.806558 0.061712 0.8 0 0
0.225668 0.308645 0.089270 0.8 0 0
0.163589 0.456305 0.086412 0.8 0 0
0.111154 0.377805 0.087249 0.8 0 0
0.106031 0.262956 0.025000 0.8 0 0
0.161213 0.807769 0.061633 0.8 0 0
0.080868 0.469423 0.029773 0.8 0 0
0.188024 0.353893 0.087788 0.8 0 0
0.178028 0.227490 0.087249 0.8 0 0
0.313800 0.157302 0.087249 0.8 0 0
0.028245 0.153703 0.078547 0.8 0 0
0.260741 0.066012 0.084362 0.8 0 0
0.209913 0.680859 0.077102 0.8 0 0
0.074499 0.248168 0.029887 0.8 0 0
0.140996 0.337709 0.087249 0.8 0 0
0.028595 0.131728 0.028643 0.8 0 0
0.190995 0.377626 0.025000 0.8 0 0
0.073003 0.179531 0.084364 0.8 0 0
0.129280 0.262643 0.025000 0.8 0 0
0.295656 0.137822 0.025000 0.8 0 0
0.190695 0.954944 0.060067 0.8 0 0
0.035318 0.499266 0.052118 0.8 0 0
0.036103 0.119470 0.025000 0.8 0 0
0.299543 0.162876 0.087231 0.8 0 0
0.114562 0.184161 0.087249 0.8 0 0
0.290497 0.373062 0.084364 0.8 0 0
0.116317 0.180851 0.025000 0.8 0 0
0.308873 0.302017 0.031923 0.8 0 0
0.299990 0.116787 0.084364 0.8 0 0
0.340929 0.075192 0.052593 0.8 0 0
0.278022 0.362940 0.083966 0.8 0 0
0.054594 0.364005 0.070126 0.8 0 0
0.190145 0.847941 0.058888 0.8 0 0
0.191675 0.863847 0.057778 0.8 0 0
0.196509 0.357071 0.084364 0.8 0 0
0.169613 0.395340 0.076717 0.8 0 0
0.181489 0.717001 0.073101 0.8 0 0
0.224653 0.145131 0.087249 0.8 0 0
0.039803 0.430397 0.082343 0.8 0 0
0.067897 0.454475 0.084364 0.8 0 0
0.210839 0.720845 0.078029 0.8 0 0
0.298294 0.209703 0.087218 0.8 0 0
0.081082 0.484450 0.038417 0.8 0 0
0.281180 0.129858 0.084364 0.8 0 0
0.162893 0.408467 0.027549 0.8 0 0
0.160173 0.332807 0.088680 0.8 0 0
0.071043 0.362074 0.084364 0.8 0 0
0.192916 0.402786 0.089051 0.8 0 0
0.334726 0.072949 0.029564 0.8 0 0
0.325375 0.360437 0.083989 0.8 0 0
0.335529 0.372049 0.041029 0.8 0 0
0.287113 0.135059 0.025000 0.8 0 0
0.048459 0.142871 0.084364 0.8 0 0
0.257931 0.035282 0.058896 0.8 0 0
0.177120 0.892108 0.074612 0.8 0 0
0.147651 0.280451 0.025000 0.8 0 0
0.205467 0.510759 0.085680 0.8 0 0
0.354551 0.103107 0.033457 0.8 0 0
0.175154 0.742150 0.082571 0.8 0 0
0.200175 0.597242 0.084518 0.8 0 0
0.212431 0.911753 0.054428 0.8 0 0
0.154652 0.143081 0.025000 0.8 0 0
0.271957 0.368272 0.048731 0.8 0 0
0.163112 0.475780 0.080192 0.8 0 0
0.202492 0.355083 0.025000 0.8 0 0
0.190714 0.500064 0.085824 0.8 0 0
0.134475 0.204590 0.087249 0.8 0 0
0.320193 0.422151 0.039909 0.8 0 0
0.186504 0.532159 0.087240 0.8 0 0
0.056560 0.359313 0.037929 0.8 0 0
0.297648 0.223574 0.025000 0.8 0 0
0.080512 0.369037 0.025000 0.8 0 0
0.177199 0.658363 0.074043 0.8 0 0
0.181544 0.304161 0.025000 0.8 0 0
0.147541 0.132346 0.084364 0.8 0 0
0.085038 0.047349 0.043785 0.8 0 0
0.170277 0.769532 0.082337 0.8 0 0
0.259237 0.350853 0.034748 0.8 0 0
0.196342 0.413084 0.047310 0.8 0 0
0.167983 0.294748 0.089270 0.8 0 0
0.064317 0.101230 0.025000 0.8 0 0
0.167110 0.620802 0.078354 0.8 0 0
0.049148 0.068493 0.053911 0.8 0 0
0.114499 0.151961 0.025000 0.8 0 0
0.149893 0.139267 0.025000 0.8 0 0
0.118023 0.170156 0.025000 0.8 0 0
0.187291 0.724448 0.082809 0.8 0 0
0.323815 0.191505 0.025000 0.8 0 0
0.237563 0.196903 0.087515 0.8 0 0
0.181792 0.842022 0.052747 0.8 0 0
0.224469 0.953472 0.070321 0.8 0 0
0.215455 0.031213 0.037717 0.8 0 0
0.175313 0.399794 0.075125 0.8 0 0
0.037429 0.416741 0.051415 0.8 0 0
0.238653 0.067677 0.025000 0.8 0 0
0.121106 0.160169 0.087249 0.8 0 0
0.290728 0.134563 0.025000 0.8 0 0
0.216454 0.861548 0.057932 0.8 0 0
0.190162 0.367650 0.089119 0.8 0 0
0.076178 0.338493 0.084023 0.8 0 0
0.204730 0.165803 0.025000 0.8 0 0
0.207781 0.041950 0.025000 0.8 0 0
0.137447 0.106824 0.084364 0.8 0 0
0.185425 0.922313 0.050083 0.8 0 0
0.164832 0.366801 0.089463 0.8 0 0
0.124709 0.119313 0.025000 0.8 0 0
0.187423 0.442404 0.073564 0.8 0 0
0.173630 0.378647 0.084364 0.8 0 0
0.185166 0.418504 0.086920 0.8 0 0
0.158395 0.842698 0.072082 0.8 0 0
0.297909 0.305910 0.025000 0.8 0 0
0.249798 0.256248 0.025000 0.8 0 0
0.184030 0.331315 0.087249 0.8 0 0
0.187654 0.295729 0.087249 0.8 0 0
0.239386 0.167537 0.087249 0.8 0 0
0.070746 0.427216 0.084364 0.8 0 0
0.083089 0.099433 0.025000 0.8 0 0
0.029377 0.101471 0.062951 0.8 0 0
0.026961 0.118680 0.032702 0.8 0 0
0.246937 0.934979 0.063050 0.8 0 0
0.080518 0.309180 0.050640 0.8 0 0
0.164803 0.602363 0.080418 0.8 0 0
0.049434 0.205046 0.027944 0.8 0 0
0.318712 0.219211 0.075154 0.8 0 0
0.313218 0.054550 0.033755 0.8 0 0
0.083513 0.375217 0.084364 0.8 0 0
0.165234 0.548263 0.085176 0.8 0 0
0.146836 0.251463 0.025000 0.8 0 0
0.213213 0.126662 0.084364 0.8 0 0
0.276962 0.376940 0.061079 0.8 0 0
0.091279 0.159553 0.025000 0.8 0 0
0.184317 0.797881 0.075047 0.8 0 0
0.213578 0.808847 0.065782 0.8 0 0
0.199549 0.388631 0.087321 0.8 0 0
0.288085 0.243231 0.084364 0.8 0 0
0.116492 0.061184 0.084364 0.8 0 0
0.161640 0.402206 0.087139 0.8 0 0
0.200169 0.455865 0.074224 0.8 0 0
0.210382 0.653171 0.083766 0.8 0 0
0.141003 0.152156 0.087249 0.8 0 0
0.134448 0.307270 0.025000 0.8 0 0
0.191806 0.031126 0.041017 0.8 0 0
0.206666 0.725356 0.075446 0.8 0 0
0.194095 0.921550 0.049574 0.8 0 0
0.194781 0.038882 0.025528 0.8 0 0
0.074169 0.194681 0.084364 0.8 0 0
0.155150 0.907399 0.047821 0.8 0 0
0.285778 0.301476 0.025000 0.8 0 0
0.189687 0.706023 0.072389 0.8 0 0
0.323435 0.192760 0.084364 0.8 0 0
0.191445 0.137284 0.084364 0.8 0 0
0.221165 0.852440 0.077386 0.8 0 0
0.031554 0.445702 0.059695 0.8 0 0
0.159278 0.378844 0.082603 0.8 0 0
0.033954 0.484780 0.078853 0.8 0 0
0.234988 0.032113 0.042733 0.8 0 0
0.080962 0.485155 0.061765 0.8 0 0
0.058404 0.145782 0.084364 0.8 0 0
0.153941 0.093802 0.025000 0.8 0 0
0.161143 0.852649 0.068006 0.8 0 0
