0.385855 0.080840 0.066087 0.8 0 0
0.902780 0.187577 0.071829 0.8 0 0
0.102628 0.113372 0.030850 0.8 0 0
0.193601 0.053120 0.084296 0.8 0 0
0.508537 0.195604 0.087346 0.8 0 0
0.854130 0.188151 0.078193 0.8 0 0
0.106067 0.231513 0.030850 0.8 0 0
0.749215 0.201562 0.084578 0.8 0 0
0.410176 0.165989 0.085394 0.8 0 0
0.382746 0.157373 0.032487 0.8 0 0
0.071475 0.238254 0.077508 0.8 0 0
0.355330 0.194094 0.084296 0.8 0 0
0.168468 0.141199 0.078894 0.8 0 0
0.802538 0.170070 0.084008 0.8 0 0
0.134951 0.348869 0.064535 0.8 0 0
0.067955 0.244170 0.030850 0.8 0 0
0.280791 0.107092 0.078894 0.8 0 0
0.279299 0.186051 0.084296 0.8 0 0
0.188362 0.346136 0.059463 0.8 0 0
0.376751 0.175795 0.084296 0.8 0 0
0.760575 0.202784 0.086919 0.8 0 0
0.201057 0.145301 0.078894 0.8 0 0
0.398726 0.179966 0.030850 0.8 0 0
0.350494 0.268526 0.030850 0.8 0 0
0.083604 0.305897 0.030850 0.8 0 0
0.180496 0.065777 0.082163 0.8 0 0
0.196647 0.318976 0.076914 0.8 0 0
0.606874 0.185234 0.084578 0.8 0 0
0.674823 0.171161 0.086703 0.8 0 0
0.812383 0.197431 0.084450 0.8 0 0
0.363937 0.171530 0.082161 0.8 0 0
0.567547 0.195755 0.086432 0.8 0 0
0.411668 0.230249 0.079857 0.8 0 0
0.171287 0.252478 0.082163 0.8 0 0
0.415064 0.202519 0.057210 0.8 0 0
0.385866 0.238408 0.030850 0.8 0 0
0.307024 0.181198 0.084296 0.8 0 0
0.234457 0.059394 0.032073 0.8 0 0
0.161403 0.246431 0.030850 0.8 0 0
0.657259 0.179616 0.069780 0.8 0 0
0.341011 0.190249 0.088871 0.8 0 0
0.125936 0.202347 0.082163 0.8 0 0
0.201931 0.328109 0.038513 0.8 0 0
0.895299 0.211440 0.036951 0.8 0 0
0.253202 0.076612 0.084296 0.8 0 0
0.349070 0.166706 0.080836 0.8 0 0
0.899752 0.166191 0.042168 0.8 0 0
0.267018 0.180148 0.091264 0.8 0 0
0.325246 0.244889 0.082163 0.8 0 0
0.444504 0.194704 0.084578 0.8 0 0
0.116893 0.210851 0.030850 0.8 0 0
0.373034 0.148373 0.077230 0.8 0 0
0.073518 0.116879 0.082163 0.8 0 0
0.911948 0.202451 0.032528 0.8 0 0
0.383058 0.199505 0.085967 0.8 0 0
0.207854 0.122865 0.084968 0.8 0 0
0.272960 0.181471 0.090421 0.8 0 0
0.327104 0.146678 0.084296 0.8 0 0
0.406143 0.197127 0.085394 0.8 0 0
0.208624 0.291562 0.082163 0.8 0 0
0.394750 0.311737 0.082163 0.8 0 0
0.172067 0.173509 0.091612 0.8 0 0
0.202822 0.062489 0.030850 0.8 0 0
0.285029 0.105990 0.082163 0.8 0 0
0.377444 0.183748 0.084296 0.8 0 0
0.317613 0.157284 0.082163 0.8 0 0
0.417128 0.049636 0.081420 0.8 0 0
0.686426 0.177460 0.084578 0.8 0 0
0.185038 0.261674 0.079867 0.8 0 0
0.066611 0.062416 0.053192 0.8 0 0
0.692938 0.202114 0.074848 0.8 0 0
0.261081 0.312683 0.066734 0.8 0 0
0.239924 0.161446 0.078894 0.8 0 0
0.080404 0.116114 0.082163 0.8 0 0
0.677472 0.201816 0.086710 0.8 0 0
0.107843 0.230967 0.030850 0.8 0 0
0.167492 0.164364 0.089570 0.8 0 0
0.343324 0.191315 0.082163 0.8 0 0
0.863388 0.212637 0.061759 0.8 0 0
0.863790 0.202367 0.040005 0.8 0 0
0.171761 0.031993 0.081398 0.8 0 0
0.353921 0.038080 0.052210 0.8 0 0
0.254438 0.201629 0.030850 0.8 0 0
0.383081 0.032606 0.066157 0.8 0 0
0.278807 0.177511 0.030850 0.8 0 0
0.571100 0.171331 0.087505 0.8 0 0
0.302883 0.107413 0.030850 0.8 0 0
0.396082 0.038677 0.082163 0.8 0 0
0.279306 0.232601 0.082163 0.8 0 0
0.103430 0.106616 0.082163 0.8 0 0
0.201615 0.163436 0.084296 0.8 0 0
0.278335 0.176017 0.089329 0.8 0 0
0.289808 0.305705 0.061130 0.8 0 0
0.709299 0.188990 0.087855 0.8 0 0
0.504561 0.167349 0.071327 0.8 0 0
0.390967 0.161120 0.084578 0.8 0 0
0.373898 0.205501 0.078894 0.8 0 0
0.185760 0.157034 0.082889 0.8 0 0
0.097059 0.322759 0.030850 0.8 0 0
0.898098 0.195854 0.039765 0.8 0 0
0.284143 0.172205 0.081877 0.8 0 0
0.343273 0.154185 0.089329 0.8 0 0
0.643623 0.190915 0.089103 0.8 0 0
0.376044 0.157091 0.061454 0.8 0 0
0.116000 0.076419 0.082163 0.8 0 0
0.067649 0.090890 0.082163 0.8 0 0
0.208279 0.191827 0.030850 0.8 0 0
0.662409 0.169528 0.086672 0.8 0 0
0.553030 0.197387 0.086396 0.8 0 0
0.923708 0.202975 0.060487 0.8 0 0
0.452500 0.316656 0.030850 0.8 0 0
0.385936 0.235568 0.082163 0.8 0 0
0.284291 0.069092 0.039362 0.8 0 0
0.164165 0.121059 0.030850 0.8 0 0
0.155668 0.080227 0.084296 0.8 0 0
0.158928 0.329639 0.030850 0.8 0 0
0.127836 0.284202 0.030850 0.8 0 0
0.456721 0.181862 0.089442 0.8 0 0
0.199672 0.036239 0.067191 0.8 0 0
0.298810 0.187349 0.078894 0.8 0 0
0.355299 0.130201 0.084296 0.8 0 0
0.398260 0.182296 0.058658 0.8 0 0
0.157565 0.148891 0.081403 0.8 0 0
0.060246 0.109788 0.082163 0.8 0 0
0.821060 0.204991 0.078612 0.8 0 0
0.031343 0.120427 0.056746 0.8 0 0
0.382669 0.158824 0.085966 0.8 0 0
0.369872 0.215620 0.030850 0.8 0 0
0.929196 0.190622 0.063941 0.8 0 0
0.450647 0.208878 0.079354 0.8 0 0
0.265511 0.296056 0.082163 0.8 0 0
0.305043 0.086817 0.078894 0.8 0 0
0.185510 0.190177 0.082163 0.8 0 0
0.171084 0.026426 0.059557 0.8 0 0
0.259982 0.065246 0.052649 0.8 0 0
0.203300 0.329343 0.039224 0.8 0 0
0.389655 0.067685 0.082163 0.8 0 0
0.355266 0.220340 0.084296 0.8 0 0
0.463623 0.166687 0.084858 0.8 0 0
0.275260 0.100544 0.084296 0.8 0 0
0.368092 0.053886 0.084296 0.8 0 0
0.553950 0.209305 0.086398 0.8 0 0
0.279878 0.140974 0.030850 0.8 0 0
0.298201 0.124209 0.084296 0.8 0 0
0.254123 0.125693 0.082163 0.8 0 0
0.488929 0.340254 0.049510 0.8 0 0
0.097536 0.339584 0.062013 0.8 0 0
0.419508 0.283255 0.082163 0.8 0 0
0.915565 0.200513 0.041777 0.8 0 0
0.342026 0.185746 0.089329 0.8 0 0
0.696475 0.190976 0.084578 0.8 0 0
0.031398 0.120178 0.070964 0.8 0 0
0.167433 0.130589 0.078894 0.8 0 0
0.453950 0.181884 0.067084 0.8 0 0
0.629639 0.202492 0.084578 0.8 0 0
0.818319 0.176204 0.049416 0.8 0 0
0.129535 0.052135 0.078894 0.8 0 0
0.335008 0.197831 0.030850 0.8 0 0
0.167903 0.141548 0.030850 0.8 0 0
0.034640 0.156671 0.077272 0.8 0 0
0.471077 0.190242 0.089099 0.8 0 0
0.121546 0.314932 0.069198 0.8 0 0
0.696792 0.183160 0.084578 0.8 0 0
0.529422 0.161132 0.078932 0.8 0 0
0.867728 0.204498 0.060617 0.8 0 0
0.442324 0.183029 0.066806 0.8 0 0
0.226499 0.168591 0.084296 0.8 0 0
0.111409 0.069042 0.030850 0.8 0 0
0.432398 0.324767 0.082163 0.8 0 0
0.250673 0.271666 0.036407 0.8 0 0
0.299839 0.151272 0.030850 0.8 0 0
0.362978 0.308326 0.034602 0.8 0 0
0.392682 0.204256 0.078894 0.8 0 0
0.195560 0.084965 0.082163 0.8 0 0
0.363476 0.187551 0.082163 0.8 0 0
0.895295 0.202833 0.038491 0.8 0 0
0.279083 0.157027 0.082163 0.8 0 0
0.091826 0.053370 0.035083 0.8 0 0
0.396833 0.302787 0.082163 0.8 0 0
0.217014 0.213468 0.030850 0.8 0 0
0.416571 0.158730 0.047339 0.8 0 0
0.439477 0.283438 0.048231 0.8 0 0
0.214803 0.086185 0.078894 0.8 0 0
0.749058 0.164188 0.084578 0.8 0 0
0.928004 0.193938 0.073180 0.8 0 0
0.289308 0.108525 0.082163 0.8 0 0
0.971159 0.156607 0.042168 0.8 0 0
0.501131 0.171872 0.087327 0.8 0 0
0.599728 0.175071 0.069652 0.8 0 0
0.901769 0.164142 0.061760 0.8 0 0
0.757260 0.186191 0.070704 0.8 0 0
0.172950 0.144787 0.083897 0.8 0 0
0.366596 0.057486 0.082163 0.8 0 0
0.160346 0.153736 0.030850 0.8 0 0
0.180506 0.118133 0.030850 0.8 0 0
0.173259 0.141298 0.082163 0.8 0 0
0.150792 0.167292 0.089923 0.8 0 0
0.318382 0.149816 0.030850 0.8 0 0
0.274471 0.199266 0.078894 0.8 0 0
0.092725 0.158009 0.030850 0.8 0 0
0.028641 0.201312 0.039174 0.8 0 0
0.123468 0.264454 0.078594 0.8 0 0
0.209552 0.303023 0.081267 0.8 0 0
0.422327 0.205940 0.057210 0.8 0 0
0.498068 0.208985 0.086257 0.8 0 0
0.174485 0.027091 0.059966 0.8 0 0
0.420026 0.062227 0.055751 0.8 0 0
0.938544 0.194076 0.040005 0.8 0 0
0.412484 0.315492 0.082163 0.8 0 0
0.253828 0.226382 0.084296 0.8 0 0
0.556919 0.179403 0.068612 0.8 0 0
0.338033 0.140441 0.078894 0.8 0 0
0.682273 0.205830 0.088425 0.8 0 0
0.175203 0.294215 0.079004 0.8 0 0
0.314269 0.230968 0.084296 0.8 0 0
0.181762 0.085589 0.098365 0.8 0 0
0.271777 0.137456 0.030850 0.8 0 0
0.143875 0.201388 0.087378 0.8 0 0
0.154469 0.218893 0.081403 0.8 0 0
0.154246 0.026001 0.064155 0.8 0 0
0.113018 0.206995 0.030850 0.8 0 0
0.726899 0.162660 0.086558 0.8 0 0
0.124485 0.056363 0.030850 0.8 0 0
0.863729 0.188401 0.075507 0.8 0 0
0.363819 0.165184 0.080278 0.8 0 0
0.559225 0.194451 0.069375 0.8 0 0
0.384582 0.159454 0.057210 0.8 0 0
0.709356 0.163389 0.084578 0.8 0 0
0.419767 0.338356 0.038727 0.8 0 0
0.376036 0.069210 0.078894 0.8 0 0
0.224821 0.244553 0.030850 0.8 0 0
0.791062 0.181567 0.086996 0.8 0 0
0.081554 0.056358 0.037888 0.8 0 0
0.350983 0.220165 0.030850 0.8 0 0
0.900954 0.203722 0.040186 0.8 0 0
0.362671 0.161393 0.084296 0.8 0 0
0.488779 0.209403 0.087296 0.8 0 0
0.147874 0.312094 0.030850 0.8 0 0
0.874862 0.206714 0.037127 0.8 0 0
0.292587 0.102127 0.078894 0.8 0 0
0.045124 0.306862 0.042829 0.8 0 0
0.345196 0.060582 0.082163 0.8 0 0
0.394627 0.216347 0.084296 0.8 0 0
0.575949 0.193303 0.084578 0.8 0 0
0.374458 0.204250 0.084296 0.8 0 0
0.141543 0.222505 0.030850 0.8 0 0
0.047143 0.083999 0.054075 0.8 0 0
0.340297 0.105356 0.030850 0.8 0 0
0.355549 0.068464 0.078894 0.8 0 0
0.399409 0.159724 0.087070 0.8 0 0
0.174079 0.075949 0.084296 0.8 0 0
0.274781 0.274534 0.036843 0.8 0 0
0.116258 0.073705 0.082744 0.8 0 0
0.539169 0.206514 0.076457 0.8 0 0
0.712781 0.189982 0.070638 0.8 0 0
0.196745 0.266431 0.084296 0.8 0 0
0.466449 0.304015 0.030850 0.8 0 0
0.191408 0.093142 0.082163 0.8 0 0
0.165853 0.237845 0.030850 0.8 0 0
0.339095 0.226907 0.030850 0.8 0 0
0.355514 0.059312 0.082163 0.8 0 0
0.093633 0.314454 0.030850 0.8 0 0
0.152346 0.339435 0.068208 0.8 0 0
0.118650 0.143969 0.030850 0.8 0 0
0.100897 0.040813 0.061795 0.8 0 0
0.227458 0.075554 0.084296 0.8 0 0
0.221412 0.047563 0.045345 0.8 0 0
0.146474 0.159635 0.093265 0.8 0 0
0.851159 0.224213 0.029807 0.8 0 0
0.235779 0.215710 0.078894 0.8 0 0
0.298031 0.114963 0.084296 0.8 0 0
0.303771 0.306798 0.055690 0.8 0 0
0.386306 0.168335 0.087036 0.8 0 0
0.539074 0.173608 0.087423 0.8 0 0
0.042729 0.095502 0.073614 0.8 0 0
0.431082 0.057653 0.069072 0.8 0 0
0.412231 0.326058 0.082163 0.8 0 0
0.335948 0.184694 0.080836 0.8 0 0
0.259315 0.195398 0.030850 0.8 0 0
0.182984 0.073009 0.030850 0.8 0 0
0.238954 0.250912 0.078894 0.8 0 0
0.240873 0.130857 0.030850 0.8 0 0
0.291800 0.200098 0.090354 0.8 0 0
0.112745 0.328827 0.065681 0.8 0 0
0.134172 0.194010 0.091439 0.8 0 0
0.433347 0.189683 0.089572 0.8 0 0
0.847851 0.211984 0.041777 0.8 0 0
0.300435 0.114916 0.078894 0.8 0 0
0.887564 0.202370 0.041777 0.8 0 0
0.170556 0.184926 0.082163 0.8 0 0
0.460503 0.207668 0.086162 0.8 0 0
0.199337 0.066300 0.078894 0.8 0 0
0.422350 0.214949 0.030850 0.8 0 0
0.336854 0.224991 0.030850 0.8 0 0
0.198903 0.176095 0.082163 0.8 0 0
0.378821 0.191410 0.075678 0.8 0 0
0.946562 0.184008 0.061760 0.8 0 0
0.176456 0.128059 0.082163 0.8 0 0
0.196694 0.218835 0.082163 0.8 0 0
0.350399 0.209754 0.089329 0.8 0 0
0.365057 0.038458 0.036796 0.8 0 0
0.789662 0.165278 0.088286 0.8 0 0
0.154698 0.209237 0.082163 0.8 0 0
0.951726 0.179690 0.039884 0.8 0 0
0.110292 0.140547 0.082163 0.8 0 0
0.278542 0.242124 0.030850 0.8 0 0
0.257673 0.161455 0.078894 0.8 0 0
0.119332 0.219936 0.030850 0.8 0 0
0.215907 0.207708 0.082163 0.8 0 0
0.603129 0.163132 0.084578 0.8 0 0
0.170370 0.037431 0.030850 0.8 0 0
0.576276 0.169542 0.071271 0.8 0 0
0.241915 0.268121 0.035685 0.8 0 0
0.331360 0.227695 0.084296 0.8 0 0
0.382568 0.165075 0.087027 0.8 0 0
0.167622 0.167735 0.084155 0.8 0 0
0.247454 0.239113 0.030850 0.8 0 0
0.303721 0.187681 0.084296 0.8 0 0
0.485620 0.187947 0.067729 0.8 0 0
0.054288 0.209543 0.030850 0.8 0 0
0.170668 0.153482 0.084155 0.8 0 0
0.138172 0.210827 0.082163 0.8 0 0
0.181015 0.084325 0.084296 0.8 0 0
0.502653 0.169609 0.086269 0.8 0 0
0.920722 0.167132 0.050061 0.8 0 0
0.134369 0.352592 0.041149 0.8 0 0
0.338504 0.218832 0.082163 0.8 0 0
0.642660 0.197539 0.089211 0.8 0 0
0.195059 0.184655 0.082163 0.8 0 0
0.646560 0.181413 0.069432 0.8 0 0
0.186858 0.246526 0.082163 0.8 0 0
0.065806 0.138503 0.030850 0.8 0 0
0.142371 0.100699 0.082163 0.8 0 0
0.093999 0.238570 0.030850 0.8 0 0
0.498144 0.314654 0.070244 0.8 0 0
0.287794 0.154888 0.030850 0.8 0 0
0.149061 0.303408 0.074390 0.8 0 0
0.060430 0.267657 0.030850 0.8 0 0
0.958668 0.158798 0.061760 0.8 0 0
0.677412 0.194170 0.070727 0.8 0 0
0.721747 0.178216 0.084578 0.8 0 0
0.179799 0.150858 0.030850 0.8 0 0
0.210213 0.205571 0.082163 0.8 0 0
0.301661 0.289852 0.082163 0.8 0 0
0.235987 0.153585 0.078894 0.8 0 0
0.033973 0.215364 0.076939 0.8 0 0
0.288058 0.155306 0.084296 0.8 0 0
0.873813 0.224421 0.035949 0.8 0 0
0.947481 0.189889 0.066911 0.8 0 0
0.713724 0.168410 0.084578 0.8 0 0
0.630510 0.188545 0.087655 0.8 0 0
0.691775 0.190473 0.089601 0.8 0 0
0.789129 0.198578 0.086991 0.8 0 0
0.026102 0.225895 0.058517 0.8 0 0
0.227632 0.073340 0.082163 0.8 0 0
0.750417 0.162853 0.085557 0.8 0 0
0.399811 0.212269 0.062433 0.8 0 0
0.128029 0.318883 0.069209 0.8 0 0
0.353396 0.146071 0.082163 0.8 0 0
0.309700 0.092743 0.030850 0.8 0 0
0.205833 0.332571 0.040728 0.8 0 0
0.243461 0.177485 0.082163 0.8 0 0
0.200858 0.332776 0.039095 0.8 0 0
0.111164 0.198063 0.082163 0.8 0 0
0.037305 0.205435 0.079183 0.8 0 0
0.346977 0.266295 0.030850 0.8 0 0
0.418093 0.257865 0.067079 0.8 0 0
0.153863 0.065955 0.082163 0.8 0 0
0.206049 0.133285 0.078894 0.8 0 0
0.890939 0.203661 0.028829 0.8 0 0
0.118314 0.237416 0.030850 0.8 0 0
0.634030 0.162944 0.087664 0.8 0 0
0.260781 0.245064 0.082715 0.8 0 0
0.414448 0.166190 0.087108 0.8 0 0
0.552236 0.173615 0.087457 0.8 0 0
0.923040 0.185050 0.039862 0.8 0 0
0.114615 0.339524 0.033671 0.8 0 0
0.372055 0.214408 0.030850 0.8 0 0
0.234828 0.212096 0.090270 0.8 0 0
0.448988 0.330763 0.030850 0.8 0 0
0.143063 0.077668 0.086301 0.8 0 0
0.550279 0.168283 0.071519 0.8 0 0
0.350770 0.279295 0.030850 0.8 0 0
0.212952 0.125712 0.098355 0.8 0 0
0.103574 0.342488 0.062164 0.8 0 0
0.129793 0.034170 0.075952 0.8 0 0
0.145593 0.044477 0.030850 0.8 0 0
0.836954 0.219054 0.047824 0.8 0 0
0.376963 0.288378 0.030850 0.8 0 0
0.683680 0.205423 0.084578 0.8 0 0
0.353695 0.132067 0.084296 0.8 0 0
0.373271 0.160602 0.090421 0.8 0 0
0.177389 0.253870 0.079291 0.8 0 0
0.331823 0.222520 0.030850 0.8 0 0
0.230643 0.103795 0.030850 0.8 0 0
0.112744 0.298777 0.030850 0.8 0 0
0.785850 0.192248 0.088049 0.8 0 0
0.279385 0.164275 0.084296 0.8 0 0
0.388725 0.181177 0.030850 0.8 0 0
0.071596 0.318530 0.033543 0.8 0 0
0.141320 0.298444 0.030850 0.8 0 0
0.432035 0.176659 0.087152 0.8 0 0
0.246934 0.063221 0.077756 0.8 0 0
0.703925 0.194533 0.071132 0.8 0 0
0.136801 0.199296 0.081404 0.8 0 0
0.150728 0.193173 0.087929 0.8 0 0
0.421657 0.159489 0.057210 0.8 0 0
0.712468 0.180020 0.087863 0.8 0 0
0.194919 0.195511 0.084296 0.8 0 0
0.173605 0.026919 0.043233 0.8 0 0
0.482720 0.191695 0.068146 0.8 0 0
0.489339 0.309241 0.048793 0.8 0 0
0.877177 0.219575 0.040029 0.8 0 0
0.245544 0.288667 0.040282 0.8 0 0
0.127601 0.081957 0.078894 0.8 0 0
0.426526 0.334103 0.034385 0.8 0 0
0.025507 0.208102 0.041174 0.8 0 0
0.452778 0.195984 0.084578 0.8 0 0
0.353518 0.159798 0.030850 0.8 0 0
0.275713 0.256185 0.032701 0.8 0 0
0.423162 0.191490 0.030850 0.8 0 0
0.835605 0.157634 0.062461 0.8 0 0
0.518746 0.168865 0.084578 0.8 0 0
0.282462 0.213220 0.090504 0.8 0 0
0.288183 0.193011 0.030850 0.8 0 0
0.379174 0.082777 0.080757 0.8 0 0
0.414877 0.247342 0.062366 0.8 0 0
0.589863 0.182546 0.086489 0.8 0 0
0.683641 0.165270 0.086725 0.8 0 0
0.816474 0.155557 0.055077 0.8 0 0
0.233657 0.155679 0.082163 0.8 0 0
0.186031 0.168402 0.030850 0.8 0 0
0.326721 0.161138 0.084296 0.8 0 0
0.164473 0.040782 0.084176 0.8 0 0
0.169168 0.206299 0.091551 0.8 0 0
0.154322 0.349190 0.066656 0.8 0 0
0.672508 0.202915 0.087762 0.8 0 0
0.204641 0.099937 0.082163 0.8 0 0
0.328596 0.207510 0.078894 0.8 0 0
0.193860 0.194797 0.082163 0.8 0 0
0.259393 0.193800 0.082163 0.8 0 0
0.235641 0.200501 0.081309 0.8 0 0
0.131459 0.295590 0.030850 0.8 0 0
0.363753 0.099574 0.082163 0.8 0 0
0.346889 0.223788 0.030850 0.8 0 0
0.148519 0.200082 0.030850 0.8 0 0
0.275256 0.194649 0.088328 0.8 0 0
0.238999 0.097416 0.030850 0.8 0 0
0.166913 0.081206 0.084296 0.8 0 0
0.298799 0.233820 0.082163 0.8 0 0
0.416285 0.199702 0.084578 0.8 0 0
0.217536 0.151095 0.081350 0.8 0 0
0.948807 0.188072 0.042168 0.8 0 0
0.500706 0.191667 0.087326 0.8 0 0
0.391897 0.176953 0.066950 0.8 0 0
0.089719 0.170728 0.030850 0.8 0 0
0.411642 0.164555 0.057210 0.8 0 0
0.839550 0.159017 0.061759 0.8 0 0
0.170246 0.192033 0.081403 0.8 0 0
0.130643 0.165409 0.082163 0.8 0 0
0.241690 0.118254 0.082163 0.8 0 0
0.367418 0.203958 0.070912 0.8 0 0
0.428613 0.057976 0.073583 0.8 0 0
0.676721 0.190027 0.088183 0.8 0 0
0.303980 0.126071 0.082163 0.8 0 0
0.460071 0.332506 0.082163 0.8 0 0
0.159322 0.168589 0.084543 0.8 0 0
0.250811 0.134378 0.084296 0.8 0 0
0.637954 0.186224 0.087674 0.8 0 0
0.217972 0.229084 0.078894 0.8 0 0
0.420634 0.204442 0.057210 0.8 0 0
0.223671 0.127854 0.084296 0.8 0 0
0.113373 0.094470 0.082163 0.8 0 0
0.060778 0.311834 0.035369 0.8 0 0
0.294685 0.161512 0.030850 0.8 0 0
0.383510 0.170155 0.085394 0.8 0 0
0.223156 0.151868 0.089042 0.8 0 0
0.157492 0.215656 0.088852 0.8 0 0
0.315773 0.118090 0.082163 0.8 0 0
0.115057 0.041812 0.078367 0.8 0 0
0.380559 0.198705 0.057210 0.8 0 0
0.863242 0.187565 0.061759 0.8 0 0
0.348583 0.199794 0.080836 0.8 0 0
0.251258 0.149364 0.030850 0.8 0 0
0.250101 0.113736 0.030850 0.8 0 0
0.420411 0.263327 0.074482 0.8 0 0
0.772544 0.165436 0.084578 0.8 0 0
0.047294 0.281382 0.066943 0.8 0 0
0.143907 0.165950 0.082163 0.8 0 0
0.211150 0.168193 0.082163 0.8 0 0
0.221402 0.108086 0.084296 0.8 0 0
0.146956 0.305352 0.030850 0.8 0 0
0.256424 0.132536 0.084296 0.8 0 0
0.374037 0.041957 0.082163 0.8 0 0
0.367500 0.063997 0.084296 0.8 0 0
0.146312 0.047656 0.030850 0.8 0 0
0.408477 0.055017 0.082163 0.8 0 0
0.371770 0.146145 0.030850 0.8 0 0
0.339214 0.150184 0.082163 0.8 0 0
0.210711 0.078430 0.030850 0.8 0 0
0.156299 0.335109 0.069439 0.8 0 0
0.211217 0.220363 0.078894 0.8 0 0
0.146909 0.135253 0.030850 0.8 0 0
0.243908 0.151924 0.030850 0.8 0 0
0.460602 0.167731 0.086163 0.8 0 0
0.248155 0.211246 0.030850 0.8 0 0
0.121660 0.063256 0.078894 0.8 0 0
0.288912 0.189779 0.078894 0.8 0 0
0.032559 0.114936 0.066334 0.8 0 0
0.239267 0.136644 0.084296 0.8 0 0
0.344307 0.162582 0.089329 0.8 0 0
0.601151 0.162201 0.086517 0.8 0 0
0.124988 0.037553 0.077826 0.8 0 0
0.418825 0.199539 0.087119 0.8 0 0
0.174679 0.198666 0.091838 0.8 0 0
0.334230 0.182777 0.082163 0.8 0 0
0.381635 0.292574 0.082163 0.8 0 0
0.275489 0.270617 0.035954 0.8 0 0
0.337346 0.200320 0.080836 0.8 0 0
0.088145 0.346892 0.059225 0.8 0 0
0.338543 0.162666 0.084296 0.8 0 0
0.215165 0.198841 0.030850 0.8 0 0
0.283515 0.096161 0.078894 0.8 0 0
0.248385 0.109395 0.084296 0.8 0 0
0.226465 0.109908 0.078894 0.8 0 0
0.403033 0.200461 0.090775 0.8 0 0
0.175156 0.228228 0.030850 0.8 0 0
0.182119 0.157984 0.084155 0.8 0 0
0.920382 0.213815 0.033206 0.8 0 0
0.910032 0.169221 0.061759 0.8 0 0
0.418082 0.200603 0.086055 0.8 0 0
0.325239 0.049662 0.051461 0.8 0 0
0.472099 0.169538 0.087254 0.8 0 0
0.945193 0.186235 0.070394 0.8 0 0
0.178151 0.084136 0.084949 0.8 0 0
0.110934 0.066282 0.030850 0.8 0 0
0.310404 0.273717 0.082163 0.8 0 0
0.199932 0.077129 0.030850 0.8 0 0
0.476385 0.340957 0.072343 0.8 0 0
0.206889 0.330704 0.040706 0.8 0 0
0.377347 0.161495 0.063459 0.8 0 0
0.511958 0.202878 0.072360 0.8 0 0
0.412176 0.322108 0.082163 0.8 0 0
0.191488 0.064680 0.030850 0.8 0 0
0.253122 0.238594 0.078894 0.8 0 0
0.045428 0.086582 0.060933 0.8 0 0
0.120673 0.071046 0.030850 0.8 0 0
0.238085 0.093454 0.030850 0.8 0 0
0.636000 0.179971 0.086605 0.8 0 0
0.232374 0.329836 0.070891 0.8 0 0
0.168445 0.316032 0.074275 0.8 0 0
0.224876 0.202961 0.078894 0.8 0 0
0.066678 0.187479 0.082163 0.8 0 0
0.391749 0.077429 0.043667 0.8 0 0
0.373382 0.166147 0.070053 0.8 0 0
0.887243 0.209733 0.053956 0.8 0 0
0.485927 0.330707 0.030850 0.8 0 0
0.718290 0.189793 0.086813 0.8 0 0
0.205647 0.341137 0.056195 0.8 0 0
0.666298 0.165997 0.086681 0.8 0 0
0.534062 0.189742 0.087411 0.8 0 0
0.396487 0.231890 0.082163 0.8 0 0
0.363401 0.221801 0.078894 0.8 0 0
0.415078 0.171810 0.085394 0.8 0 0
0.218484 0.337070 0.049384 0.8 0 0
0.373901 0.073955 0.030850 0.8 0 0
0.237225 0.317166 0.079801 0.8 0 0
0.184716 0.082089 0.092644 0.8 0 0
0.620749 0.180687 0.086567 0.8 0 0
0.419101 0.272787 0.030850 0.8 0 0
0.173473 0.124384 0.078894 0.8 0 0
0.139911 0.093387 0.030850 0.8 0 0
0.074350 0.216920 0.081711 0.8 0 0
0.200236 0.122491 0.084951 0.8 0 0
0.256793 0.078416 0.082163 0.8 0 0
0.845506 0.165124 0.061759 0.8 0 0
0.377347 0.175188 0.075140 0.8 0 0
0.055956 0.304095 0.035700 0.8 0 0
0.340195 0.117157 0.082163 0.8 0 0
0.238134 0.259542 0.082163 0.8 0 0
0.427612 0.203653 0.039842 0.8 0 0
0.154877 0.238005 0.082163 0.8 0 0
0.491528 0.180602 0.067688 0.8 0 0
0.935850 0.205979 0.037277 0.8 0 0
0.381041 0.211317 0.058658 0.8 0 0
0.431082 0.170153 0.085394 0.8 0 0
0.604877 0.199220 0.088796 0.8 0 0
0.898899 0.199549 0.042168 0.8 0 0
0.357622 0.234299 0.030850 0.8 0 0
0.365745 0.217195 0.084296 0.8 0 0
0.128317 0.171175 0.082163 0.8 0 0
0.217362 0.106584 0.084296 0.8 0 0
0.729508 0.179977 0.070594 0.8 0 0
0.304104 0.227968 0.078894 0.8 0 0
0.419871 0.032939 0.066154 0.8 0 0
0.683599 0.207469 0.082049 0.8 0 0
0.406926 0.200566 0.089571 0.8 0 0
0.164031 0.108101 0.084296 0.8 0 0
0.179711 0.097892 0.090448 0.8 0 0
0.214540 0.173563 0.086609 0.8 0 0
0.337057 0.141226 0.082163 0.8 0 0
0.327978 0.183577 0.078894 0.8 0 0
0.082398 0.091918 0.082163 0.8 0 0
0.242752 0.256778 0.078990 0.8 0 0
0.399468 0.036540 0.033084 0.8 0 0
0.229529 0.199476 0.084296 0.8 0 0
0.614604 0.191740 0.086551 0.8 0 0
0.343553 0.041366 0.041302 0.8 0 0
0.346498 0.165053 0.030850 0.8 0 0
0.068462 0.307558 0.064565 0.8 0 0
0.747486 0.165856 0.076774 0.8 0 0
0.215525 0.224852 0.084296 0.8 0 0
0.199913 0.180422 0.082163 0.8 0 0
0.510027 0.187265 0.086287 0.8 0 0
0.575050 0.182020 0.084578 0.8 0 0
0.440342 0.201845 0.058658 0.8 0 0
0.091565 0.102509 0.082163 0.8 0 0
0.191325 0.266223 0.030850 0.8 0 0
0.397019 0.034934 0.036126 0.8 0 0
0.551418 0.169179 0.086392 0.8 0 0
0.340735 0.272692 0.031072 0.8 0 0
0.210881 0.095595 0.084296 0.8 0 0
0.092587 0.296057 0.030850 0.8 0 0
0.483507 0.188331 0.087283 0.8 0 0
0.125043 0.302263 0.030850 0.8 0 0
0.098718 0.125193 0.030850 0.8 0 0
0.344139 0.162619 0.030850 0.8 0 0
0.143875 0.201262 0.087637 0.8 0 0
0.346981 0.195788 0.082163 0.8 0 0
0.302089 0.201042 0.091287 0.8 0 0
0.784490 0.171669 0.086980 0.8 0 0
0.284486 0.294470 0.041250 0.8 0 0
0.453897 0.176325 0.067764 0.8 0 0
0.073806 0.261176 0.073602 0.8 0 0
0.940499 0.194578 0.038904 0.8 0 0
0.039791 0.296726 0.057177 0.8 0 0
0.230201 0.073511 0.082163 0.8 0 0
0.914907 0.215297 0.041766 0.8 0 0
0.339067 0.132529 0.082163 0.8 0 0
0.211920 0.156962 0.082163 0.8 0 0
0.150912 0.111641 0.030850 0.8 0 0
0.192820 0.168389 0.084296 0.8 0 0
0.415904 0.048995 0.082163 0.8 0 0
0.195457 0.151400 0.078894 0.8 0 0
0.277815 0.152084 0.082173 0.8 0 0
0.168705 0.184250 0.088425 0.8 0 0
0.031965 0.270925 0.065463 0.8 0 0
0.596593 0.201126 0.084578 0.8 0 0
0.157567 0.215516 0.084155 0.8 0 0
0.474079 0.163772 0.084578 0.8 0 0
0.448484 0.196471 0.058658 0.8 0 0
0.090846 0.200632 0.082163 0.8 0 0
0.162236 0.051147 0.084296 0.8 0 0
0.207365 0.209541 0.078894 0.8 0 0
0.301954 0.201936 0.030850 0.8 0 0
0.189405 0.084599 0.078894 0.8 0 0
0.029238 0.239171 0.072589 0.8 0 0
0.371846 0.189202 0.078894 0.8 0 0
0.828837 0.217809 0.043671 0.8 0 0
0.614403 0.197667 0.071359 0.8 0 0
0.418481 0.164835 0.086056 0.8 0 0
0.619433 0.199375 0.072206 0.8 0 0
0.343479 0.176206 0.078894 0.8 0 0
0.291980 0.211330 0.091381 0.8 0 0
0.393094 0.032304 0.051046 0.8 0 0
0.269577 0.172101 0.082163 0.8 0 0
0.207951 0.040544 0.060755 0.8 0 0
0.541324 0.196414 0.069807 0.8 0 0
0.352978 0.085812 0.030850 0.8 0 0
0.120746 0.224981 0.030850 0.8 0 0
0.127856 0.305142 0.030850 0.8 0 0
0.243298 0.141605 0.078894 0.8 0 0
0.684806 0.168355 0.087793 0.8 0 0
0.374076 0.163412 0.078894 0.8 0 0
0.419575 0.168556 0.069529 0.8 0 0
0.350759 0.234381 0.030850 0.8 0 0
0.130322 0.341225 0.033384 0.8 0 0
0.840519 0.167048 0.061759 0.8 0 0
0.400068 0.194765 0.030850 0.8 0 0
0.292395 0.079502 0.030850 0.8 0 0
0.460007 0.189863 0.085394 0.8 0 0
0.169146 0.162765 0.086111 0.8 0 0
0.245734 0.256426 0.033017 0.8 0 0
0.251851 0.317410 0.058204 0.8 0 0
0.742888 0.203536 0.077187 0.8 0 0
0.268111 0.249521 0.082163 0.8 0 0
0.428533 0.168115 0.085394 0.8 0 0
0.131536 0.240472 0.030850 0.8 0 0
0.249466 0.170657 0.082163 0.8 0 0
0.174778 0.135399 0.084296 0.8 0 0
0.591923 0.198725 0.071540 0.8 0 0
0.097420 0.264341 0.075684 0.8 0 0
0.963313 0.165635 0.061760 0.8 0 0
0.919696 0.188978 0.067782 0.8 0 0
0.025385 0.181447 0.043857 0.8 0 0
0.267112 0.142462 0.078894 0.8 0 0
0.052628 0.314067 0.039477 0.8 0 0
0.968290 0.183932 0.052159 0.8 0 0
0.257666 0.188887 0.082163 0.8 0 0
0.791988 0.168676 0.088064 0.8 0 0
0.597292 0.189594 0.069237 0.8 0 0
0.669777 0.163626 0.086690 0.8 0 0
0.161245 0.148289 0.083058 0.8 0 0
0.145919 0.162107 0.082163 0.8 0 0
0.116813 0.051737 0.082163 0.8 0 0
0.198748 0.237599 0.078894 0.8 0 0
0.389010 0.078788 0.040699 0.8 0 0
0.342177 0.139842 0.082163 0.8 0 0
0.141687 0.202964 0.081403 0.8 0 0
0.228757 0.179424 0.030850 0.8 0 0
0.865123 0.198468 0.034919 0.8 0 0
0.080754 0.067847 0.081206 0.8 0 0
0.639132 0.169176 0.072343 0.8 0 0
0.874137 0.208802 0.031193 0.8 0 0
0.357895 0.129236 0.078894 0.8 0 0
0.290829 0.199256 0.089070 0.8 0 0
0.961064 0.209040 0.036364 0.8 0 0
0.616060 0.208443 0.082150 0.8 0 0
0.523401 0.178712 0.087384 0.8 0 0
0.224698 0.169777 0.030850 0.8 0 0
0.173223 0.175954 0.084155 0.8 0 0
0.449536 0.206828 0.075135 0.8 0 0
0.275259 0.212940 0.086192 0.8 0 0
0.268102 0.240486 0.084296 0.8 0 0
0.379645 0.182717 0.085394 0.8 0 0
0.141334 0.030869 0.075811 0.8 0 0
0.224116 0.263779 0.032978 0.8 0 0
0.568533 0.207577 0.078833 0.8 0 0
0.443057 0.209000 0.078011 0.8 0 0
0.488135 0.193970 0.068483 0.8 0 0
0.160348 0.065440 0.084296 0.8 0 0
0.359241 0.162151 0.084296 0.8 0 0
0.111877 0.170978 0.082163 0.8 0 0
0.061884 0.241250 0.075884 0.8 0 0
0.219723 0.169275 0.088518 0.8 0 0
0.222896 0.279733 0.082163 0.8 0 0
0.378871 0.170239 0.058713 0.8 0 0
0.288277 0.178967 0.080836 0.8 0 0
0.380971 0.160671 0.084578 0.8 0 0
0.400414 0.072415 0.049091 0.8 0 0
0.291114 0.222807 0.030850 0.8 0 0
0.347774 0.187953 0.078894 0.8 0 0
0.427905 0.177539 0.067307 0.8 0 0
0.787583 0.206608 0.084195 0.8 0 0
0.151423 0.047532 0.082163 0.8 0 0
0.535741 0.194886 0.086352 0.8 0 0
0.457175 0.343288 0.063780 0.8 0 0
0.394089 0.060302 0.084296 0.8 0 0
0.386148 0.201466 0.030850 0.8 0 0
0.347992 0.185696 0.078894 0.8 0 0
0.255277 0.152936 0.030850 0.8 0 0
0.430321 0.186490 0.085394 0.8 0 0
0.139668 0.037447 0.030882 0.8 0 0
0.300333 0.135406 0.078894 0.8 0 0
0.935524 0.176516 0.042168 0.8 0 0
0.167216 0.333444 0.070970 0.8 0 0
0.285212 0.187530 0.078894 0.8 0 0
0.366378 0.163791 0.030850 0.8 0 0
0.162379 0.302595 0.076036 0.8 0 0
0.337483 0.249533 0.082163 0.8 0 0
0.198418 0.182682 0.084296 0.8 0 0
0.274499 0.144930 0.030850 0.8 0 0
0.440065 0.201127 0.084578 0.8 0 0
0.349644 0.084819 0.078894 0.8 0 0
0.363833 0.165602 0.084138 0.8 0 0
0.909080 0.200216 0.033938 0.8 0 0
0.125031 0.083037 0.083338 0.8 0 0
0.406469 0.206919 0.084296 0.8 0 0
0.132176 0.140892 0.084472 0.8 0 0
0.609351 0.162536 0.084578 0.8 0 0
0.397293 0.217065 0.078894 0.8 0 0
0.836322 0.207014 0.041777 0.8 0 0
0.597254 0.161422 0.086507 0.8 0 0
0.463286 0.168458 0.081575 0.8 0 0
0.359380 0.099261 0.030850 0.8 0 0
0.233623 0.221750 0.078894 0.8 0 0
0.439925 0.283704 0.043992 0.8 0 0
0.054054 0.154430 0.030850 0.8 0 0
0.967525 0.184997 0.049187 0.8 0 0
0.162720 0.201016 0.084155 0.8 0 0
0.427334 0.205891 0.030850 0.8 0 0
0.391146 0.212269 0.073087 0.8 0 0
0.221243 0.157183 0.089329 0.8 0 0
0.169130 0.087466 0.084296 0.8 0 0
0.920948 0.182285 0.042168 0.8 0 0
0.590641 0.207115 0.078546 0.8 0 0
0.277043 0.289110 0.040107 0.8 0 0
0.732285 0.166131 0.084578 0.8 0 0
0.488419 0.189475 0.089795 0.8 0 0
0.470740 0.300875 0.064812 0.8 0 0
0.072930 0.269783 0.071938 0.8 0 0
0.813159 0.180992 0.055743 0.8 0 0
0.103681 0.348808 0.044306 0.8 0 0
0.585835 0.209335 0.084542 0.8 0 0
0.321946 0.230097 0.082163 0.8 0 0
0.159413 0.211255 0.086746 0.8 0 0
0.716090 0.184434 0.086807 0.8 0 0
0.200769 0.036795 0.070080 0.8 0 0
0.518603 0.172495 0.089840 0.8 0 0
0.366850 0.059056 0.082163 0.8 0 0
0.333954 0.198891 0.082163 0.8 0 0
0.392280 0.158108 0.034920 0.8 0 0
0.241533 0.150011 0.084296 0.8 0 0
0.084119 0.185870 0.082163 0.8 0 0
0.291489 0.305820 0.059694 0.8 0 0
0.215397 0.334399 0.044315 0.8 0 0
0.129081 0.117144 0.030850 0.8 0 0
0.556932 0.168276 0.087469 0.8 0 0
0.412693 0.243868 0.033020 0.8 0 0
0.096695 0.042818 0.060440 0.8 0 0
0.592987 0.198340 0.084578 0.8 0 0
0.873996 0.190107 0.073875 0.8 0 0
0.604442 0.181624 0.088462 0.8 0 0
0.145664 0.084666 0.082163 0.8 0 0
0.462370 0.299475 0.030850 0.8 0 0
0.483528 0.306628 0.065069 0.8 0 0
0.369326 0.210460 0.085932 0.8 0 0
0.372532 0.147342 0.064412 0.8 0 0
0.627025 0.161944 0.086723 0.8 0 0
0.344873 0.156665 0.082163 0.8 0 0
0.168281 0.178720 0.030850 0.8 0 0
0.568001 0.198231 0.086433 0.8 0 0
0.535399 0.209632 0.082772 0.8 0 0
0.954639 0.196483 0.042168 0.8 0 0
0.260119 0.268557 0.035624 0.8 0 0
0.539707 0.166138 0.087425 0.8 0 0
0.333649 0.218097 0.084296 0.8 0 0
0.426094 0.213928 0.063509 0.8 0 0
0.367132 0.151149 0.082922 0.8 0 0
0.399568 0.185287 0.066400 0.8 0 0
0.163558 0.221119 0.089838 0.8 0 0
0.180226 0.347628 0.052605 0.8 0 0
0.227049 0.158998 0.091279 0.8 0 0
0.257361 0.280058 0.082163 0.8 0 0
0.867001 0.174746 0.061759 0.8 0 0
0.831828 0.192856 0.080132 0.8 0 0
0.192419 0.060616 0.078894 0.8 0 0
0.283843 0.137830 0.030850 0.8 0 0
0.231668 0.156656 0.082163 0.8 0 0
0.543006 0.207570 0.089915 0.8 0 0
0.439143 0.186917 0.087170 0.8 0 0
0.419293 0.336644 0.037494 0.8 0 0
0.096757 0.255286 0.030850 0.8 0 0
0.164048 0.121727 0.084296 0.8 0 0
0.259799 0.089883 0.078894 0.8 0 0
0.420450 0.230743 0.065572 0.8 0 0
0.122467 0.158241 0.082163 0.8 0 0
0.134635 0.210615 0.091640 0.8 0 0
0.244816 0.110455 0.030850 0.8 0 0
0.212966 0.254964 0.078894 0.8 0 0
0.173225 0.302793 0.077221 0.8 0 0
0.163410 0.136033 0.080156 0.8 0 0
0.426967 0.172589 0.067902 0.8 0 0
0.074422 0.190623 0.082163 0.8 0 0
0.621856 0.161876 0.085599 0.8 0 0
0.622264 0.161358 0.086304 0.8 0 0
0.326151 0.141943 0.082163 0.8 0 0
0.117822 0.093670 0.030850 0.8 0 0
0.414157 0.202168 0.086045 0.8 0 0
0.091711 0.337042 0.061819 0.8 0 0
0.359817 0.053550 0.084296 0.8 0 0
0.095040 0.347742 0.047238 0.8 0 0
0.196418 0.343806 0.044882 0.8 0 0
0.128921 0.230138 0.030850 0.8 0 0
0.180438 0.089071 0.082163 0.8 0 0
0.429120 0.197783 0.031973 0.8 0 0
0.313143 0.223579 0.084296 0.8 0 0
0.293588 0.067438 0.073208 0.8 0 0
0.505878 0.161831 0.084578 0.8 0 0
0.555480 0.171723 0.088761 0.8 0 0
0.247927 0.303148 0.082163 0.8 0 0
0.496730 0.210599 0.085520 0.8 0 0
0.177106 0.204218 0.084543 0.8 0 0
0.247588 0.087159 0.078894 0.8 0 0
0.315268 0.104765 0.030850 0.8 0 0
0.460264 0.197325 0.074038 0.8 0 0
0.332568 0.048733 0.074865 0.8 0 0
0.341762 0.189464 0.082997 0.8 0 0
0.330518 0.239860 0.030850 0.8 0 0
0.377347 0.210017 0.078714 0.8 0 0
0.952765 0.203572 0.028630 0.8 0 0
0.185903 0.146623 0.030850 0.8 0 0
0.632347 0.183046 0.084578 0.8 0 0
0.136689 0.046167 0.082163 0.8 0 0
0.287440 0.161110 0.030850 0.8 0 0
0.283868 0.213482 0.089329 0.8 0 0
0.251357 0.247461 0.078894 0.8 0 0
0.131892 0.234333 0.030850 0.8 0 0
0.561031 0.208378 0.088780 0.8 0 0
0.567717 0.193159 0.084578 0.8 0 0
0.235159 0.183731 0.082163 0.8 0 0
0.455067 0.179345 0.067408 0.8 0 0
0.415884 0.063940 0.071705 0.8 0 0
0.418101 0.234628 0.034452 0.8 0 0
0.175207 0.084171 0.078894 0.8 0 0
0.197890 0.231815 0.082163 0.8 0 0
0.218073 0.248552 0.082163 0.8 0 0
0.892971 0.213936 0.031098 0.8 0 0
0.071069 0.121209 0.082163 0.8 0 0
0.362207 0.103801 0.030850 0.8 0 0
0.395521 0.075031 0.072594 0.8 0 0
0.132934 0.219300 0.090897 0.8 0 0
0.115459 0.052796 0.082163 0.8 0 0
0.120182 0.297040 0.072298 0.8 0 0
0.048232 0.252138 0.030850 0.8 0 0
0.408878 0.211538 0.078894 0.8 0 0
0.195759 0.158654 0.078894 0.8 0 0
0.108548 0.285856 0.030850 0.8 0 0
0.187220 0.071388 0.030850 0.8 0 0
0.197095 0.262367 0.082163 0.8 0 0
0.752508 0.175344 0.087964 0.8 0 0
0.154467 0.251060 0.030850 0.8 0 0
0.214935 0.250952 0.082163 0.8 0 0
0.284455 0.168228 0.089329 0.8 0 0
0.080141 0.224555 0.080975 0.8 0 0
0.411880 0.248961 0.076746 0.8 0 0
0.253180 0.302018 0.082163 0.8 0 0
0.157679 0.085911 0.084296 0.8 0 0
0.203333 0.179753 0.090970 0.8 0 0
0.156137 0.186812 0.082163 0.8 0 0
0.475930 0.186691 0.084578 0.8 0 0
0.644731 0.208021 0.087691 0.8 0 0
0.152069 0.197246 0.090573 0.8 0 0
0.303859 0.113294 0.030850 0.8 0 0
0.759655 0.175402 0.086917 0.8 0 0
0.496849 0.313596 0.068769 0.8 0 0
0.292135 0.118664 0.082163 0.8 0 0
0.776423 0.197020 0.084578 0.8 0 0
0.344119 0.193374 0.087341 0.8 0 0
0.355086 0.210314 0.078894 0.8 0 0
0.378098 0.326061 0.041634 0.8 0 0
0.114341 0.070828 0.082163 0.8 0 0
0.203533 0.078622 0.084296 0.8 0 0
0.175381 0.033159 0.030853 0.8 0 0
0.081965 0.202248 0.030850 0.8 0 0
0.427276 0.181913 0.046655 0.8 0 0
0.517075 0.164109 0.074005 0.8 0 0
0.343131 0.193220 0.081231 0.8 0 0
0.103692 0.262788 0.076672 0.8 0 0
0.343693 0.117768 0.030850 0.8 0 0
0.268141 0.193451 0.084296 0.8 0 0
0.386476 0.218759 0.030850 0.8 0 0
0.404912 0.305140 0.082163 0.8 0 0
0.207210 0.040157 0.055718 0.8 0 0
0.254370 0.063114 0.053552 0.8 0 0
0.190121 0.169350 0.081381 0.8 0 0
0.116958 0.299612 0.071468 0.8 0 0
0.849566 0.211655 0.041777 0.8 0 0
0.786356 0.189639 0.086984 0.8 0 0
0.341491 0.143872 0.084296 0.8 0 0
0.475402 0.341546 0.043033 0.8 0 0
0.169589 0.266812 0.030850 0.8 0 0
0.288416 0.187152 0.082163 0.8 0 0
0.213466 0.061204 0.078894 0.8 0 0
0.335736 0.044846 0.064645 0.8 0 0
0.079335 0.157385 0.082163 0.8 0 0
0.446855 0.337587 0.077863 0.8 0 0
0.299458 0.068793 0.076679 0.8 0 0
0.161555 0.130031 0.082163 0.8 0 0
0.324671 0.173994 0.084296 0.8 0 0
0.229876 0.308861 0.044027 0.8 0 0
0.046860 0.200599 0.081586 0.8 0 0
0.901518 0.186813 0.070669 0.8 0 0
0.381471 0.036701 0.033770 0.8 0 0
0.640330 0.170360 0.084578 0.8 0 0
0.148664 0.152251 0.082163 0.8 0 0
0.224562 0.049836 0.039947 0.8 0 0
0.111622 0.035694 0.058474 0.8 0 0
0.238197 0.182531 0.030850 0.8 0 0
0.106538 0.199973 0.082163 0.8 0 0
0.478948 0.304237 0.038635 0.8 0 0
0.316202 0.208374 0.030850 0.8 0 0
0.858617 0.205157 0.037958 0.8 0 0
0.230039 0.265658 0.083882 0.8 0 0
0.391603 0.063694 0.080226 0.8 0 0
0.510303 0.195699 0.084578 0.8 0 0
0.464811 0.205484 0.087235 0.8 0 0
0.353269 0.059621 0.078894 0.8 0 0
0.420792 0.033386 0.041191 0.8 0 0
0.463448 0.174665 0.068081 0.8 0 0
0.737236 0.167401 0.074728 0.8 0 0
0.421196 0.216859 0.030850 0.8 0 0
0.153662 0.151771 0.086382 0.8 0 0
0.174942 0.157418 0.084155 0.8 0 0
0.385637 0.207069 0.058658 0.8 0 0
0.477080 0.303727 0.071057 0.8 0 0
0.866483 0.199184 0.042168 0.8 0 0
0.399296 0.036572 0.033035 0.8 0 0
0.276429 0.257909 0.033083 0.8 0 0
0.351903 0.038662 0.040936 0.8 0 0
0.240373 0.194536 0.078894 0.8 0 0
0.269471 0.145840 0.084296 0.8 0 0
0.550339 0.205677 0.075821 0.8 0 0
0.380384 0.327144 0.060124 0.8 0 0
0.140531 0.069750 0.082163 0.8 0 0
0.375179 0.193256 0.082163 0.8 0 0
0.302028 0.283983 0.082163 0.8 0 0
0.225058 0.183202 0.089559 0.8 0 0
0.404678 0.267379 0.082163 0.8 0 0
0.732487 0.192479 0.086848 0.8 0 0
0.139941 0.352417 0.053801 0.8 0 0
0.110308 0.190629 0.082163 0.8 0 0
0.194541 0.035833 0.075286 0.8 0 0
0.530164 0.161269 0.087401 0.8 0 0
0.478935 0.304562 0.070742 0.8 0 0
0.247602 0.242811 0.030850 0.8 0 0
0.075858 0.322742 0.062636 0.8 0 0
0.172445 0.158568 0.091719 0.8 0 0
0.443539 0.169970 0.085394 0.8 0 0
0.886085 0.199571 0.040005 0.8 0 0
0.298393 0.305086 0.072946 0.8 0 0
0.403291 0.175282 0.058658 0.8 0 0
0.269320 0.309034 0.070846 0.8 0 0
0.466186 0.182567 0.086177 0.8 0 0
0.214559 0.176315 0.082163 0.8 0 0
0.153127 0.136223 0.082163 0.8 0 0
0.404201 0.180620 0.066647 0.8 0 0
0.163710 0.208617 0.082163 0.8 0 0
0.163552 0.136499 0.084296 0.8 0 0
0.303871 0.200851 0.084296 0.8 0 0
0.281986 0.213124 0.081231 0.8 0 0
0.352164 0.071061 0.078894 0.8 0 0
0.096656 0.203396 0.082163 0.8 0 0
0.438008 0.054788 0.044267 0.8 0 0
0.707592 0.162814 0.081404 0.8 0 0
0.947032 0.193011 0.035323 0.8 0 0
0.703026 0.202688 0.086774 0.8 0 0
0.714609 0.163047 0.085567 0.8 0 0
0.371682 0.212612 0.082163 0.8 0 0
0.265500 0.211641 0.090154 0.8 0 0
0.230837 0.213702 0.078894 0.8 0 0
0.339497 0.185742 0.030850 0.8 0 0
0.253673 0.207332 0.030850 0.8 0 0
0.171881 0.285564 0.080203 0.8 0 0
0.420067 0.213019 0.064038 0.8 0 0
0.161394 0.186224 0.082163 0.8 0 0
0.200528 0.281995 0.082163 0.8 0 0
0.677938 0.190642 0.086711 0.8 0 0
0.622206 0.203783 0.075232 0.8 0 0
0.205779 0.173784 0.082163 0.8 0 0
0.083737 0.344675 0.045848 0.8 0 0
0.192598 0.266619 0.082163 0.8 0 0
0.879241 0.196993 0.061759 0.8 0 0
0.404534 0.317453 0.082163 0.8 0 0
0.359908 0.230501 0.080641 0.8 0 0
0.389373 0.062039 0.030850 0.8 0 0
0.971212 0.155745 0.056028 0.8 0 0
0.405250 0.233499 0.030850 0.8 0 0
0.227938 0.167997 0.030850 0.8 0 0
0.338973 0.196300 0.078894 0.8 0 0
0.275861 0.070268 0.037728 0.8 0 0
0.285420 0.094645 0.030850 0.8 0 0
0.364228 0.168357 0.085919 0.8 0 0
0.184976 0.210048 0.084155 0.8 0 0
0.421533 0.057977 0.080358 0.8 0 0
0.193931 0.116896 0.030850 0.8 0 0
0.516756 0.159946 0.085145 0.8 0 0
0.860293 0.210649 0.041777 0.8 0 0
0.456732 0.170289 0.085394 0.8 0 0
0.325537 0.188368 0.078894 0.8 0 0
0.442774 0.201691 0.085394 0.8 0 0
0.250209 0.101925 0.082163 0.8 0 0
0.887013 0.189463 0.061759 0.8 0 0
0.766196 0.175553 0.087999 0.8 0 0
0.161931 0.152792 0.030850 0.8 0 0
0.960172 0.211834 0.034268 0.8 0 0
0.220571 0.261614 0.084296 0.8 0 0
0.378892 0.225458 0.030850 0.8 0 0
0.407095 0.173940 0.087089 0.8 0 0
0.223680 0.185031 0.084296 0.8 0 0
0.372110 0.242949 0.030850 0.8 0 0
0.409637 0.205205 0.084578 0.8 0 0
0.438566 0.164084 0.086107 0.8 0 0
0.418179 0.258373 0.072455 0.8 0 0
0.294095 0.228332 0.084296 0.8 0 0
0.337661 0.205896 0.030850 0.8 0 0
0.362361 0.157792 0.078894 0.8 0 0
0.434682 0.319583 0.030850 0.8 0 0
0.156469 0.166074 0.084155 0.8 0 0
0.036040 0.212368 0.078228 0.8 0 0
0.065686 0.229453 0.030850 0.8 0 0
0.049592 0.080311 0.055299 0.8 0 0
0.942847 0.192814 0.040005 0.8 0 0
0.189448 0.243708 0.030850 0.8 0 0
0.343318 0.079370 0.082163 0.8 0 0
0.359765 0.307508 0.078293 0.8 0 0
0.169680 0.198571 0.081403 0.8 0 0
0.746462 0.171384 0.087949 0.8 0 0
0.462331 0.205643 0.074179 0.8 0 0
0.171893 0.078935 0.030850 0.8 0 0
0.334569 0.175475 0.082163 0.8 0 0
0.312880 0.143163 0.030850 0.8 0 0
0.514091 0.195523 0.087360 0.8 0 0
0.353673 0.039892 0.074662 0.8 0 0
0.425056 0.057824 0.035837 0.8 0 0
0.035540 0.152422 0.035321 0.8 0 0
0.172161 0.212658 0.081403 0.8 0 0
0.281912 0.083734 0.030850 0.8 0 0
0.257668 0.087449 0.030850 0.8 0 0
0.351680 0.199810 0.084296 0.8 0 0
0.267870 0.085422 0.078894 0.8 0 0
0.268640 0.202878 0.082163 0.8 0 0
0.346458 0.245492 0.082163 0.8 0 0
0.358518 0.285731 0.082163 0.8 0 0
0.394214 0.290510 0.082163 0.8 0 0
0.255514 0.238377 0.078894 0.8 0 0
0.031978 0.270994 0.050464 0.8 0 0
0.122458 0.225366 0.082163 0.8 0 0
0.483483 0.187176 0.087283 0.8 0 0
0.491593 0.199476 0.070535 0.8 0 0
0.209408 0.340049 0.050048 0.8 0 0
0.617962 0.173230 0.089559 0.8 0 0
0.282809 0.167655 0.089755 0.8 0 0
0.166543 0.185707 0.084155 0.8 0 0
0.402888 0.212269 0.084822 0.8 0 0
0.691065 0.198688 0.088537 0.8 0 0
0.157030 0.179222 0.084881 0.8 0 0
0.360006 0.277681 0.030850 0.8 0 0
0.380040 0.197974 0.084296 0.8 0 0
0.328409 0.048572 0.040612 0.8 0 0
0.133564 0.299840 0.073295 0.8 0 0
0.443770 0.046949 0.068537 0.8 0 0
0.480201 0.317550 0.082163 0.8 0 0
0.384718 0.209540 0.077377 0.8 0 0
0.306957 0.184427 0.078894 0.8 0 0
0.945197 0.192343 0.060696 0.8 0 0
0.453018 0.199706 0.066267 0.8 0 0
0.433675 0.205905 0.084578 0.8 0 0
0.157454 0.179621 0.082163 0.8 0 0
0.395036 0.295122 0.082163 0.8 0 0
0.373654 0.323957 0.056554 0.8 0 0
0.778946 0.205662 0.088039 0.8 0 0
0.409586 0.031822 0.071928 0.8 0 0
0.207451 0.143435 0.082163 0.8 0 0
0.337666 0.096824 0.084296 0.8 0 0
0.952148 0.186765 0.040005 0.8 0 0
0.035487 0.191594 0.078341 0.8 0 0
0.375941 0.174748 0.084578 0.8 0 0
0.953128 0.210437 0.037585 0.8 0 0
0.146999 0.341979 0.033200 0.8 0 0
0.307175 0.151932 0.078894 0.8 0 0
0.168008 0.340055 0.033799 0.8 0 0
0.175532 0.174604 0.030850 0.8 0 0
0.174996 0.292063 0.030850 0.8 0 0
0.371302 0.156882 0.082163 0.8 0 0
0.190125 0.214159 0.079113 0.8 0 0
0.477321 0.196200 0.084578 0.8 0 0
0.398775 0.073363 0.046114 0.8 0 0
0.262325 0.102911 0.084296 0.8 0 0
0.218085 0.158499 0.082308 0.8 0 0
0.647505 0.187781 0.084578 0.8 0 0
0.442207 0.159621 0.072585 0.8 0 0
0.068799 0.334187 0.042672 0.8 0 0
0.963278 0.156856 0.061760 0.8 0 0
0.103624 0.336102 0.063331 0.8 0 0
0.769845 0.170587 0.088008 0.8 0 0
0.819919 0.212535 0.057254 0.8 0 0
0.233402 0.307564 0.082163 0.8 0 0
0.930641 0.192891 0.038904 0.8 0 0
0.544588 0.171100 0.084578 0.8 0 0
0.455081 0.333743 0.080878 0.8 0 0
0.343433 0.214469 0.082143 0.8 0 0
0.631957 0.164932 0.087659 0.8 0 0
0.413871 0.215597 0.082163 0.8 0 0
0.659314 0.174062 0.084578 0.8 0 0
0.463487 0.183064 0.067053 0.8 0 0
0.386554 0.175911 0.078894 0.8 0 0
0.252706 0.175362 0.030850 0.8 0 0
0.439312 0.206694 0.087171 0.8 0 0
0.336354 0.082576 0.082163 0.8 0 0
0.382673 0.190948 0.078894 0.8 0 0
0.416348 0.158191 0.076653 0.8 0 0
0.349800 0.090079 0.030850 0.8 0 0
0.453624 0.291863 0.041779 0.8 0 0
0.455888 0.194881 0.087213 0.8 0 0
0.820438 0.168255 0.086167 0.8 0 0
0.087991 0.149324 0.082163 0.8 0 0
0.232140 0.053801 0.039876 0.8 0 0
0.304800 0.179125 0.030850 0.8 0 0
0.050711 0.078628 0.064948 0.8 0 0
0.225785 0.192402 0.030850 0.8 0 0
0.318290 0.273475 0.036225 0.8 0 0
0.482201 0.209175 0.079538 0.8 0 0
0.206130 0.158632 0.030850 0.8 0 0
0.404389 0.213019 0.065206 0.8 0 0
0.213348 0.314056 0.079688 0.8 0 0
0.421822 0.329320 0.081173 0.8 0 0
0.403066 0.196645 0.086017 0.8 0 0
0.069659 0.059973 0.065193 0.8 0 0
0.340092 0.042907 0.067929 0.8 0 0
0.629507 0.162894 0.087653 0.8 0 0
0.872734 0.196148 0.041777 0.8 0 0
0.265513 0.124640 0.084296 0.8 0 0
0.787750 0.173919 0.089226 0.8 0 0
0.310886 0.230053 0.078894 0.8 0 0
0.190121 0.215267 0.081290 0.8 0 0
0.432679 0.303168 0.082163 0.8 0 0
0.124951 0.051159 0.030850 0.8 0 0
0.198577 0.187166 0.078894 0.8 0 0
0.186547 0.118007 0.082163 0.8 0 0
0.959789 0.155538 0.061760 0.8 0 0
0.290112 0.067004 0.043315 0.8 0 0
0.241185 0.174999 0.082163 0.8 0 0
0.691960 0.193456 0.084578 0.8 0 0
0.910143 0.193681 0.061759 0.8 0 0
0.180459 0.043761 0.084296 0.8 0 0
0.076595 0.271275 0.072079 0.8 0 0
0.690385 0.201728 0.074414 0.8 0 0
0.260812 0.298241 0.042306 0.8 0 0
0.638753 0.205726 0.087676 0.8 0 0
0.194366 0.324386 0.075673 0.8 0 0
0.808238 0.171804 0.086886 0.8 0 0
0.441531 0.179055 0.087176 0.8 0 0
0.383298 0.243633 0.082163 0.8 0 0
0.060261 0.067505 0.066943 0.8 0 0
0.512185 0.181925 0.067772 0.8 0 0
0.181050 0.083678 0.078894 0.8 0 0
0.276247 0.127049 0.084296 0.8 0 0
0.176251 0.313539 0.030850 0.8 0 0
0.127911 0.266118 0.078792 0.8 0 0
0.223697 0.246943 0.078894 0.8 0 0
0.376304 0.189782 0.066668 0.8 0 0
0.444144 0.327511 0.082163 0.8 0 0
0.947999 0.174153 0.042168 0.8 0 0
0.254441 0.206953 0.082163 0.8 0 0
0.669279 0.204095 0.076405 0.8 0 0
0.276139 0.077706 0.082163 0.8 0 0
0.140319 0.351610 0.040498 0.8 0 0
0.434270 0.161268 0.084578 0.8 0 0
0.214485 0.131400 0.082163 0.8 0 0
0.414196 0.166910 0.070259 0.8 0 0
0.245796 0.212783 0.030850 0.8 0 0
0.221972 0.237230 0.084296 0.8 0 0
0.187077 0.322756 0.032434 0.8 0 0
0.269042 0.169810 0.030850 0.8 0 0
0.755339 0.167201 0.075346 0.8 0 0
0.057108 0.070032 0.045094 0.8 0 0
0.153109 0.223856 0.082163 0.8 0 0
0.518174 0.163065 0.087370 0.8 0 0
0.289670 0.234074 0.030850 0.8 0 0
0.299029 0.208425 0.078894 0.8 0 0
0.229440 0.306575 0.082163 0.8 0 0
0.243985 0.322743 0.054947 0.8 0 0
0.883780 0.196817 0.040005 0.8 0 0
0.713764 0.207884 0.086129 0.8 0 0
0.381849 0.167334 0.080453 0.8 0 0
0.145312 0.351778 0.048312 0.8 0 0
0.289594 0.204367 0.089329 0.8 0 0
0.329028 0.079505 0.078894 0.8 0 0
0.288106 0.259515 0.082163 0.8 0 0
0.431573 0.173076 0.086089 0.8 0 0
0.241284 0.243602 0.084296 0.8 0 0
0.125077 0.090962 0.082163 0.8 0 0
0.402985 0.206943 0.030850 0.8 0 0
0.105810 0.163629 0.082163 0.8 0 0
0.527367 0.182087 0.089995 0.8 0 0
0.593774 0.161531 0.086615 0.8 0 0
0.495471 0.312470 0.061814 0.8 0 0
0.242745 0.175434 0.030850 0.8 0 0
0.442777 0.166544 0.070845 0.8 0 0
0.207225 0.174302 0.084296 0.8 0 0
0.473392 0.196542 0.068953 0.8 0 0
0.494965 0.336161 0.038701 0.8 0 0
0.595327 0.183529 0.086502 0.8 0 0
0.237117 0.091014 0.084296 0.8 0 0
0.421421 0.183356 0.058658 0.8 0 0
0.270357 0.076956 0.030850 0.8 0 0
0.717151 0.171381 0.072370 0.8 0 0
0.416755 0.241750 0.068334 0.8 0 0
0.069766 0.100021 0.030850 0.8 0 0
0.254689 0.081476 0.082163 0.8 0 0
0.160370 0.211319 0.081403 0.8 0 0
0.427411 0.195147 0.051431 0.8 0 0
0.339648 0.162135 0.030850 0.8 0 0
0.137719 0.324227 0.069327 0.8 0 0
0.395319 0.206017 0.084578 0.8 0 0
0.238891 0.091817 0.082163 0.8 0 0
0.165972 0.120554 0.084296 0.8 0 0
0.958374 0.148683 0.052482 0.8 0 0
0.613555 0.207996 0.081039 0.8 0 0
0.740217 0.205232 0.088052 0.8 0 0
0.247566 0.161291 0.078894 0.8 0 0
0.031034 0.206585 0.037895 0.8 0 0
0.315901 0.211282 0.082163 0.8 0 0
0.283570 0.160956 0.091148 0.8 0 0
0.166887 0.063930 0.082163 0.8 0 0
0.333712 0.209795 0.082163 0.8 0 0
0.367400 0.107878 0.040904 0.8 0 0
0.323724 0.211124 0.091294 0.8 0 0
0.060794 0.107124 0.082163 0.8 0 0
0.029160 0.256180 0.066749 0.8 0 0
0.487930 0.167801 0.086231 0.8 0 0
0.366722 0.195579 0.085926 0.8 0 0
0.431939 0.176728 0.084578 0.8 0 0
0.204438 0.329207 0.075930 0.8 0 0
0.169461 0.281402 0.080688 0.8 0 0
0.867626 0.192150 0.061759 0.8 0 0
0.210547 0.304208 0.036582 0.8 0 0
0.454937 0.207009 0.084578 0.8 0 0
0.214334 0.267598 0.078894 0.8 0 0
0.291208 0.221796 0.082163 0.8 0 0
0.191772 0.329292 0.074489 0.8 0 0
0.182816 0.161817 0.084155 0.8 0 0
0.882489 0.183752 0.061759 0.8 0 0
0.327480 0.070774 0.030850 0.8 0 0
0.650870 0.193057 0.087707 0.8 0 0
0.306920 0.180367 0.030850 0.8 0 0
0.332025 0.237491 0.082163 0.8 0 0
0.219401 0.286576 0.082163 0.8 0 0
0.492574 0.200274 0.087306 0.8 0 0
0.198223 0.204840 0.078894 0.8 0 0
0.231812 0.309890 0.082163 0.8 0 0
0.174670 0.085466 0.082163 0.8 0 0
0.126283 0.149917 0.030850 0.8 0 0
0.232077 0.068032 0.084296 0.8 0 0
0.300915 0.178941 0.078894 0.8 0 0
0.641519 0.185905 0.086619 0.8 0 0
0.746118 0.164808 0.088666 0.8 0 0
0.293475 0.066497 0.053407 0.8 0 0
0.353081 0.297105 0.082163 0.8 0 0
0.376461 0.216169 0.030850 0.8 0 0
0.233759 0.231490 0.082163 0.8 0 0
0.611198 0.164668 0.088739 0.8 0 0
0.200624 0.342590 0.055456 0.8 0 0
0.298540 0.172111 0.030850 0.8 0 0
0.599935 0.208729 0.082511 0.8 0 0
0.512908 0.172285 0.084578 0.8 0 0
0.743138 0.187499 0.086875 0.8 0 0
0.593129 0.163438 0.086497 0.8 0 0
0.252922 0.157648 0.084296 0.8 0 0
0.202615 0.292224 0.082163 0.8 0 0
0.122611 0.140279 0.082163 0.8 0 0
0.332669 0.226956 0.078894 0.8 0 0
0.155155 0.167262 0.089873 0.8 0 0
0.956683 0.169844 0.061760 0.8 0 0
0.400798 0.219436 0.030850 0.8 0 0
0.250860 0.069657 0.082163 0.8 0 0
0.368073 0.090671 0.030850 0.8 0 0
0.365267 0.183526 0.084578 0.8 0 0
0.145387 0.163392 0.093265 0.8 0 0
0.213539 0.161905 0.089329 0.8 0 0
0.600183 0.208175 0.088898 0.8 0 0
0.860109 0.213324 0.061759 0.8 0 0
0.294421 0.298849 0.077768 0.8 0 0
0.222326 0.200478 0.030850 0.8 0 0
0.158689 0.208725 0.030850 0.8 0 0
0.196541 0.232050 0.082163 0.8 0 0
0.571630 0.185693 0.068467 0.8 0 0
0.162309 0.045567 0.082163 0.8 0 0
0.209285 0.189787 0.078894 0.8 0 0
0.149704 0.333518 0.030850 0.8 0 0
0.415162 0.031639 0.049223 0.8 0 0
0.791917 0.203848 0.078397 0.8 0 0
0.608105 0.166299 0.087598 0.8 0 0
0.628097 0.162095 0.087649 0.8 0 0
0.040307 0.297707 0.043008 0.8 0 0
0.111199 0.181512 0.082163 0.8 0 0
0.526319 0.173650 0.087391 0.8 0 0
0.111316 0.208503 0.082163 0.8 0 0
0.408389 0.159456 0.084578 0.8 0 0
0.349505 0.167271 0.030850 0.8 0 0
0.477107 0.200756 0.084578 0.8 0 0
0.370343 0.193418 0.086996 0.8 0 0
0.299506 0.288680 0.039814 0.8 0 0
0.252432 0.120244 0.084296 0.8 0 0
0.404853 0.217562 0.078894 0.8 0 0
0.755411 0.192576 0.087972 0.8 0 0
0.143362 0.156203 0.087573 0.8 0 0
0.179628 0.241272 0.030850 0.8 0 0
0.095436 0.069304 0.030850 0.8 0 0
0.418303 0.212269 0.070526 0.8 0 0
