0.167287 0.352283 0.027264 0.8 0 0
0.194610 0.393659 0.025002 0.8 0 0
0.151694 0.308195 0.027686 0.8 0 0
0.286771 0.717661 0.083295 0.8 0 0
0.160916 0.256398 0.072493 0.8 0 0
0.204577 0.202365 0.025002 0.8 0 0
0.324382 0.440839 0.029114 0.8 0 0
0.259509 0.610981 0.037702 0.8 0 0
0.470426 0.076309 0.072491 0.8 0 0
0.400383 0.134251 0.063026 0.8 0 0
0.181804 0.317123 0.025002 0.8 0 0
0.219106 0.240511 0.059111 0.8 0 0
0.277422 0.834533 0.072008 0.8 0 0
0.389442 0.316926 0.046723 0.8 0 0
0.252700 0.701176 0.080406 0.8 0 0
0.395329 0.210232 0.025000 0.8 0 0
0.157322 0.285049 0.025002 0.8 0 0
0.299471 0.259593 0.072491 0.8 0 0
0.344263 0.385803 0.072493 0.8 0 0
0.265200 0.644342 0.031546 0.8 0 0
0.165054 0.345968 0.028243 0.8 0 0
0.456674 0.086399 0.072491 0.8 0 0
0.253388 0.314526 0.082384 0.8 0 0
0.177458 0.314501 0.072493 0.8 0 0
0.176955 0.240511 0.062307 0.8 0 0
0.196943 0.329808 0.025002 0.8 0 0
0.261556 0.844144 0.084584 0.8 0 0
0.297656 0.586918 0.064759 0.8 0 0
0.273330 0.384452 0.025002 0.8 0 0
0.365243 0.243390 0.072491 0.8 0 0
0.245772 0.565391 0.077297 0.8 0 0
0.262562 0.326538 0.072493 0.8 0 0
0.428876 0.211623 0.053530 0.8 0 0
0.291145 0.259294 0.072493 0.8 0 0
0.370342 0.370950 0.046168 0.8 0 0
0.160388 0.149832 0.039357 0.8 0 0
0.378513 0.263245 0.025000 0.8 0 0
0.395402 0.221528 0.025000 0.8 0 0
0.285503 0.756659 0.036061 0.8 0 0
0.248091 0.699666 0.061818 0.8 0 0
0.228938 0.286791 0.025002 0.8 0 0
0.303402 0.907757 0.059325 0.8 0 0
0.183402 0.334228 0.072493 0.8 0 0
0.289570 0.604226 0.074469 0.8 0 0
0.227210 0.440839 0.034839 0.8 0 0
0.294879 0.743483 0.076842 0.8 0 0
0.112072 0.115794 0.025002 0.8 0 0
0.286972 0.576719 0.037502 0.8 0 0
0.284338 0.648542 0.035688 0.8 0 0
0.252992 0.549670 0.072008 0.8 0 0
0.265478 0.509006 0.031245 0.8 0 0
0.248417 0.535155 0.059155 0.8 0 0
0.251999 0.604695 0.074469 0.8 0 0
0.257683 0.506028 0.074805 0.8 0 0
0.287024 0.681283 0.083525 0.8 0 0
0.240480 0.953426 0.056985 0.8 0 0
0.467367 0.104804 0.039520 0.8 0 0
0.328927 0.899806 0.054682 0.8 0 0
0.366625 0.170884 0.032477 0.8 0 0
0.232079 0.217780 0.025002 0.8 0 0
0.308573 0.361521 0.025002 0.8 0 0
0.186356 0.406199 0.045107 0.8 0 0
0.279534 0.771162 0.034153 0.8 0 0
0.279514 0.815740 0.072008 0.8 0 0
0.242460 0.410105 0.072493 0.8 0 0
0.322209 0.240511 0.033910 0.8 0 0
0.325268 0.905353 0.059712 0.8 0 0
0.301515 0.240695 0.025000 0.8 0 0
0.275771 0.520400 0.084118 0.8 0 0
0.229268 0.361443 0.025002 0.8 0 0
0.448729 0.156528 0.048097 0.8 0 0
0.294252 0.240511 0.049438 0.8 0 0
0.286683 0.341101 0.025002 0.8 0 0
0.266780 0.702692 0.072008 0.8 0 0
0.372547 0.317917 0.072493 0.8 0 0
0.238462 0.888009 0.060783 0.8 0 0
0.409188 0.129362 0.036530 0.8 0 0
0.288411 0.273695 0.072493 0.8 0 0
0.310291 0.355241 0.025002 0.8 0 0
0.145859 0.229544 0.072493 0.8 0 0
0.261641 0.582211 0.074598 0.8 0 0
0.278525 0.702861 0.033831 0.8 0 0
0.451214 0.084351 0.070164 0.8 0 0
0.208380 0.293017 0.025002 0.8 0 0
0.363502 0.390298 0.033681 0.8 0 0
0.178130 0.382941 0.037804 0.8 0 0
0.267375 0.256576 0.067126 0.8 0 0
0.327125 0.240511 0.069326 0.8 0 0
0.267598 0.827802 0.085587 0.8 0 0
0.150946 0.139178 0.025002 0.8 0 0
0.249519 0.518451 0.074469 0.8 0 0
0.356648 0.342521 0.072493 0.8 0 0
0.221417 0.258307 0.072493 0.8 0 0
0.297167 0.532741 0.078402 0.8 0 0
0.272631 0.428856 0.080536 0.8 0 0
0.259099 0.591589 0.083761 0.8 0 0
0.248259 0.800833 0.060439 0.8 0 0
0.096155 0.156824 0.072493 0.8 0 0
0.253785 0.253369 0.072493 0.8 0 0
0.257890 0.895978 0.037632 0.8 0 0
0.123045 0.226705 0.072493 0.8 0 0
0.271821 0.947363 0.053270 0.8 0 0
0.295846 0.246441 0.025000 0.8 0 0
0.196487 0.257686 0.072493 0.8 0 0
0.283703 0.796151 0.072008 0.8 0 0
0.286867 0.492156 0.083335 0.8 0 0
0.209190 0.253829 0.025002 0.8 0 0
0.298835 0.309833 0.077595 0.8 0 0
0.130126 0.240511 0.027795 0.8 0 0
0.279703 0.697971 0.078878 0.8 0 0
0.481256 0.066259 0.054372 0.8 0 0
0.375646 0.353231 0.025002 0.8 0 0
0.135732 0.263064 0.042187 0.8 0 0
0.290988 0.868103 0.048066 0.8 0 0
0.290707 0.815223 0.074469 0.8 0 0
0.296796 0.783448 0.071778 0.8 0 0
0.105203 0.141213 0.025002 0.8 0 0
0.250898 0.361159 0.083150 0.8 0 0
0.183148 0.174762 0.061669 0.8 0 0
0.345753 0.429122 0.061737 0.8 0 0
0.354837 0.252913 0.072491 0.8 0 0
0.289215 0.438216 0.072493 0.8 0 0
0.414151 0.123368 0.045513 0.8 0 0
0.260710 0.774000 0.085571 0.8 0 0
0.260129 0.788586 0.072008 0.8 0 0
0.275882 0.697971 0.077106 0.8 0 0
0.238279 0.440839 0.053854 0.8 0 0
0.209991 0.270030 0.025002 0.8 0 0
0.431166 0.108302 0.072491 0.8 0 0
0.297754 0.563847 0.063963 0.8 0 0
0.338876 0.242956 0.072491 0.8 0 0
0.378346 0.322367 0.025002 0.8 0 0
0.410315 0.192037 0.025000 0.8 0 0
0.172742 0.218803 0.072493 0.8 0 0
0.178088 0.285616 0.025002 0.8 0 0
0.177504 0.355296 0.025002 0.8 0 0
0.289944 0.683977 0.044670 0.8 0 0
0.250032 0.645950 0.084156 0.8 0 0
0.392647 0.243314 0.025000 0.8 0 0
0.310263 0.394503 0.072493 0.8 0 0
0.259801 0.348156 0.083151 0.8 0 0
0.269310 0.624754 0.079993 0.8 0 0
0.277187 0.455938 0.033404 0.8 0 0
0.224489 0.240511 0.070900 0.8 0 0
0.427440 0.135546 0.025000 0.8 0 0
0.295660 0.290586 0.083051 0.8 0 0
0.378339 0.267053 0.029234 0.8 0 0
0.278222 0.487045 0.084956 0.8 0 0
0.425399 0.135802 0.072491 0.8 0 0
0.256896 0.658701 0.040528 0.8 0 0
0.252447 0.544820 0.083653 0.8 0 0
0.250122 0.833659 0.047855 0.8 0 0
0.386853 0.324248 0.070949 0.8 0 0
0.172392 0.366717 0.030969 0.8 0 0
0.240853 0.257157 0.072493 0.8 0 0
0.266268 0.309624 0.072493 0.8 0 0
0.294839 0.625579 0.085261 0.8 0 0
0.293394 0.260740 0.075459 0.8 0 0
0.422857 0.228328 0.026976 0.8 0 0
0.293899 0.584258 0.080406 0.8 0 0
0.224999 0.239129 0.072493 0.8 0 0
0.267193 0.352060 0.025002 0.8 0 0
0.334370 0.260160 0.025000 0.8 0 0
0.099598 0.166895 0.067906 0.8 0 0
0.171851 0.365188 0.064855 0.8 0 0
0.394194 0.258235 0.025000 0.8 0 0
0.278461 0.779055 0.084350 0.8 0 0
0.247564 0.775218 0.066122 0.8 0 0
0.226406 0.211561 0.025920 0.8 0 0
0.287747 0.683338 0.039370 0.8 0 0
0.291383 0.936303 0.069141 0.8 0 0
0.245237 0.243473 0.025002 0.8 0 0
0.191026 0.233461 0.072493 0.8 0 0
0.288405 0.713191 0.040957 0.8 0 0
0.249744 0.598578 0.048317 0.8 0 0
0.285536 0.519126 0.072008 0.8 0 0
0.383599 0.167111 0.025000 0.8 0 0
0.089262 0.138212 0.047208 0.8 0 0
0.221617 0.387666 0.025002 0.8 0 0
0.290118 0.776183 0.045088 0.8 0 0
0.290160 0.654450 0.045191 0.8 0 0
0.368667 0.375689 0.044356 0.8 0 0
0.268934 0.697410 0.072008 0.8 0 0
0.206752 0.915518 0.054682 0.8 0 0
0.220675 0.288209 0.072493 0.8 0 0
0.171307 0.240511 0.036271 0.8 0 0
0.262462 0.776601 0.034508 0.8 0 0
0.305371 0.428563 0.072493 0.8 0 0
0.306491 0.260423 0.025000 0.8 0 0
0.248052 0.760429 0.062130 0.8 0 0
0.297702 0.411651 0.076448 0.8 0 0
0.119382 0.145719 0.025002 0.8 0 0
0.395858 0.270077 0.025002 0.8 0 0
0.266748 0.743796 0.074469 0.8 0 0
0.360084 0.399966 0.041317 0.8 0 0
0.294929 0.850314 0.056694 0.8 0 0
0.294746 0.498350 0.085037 0.8 0 0
0.475975 0.064147 0.043344 0.8 0 0
0.219861 0.211475 0.025002 0.8 0 0
0.259407 0.477940 0.037812 0.8 0 0
0.361566 0.314628 0.025002 0.8 0 0
0.279388 0.749419 0.075082 0.8 0 0
0.272246 0.249760 0.025002 0.8 0 0
0.385965 0.164221 0.025000 0.8 0 0
0.432375 0.201913 0.072344 0.8 0 0
0.265880 0.720310 0.084616 0.8 0 0
0.247482 0.714886 0.066787 0.8 0 0
0.309804 0.440839 0.053397 0.8 0 0
0.285448 0.483369 0.083183 0.8 0 0
0.328743 0.411582 0.025002 0.8 0 0
0.310878 0.240511 0.027496 0.8 0 0
0.288750 0.771269 0.074469 0.8 0 0
0.249626 0.514932 0.079258 0.8 0 0
0.368348 0.357515 0.025002 0.8 0 0
0.251808 0.920760 0.060246 0.8 0 0
0.232572 0.897409 0.050583 0.8 0 0
0.135605 0.262703 0.066888 0.8 0 0
0.075092 0.098889 0.060832 0.8 0 0
0.244437 0.862210 0.032973 0.8 0 0
0.236276 0.882818 0.048649 0.8 0 0
0.168902 0.232159 0.072493 0.8 0 0
0.229321 0.862210 0.048411 0.8 0 0
0.276869 0.655424 0.080406 0.8 0 0
0.239277 0.226922 0.047868 0.8 0 0
0.133482 0.256700 0.053716 0.8 0 0
0.436693 0.136343 0.025000 0.8 0 0
0.383823 0.261772 0.072491 0.8 0 0
0.261900 0.268575 0.077259 0.8 0 0
0.095070 0.117603 0.025002 0.8 0 0
0.331527 0.299394 0.072493 0.8 0 0
0.358804 0.265371 0.066882 0.8 0 0
0.185601 0.205340 0.072493 0.8 0 0
0.455090 0.114849 0.072491 0.8 0 0
0.426228 0.171246 0.025000 0.8 0 0
0.249435 0.598317 0.050836 0.8 0 0
0.270060 0.785182 0.072008 0.8 0 0
0.248201 0.840011 0.060915 0.8 0 0
0.288996 0.755629 0.042383 0.8 0 0
0.265373 0.358899 0.025002 0.8 0 0
0.304234 0.869748 0.073480 0.8 0 0
0.295242 0.554848 0.057450 0.8 0 0
0.132544 0.157504 0.025002 0.8 0 0
0.179953 0.388095 0.047267 0.8 0 0
0.467654 0.104007 0.056837 0.8 0 0
0.177924 0.240511 0.049532 0.8 0 0
0.151486 0.307608 0.064857 0.8 0 0
0.275917 0.649491 0.074761 0.8 0 0
0.201367 0.218691 0.072493 0.8 0 0
0.317965 0.217133 0.036859 0.8 0 0
0.263030 0.247374 0.030049 0.8 0 0
0.283964 0.631796 0.035569 0.8 0 0
0.266965 0.306871 0.076448 0.8 0 0
0.265758 0.550220 0.080406 0.8 0 0
0.418711 0.239833 0.037117 0.8 0 0
0.270828 0.485955 0.074469 0.8 0 0
0.184758 0.265269 0.072493 0.8 0 0
0.258820 0.363725 0.025002 0.8 0 0
0.394753 0.247204 0.025002 0.8 0 0
0.199026 0.309441 0.072493 0.8 0 0
0.274636 0.658610 0.072008 0.8 0 0
0.417720 0.242584 0.035041 0.8 0 0
0.097181 0.090041 0.047115 0.8 0 0
0.288990 0.889885 0.036411 0.8 0 0
0.295717 0.673765 0.083027 0.8 0 0
0.295861 0.735075 0.058943 0.8 0 0
0.276638 0.714508 0.083144 0.8 0 0
0.419877 0.204668 0.072491 0.8 0 0
0.218326 0.236342 0.025002 0.8 0 0
0.415250 0.240511 0.071824 0.8 0 0
0.127205 0.224885 0.025002 0.8 0 0
0.262823 0.945869 0.071770 0.8 0 0
0.253412 0.565391 0.075880 0.8 0 0
0.364725 0.173560 0.026228 0.8 0 0
0.383490 0.326341 0.072493 0.8 0 0
0.129465 0.245344 0.044333 0.8 0 0
0.249325 0.448413 0.051732 0.8 0 0
0.232287 0.321923 0.025002 0.8 0 0
0.276571 0.621375 0.072008 0.8 0 0
0.312927 0.885135 0.063501 0.8 0 0
0.389096 0.317903 0.026144 0.8 0 0
0.263013 0.946320 0.063428 0.8 0 0
0.357676 0.406779 0.069629 0.8 0 0
0.183464 0.234735 0.072493 0.8 0 0
0.289477 0.346304 0.072493 0.8 0 0
0.270126 0.833698 0.031147 0.8 0 0
0.259347 0.642331 0.083339 0.8 0 0
0.297236 0.797050 0.068192 0.8 0 0
0.294499 0.657255 0.084438 0.8 0 0
0.287534 0.425262 0.082384 0.8 0 0
0.346073 0.367737 0.025002 0.8 0 0
0.226087 0.257411 0.072493 0.8 0 0
0.296798 0.615011 0.071764 0.8 0 0
0.288166 0.712408 0.072008 0.8 0 0
0.307094 0.260919 0.041746 0.8 0 0
0.321722 0.404493 0.072493 0.8 0 0
0.280660 0.749669 0.072008 0.8 0 0
0.250489 0.352559 0.085408 0.8 0 0
0.409685 0.259665 0.047277 0.8 0 0
0.173021 0.328775 0.072493 0.8 0 0
0.125970 0.203675 0.072493 0.8 0 0
0.284964 0.383566 0.025002 0.8 0 0
0.292603 0.814719 0.075428 0.8 0 0
0.148878 0.300232 0.068653 0.8 0 0
0.320870 0.862210 0.038383 0.8 0 0
0.313213 0.440839 0.068853 0.8 0 0
0.172138 0.257576 0.072493 0.8 0 0
0.293040 0.862210 0.061213 0.8 0 0
0.291291 0.696549 0.047919 0.8 0 0
0.255023 0.676978 0.080406 0.8 0 0
0.261342 0.275457 0.072493 0.8 0 0
0.385558 0.240511 0.029234 0.8 0 0
0.324353 0.440839 0.038656 0.8 0 0
0.255624 0.565256 0.041903 0.8 0 0
0.223978 0.240511 0.048860 0.8 0 0
0.201153 0.272002 0.025002 0.8 0 0
0.322624 0.358292 0.072493 0.8 0 0
0.301955 0.377152 0.072493 0.8 0 0
0.466841 0.106263 0.030197 0.8 0 0
0.266123 0.651398 0.072008 0.8 0 0
0.070017 0.084804 0.036441 0.8 0 0
0.256297 0.865862 0.073480 0.8 0 0
0.291718 0.701870 0.048949 0.8 0 0
0.136963 0.260595 0.072493 0.8 0 0
0.142632 0.282572 0.049071 0.8 0 0
0.095185 0.104482 0.072493 0.8 0 0
0.251483 0.420501 0.085704 0.8 0 0
0.375976 0.274693 0.025002 0.8 0 0
0.405223 0.144486 0.025000 0.8 0 0
0.129993 0.251243 0.062692 0.8 0 0
0.221793 0.261242 0.063447 0.8 0 0
0.376818 0.264608 0.025002 0.8 0 0
0.203430 0.413144 0.025002 0.8 0 0
0.099115 0.092910 0.054562 0.8 0 0
0.323490 0.212747 0.029975 0.8 0 0
0.280277 0.874678 0.073480 0.8 0 0
0.294806 0.711896 0.085181 0.8 0 0
0.369169 0.341296 0.025002 0.8 0 0
0.248669 0.833542 0.057095 0.8 0 0
0.257231 0.790974 0.079652 0.8 0 0
0.312968 0.382765 0.072493 0.8 0 0
0.295235 0.505941 0.057432 0.8 0 0
0.255210 0.947286 0.049873 0.8 0 0
0.230525 0.348100 0.072493 0.8 0 0
0.231032 0.440839 0.052161 0.8 0 0
0.129657 0.245943 0.025002 0.8 0 0
0.438328 0.185392 0.041667 0.8 0 0
0.275876 0.423587 0.082384 0.8 0 0
0.264357 0.404799 0.072493 0.8 0 0
0.287451 0.425322 0.072493 0.8 0 0
0.093988 0.151326 0.039376 0.8 0 0
0.276221 0.460368 0.083317 0.8 0 0
0.396731 0.260232 0.072491 0.8 0 0
0.104658 0.180937 0.069285 0.8 0 0
0.104751 0.127363 0.072493 0.8 0 0
0.294837 0.454640 0.085256 0.8 0 0
0.167353 0.352471 0.070040 0.8 0 0
0.382106 0.320796 0.072493 0.8 0 0
0.280656 0.630691 0.075464 0.8 0 0
0.259298 0.804259 0.085369 0.8 0 0
0.368552 0.165658 0.057375 0.8 0 0
0.182015 0.241341 0.072493 0.8 0 0
0.277686 0.402078 0.072493 0.8 0 0
0.291152 0.498950 0.072008 0.8 0 0
0.337312 0.197566 0.043827 0.8 0 0
0.286143 0.421825 0.072493 0.8 0 0
0.249715 0.698440 0.048549 0.8 0 0
0.187176 0.240511 0.057216 0.8 0 0
0.415696 0.242664 0.047400 0.8 0 0
0.260240 0.406939 0.085758 0.8 0 0
0.247716 0.556009 0.072008 0.8 0 0
0.289569 0.777448 0.043765 0.8 0 0
0.284459 0.296475 0.072493 0.8 0 0
0.264494 0.950959 0.052658 0.8 0 0
0.278820 0.709213 0.072008 0.8 0 0
0.227204 0.221064 0.072493 0.8 0 0
0.351981 0.246989 0.025002 0.8 0 0
0.297917 0.237059 0.032239 0.8 0 0
0.103816 0.112734 0.025002 0.8 0 0
0.287909 0.467918 0.080406 0.8 0 0
0.309791 0.879503 0.073480 0.8 0 0
0.180983 0.264755 0.070008 0.8 0 0
0.247916 0.703908 0.075847 0.8 0 0
0.088131 0.128420 0.025002 0.8 0 0
0.295584 0.298962 0.085645 0.8 0 0
0.258482 0.736314 0.072008 0.8 0 0
0.458770 0.128660 0.072479 0.8 0 0
0.334481 0.260063 0.072493 0.8 0 0
0.393182 0.306347 0.026664 0.8 0 0
0.269525 0.780944 0.030955 0.8 0 0
0.143550 0.267978 0.061417 0.8 0 0
0.231617 0.240511 0.029995 0.8 0 0
0.353142 0.252867 0.072491 0.8 0 0
0.324130 0.894129 0.048745 0.8 0 0
0.333798 0.337698 0.025002 0.8 0 0
0.275924 0.256166 0.075459 0.8 0 0
0.190199 0.182360 0.067660 0.8 0 0
0.185190 0.176647 0.061074 0.8 0 0
0.296934 0.586645 0.085165 0.8 0 0
0.168897 0.356835 0.052242 0.8 0 0
0.246327 0.231782 0.033640 0.8 0 0
0.343960 0.423779 0.072493 0.8 0 0
0.208495 0.912345 0.048745 0.8 0 0
0.099132 0.141113 0.025002 0.8 0 0
0.241751 0.276368 0.025002 0.8 0 0
0.271281 0.447654 0.076640 0.8 0 0
0.268312 0.307092 0.076448 0.8 0 0
0.145999 0.197472 0.025002 0.8 0 0
0.277851 0.796983 0.085438 0.8 0 0
0.262842 0.257709 0.052590 0.8 0 0
0.064723 0.070115 0.046953 0.8 0 0
0.190090 0.372237 0.072493 0.8 0 0
0.312642 0.899625 0.049251 0.8 0 0
0.212737 0.268816 0.025002 0.8 0 0
0.136435 0.240511 0.068392 0.8 0 0
0.295351 0.379982 0.083179 0.8 0 0
0.479491 0.071157 0.059069 0.8 0 0
0.278011 0.884209 0.073480 0.8 0 0
0.190353 0.357112 0.072493 0.8 0 0
0.456656 0.134529 0.060851 0.8 0 0
0.070307 0.064804 0.051781 0.8 0 0
0.340616 0.374310 0.025002 0.8 0 0
0.179859 0.309211 0.072493 0.8 0 0
0.421168 0.233015 0.052774 0.8 0 0
0.211963 0.290672 0.025002 0.8 0 0
0.414329 0.189189 0.025000 0.8 0 0
0.307487 0.862210 0.062660 0.8 0 0
0.251017 0.862210 0.039768 0.8 0 0
0.274010 0.902050 0.039760 0.8 0 0
0.288973 0.440757 0.043496 0.8 0 0
0.255757 0.917343 0.058475 0.8 0 0
0.093641 0.084003 0.025002 0.8 0 0
0.364377 0.387822 0.026140 0.8 0 0
0.266982 0.492768 0.030142 0.8 0 0
0.450494 0.116242 0.072491 0.8 0 0
0.140955 0.174367 0.072493 0.8 0 0
0.073502 0.076349 0.072493 0.8 0 0
0.383813 0.246647 0.025000 0.8 0 0
0.159987 0.154731 0.025002 0.8 0 0
0.247066 0.609077 0.070188 0.8 0 0
0.467726 0.103808 0.039526 0.8 0 0
0.209172 0.370565 0.025002 0.8 0 0
0.473424 0.087994 0.026153 0.8 0 0
0.275785 0.850468 0.084085 0.8 0 0
0.233827 0.936601 0.054682 0.8 0 0
0.287035 0.603286 0.037653 0.8 0 0
0.140867 0.186560 0.025002 0.8 0 0
0.285458 0.520997 0.083179 0.8 0 0
0.388168 0.320529 0.027277 0.8 0 0
0.285656 0.727653 0.080011 0.8 0 0
0.256381 0.824569 0.041085 0.8 0 0
0.287977 0.843629 0.074469 0.8 0 0
0.308791 0.224493 0.047736 0.8 0 0
0.251582 0.253644 0.072493 0.8 0 0
0.178483 0.313808 0.072493 0.8 0 0
0.085380 0.127437 0.056913 0.8 0 0
0.248568 0.912012 0.055906 0.8 0 0
0.173300 0.168578 0.025002 0.8 0 0
0.302131 0.436608 0.025002 0.8 0 0
0.316816 0.440839 0.066813 0.8 0 0
0.279314 0.599752 0.034083 0.8 0 0
0.453929 0.105330 0.025000 0.8 0 0
0.098563 0.164022 0.044780 0.8 0 0
0.241108 0.259580 0.067655 0.8 0 0
0.435213 0.123468 0.025000 0.8 0 0
0.328224 0.435074 0.025002 0.8 0 0
0.350579 0.240511 0.043755 0.8 0 0
0.363482 0.329845 0.072493 0.8 0 0
0.271968 0.331331 0.072493 0.8 0 0
0.217240 0.440839 0.041514 0.8 0 0
0.298515 0.284228 0.072493 0.8 0 0
0.246121 0.588032 0.074469 0.8 0 0
0.260132 0.488634 0.072008 0.8 0 0
0.249021 0.697149 0.054220 0.8 0 0
0.227305 0.905618 0.060520 0.8 0 0
0.204973 0.258281 0.072493 0.8 0 0
0.253788 0.240852 0.025002 0.8 0 0
0.294007 0.488595 0.054470 0.8 0 0
0.157592 0.147057 0.038735 0.8 0 0
0.183142 0.393009 0.072493 0.8 0 0
0.279488 0.862210 0.058027 0.8 0 0
0.403884 0.276076 0.030949 0.8 0 0
0.296840 0.771475 0.071423 0.8 0 0
0.284870 0.499338 0.083649 0.8 0 0
0.269257 0.346552 0.025002 0.8 0 0
0.212390 0.311254 0.025002 0.8 0 0
0.325028 0.240511 0.066524 0.8 0 0
0.258412 0.414978 0.025002 0.8 0 0
0.291628 0.299222 0.072493 0.8 0 0
0.361488 0.248033 0.072493 0.8 0 0
0.418425 0.117471 0.058676 0.8 0 0
0.291533 0.506619 0.048502 0.8 0 0
0.315496 0.408892 0.072493 0.8 0 0
0.342764 0.240511 0.064585 0.8 0 0
0.276181 0.397016 0.072493 0.8 0 0
0.248447 0.471653 0.058907 0.8 0 0
0.274619 0.353802 0.082384 0.8 0 0
0.257778 0.943223 0.052320 0.8 0 0
0.394139 0.184079 0.072491 0.8 0 0
0.327659 0.262689 0.058597 0.8 0 0
0.396594 0.257834 0.072491 0.8 0 0
0.365786 0.359612 0.025002 0.8 0 0
0.272659 0.744407 0.074469 0.8 0 0
0.421089 0.233233 0.040662 0.8 0 0
0.235448 0.418169 0.025002 0.8 0 0
0.416387 0.240511 0.070069 0.8 0 0
0.256543 0.255660 0.072493 0.8 0 0
0.101940 0.173393 0.054834 0.8 0 0
0.323828 0.213081 0.025107 0.8 0 0
0.290253 0.715082 0.045414 0.8 0 0
0.260921 0.245989 0.034814 0.8 0 0
0.434556 0.125452 0.025000 0.8 0 0
0.259306 0.815333 0.074469 0.8 0 0
0.401724 0.229082 0.025000 0.8 0 0
0.260678 0.773291 0.085584 0.8 0 0
0.248121 0.450199 0.061572 0.8 0 0
0.292718 0.516048 0.072008 0.8 0 0
0.255116 0.433374 0.072493 0.8 0 0
0.105375 0.096461 0.036282 0.8 0 0
0.250740 0.793607 0.072008 0.8 0 0
0.301901 0.327684 0.025002 0.8 0 0
0.309363 0.893599 0.072270 0.8 0 0
0.248985 0.950480 0.048745 0.8 0 0
0.254316 0.333537 0.025002 0.8 0 0
0.244411 0.900583 0.051043 0.8 0 0
0.138661 0.271344 0.026321 0.8 0 0
0.082035 0.118155 0.069927 0.8 0 0
0.250203 0.796450 0.072008 0.8 0 0
0.257522 0.310934 0.025002 0.8 0 0
0.277034 0.313719 0.082979 0.8 0 0
0.397665 0.187166 0.072491 0.8 0 0
0.083225 0.109791 0.072493 0.8 0 0
0.127782 0.240511 0.043217 0.8 0 0
0.318788 0.300344 0.072493 0.8 0 0
0.125943 0.117695 0.046884 0.8 0 0
0.095664 0.090298 0.059804 0.8 0 0
0.367878 0.366855 0.025002 0.8 0 0
0.277410 0.504750 0.074469 0.8 0 0
0.197678 0.263318 0.068350 0.8 0 0
0.168752 0.191161 0.072493 0.8 0 0
0.290460 0.452547 0.072008 0.8 0 0
0.288861 0.449130 0.042059 0.8 0 0
0.149189 0.292817 0.072493 0.8 0 0
0.283903 0.605610 0.074469 0.8 0 0
0.312693 0.273706 0.025002 0.8 0 0
0.279740 0.867960 0.072008 0.8 0 0
0.128310 0.246571 0.064684 0.8 0 0
0.458949 0.128165 0.049476 0.8 0 0
0.361532 0.227429 0.072491 0.8 0 0
0.225659 0.229969 0.072493 0.8 0 0
0.330280 0.430433 0.025002 0.8 0 0
0.302228 0.419545 0.025002 0.8 0 0
0.256847 0.600443 0.072008 0.8 0 0
0.251404 0.791778 0.085737 0.8 0 0
0.252572 0.641230 0.084774 0.8 0 0
0.298152 0.773165 0.078331 0.8 0 0
0.273024 0.796910 0.079064 0.8 0 0
0.266737 0.500092 0.077217 0.8 0 0
0.282589 0.814719 0.080326 0.8 0 0
0.375926 0.295891 0.072493 0.8 0 0
0.244254 0.253986 0.072493 0.8 0 0
0.283138 0.759620 0.072008 0.8 0 0
0.272532 0.548888 0.031916 0.8 0 0
0.192305 0.277186 0.025002 0.8 0 0
0.276901 0.564969 0.033312 0.8 0 0
0.249741 0.475279 0.048335 0.8 0 0
0.106952 0.163428 0.072493 0.8 0 0
0.383594 0.262861 0.025000 0.8 0 0
0.285565 0.793060 0.036081 0.8 0 0
0.204879 0.252654 0.072493 0.8 0 0
0.342325 0.285664 0.025002 0.8 0 0
0.301034 0.913381 0.057337 0.8 0 0
0.477712 0.076094 0.027663 0.8 0 0
0.160798 0.333936 0.026341 0.8 0 0
0.102430 0.119680 0.025002 0.8 0 0
0.269288 0.316065 0.081562 0.8 0 0
0.289533 0.573472 0.043678 0.8 0 0
0.284705 0.402182 0.084046 0.8 0 0
0.264937 0.254785 0.071236 0.8 0 0
0.443171 0.117323 0.025000 0.8 0 0
0.277263 0.944695 0.052578 0.8 0 0
0.209573 0.364821 0.072493 0.8 0 0
0.259230 0.502418 0.080406 0.8 0 0
0.168508 0.161143 0.025002 0.8 0 0
0.291803 0.456707 0.049154 0.8 0 0
0.122058 0.229221 0.072365 0.8 0 0
0.348244 0.350219 0.072493 0.8 0 0
0.274369 0.440757 0.055326 0.8 0 0
0.131059 0.120682 0.032572 0.8 0 0
0.089200 0.138038 0.025369 0.8 0 0
0.311930 0.880509 0.034050 0.8 0 0
0.066579 0.063738 0.070418 0.8 0 0
0.301610 0.392925 0.025002 0.8 0 0
0.275797 0.646883 0.084670 0.8 0 0
0.306061 0.407260 0.025002 0.8 0 0
0.336245 0.200231 0.031727 0.8 0 0
0.307841 0.356940 0.025002 0.8 0 0
0.297721 0.624754 0.074608 0.8 0 0
0.295907 0.619087 0.085745 0.8 0 0
0.235284 0.925865 0.057576 0.8 0 0
0.144195 0.155686 0.025002 0.8 0 0
0.256010 0.553370 0.074469 0.8 0 0
0.260945 0.633961 0.036148 0.8 0 0
0.287071 0.866423 0.073480 0.8 0 0
0.372247 0.189031 0.025000 0.8 0 0
0.151615 0.240511 0.050425 0.8 0 0
0.365875 0.265980 0.056704 0.8 0 0
0.315818 0.440839 0.036101 0.8 0 0
0.293136 0.470154 0.072008 0.8 0 0
0.391213 0.144451 0.052893 0.8 0 0
0.326115 0.438076 0.072493 0.8 0 0
0.203438 0.194304 0.061753 0.8 0 0
0.254848 0.889434 0.073480 0.8 0 0
0.252381 0.258609 0.060833 0.8 0 0
0.146452 0.267728 0.067820 0.8 0 0
0.293389 0.931539 0.066181 0.8 0 0
0.401348 0.283248 0.068972 0.8 0 0
0.272691 0.906717 0.073480 0.8 0 0
0.367016 0.380358 0.058901 0.8 0 0
0.263159 0.674226 0.078805 0.8 0 0
0.249357 0.280482 0.025002 0.8 0 0
0.263748 0.837924 0.033117 0.8 0 0
0.265928 0.814719 0.074574 0.8 0 0
0.268473 0.674226 0.078945 0.8 0 0
0.457929 0.127790 0.025000 0.8 0 0
0.398152 0.221355 0.072491 0.8 0 0
0.117779 0.208849 0.025002 0.8 0 0
0.286337 0.803180 0.072008 0.8 0 0
0.296732 0.311536 0.083323 0.8 0 0
0.278362 0.777115 0.084617 0.8 0 0
0.427318 0.215946 0.042820 0.8 0 0
0.248088 0.258019 0.025002 0.8 0 0
0.065865 0.061756 0.060849 0.8 0 0
0.210449 0.242616 0.025002 0.8 0 0
0.208769 0.347800 0.025002 0.8 0 0
0.293418 0.815753 0.053050 0.8 0 0
0.325153 0.301598 0.025002 0.8 0 0
0.243422 0.350949 0.025002 0.8 0 0
0.135817 0.263304 0.027335 0.8 0 0
0.239322 0.259733 0.057530 0.8 0 0
0.392509 0.240511 0.061259 0.8 0 0
0.118253 0.110653 0.049544 0.8 0 0
0.138045 0.218955 0.025002 0.8 0 0
0.243457 0.899874 0.045216 0.8 0 0
0.093177 0.087808 0.059090 0.8 0 0
0.229103 0.935075 0.048745 0.8 0 0
0.294736 0.858087 0.056228 0.8 0 0
0.246660 0.747635 0.080406 0.8 0 0
0.296306 0.316218 0.085580 0.8 0 0
0.250379 0.368985 0.078845 0.8 0 0
0.277698 0.324991 0.072493 0.8 0 0
0.252235 0.543048 0.083334 0.8 0 0
0.315163 0.359156 0.072493 0.8 0 0
0.369683 0.266307 0.066054 0.8 0 0
0.210915 0.206823 0.025002 0.8 0 0
0.261314 0.542749 0.083557 0.8 0 0
0.296860 0.862210 0.072638 0.8 0 0
0.247768 0.601095 0.064453 0.8 0 0
0.258430 0.854174 0.072008 0.8 0 0
0.193361 0.240511 0.049136 0.8 0 0
0.287964 0.487421 0.039894 0.8 0 0
0.244876 0.304282 0.025002 0.8 0 0
0.278135 0.679608 0.072008 0.8 0 0
0.332539 0.440839 0.039471 0.8 0 0
0.404612 0.131613 0.052441 0.8 0 0
0.297444 0.921908 0.065473 0.8 0 0
0.387913 0.321249 0.055121 0.8 0 0
0.203846 0.190817 0.033095 0.8 0 0
0.248682 0.440839 0.048471 0.8 0 0
0.271852 0.427774 0.082384 0.8 0 0
0.283238 0.468301 0.080406 0.8 0 0
0.338901 0.403336 0.025002 0.8 0 0
0.262886 0.240511 0.062834 0.8 0 0
0.255232 0.500370 0.074469 0.8 0 0
0.197525 0.426116 0.025002 0.8 0 0
0.291906 0.360096 0.082302 0.8 0 0
0.343381 0.264043 0.048985 0.8 0 0
0.259099 0.307562 0.084966 0.8 0 0
0.289638 0.623162 0.043932 0.8 0 0
0.242877 0.945076 0.054576 0.8 0 0
0.328966 0.430450 0.025002 0.8 0 0
0.231443 0.862210 0.068231 0.8 0 0
0.355985 0.361943 0.072493 0.8 0 0
0.213109 0.440839 0.028305 0.8 0 0
0.213615 0.339108 0.025002 0.8 0 0
0.278027 0.509149 0.072008 0.8 0 0
0.168357 0.267318 0.025002 0.8 0 0
0.364945 0.324159 0.025002 0.8 0 0
0.269820 0.552670 0.031049 0.8 0 0
0.081652 0.072447 0.027576 0.8 0 0
0.286372 0.268633 0.072493 0.8 0 0
0.227670 0.862379 0.056953 0.8 0 0
0.407616 0.256070 0.025002 0.8 0 0
0.268465 0.793511 0.074469 0.8 0 0
0.405498 0.243248 0.072493 0.8 0 0
0.216134 0.379702 0.025002 0.8 0 0
0.074571 0.097442 0.040132 0.8 0 0
0.289149 0.679021 0.042752 0.8 0 0
0.233309 0.875772 0.038943 0.8 0 0
0.313890 0.273463 0.072493 0.8 0 0
0.249010 0.834207 0.054309 0.8 0 0
0.240076 0.901723 0.050090 0.8 0 0
0.253598 0.470619 0.074469 0.8 0 0
0.372677 0.240511 0.039949 0.8 0 0
0.262316 0.631730 0.072008 0.8 0 0
0.286523 0.493163 0.085534 0.8 0 0
0.358334 0.243107 0.072491 0.8 0 0
0.162721 0.310660 0.072493 0.8 0 0
0.297768 0.684472 0.063541 0.8 0 0
0.262832 0.945889 0.070857 0.8 0 0
0.102447 0.143048 0.025002 0.8 0 0
0.280849 0.362152 0.025002 0.8 0 0
0.394672 0.302130 0.032025 0.8 0 0
0.290128 0.516177 0.074469 0.8 0 0
0.348109 0.426000 0.067629 0.8 0 0
0.417074 0.244377 0.061329 0.8 0 0
0.266340 0.240511 0.028157 0.8 0 0
0.292884 0.606946 0.079095 0.8 0 0
0.354020 0.244765 0.025000 0.8 0 0
0.261630 0.436083 0.025002 0.8 0 0
0.289927 0.440839 0.033637 0.8 0 0
0.365045 0.385933 0.025142 0.8 0 0
0.220599 0.390319 0.072493 0.8 0 0
0.251669 0.291202 0.083099 0.8 0 0
0.156522 0.234424 0.072493 0.8 0 0
0.373125 0.363079 0.030531 0.8 0 0
0.306959 0.343832 0.025002 0.8 0 0
0.280235 0.440839 0.043410 0.8 0 0
0.277492 0.953652 0.055261 0.8 0 0
0.268019 0.792562 0.085412 0.8 0 0
0.278771 0.744504 0.072008 0.8 0 0
0.341789 0.263906 0.050001 0.8 0 0
0.288796 0.713477 0.041901 0.8 0 0
0.297154 0.482687 0.068858 0.8 0 0
0.259693 0.414158 0.083196 0.8 0 0
0.314212 0.261067 0.072491 0.8 0 0
0.273280 0.555497 0.079256 0.8 0 0
0.285187 0.868103 0.063872 0.8 0 0
0.284839 0.445966 0.083724 0.8 0 0
0.275974 0.674567 0.080406 0.8 0 0
0.415984 0.247401 0.026002 0.8 0 0
0.297089 0.680181 0.069385 0.8 0 0
0.285913 0.309167 0.085737 0.8 0 0
0.359011 0.261744 0.072493 0.8 0 0
0.335619 0.240511 0.056666 0.8 0 0
0.416175 0.240511 0.056041 0.8 0 0
0.255362 0.926093 0.053622 0.8 0 0
0.287333 0.440839 0.047658 0.8 0 0
0.320367 0.240511 0.033979 0.8 0 0
0.248373 0.470923 0.059508 0.8 0 0
0.263705 0.306376 0.025002 0.8 0 0
0.269183 0.942619 0.051801 0.8 0 0
0.296311 0.791533 0.080406 0.8 0 0
0.281521 0.466081 0.080406 0.8 0 0
0.303872 0.440839 0.047397 0.8 0 0
0.151037 0.260184 0.072493 0.8 0 0
0.297434 0.595604 0.066576 0.8 0 0
0.311636 0.240034 0.072491 0.8 0 0
0.279522 0.565608 0.072008 0.8 0 0
0.248048 0.263540 0.025002 0.8 0 0
0.266680 0.721717 0.076879 0.8 0 0
0.388328 0.253110 0.072493 0.8 0 0
0.261409 0.464767 0.072008 0.8 0 0
0.268185 0.861661 0.083425 0.8 0 0
0.409322 0.241926 0.072493 0.8 0 0
0.275972 0.816366 0.083633 0.8 0 0
0.171904 0.339256 0.072493 0.8 0 0
0.293623 0.858856 0.072008 0.8 0 0
0.287119 0.854665 0.083753 0.8 0 0
0.171260 0.362931 0.072493 0.8 0 0
0.274546 0.830151 0.032560 0.8 0 0
0.208160 0.251354 0.025002 0.8 0 0
0.279161 0.796705 0.074469 0.8 0 0
0.310638 0.309750 0.025002 0.8 0 0
0.209864 0.344173 0.072493 0.8 0 0
0.255497 0.868103 0.059387 0.8 0 0
0.265677 0.320771 0.025002 0.8 0 0
0.253530 0.241281 0.025002 0.8 0 0
0.290384 0.667322 0.045731 0.8 0 0
0.246121 0.893685 0.073480 0.8 0 0
0.374862 0.240511 0.043554 0.8 0 0
0.161196 0.335060 0.038647 0.8 0 0
0.273497 0.447654 0.078805 0.8 0 0
0.366057 0.241640 0.072493 0.8 0 0
0.219599 0.329343 0.072493 0.8 0 0
0.247674 0.727653 0.077862 0.8 0 0
0.186441 0.254997 0.072493 0.8 0 0
0.388823 0.175055 0.025000 0.8 0 0
0.380243 0.251243 0.072491 0.8 0 0
0.260738 0.861680 0.085559 0.8 0 0
0.425235 0.169219 0.072491 0.8 0 0
0.280555 0.941404 0.059951 0.8 0 0
0.187293 0.212542 0.072493 0.8 0 0
0.248327 0.624805 0.059883 0.8 0 0
0.297061 0.548784 0.061836 0.8 0 0
0.249199 0.506697 0.052764 0.8 0 0
0.254186 0.258454 0.045343 0.8 0 0
0.211426 0.254622 0.025002 0.8 0 0
0.371298 0.166769 0.029644 0.8 0 0
0.263430 0.403344 0.072493 0.8 0 0
0.385293 0.328662 0.038800 0.8 0 0
0.295240 0.773683 0.083225 0.8 0 0
0.260413 0.340769 0.083033 0.8 0 0
0.159319 0.263032 0.025002 0.8 0 0
0.227473 0.250381 0.025002 0.8 0 0
0.288011 0.803871 0.040007 0.8 0 0
0.268812 0.691997 0.072008 0.8 0 0
0.235750 0.881569 0.062897 0.8 0 0
0.151272 0.240511 0.041700 0.8 0 0
0.175007 0.315318 0.072493 0.8 0 0
0.278157 0.677495 0.072008 0.8 0 0
0.226076 0.261117 0.072493 0.8 0 0
0.232286 0.872192 0.073480 0.8 0 0
0.307793 0.369411 0.025002 0.8 0 0
0.264730 0.951366 0.055568 0.8 0 0
0.296029 0.703148 0.072008 0.8 0 0
0.199038 0.254121 0.025002 0.8 0 0
0.279323 0.569960 0.080406 0.8 0 0
0.272065 0.630691 0.075161 0.8 0 0
0.251535 0.633609 0.046327 0.8 0 0
0.210841 0.218140 0.072493 0.8 0 0
0.291557 0.297529 0.025002 0.8 0 0
0.264858 0.345809 0.072493 0.8 0 0
0.379141 0.183099 0.025000 0.8 0 0
0.265804 0.304856 0.072493 0.8 0 0
0.249158 0.960001 0.053052 0.8 0 0
0.454100 0.086041 0.037169 0.8 0 0
0.360421 0.234253 0.072491 0.8 0 0
0.287519 0.277774 0.072493 0.8 0 0
0.290825 0.400024 0.025002 0.8 0 0
0.269530 0.629667 0.080406 0.8 0 0
0.258906 0.441115 0.084228 0.8 0 0
0.219212 0.252047 0.072493 0.8 0 0
0.175291 0.370721 0.072493 0.8 0 0
0.252809 0.862210 0.057488 0.8 0 0
0.305508 0.325533 0.072493 0.8 0 0
0.251906 0.558826 0.072008 0.8 0 0
0.286220 0.359200 0.083067 0.8 0 0
0.247010 0.749904 0.070644 0.8 0 0
0.068849 0.081564 0.069960 0.8 0 0
0.237779 0.305373 0.025002 0.8 0 0
0.341390 0.240511 0.063411 0.8 0 0
0.267499 0.768329 0.083099 0.8 0 0
0.205222 0.440416 0.038450 0.8 0 0
0.264194 0.291191 0.025002 0.8 0 0
0.435692 0.192707 0.038321 0.8 0 0
0.254033 0.724615 0.043625 0.8 0 0
0.237288 0.956086 0.054682 0.8 0 0
0.267969 0.367129 0.085433 0.8 0 0
0.257314 0.606946 0.075586 0.8 0 0
0.292157 0.640677 0.050007 0.8 0 0
0.264127 0.809349 0.032707 0.8 0 0
0.173866 0.370885 0.049663 0.8 0 0
0.161576 0.247225 0.072493 0.8 0 0
0.319273 0.212953 0.058442 0.8 0 0
0.207016 0.193863 0.033059 0.8 0 0
0.265839 0.737188 0.030854 0.8 0 0
0.195379 0.262863 0.025002 0.8 0 0
0.389722 0.256759 0.072491 0.8 0 0
0.297363 0.724291 0.074469 0.8 0 0
0.180113 0.172312 0.065153 0.8 0 0
0.295730 0.263199 0.072493 0.8 0 0
0.423175 0.227444 0.053197 0.8 0 0
0.304505 0.232074 0.025000 0.8 0 0
0.401147 0.165985 0.072491 0.8 0 0
0.251395 0.861021 0.046478 0.8 0 0
0.297522 0.800702 0.065852 0.8 0 0
0.444916 0.091220 0.064209 0.8 0 0
0.397466 0.142894 0.072491 0.8 0 0
0.130188 0.251783 0.058769 0.8 0 0
0.268407 0.825694 0.083962 0.8 0 0
0.249185 0.614463 0.052877 0.8 0 0
0.090627 0.141998 0.039791 0.8 0 0
0.248052 0.511836 0.062137 0.8 0 0
0.272093 0.255681 0.026966 0.8 0 0
0.194507 0.429247 0.052673 0.8 0 0
0.252409 0.656602 0.085169 0.8 0 0
0.223631 0.257969 0.025002 0.8 0 0
0.264879 0.868103 0.041479 0.8 0 0
0.254272 0.868103 0.054436 0.8 0 0
0.338034 0.436199 0.025002 0.8 0 0
0.439623 0.181798 0.049694 0.8 0 0
0.269003 0.955266 0.073480 0.8 0 0
0.387568 0.148405 0.049599 0.8 0 0
0.291993 0.697971 0.074645 0.8 0 0
0.345384 0.408002 0.072493 0.8 0 0
0.321819 0.262186 0.050172 0.8 0 0
0.459372 0.126993 0.037948 0.8 0 0
0.377880 0.307047 0.025002 0.8 0 0
0.284765 0.506028 0.079966 0.8 0 0
0.259072 0.833603 0.084901 0.8 0 0
0.259862 0.421770 0.083126 0.8 0 0
0.297580 0.575637 0.063088 0.8 0 0
0.366244 0.266011 0.029183 0.8 0 0
0.455177 0.084651 0.039780 0.8 0 0
0.325541 0.911622 0.048745 0.8 0 0
0.278197 0.766202 0.083711 0.8 0 0
0.268547 0.534672 0.030642 0.8 0 0
0.219449 0.209999 0.063846 0.8 0 0
0.474254 0.078547 0.072491 0.8 0 0
0.247307 0.568568 0.068220 0.8 0 0
0.293820 0.676804 0.072008 0.8 0 0
0.202247 0.297068 0.025002 0.8 0 0
0.073359 0.068944 0.060667 0.8 0 0
0.317776 0.261838 0.058683 0.8 0 0
0.364021 0.366144 0.072493 0.8 0 0
0.293622 0.721717 0.078390 0.8 0 0
0.271796 0.310737 0.076448 0.8 0 0
0.138035 0.127016 0.029762 0.8 0 0
0.358510 0.404418 0.044765 0.8 0 0
0.272924 0.440839 0.028896 0.8 0 0
0.220603 0.240511 0.070050 0.8 0 0
0.164054 0.343142 0.032840 0.8 0 0
0.255479 0.545171 0.042060 0.8 0 0
0.386501 0.165619 0.025000 0.8 0 0
0.101961 0.094362 0.045055 0.8 0 0
0.297197 0.633687 0.062165 0.8 0 0
0.131517 0.251144 0.027043 0.8 0 0
0.164945 0.299704 0.072493 0.8 0 0
0.298835 0.820608 0.078925 0.8 0 0
0.249381 0.764146 0.051281 0.8 0 0
0.216306 0.289999 0.072493 0.8 0 0
0.252227 0.612296 0.085397 0.8 0 0
0.452027 0.147376 0.041001 0.8 0 0
0.261653 0.408118 0.072493 0.8 0 0
0.258014 0.242703 0.072493 0.8 0 0
0.151425 0.307434 0.026996 0.8 0 0
0.424195 0.212052 0.072491 0.8 0 0
0.247115 0.790490 0.069784 0.8 0 0
0.236428 0.252344 0.025002 0.8 0 0
0.258797 0.738622 0.038472 0.8 0 0
0.086404 0.130279 0.038276 0.8 0 0
0.150810 0.278214 0.025002 0.8 0 0
0.256809 0.831207 0.072008 0.8 0 0
0.248164 0.698675 0.061218 0.8 0 0
0.441690 0.176062 0.037664 0.8 0 0
0.410876 0.126479 0.045823 0.8 0 0
0.338394 0.343637 0.072493 0.8 0 0
0.323013 0.267001 0.025002 0.8 0 0
0.224525 0.915379 0.054682 0.8 0 0
0.290798 0.439683 0.072493 0.8 0 0
0.345763 0.429574 0.058683 0.8 0 0
0.290315 0.829720 0.072008 0.8 0 0
0.297297 0.360346 0.072493 0.8 0 0
0.291659 0.360269 0.082352 0.8 0 0
0.206715 0.349042 0.025002 0.8 0 0
0.293802 0.236192 0.067894 0.8 0 0
0.124415 0.235763 0.053138 0.8 0 0
0.155702 0.265118 0.025002 0.8 0 0
0.274200 0.356431 0.072493 0.8 0 0
0.357273 0.407919 0.035678 0.8 0 0
0.273347 0.665066 0.032176 0.8 0 0
0.296164 0.856699 0.085639 0.8 0 0
0.384155 0.259256 0.025002 0.8 0 0
0.261389 0.844393 0.035668 0.8 0 0
0.404556 0.274173 0.043042 0.8 0 0
0.188139 0.371931 0.072493 0.8 0 0
0.392279 0.215263 0.025000 0.8 0 0
0.286941 0.588436 0.083365 0.8 0 0
0.223006 0.210183 0.039914 0.8 0 0
0.276456 0.408860 0.085509 0.8 0 0
0.197703 0.395011 0.025002 0.8 0 0
0.315148 0.957060 0.050350 0.8 0 0
0.291423 0.414980 0.082384 0.8 0 0
0.334613 0.400737 0.072493 0.8 0 0
0.305918 0.240511 0.026715 0.8 0 0
0.275754 0.308159 0.084567 0.8 0 0
0.298183 0.465516 0.080406 0.8 0 0
0.294196 0.629483 0.074469 0.8 0 0
0.347962 0.240511 0.036505 0.8 0 0
0.358088 0.246670 0.072493 0.8 0 0
0.094105 0.100831 0.072493 0.8 0 0
0.072538 0.063405 0.025595 0.8 0 0
0.298828 0.549561 0.078788 0.8 0 0
0.419548 0.176166 0.072491 0.8 0 0
0.132863 0.254950 0.032695 0.8 0 0
0.290285 0.808814 0.072008 0.8 0 0
0.297672 0.718720 0.063311 0.8 0 0
0.237771 0.239725 0.025002 0.8 0 0
0.214955 0.269347 0.025002 0.8 0 0
0.257099 0.831638 0.072008 0.8 0 0
0.185291 0.264384 0.068817 0.8 0 0
0.411183 0.260724 0.053381 0.8 0 0
0.115752 0.211724 0.054167 0.8 0 0
0.423130 0.117366 0.026003 0.8 0 0
0.367024 0.361073 0.072493 0.8 0 0
0.300813 0.255400 0.078975 0.8 0 0
0.292015 0.717768 0.049666 0.8 0 0
0.375388 0.161136 0.042171 0.8 0 0
0.139479 0.273059 0.025002 0.8 0 0
0.112617 0.203023 0.070633 0.8 0 0
0.291816 0.307001 0.082384 0.8 0 0
0.174285 0.240511 0.041895 0.8 0 0
0.252477 0.853434 0.085003 0.8 0 0
0.336915 0.434259 0.072493 0.8 0 0
0.146363 0.227186 0.025002 0.8 0 0
0.349698 0.182503 0.067017 0.8 0 0
0.412741 0.256401 0.071599 0.8 0 0
0.185827 0.240511 0.025009 0.8 0 0
0.296927 0.473688 0.061512 0.8 0 0
0.267697 0.655409 0.080406 0.8 0 0
0.209849 0.920110 0.049151 0.8 0 0
0.296385 0.789111 0.085548 0.8 0 0
0.229414 0.240511 0.069719 0.8 0 0
0.250495 0.580321 0.083318 0.8 0 0
0.171253 0.353107 0.025002 0.8 0 0
0.248710 0.240511 0.042138 0.8 0 0
0.252862 0.255339 0.081395 0.8 0 0
0.332744 0.263127 0.061692 0.8 0 0
0.234317 0.222255 0.048658 0.8 0 0
0.289045 0.419832 0.076448 0.8 0 0
0.271679 0.868296 0.029619 0.8 0 0
0.327304 0.209105 0.029760 0.8 0 0
0.291361 0.601408 0.048087 0.8 0 0
0.440829 0.178452 0.026822 0.8 0 0
0.219842 0.922789 0.048745 0.8 0 0
0.229114 0.440839 0.059749 0.8 0 0
0.256067 0.241743 0.037961 0.8 0 0
0.396755 0.267936 0.072491 0.8 0 0
0.099439 0.166452 0.029453 0.8 0 0
0.266643 0.495719 0.083186 0.8 0 0
0.331257 0.244275 0.025002 0.8 0 0
0.295186 0.339948 0.085480 0.8 0 0
0.390387 0.314253 0.066521 0.8 0 0
0.255852 0.563795 0.041657 0.8 0 0
0.283548 0.370574 0.025002 0.8 0 0
0.313780 0.261494 0.049948 0.8 0 0
0.395174 0.300711 0.040121 0.8 0 0
0.305629 0.862210 0.028684 0.8 0 0
0.253968 0.709682 0.072008 0.8 0 0
0.184046 0.174784 0.055447 0.8 0 0
0.283833 0.721717 0.079983 0.8 0 0
0.348900 0.245058 0.072491 0.8 0 0
0.449848 0.153423 0.055285 0.8 0 0
0.411609 0.123274 0.072491 0.8 0 0
0.451422 0.105154 0.025000 0.8 0 0
0.276944 0.969059 0.059858 0.8 0 0
0.108259 0.122901 0.072493 0.8 0 0
0.130417 0.242497 0.025002 0.8 0 0
0.203646 0.262805 0.036766 0.8 0 0
0.260871 0.867537 0.083222 0.8 0 0
0.253240 0.835094 0.044483 0.8 0 0
0.194653 0.183996 0.048081 0.8 0 0
0.265989 0.862210 0.060799 0.8 0 0
0.247017 0.584323 0.070588 0.8 0 0
0.237080 0.222586 0.031455 0.8 0 0
0.326616 0.265776 0.025002 0.8 0 0
0.425463 0.125196 0.072491 0.8 0 0
0.284945 0.344966 0.083467 0.8 0 0
0.286479 0.950633 0.050163 0.8 0 0
0.249442 0.564499 0.050777 0.8 0 0
0.475032 0.073391 0.072491 0.8 0 0
0.092253 0.087934 0.066593 0.8 0 0
0.287069 0.462886 0.083634 0.8 0 0
0.324490 0.289537 0.072493 0.8 0 0
0.277630 0.465041 0.072008 0.8 0 0
0.223464 0.389563 0.025002 0.8 0 0
0.286969 0.741726 0.037495 0.8 0 0
0.249662 0.725280 0.048985 0.8 0 0
0.133643 0.257155 0.064356 0.8 0 0
0.118499 0.219345 0.035077 0.8 0 0
0.220193 0.261585 0.025002 0.8 0 0
0.286266 0.680033 0.083086 0.8 0 0
0.265919 0.374796 0.084708 0.8 0 0
0.342248 0.192715 0.044561 0.8 0 0
0.387691 0.295858 0.025002 0.8 0 0
0.308207 0.318231 0.025002 0.8 0 0
0.284848 0.643973 0.085026 0.8 0 0
0.274777 0.603521 0.072008 0.8 0 0
0.229738 0.867291 0.042657 0.8 0 0
0.195363 0.244151 0.025002 0.8 0 0
0.251065 0.867519 0.085646 0.8 0 0
0.292358 0.356648 0.025002 0.8 0 0
0.374576 0.266729 0.061966 0.8 0 0
0.279469 0.541728 0.072008 0.8 0 0
0.411133 0.231023 0.072491 0.8 0 0
0.246928 0.701557 0.071312 0.8 0 0
0.264318 0.513101 0.032500 0.8 0 0
0.301518 0.440839 0.046284 0.8 0 0
0.235290 0.259113 0.072493 0.8 0 0
0.300926 0.379415 0.072493 0.8 0 0
0.285406 0.815313 0.080406 0.8 0 0
0.350777 0.248322 0.072491 0.8 0 0
0.129966 0.226642 0.025002 0.8 0 0
0.296130 0.507509 0.083074 0.8 0 0
0.338033 0.332971 0.025002 0.8 0 0
0.248853 0.792189 0.080406 0.8 0 0
0.252565 0.267345 0.081395 0.8 0 0
0.116808 0.109409 0.050630 0.8 0 0
0.294614 0.455200 0.084012 0.8 0 0
0.297447 0.583032 0.062766 0.8 0 0
0.379214 0.240511 0.032824 0.8 0 0
0.284149 0.862210 0.065585 0.8 0 0
0.382922 0.259815 0.025000 0.8 0 0
0.115194 0.184456 0.072493 0.8 0 0
0.220162 0.245368 0.072493 0.8 0 0
0.285392 0.853170 0.036025 0.8 0 0
0.137562 0.217101 0.072493 0.8 0 0
0.394585 0.201562 0.072491 0.8 0 0
0.100996 0.165728 0.025002 0.8 0 0
0.098834 0.089766 0.033340 0.8 0 0
0.234877 0.240511 0.058446 0.8 0 0
0.320803 0.277832 0.025002 0.8 0 0
0.248183 0.804993 0.061067 0.8 0 0
0.302354 0.374193 0.025002 0.8 0 0
0.099121 0.093487 0.058777 0.8 0 0
0.282480 0.250276 0.044379 0.8 0 0
0.318647 0.407552 0.025002 0.8 0 0
0.315002 0.299504 0.025002 0.8 0 0
0.160302 0.153458 0.066749 0.8 0 0
0.380675 0.222778 0.025000 0.8 0 0
0.201422 0.301795 0.025002 0.8 0 0
0.265206 0.345423 0.025002 0.8 0 0
0.236114 0.417099 0.025002 0.8 0 0
0.264535 0.596974 0.032265 0.8 0 0
0.245408 0.485969 0.076748 0.8 0 0
0.297218 0.250501 0.025000 0.8 0 0
0.244753 0.863050 0.027530 0.8 0 0
0.245648 0.436883 0.072493 0.8 0 0
0.083110 0.078507 0.061967 0.8 0 0
0.212016 0.381291 0.025002 0.8 0 0
0.267246 0.255308 0.058682 0.8 0 0
0.286819 0.650407 0.037133 0.8 0 0
0.159756 0.291188 0.025002 0.8 0 0
0.277936 0.286388 0.025002 0.8 0 0
0.125966 0.139546 0.025002 0.8 0 0
0.351205 0.240511 0.038882 0.8 0 0
0.210626 0.304997 0.072493 0.8 0 0
0.427154 0.212936 0.072491 0.8 0 0
0.369680 0.163309 0.066706 0.8 0 0
0.256956 0.240511 0.059989 0.8 0 0
0.290748 0.697971 0.077505 0.8 0 0
0.375799 0.263487 0.072491 0.8 0 0
0.378181 0.253013 0.025000 0.8 0 0
0.308116 0.406650 0.072493 0.8 0 0
0.289345 0.240511 0.032012 0.8 0 0
0.193341 0.263691 0.055351 0.8 0 0
0.258711 0.440839 0.031983 0.8 0 0
0.222391 0.296236 0.025002 0.8 0 0
0.247836 0.908993 0.073480 0.8 0 0
0.286818 0.663971 0.083314 0.8 0 0
0.147224 0.267680 0.025002 0.8 0 0
0.305929 0.436810 0.072493 0.8 0 0
0.293680 0.240511 0.045859 0.8 0 0
0.261138 0.823753 0.085394 0.8 0 0
0.223881 0.240511 0.055357 0.8 0 0
0.238377 0.259815 0.071822 0.8 0 0
0.454018 0.082527 0.063706 0.8 0 0
0.273977 0.800493 0.032378 0.8 0 0
0.319750 0.240511 0.053244 0.8 0 0
0.260997 0.421427 0.082384 0.8 0 0
0.285466 0.585451 0.085552 0.8 0 0
0.202534 0.193526 0.062438 0.8 0 0
0.288177 0.268575 0.080259 0.8 0 0
0.249901 0.862210 0.049798 0.8 0 0
0.380516 0.342174 0.040026 0.8 0 0
0.372242 0.165074 0.035453 0.8 0 0
0.264151 0.602662 0.074469 0.8 0 0
0.335728 0.196926 0.059815 0.8 0 0
0.138611 0.271204 0.040371 0.8 0 0
0.294393 0.483637 0.080406 0.8 0 0
0.269951 0.958157 0.073480 0.8 0 0
0.242988 0.250766 0.078964 0.8 0 0
0.114019 0.137464 0.072493 0.8 0 0
0.297071 0.421140 0.082384 0.8 0 0
0.365540 0.287892 0.072493 0.8 0 0
0.119685 0.109002 0.027166 0.8 0 0
0.249290 0.623671 0.072008 0.8 0 0
0.303098 0.317345 0.072493 0.8 0 0
0.109318 0.193869 0.039392 0.8 0 0
0.166660 0.167238 0.072493 0.8 0 0
0.408879 0.267118 0.039980 0.8 0 0
0.280334 0.790974 0.076651 0.8 0 0
0.238336 0.862210 0.037412 0.8 0 0
0.278287 0.646025 0.084799 0.8 0 0
0.077941 0.072669 0.055603 0.8 0 0
0.280624 0.306397 0.076448 0.8 0 0
0.191285 0.182300 0.025002 0.8 0 0
0.279085 0.800546 0.034010 0.8 0 0
0.437620 0.125248 0.072491 0.8 0 0
0.253207 0.317906 0.072493 0.8 0 0
0.275501 0.753242 0.072008 0.8 0 0
0.287327 0.240511 0.063665 0.8 0 0
0.254558 0.602725 0.043057 0.8 0 0
0.441582 0.095185 0.058632 0.8 0 0
0.318638 0.372261 0.025002 0.8 0 0
0.265804 0.480758 0.084432 0.8 0 0
0.196488 0.240511 0.054973 0.8 0 0
0.275158 0.246970 0.072493 0.8 0 0
0.367073 0.166796 0.059486 0.8 0 0
0.062559 0.062832 0.025002 0.8 0 0
0.294989 0.360438 0.025002 0.8 0 0
0.247136 0.630691 0.076674 0.8 0 0
0.258254 0.262390 0.025002 0.8 0 0
0.280255 0.245711 0.025002 0.8 0 0
0.332940 0.240511 0.048131 0.8 0 0
0.131486 0.211310 0.072493 0.8 0 0
0.285104 0.951215 0.063602 0.8 0 0
0.218189 0.240511 0.041707 0.8 0 0
0.298835 0.570227 0.079918 0.8 0 0
0.259031 0.819228 0.080406 0.8 0 0
0.172315 0.224305 0.072493 0.8 0 0
0.261527 0.565391 0.078100 0.8 0 0
0.253435 0.309913 0.076448 0.8 0 0
0.361365 0.244408 0.072491 0.8 0 0
0.251374 0.311021 0.076448 0.8 0 0
0.077636 0.105947 0.039333 0.8 0 0
0.352290 0.336655 0.072493 0.8 0 0
0.350118 0.301206 0.025002 0.8 0 0
0.295272 0.869280 0.073480 0.8 0 0
0.306516 0.862210 0.064108 0.8 0 0
0.296889 0.707960 0.085273 0.8 0 0
0.184865 0.401984 0.046113 0.8 0 0
0.241343 0.261783 0.072493 0.8 0 0
0.292352 0.265051 0.025002 0.8 0 0
0.247263 0.656980 0.068578 0.8 0 0
0.255927 0.323647 0.072493 0.8 0 0
0.286108 0.340675 0.083021 0.8 0 0
0.159360 0.283246 0.025002 0.8 0 0
0.438164 0.153682 0.025000 0.8 0 0
0.318188 0.930340 0.048745 0.8 0 0
0.216207 0.240511 0.038691 0.8 0 0
0.327454 0.303529 0.072493 0.8 0 0
0.098740 0.089363 0.031031 0.8 0 0
0.257906 0.703126 0.080406 0.8 0 0
0.231979 0.872612 0.053950 0.8 0 0
0.283850 0.946302 0.060203 0.8 0 0
0.248527 0.573524 0.058252 0.8 0 0
0.129512 0.245475 0.068362 0.8 0 0
0.250580 0.833324 0.083282 0.8 0 0
0.163420 0.341348 0.063521 0.8 0 0
0.365516 0.265949 0.064503 0.8 0 0
0.236031 0.432041 0.025002 0.8 0 0
0.261554 0.645502 0.084139 0.8 0 0
0.474093 0.086136 0.058608 0.8 0 0
0.254270 0.372846 0.072493 0.8 0 0
0.178776 0.369573 0.072493 0.8 0 0
0.330147 0.240511 0.048325 0.8 0 0
0.247050 0.847327 0.070317 0.8 0 0
0.285040 0.690032 0.085376 0.8 0 0
0.252170 0.558587 0.083307 0.8 0 0
0.378858 0.227979 0.072491 0.8 0 0
0.327742 0.358440 0.072493 0.8 0 0
0.255155 0.868103 0.054717 0.8 0 0
0.291840 0.441696 0.049243 0.8 0 0
0.226408 0.902583 0.048745 0.8 0 0
0.313246 0.264392 0.025002 0.8 0 0
0.294379 0.642438 0.072008 0.8 0 0
0.175637 0.278886 0.072493 0.8 0 0
0.277992 0.682464 0.072008 0.8 0 0
0.209216 0.259654 0.025002 0.8 0 0
0.340421 0.194652 0.043243 0.8 0 0
0.274998 0.871552 0.073480 0.8 0 0
0.348235 0.265335 0.072493 0.8 0 0
0.239583 0.882873 0.073480 0.8 0 0
0.396383 0.159135 0.025000 0.8 0 0
0.285871 0.682962 0.085720 0.8 0 0
0.286249 0.674226 0.077108 0.8 0 0
0.203215 0.414035 0.072493 0.8 0 0
0.307453 0.260950 0.039467 0.8 0 0
0.406194 0.269451 0.071999 0.8 0 0
0.251025 0.661466 0.046878 0.8 0 0
0.119252 0.176719 0.072493 0.8 0 0
0.277143 0.483272 0.079455 0.8 0 0
0.327014 0.917792 0.052111 0.8 0 0
0.303451 0.895097 0.054672 0.8 0 0
0.256399 0.297678 0.025002 0.8 0 0
0.296707 0.621401 0.060983 0.8 0 0
0.267214 0.563208 0.072008 0.8 0 0
0.388472 0.246265 0.072491 0.8 0 0
0.189084 0.241181 0.072493 0.8 0 0
0.104901 0.164836 0.072493 0.8 0 0
0.195633 0.324202 0.072493 0.8 0 0
0.384334 0.235927 0.072491 0.8 0 0
0.276331 0.540671 0.033130 0.8 0 0
0.211984 0.277249 0.072493 0.8 0 0
0.252755 0.967437 0.054671 0.8 0 0
0.256564 0.440839 0.035204 0.8 0 0
0.320751 0.862210 0.061655 0.8 0 0
0.255974 0.862210 0.056552 0.8 0 0
0.295490 0.725291 0.085606 0.8 0 0
0.272943 0.807093 0.032047 0.8 0 0
0.289972 0.390957 0.025002 0.8 0 0
0.290184 0.621127 0.072008 0.8 0 0
0.259869 0.305165 0.082384 0.8 0 0
0.249420 0.502915 0.050957 0.8 0 0
0.138289 0.224922 0.072493 0.8 0 0
0.303495 0.240511 0.066463 0.8 0 0
0.250005 0.546704 0.084222 0.8 0 0
0.309753 0.892673 0.067584 0.8 0 0
0.260253 0.862210 0.043495 0.8 0 0
0.220614 0.922652 0.048745 0.8 0 0
0.380951 0.340943 0.048573 0.8 0 0
0.347156 0.394316 0.072493 0.8 0 0
0.268077 0.950271 0.054068 0.8 0 0
0.219289 0.210701 0.070168 0.8 0 0
0.260430 0.450275 0.083040 0.8 0 0
0.239461 0.373098 0.025002 0.8 0 0
0.260256 0.712083 0.085759 0.8 0 0
0.124586 0.236239 0.036514 0.8 0 0
0.371580 0.211937 0.025000 0.8 0 0
0.404706 0.134106 0.072491 0.8 0 0
0.374095 0.240511 0.030141 0.8 0 0
0.375599 0.161061 0.041221 0.8 0 0
0.069111 0.068962 0.072493 0.8 0 0
0.220397 0.354593 0.072493 0.8 0 0
0.285844 0.471758 0.036170 0.8 0 0
0.296134 0.282826 0.025002 0.8 0 0
0.294830 0.445752 0.056456 0.8 0 0
0.268829 0.727653 0.076429 0.8 0 0
0.356607 0.178780 0.045386 0.8 0 0
0.207181 0.262500 0.061108 0.8 0 0
0.177988 0.382540 0.035471 0.8 0 0
0.219264 0.428440 0.072493 0.8 0 0
0.270541 0.571328 0.077708 0.8 0 0
0.247795 0.440839 0.029301 0.8 0 0
0.158767 0.328193 0.033607 0.8 0 0
0.213826 0.208223 0.025002 0.8 0 0
0.398951 0.143049 0.072491 0.8 0 0
0.313781 0.329331 0.025002 0.8 0 0
0.268408 0.678064 0.080406 0.8 0 0
0.253806 0.862210 0.064148 0.8 0 0
0.296219 0.690511 0.072008 0.8 0 0
0.279887 0.258576 0.064429 0.8 0 0
0.304606 0.320905 0.072493 0.8 0 0
0.305881 0.250010 0.072493 0.8 0 0
0.212587 0.437843 0.025002 0.8 0 0
0.260183 0.616889 0.036973 0.8 0 0
0.249456 0.668418 0.050668 0.8 0 0
0.330091 0.413932 0.072493 0.8 0 0
0.283597 0.258896 0.055216 0.8 0 0
0.386949 0.175639 0.072491 0.8 0 0
0.253949 0.341296 0.025002 0.8 0 0
0.462155 0.119268 0.067850 0.8 0 0
0.223026 0.240511 0.034189 0.8 0 0
0.351772 0.265831 0.025002 0.8 0 0
0.282832 0.674226 0.078798 0.8 0 0
0.296117 0.460307 0.059560 0.8 0 0
0.301231 0.928370 0.054281 0.8 0 0
0.314704 0.321108 0.072493 0.8 0 0
0.380806 0.267265 0.036666 0.8 0 0
0.408423 0.268384 0.060129 0.8 0 0
0.295485 0.469434 0.085604 0.8 0 0
0.249417 0.536250 0.050985 0.8 0 0
0.252532 0.762646 0.072008 0.8 0 0
0.072565 0.091875 0.060863 0.8 0 0
0.095672 0.091885 0.071462 0.8 0 0
0.071085 0.066318 0.057435 0.8 0 0
0.250995 0.613693 0.072008 0.8 0 0
0.154942 0.268891 0.025002 0.8 0 0
0.296022 0.239692 0.026268 0.8 0 0
0.281672 0.251002 0.025002 0.8 0 0
0.338574 0.255170 0.072493 0.8 0 0
0.268473 0.828846 0.084606 0.8 0 0
0.466229 0.073843 0.041027 0.8 0 0
0.189954 0.283942 0.072493 0.8 0 0
0.146116 0.194738 0.025002 0.8 0 0
0.235693 0.881435 0.056506 0.8 0 0
0.369381 0.240511 0.037791 0.8 0 0
0.266224 0.292948 0.072493 0.8 0 0
0.297289 0.636530 0.067759 0.8 0 0
0.155210 0.147938 0.062177 0.8 0 0
0.253695 0.606925 0.043991 0.8 0 0
0.211063 0.219890 0.072493 0.8 0 0
0.109335 0.193914 0.069768 0.8 0 0
0.293529 0.650354 0.053316 0.8 0 0
0.247017 0.821009 0.070585 0.8 0 0
0.275195 0.660110 0.032767 0.8 0 0
0.246697 0.241198 0.072493 0.8 0 0
0.389364 0.314903 0.025002 0.8 0 0
0.295055 0.458481 0.072008 0.8 0 0
0.286631 0.554371 0.083237 0.8 0 0
