0.212830 0.468057 0.057125 0.8 0 0
0.228127 0.461382 0.105896 0.8 0 0
0.374922 0.146055 0.105896 0.8 0 0
0.201390 0.575578 0.112644 0.8 0 0
0.092293 0.087836 0.047366 0.8 0 0
0.144056 0.366330 0.105896 0.8 0 0
0.118263 0.075978 0.044714 0.8 0 0
0.247221 0.427573 0.093025 0.8 0 0
0.066796 0.148148 0.049150 0.8 0 0
0.209336 0.161227 0.105896 0.8 0 0
0.170087 0.428865 0.108788 0.8 0 0
0.330861 0.385145 0.057244 0.8 0 0
0.198320 0.885486 0.081791 0.8 0 0
0.211980 0.064843 0.042107 0.8 0 0
0.210790 0.450721 0.110523 0.8 0 0
0.169910 0.462354 0.105896 0.8 0 0
0.147001 0.200620 0.105896 0.8 0 0
0.336031 0.419088 0.088047 0.8 0 0
0.172094 0.217230 0.116537 0.8 0 0
0.229229 0.543041 0.111655 0.8 0 0
0.349366 0.083707 0.054690 0.8 0 0
0.361061 0.219782 0.054887 0.8 0 0
0.286010 0.213990 0.105896 0.8 0 0
0.332614 0.298009 0.108677 0.8 0 0
0.248675 0.411551 0.108788 0.8 0 0
0.309531 0.248777 0.108788 0.8 0 0
0.270130 0.228000 0.108788 0.8 0 0
0.042092 0.179297 0.058559 0.8 0 0
0.101259 0.071323 0.108788 0.8 0 0
0.047683 0.229331 0.066765 0.8 0 0
0.296151 0.056278 0.105896 0.8 0 0
0.193399 0.243796 0.029693 0.8 0 0
0.268615 0.203645 0.108788 0.8 0 0
0.371324 0.150430 0.105896 0.8 0 0
0.262985 0.042738 0.108788 0.8 0 0
0.125748 0.443448 0.105896 0.8 0 0
0.056452 0.192849 0.108788 0.8 0 0
0.290677 0.320066 0.108788 0.8 0 0
0.068325 0.267605 0.098810 0.8 0 0
0.178605 0.176437 0.108788 0.8 0 0
0.372855 0.178227 0.055172 0.8 0 0
0.199201 0.739239 0.094553 0.8 0 0
0.357225 0.159235 0.049144 0.8 0 0
0.139707 0.289825 0.042548 0.8 0 0
0.082061 0.285685 0.101047 0.8 0 0
0.304803 0.335194 0.105896 0.8 0 0
0.059009 0.125491 0.053126 0.8 0 0
0.196423 0.781546 0.112250 0.8 0 0
0.216289 0.800453 0.094304 0.8 0 0
0.270526 0.228449 0.105896 0.8 0 0
0.260495 0.378551 0.105896 0.8 0 0
0.221268 0.436684 0.111680 0.8 0 0
0.110789 0.426085 0.105896 0.8 0 0
0.373019 0.154531 0.105896 0.8 0 0
0.301560 0.178708 0.033939 0.8 0 0
0.228499 0.609422 0.111655 0.8 0 0
0.096327 0.345393 0.108788 0.8 0 0
0.179708 0.478408 0.073739 0.8 0 0
0.286315 0.348817 0.045140 0.8 0 0
0.048652 0.241167 0.091373 0.8 0 0
0.061103 0.099805 0.055395 0.8 0 0
0.028754 0.169833 0.070475 0.8 0 0
0.253170 0.228880 0.030019 0.8 0 0
0.356971 0.061708 0.086492 0.8 0 0
0.228110 0.463629 0.105871 0.8 0 0
0.220357 0.768633 0.111655 0.8 0 0
0.168338 0.216319 0.112548 0.8 0 0
0.194376 0.780740 0.098485 0.8 0 0
0.313389 0.383898 0.105896 0.8 0 0
0.254112 0.377493 0.105896 0.8 0 0
0.239913 0.863552 0.079589 0.8 0 0
0.188484 0.439212 0.051055 0.8 0 0
0.175385 0.209519 0.108788 0.8 0 0
0.341536 0.145077 0.105896 0.8 0 0
0.074035 0.198344 0.108788 0.8 0 0
0.357709 0.229153 0.105896 0.8 0 0
0.249837 0.039341 0.054700 0.8 0 0
0.343463 0.384360 0.084832 0.8 0 0
0.214100 0.706201 0.114915 0.8 0 0
0.330973 0.053350 0.105896 0.8 0 0
0.091399 0.194733 0.108788 0.8 0 0
0.114976 0.445718 0.055564 0.8 0 0
0.140340 0.335547 0.105896 0.8 0 0
0.272262 0.178372 0.108788 0.8 0 0
0.344736 0.246763 0.055131 0.8 0 0
0.206998 0.798810 0.094270 0.8 0 0
0.335265 0.364617 0.091083 0.8 0 0
0.277990 0.383611 0.108788 0.8 0 0
0.044743 0.234780 0.097755 0.8 0 0
0.102459 0.439322 0.108788 0.8 0 0
0.227347 0.260084 0.105896 0.8 0 0
0.230111 0.788218 0.103767 0.8 0 0
0.223021 0.210668 0.103004 0.8 0 0
0.232399 0.026791 0.108788 0.8 0 0
0.205251 0.885520 0.081785 0.8 0 0
0.286655 0.286310 0.042762 0.8 0 0
0.189996 0.616430 0.101056 0.8 0 0
0.210009 0.404270 0.110234 0.8 0 0
0.240322 0.448235 0.105458 0.8 0 0
0.103876 0.281918 0.054568 0.8 0 0
0.235647 0.891898 0.072775 0.8 0 0
0.332064 0.355286 0.090565 0.8 0 0
0.263022 0.040386 0.108788 0.8 0 0
0.353765 0.189886 0.108788 0.8 0 0
0.199523 0.393986 0.044611 0.8 0 0
0.205753 0.558354 0.089875 0.8 0 0
0.078598 0.068535 0.108788 0.8 0 0
0.090160 0.142626 0.041900 0.8 0 0
0.168122 0.139590 0.108788 0.8 0 0
0.097651 0.362871 0.108788 0.8 0 0
0.222047 0.480644 0.059083 0.8 0 0
0.101039 0.071223 0.105896 0.8 0 0
0.224704 0.217694 0.115440 0.8 0 0
0.357819 0.061802 0.101218 0.8 0 0
0.157218 0.423272 0.108788 0.8 0 0
0.145132 0.461302 0.105896 0.8 0 0
0.174105 0.208263 0.108788 0.8 0 0
0.213715 0.406654 0.108788 0.8 0 0
0.214606 0.241504 0.108788 0.8 0 0
0.196121 0.216902 0.108134 0.8 0 0
0.200945 0.663868 0.111655 0.8 0 0
0.233428 0.944743 0.076765 0.8 0 0
0.230981 0.889559 0.072263 0.8 0 0
0.264372 0.274011 0.036074 0.8 0 0
0.286049 0.220976 0.107563 0.8 0 0
0.263971 0.032421 0.079146 0.8 0 0
0.132215 0.175121 0.032264 0.8 0 0
0.234348 0.197884 0.108788 0.8 0 0
0.067690 0.168179 0.048657 0.8 0 0
0.228489 0.755433 0.099279 0.8 0 0
0.123222 0.328398 0.052057 0.8 0 0
0.089444 0.202135 0.105896 0.8 0 0
0.185906 0.419501 0.117593 0.8 0 0
0.256480 0.263314 0.033789 0.8 0 0
0.205247 0.135884 0.026432 0.8 0 0
0.184323 0.399425 0.045324 0.8 0 0
0.223953 0.097609 0.032186 0.8 0 0
0.133521 0.448445 0.105896 0.8 0 0
0.145193 0.063199 0.044786 0.8 0 0
0.319142 0.222639 0.105896 0.8 0 0
0.136439 0.437818 0.051260 0.8 0 0
0.108864 0.469236 0.108788 0.8 0 0
0.051992 0.242924 0.077378 0.8 0 0
0.227946 0.814345 0.106154 0.8 0 0
0.094873 0.351233 0.105896 0.8 0 0
0.391432 0.143080 0.065714 0.8 0 0
0.284963 0.329720 0.108788 0.8 0 0
0.207402 0.744732 0.114568 0.8 0 0
0.160640 0.452788 0.052042 0.8 0 0
0.109071 0.233983 0.108788 0.8 0 0
0.188457 0.590808 0.105699 0.8 0 0
0.240922 0.073214 0.105896 0.8 0 0
0.194327 0.813726 0.096425 0.8 0 0
0.248889 0.162071 0.105896 0.8 0 0
0.269671 0.321670 0.041803 0.8 0 0
0.086415 0.416366 0.108788 0.8 0 0
0.191349 0.671825 0.100161 0.8 0 0
0.278079 0.267779 0.037485 0.8 0 0
0.183595 0.078293 0.037540 0.8 0 0
0.340079 0.129251 0.108788 0.8 0 0
0.220293 0.399430 0.110234 0.8 0 0
0.222544 0.061120 0.108788 0.8 0 0
0.267506 0.156227 0.108788 0.8 0 0
0.330638 0.358961 0.066109 0.8 0 0
0.214581 0.752899 0.111680 0.8 0 0
0.089514 0.418214 0.105896 0.8 0 0
0.279936 0.231494 0.034000 0.8 0 0
0.194010 0.840700 0.089688 0.8 0 0
0.316775 0.112387 0.040430 0.8 0 0
0.190129 0.213731 0.103004 0.8 0 0
0.260132 0.362009 0.108788 0.8 0 0
0.256231 0.854715 0.087728 0.8 0 0
0.317211 0.205150 0.108788 0.8 0 0
0.079803 0.120176 0.105896 0.8 0 0
0.206977 0.795951 0.111655 0.8 0 0
0.096567 0.100959 0.105896 0.8 0 0
0.282548 0.221820 0.108788 0.8 0 0
0.167849 0.179193 0.108788 0.8 0 0
0.069118 0.114349 0.050415 0.8 0 0
0.243934 0.091068 0.105896 0.8 0 0
0.087328 0.380234 0.078929 0.8 0 0
0.225579 0.177137 0.025894 0.8 0 0
0.235291 0.505034 0.111680 0.8 0 0
0.244429 0.287597 0.108788 0.8 0 0
0.079595 0.066674 0.105896 0.8 0 0
0.231710 0.448852 0.105871 0.8 0 0
0.277028 0.030973 0.105896 0.8 0 0
0.193128 0.818354 0.105374 0.8 0 0
0.298948 0.284412 0.108788 0.8 0 0
0.171033 0.177512 0.027110 0.8 0 0
0.031511 0.204356 0.098840 0.8 0 0
0.383362 0.200129 0.061273 0.8 0 0
0.100239 0.181665 0.039465 0.8 0 0
0.182739 0.387735 0.108788 0.8 0 0
0.083761 0.265201 0.058360 0.8 0 0
0.180138 0.839381 0.089920 0.8 0 0
0.216025 0.469542 0.116611 0.8 0 0
0.219143 0.638210 0.091607 0.8 0 0
0.214067 0.788409 0.115850 0.8 0 0
0.098946 0.437415 0.059167 0.8 0 0
0.216161 0.250625 0.029666 0.8 0 0
0.253926 0.297774 0.105896 0.8 0 0
0.111386 0.134648 0.105896 0.8 0 0
0.150665 0.377447 0.105896 0.8 0 0
0.216029 0.283922 0.116511 0.8 0 0
0.182855 0.108838 0.108788 0.8 0 0
0.220772 0.095163 0.108788 0.8 0 0
0.203735 0.061463 0.108788 0.8 0 0
0.122937 0.475788 0.083870 0.8 0 0
0.218224 0.398963 0.110234 0.8 0 0
0.112336 0.265436 0.046533 0.8 0 0
0.230169 0.705026 0.101713 0.8 0 0
0.325012 0.046992 0.069890 0.8 0 0
0.371080 0.090002 0.108788 0.8 0 0
0.182030 0.218133 0.115440 0.8 0 0
0.134847 0.133122 0.108788 0.8 0 0
0.305932 0.402586 0.053805 0.8 0 0
0.239573 0.923257 0.068583 0.8 0 0
0.201554 0.598491 0.111680 0.8 0 0
0.327935 0.161038 0.040261 0.8 0 0
0.328914 0.316355 0.079067 0.8 0 0
0.200044 0.683935 0.114568 0.8 0 0
0.271234 0.168518 0.105896 0.8 0 0
0.221039 0.892837 0.080495 0.8 0 0
0.244281 0.119694 0.108788 0.8 0 0
0.105495 0.130926 0.105896 0.8 0 0
0.058771 0.200930 0.053988 0.8 0 0
0.214549 0.524954 0.115972 0.8 0 0
0.151842 0.407323 0.108788 0.8 0 0
0.214832 0.826615 0.103918 0.8 0 0
0.141253 0.029411 0.102427 0.8 0 0
0.167466 0.317315 0.105896 0.8 0 0
0.126800 0.036825 0.082878 0.8 0 0
0.135374 0.461304 0.108788 0.8 0 0
0.150586 0.219909 0.114572 0.8 0 0
0.234742 0.159848 0.105896 0.8 0 0
0.141586 0.209513 0.114572 0.8 0 0
0.220076 0.802728 0.115363 0.8 0 0
0.213816 0.573967 0.089631 0.8 0 0
0.194899 0.424773 0.111655 0.8 0 0
0.220905 0.235938 0.108788 0.8 0 0
0.336068 0.232831 0.105896 0.8 0 0
0.102596 0.114365 0.040840 0.8 0 0
0.381916 0.225765 0.108788 0.8 0 0
0.129060 0.448870 0.105896 0.8 0 0
0.234888 0.452910 0.111655 0.8 0 0
0.330075 0.088353 0.047009 0.8 0 0
0.224869 0.850766 0.087913 0.8 0 0
0.197306 0.190367 0.105896 0.8 0 0
0.225345 0.768024 0.096979 0.8 0 0
0.224820 0.861590 0.077195 0.8 0 0
0.083871 0.404497 0.103963 0.8 0 0
0.212196 0.193758 0.025920 0.8 0 0
0.188023 0.562201 0.111655 0.8 0 0
0.185911 0.345306 0.115830 0.8 0 0
0.213394 0.294080 0.110234 0.8 0 0
0.277232 0.329418 0.044160 0.8 0 0
0.211001 0.468240 0.105871 0.8 0 0
0.199917 0.704401 0.116423 0.8 0 0
0.226632 0.186654 0.026265 0.8 0 0
0.150485 0.279317 0.037992 0.8 0 0
0.194701 0.883074 0.073406 0.8 0 0
0.223418 0.233666 0.105896 0.8 0 0
0.293274 0.095388 0.037896 0.8 0 0
0.186479 0.450247 0.117151 0.8 0 0
0.184862 0.365482 0.115678 0.8 0 0
0.221080 0.690970 0.115961 0.8 0 0
0.173766 0.173583 0.026917 0.8 0 0
0.139202 0.038128 0.068641 0.8 0 0
0.321327 0.261892 0.108788 0.8 0 0
0.151374 0.387418 0.108788 0.8 0 0
0.197793 0.453315 0.053745 0.8 0 0
0.097955 0.272681 0.108788 0.8 0 0
0.240390 0.830163 0.098904 0.8 0 0
0.248082 0.146693 0.027197 0.8 0 0
0.340304 0.055384 0.105896 0.8 0 0
0.093836 0.220865 0.105896 0.8 0 0
0.329461 0.372103 0.058838 0.8 0 0
0.122483 0.340562 0.052565 0.8 0 0
0.235024 0.199550 0.109079 0.8 0 0
0.183299 0.228887 0.116549 0.8 0 0
0.241977 0.242357 0.105896 0.8 0 0
0.190031 0.892794 0.080502 0.8 0 0
0.082581 0.266475 0.105896 0.8 0 0
0.196368 0.289059 0.033311 0.8 0 0
0.346156 0.055982 0.072936 0.8 0 0
0.112376 0.348072 0.056871 0.8 0 0
0.347080 0.083622 0.053962 0.8 0 0
0.232388 0.878293 0.078860 0.8 0 0
0.087413 0.048636 0.108788 0.8 0 0
0.026099 0.171231 0.084457 0.8 0 0
0.136055 0.213135 0.110425 0.8 0 0
0.141190 0.314900 0.108788 0.8 0 0
0.040245 0.226724 0.092748 0.8 0 0
0.331922 0.373936 0.059708 0.8 0 0
0.123406 0.348436 0.108788 0.8 0 0
0.279430 0.075617 0.105896 0.8 0 0
0.092672 0.075587 0.050696 0.8 0 0
0.342404 0.264804 0.059300 0.8 0 0
0.198403 0.032278 0.105896 0.8 0 0
0.139498 0.357576 0.047035 0.8 0 0
0.221662 0.779669 0.094737 0.8 0 0
0.195154 0.566220 0.111655 0.8 0 0
0.198073 0.483801 0.084864 0.8 0 0
0.147042 0.122916 0.031896 0.8 0 0
0.228139 0.479315 0.105871 0.8 0 0
0.084753 0.393205 0.108736 0.8 0 0
0.076200 0.224612 0.051127 0.8 0 0
0.179933 0.854739 0.086029 0.8 0 0
0.211740 0.704238 0.092070 0.8 0 0
0.190662 0.915750 0.072159 0.8 0 0
0.253577 0.069334 0.108788 0.8 0 0
0.121823 0.085387 0.041646 0.8 0 0
0.091548 0.202347 0.105896 0.8 0 0
0.347289 0.128420 0.108788 0.8 0 0
0.199639 0.846395 0.100430 0.8 0 0
0.224177 0.412918 0.105871 0.8 0 0
0.126374 0.056275 0.108788 0.8 0 0
0.233556 0.925736 0.073371 0.8 0 0
0.231202 0.108230 0.030463 0.8 0 0
0.181728 0.159377 0.026498 0.8 0 0
0.237439 0.211242 0.103764 0.8 0 0
0.186172 0.435900 0.117300 0.8 0 0
0.296195 0.111249 0.035928 0.8 0 0
0.225678 0.466804 0.105896 0.8 0 0
0.228333 0.349099 0.038760 0.8 0 0
0.112703 0.228784 0.105896 0.8 0 0
0.115833 0.328350 0.108788 0.8 0 0
0.185325 0.848293 0.088349 0.8 0 0
0.302151 0.392123 0.108788 0.8 0 0
0.225298 0.583520 0.093847 0.8 0 0
0.094312 0.401199 0.105896 0.8 0 0
0.193914 0.421161 0.105871 0.8 0 0
0.223638 0.939974 0.072183 0.8 0 0
0.201939 0.472333 0.105896 0.8 0 0
0.281046 0.151002 0.031010 0.8 0 0
0.249582 0.104894 0.105896 0.8 0 0
0.207063 0.113463 0.105896 0.8 0 0
0.199316 0.431977 0.108788 0.8 0 0
0.123963 0.057335 0.050306 0.8 0 0
0.319509 0.278817 0.108788 0.8 0 0
0.389977 0.209133 0.078419 0.8 0 0
0.278026 0.066648 0.043212 0.8 0 0
0.190286 0.140455 0.108788 0.8 0 0
0.249360 0.390313 0.105896 0.8 0 0
0.207220 0.426760 0.108788 0.8 0 0
0.139482 0.346933 0.105896 0.8 0 0
0.295840 0.040722 0.105896 0.8 0 0
0.087860 0.046386 0.098413 0.8 0 0
0.272725 0.105551 0.033958 0.8 0 0
0.132831 0.149977 0.105896 0.8 0 0
0.138819 0.045562 0.108788 0.8 0 0
0.135675 0.281637 0.105896 0.8 0 0
0.193572 0.807940 0.099513 0.8 0 0
0.085253 0.269806 0.105896 0.8 0 0
0.252364 0.317451 0.110234 0.8 0 0
0.115869 0.439571 0.105896 0.8 0 0
0.152522 0.131721 0.108788 0.8 0 0
0.230820 0.515946 0.092934 0.8 0 0
0.227935 0.701059 0.097351 0.8 0 0
0.135664 0.217706 0.103211 0.8 0 0
0.312839 0.157578 0.036634 0.8 0 0
0.260966 0.341784 0.110234 0.8 0 0
0.160047 0.184956 0.028560 0.8 0 0
0.385854 0.220065 0.097509 0.8 0 0
0.129731 0.103668 0.036457 0.8 0 0
0.227987 0.234216 0.117719 0.8 0 0
0.229040 0.476778 0.105871 0.8 0 0
0.344668 0.219029 0.108788 0.8 0 0
0.241022 0.324278 0.037754 0.8 0 0
0.205590 0.108709 0.105896 0.8 0 0
0.204124 0.214962 0.116702 0.8 0 0
0.052683 0.073633 0.099761 0.8 0 0
0.126229 0.200161 0.034216 0.8 0 0
0.321691 0.359074 0.057800 0.8 0 0
0.179544 0.241932 0.108788 0.8 0 0
0.227216 0.228633 0.028559 0.8 0 0
0.267489 0.352432 0.110234 0.8 0 0
0.166522 0.306260 0.105896 0.8 0 0
0.273876 0.092687 0.108788 0.8 0 0
0.209199 0.089411 0.033851 0.8 0 0
0.030504 0.133139 0.069942 0.8 0 0
0.380657 0.229237 0.099571 0.8 0 0
0.240905 0.191507 0.108788 0.8 0 0
0.236609 0.412687 0.109901 0.8 0 0
0.352624 0.227285 0.053312 0.8 0 0
0.121783 0.420311 0.051582 0.8 0 0
0.272293 0.388067 0.108788 0.8 0 0
0.182943 0.477421 0.057005 0.8 0 0
0.233358 0.560637 0.103303 0.8 0 0
0.341916 0.186425 0.108788 0.8 0 0
0.175823 0.309824 0.110234 0.8 0 0
0.193204 0.634053 0.116364 0.8 0 0
0.334501 0.379679 0.105896 0.8 0 0
0.235144 0.158926 0.108788 0.8 0 0
0.193022 0.564031 0.095916 0.8 0 0
0.163730 0.306264 0.108788 0.8 0 0
0.208829 0.255087 0.029879 0.8 0 0
0.236918 0.400761 0.108788 0.8 0 0
0.308712 0.405701 0.077519 0.8 0 0
0.252847 0.146692 0.108788 0.8 0 0
0.377407 0.196269 0.108788 0.8 0 0
0.211404 0.405919 0.108788 0.8 0 0
0.168502 0.232293 0.030533 0.8 0 0
0.303889 0.262974 0.105896 0.8 0 0
0.394556 0.159096 0.105896 0.8 0 0
0.257944 0.132552 0.028813 0.8 0 0
0.360256 0.169552 0.108788 0.8 0 0
0.226351 0.673925 0.096017 0.8 0 0
0.189179 0.459638 0.111680 0.8 0 0
0.027004 0.171933 0.076281 0.8 0 0
0.217998 0.025557 0.104152 0.8 0 0
0.176586 0.915594 0.068502 0.8 0 0
0.277561 0.255895 0.105896 0.8 0 0
0.202542 0.550257 0.111655 0.8 0 0
0.239184 0.455816 0.067231 0.8 0 0
0.362214 0.065257 0.092263 0.8 0 0
0.215280 0.757668 0.111655 0.8 0 0
0.100144 0.153388 0.108788 0.8 0 0
0.349939 0.271527 0.107344 0.8 0 0
0.287809 0.260048 0.105896 0.8 0 0
0.302159 0.355573 0.049001 0.8 0 0
0.232945 0.218156 0.028109 0.8 0 0
0.113744 0.401714 0.053797 0.8 0 0
0.244260 0.130158 0.108788 0.8 0 0
0.227890 0.323058 0.036865 0.8 0 0
0.070390 0.086432 0.105896 0.8 0 0
0.225930 0.226870 0.108788 0.8 0 0
0.231835 0.695332 0.104973 0.8 0 0
0.083622 0.282844 0.105896 0.8 0 0
0.204799 0.464810 0.108788 0.8 0 0
0.113663 0.193997 0.036851 0.8 0 0
0.128211 0.247498 0.108788 0.8 0 0
0.097165 0.261651 0.108788 0.8 0 0
0.212349 0.587841 0.111655 0.8 0 0
0.190804 0.109756 0.105896 0.8 0 0
0.275282 0.054475 0.108788 0.8 0 0
0.338856 0.244181 0.105896 0.8 0 0
0.219607 0.492117 0.065408 0.8 0 0
0.338111 0.226288 0.105896 0.8 0 0
0.293166 0.368172 0.108788 0.8 0 0
0.362055 0.113238 0.108788 0.8 0 0
0.078166 0.203647 0.047228 0.8 0 0
0.095101 0.459534 0.078682 0.8 0 0
0.141289 0.072219 0.108788 0.8 0 0
0.101397 0.199228 0.108788 0.8 0 0
0.138863 0.255723 0.108788 0.8 0 0
0.147586 0.374585 0.105896 0.8 0 0
0.131966 0.096368 0.108788 0.8 0 0
0.103503 0.260858 0.108788 0.8 0 0
0.227425 0.206847 0.027247 0.8 0 0
0.104160 0.369879 0.108788 0.8 0 0
0.349550 0.273213 0.098936 0.8 0 0
0.321193 0.162239 0.105896 0.8 0 0
0.177739 0.167954 0.026637 0.8 0 0
0.243688 0.065560 0.041814 0.8 0 0
0.278981 0.255793 0.108788 0.8 0 0
0.054498 0.109020 0.105896 0.8 0 0
0.260941 0.361100 0.105896 0.8 0 0
0.192423 0.430188 0.105871 0.8 0 0
0.364930 0.238839 0.061506 0.8 0 0
0.186832 0.517171 0.110735 0.8 0 0
0.067611 0.199824 0.105896 0.8 0 0
0.132145 0.122894 0.105896 0.8 0 0
0.395628 0.151881 0.108177 0.8 0 0
0.218510 0.505007 0.111655 0.8 0 0
0.082465 0.254019 0.055819 0.8 0 0
0.124700 0.208612 0.105896 0.8 0 0
0.283276 0.197024 0.105896 0.8 0 0
0.188371 0.114328 0.029508 0.8 0 0
0.380183 0.095265 0.108788 0.8 0 0
0.312052 0.160405 0.108788 0.8 0 0
0.396768 0.165051 0.096728 0.8 0 0
0.206971 0.751640 0.115933 0.8 0 0
0.231790 0.564262 0.111655 0.8 0 0
0.142572 0.405364 0.108788 0.8 0 0
0.179561 0.110913 0.108788 0.8 0 0
0.065357 0.257939 0.072391 0.8 0 0
0.339222 0.052739 0.071299 0.8 0 0
0.293431 0.110243 0.105896 0.8 0 0
0.133415 0.355681 0.105896 0.8 0 0
0.141913 0.395386 0.105896 0.8 0 0
0.026504 0.148822 0.101901 0.8 0 0
0.124506 0.331769 0.108788 0.8 0 0
0.172938 0.863781 0.081410 0.8 0 0
0.233708 0.506944 0.096304 0.8 0 0
0.062399 0.075596 0.061752 0.8 0 0
0.132904 0.216973 0.105896 0.8 0 0
0.246734 0.428859 0.078297 0.8 0 0
0.224164 0.168343 0.105896 0.8 0 0
0.087389 0.200590 0.043861 0.8 0 0
0.145080 0.414734 0.105896 0.8 0 0
0.124086 0.082124 0.105896 0.8 0 0
0.159192 0.211782 0.105896 0.8 0 0
0.341473 0.246145 0.105896 0.8 0 0
0.162463 0.201857 0.108788 0.8 0 0
0.083536 0.284343 0.076767 0.8 0 0
0.320948 0.202673 0.040019 0.8 0 0
0.099851 0.348972 0.108788 0.8 0 0
0.134822 0.032093 0.096390 0.8 0 0
0.066517 0.264061 0.108788 0.8 0 0
0.341665 0.408323 0.105896 0.8 0 0
0.192235 0.202078 0.108788 0.8 0 0
0.168842 0.476161 0.108788 0.8 0 0
0.253500 0.397147 0.105896 0.8 0 0
0.377576 0.173587 0.056776 0.8 0 0
0.282005 0.195798 0.108788 0.8 0 0
0.291545 0.308235 0.105896 0.8 0 0
0.320056 0.049649 0.060349 0.8 0 0
0.238337 0.854694 0.081696 0.8 0 0
0.132700 0.459120 0.053325 0.8 0 0
0.154797 0.086872 0.036937 0.8 0 0
0.138255 0.468814 0.105896 0.8 0 0
0.242156 0.201156 0.114572 0.8 0 0
0.134836 0.379960 0.048225 0.8 0 0
0.066064 0.181675 0.105896 0.8 0 0
0.191649 0.216902 0.112037 0.8 0 0
0.206349 0.478119 0.115454 0.8 0 0
0.120153 0.061145 0.108788 0.8 0 0
0.213799 0.426134 0.105871 0.8 0 0
0.188075 0.440865 0.105871 0.8 0 0
0.184830 0.963039 0.073543 0.8 0 0
0.063053 0.228532 0.105896 0.8 0 0
0.285164 0.227581 0.110016 0.8 0 0
0.108943 0.469352 0.108788 0.8 0 0
0.336671 0.166959 0.042391 0.8 0 0
0.169933 0.485531 0.108788 0.8 0 0
0.161932 0.486169 0.102634 0.8 0 0
0.036583 0.175694 0.061579 0.8 0 0
0.199436 0.627678 0.114686 0.8 0 0
0.158517 0.247034 0.105896 0.8 0 0
0.191136 0.169061 0.105896 0.8 0 0
0.341421 0.383358 0.099190 0.8 0 0
0.364696 0.163965 0.105896 0.8 0 0
0.202444 0.442327 0.051995 0.8 0 0
0.245663 0.075384 0.105896 0.8 0 0
0.192543 0.504417 0.081817 0.8 0 0
0.246679 0.287394 0.108788 0.8 0 0
0.272438 0.194932 0.108788 0.8 0 0
0.253273 0.217635 0.105896 0.8 0 0
0.163330 0.339727 0.110234 0.8 0 0
0.069898 0.237722 0.105896 0.8 0 0
0.373673 0.164558 0.055078 0.8 0 0
0.104794 0.305739 0.108788 0.8 0 0
0.239320 0.314010 0.036411 0.8 0 0
0.226857 0.893156 0.104500 0.8 0 0
0.208865 0.625424 0.111655 0.8 0 0
0.316751 0.258268 0.105896 0.8 0 0
0.238013 0.826292 0.096379 0.8 0 0
0.375752 0.238106 0.078862 0.8 0 0
0.189347 0.704370 0.110128 0.8 0 0
0.258978 0.231173 0.108788 0.8 0 0
0.206140 0.241113 0.108788 0.8 0 0
0.232436 0.634359 0.103525 0.8 0 0
0.196772 0.247828 0.108788 0.8 0 0
0.079883 0.139100 0.044543 0.8 0 0
0.174011 0.332402 0.039802 0.8 0 0
0.239444 0.128450 0.028121 0.8 0 0
0.144396 0.373979 0.046431 0.8 0 0
0.292605 0.283973 0.108788 0.8 0 0
0.302842 0.286273 0.105896 0.8 0 0
0.196410 0.481019 0.115823 0.8 0 0
0.200471 0.668416 0.111655 0.8 0 0
0.235169 0.509984 0.106624 0.8 0 0
0.183680 0.303226 0.110234 0.8 0 0
0.340365 0.381650 0.101443 0.8 0 0
0.216707 0.224287 0.027800 0.8 0 0
0.074791 0.276173 0.101270 0.8 0 0
0.338716 0.271475 0.060143 0.8 0 0
0.345338 0.089599 0.051786 0.8 0 0
0.107689 0.422624 0.108788 0.8 0 0
0.273604 0.029101 0.099050 0.8 0 0
0.276774 0.253766 0.108788 0.8 0 0
0.145850 0.291534 0.108788 0.8 0 0
0.201601 0.886409 0.081628 0.8 0 0
0.198948 0.560290 0.115103 0.8 0 0
0.096572 0.234859 0.108788 0.8 0 0
0.129764 0.297865 0.108788 0.8 0 0
0.148192 0.254816 0.108788 0.8 0 0
0.192927 0.214615 0.115440 0.8 0 0
0.340842 0.100646 0.105896 0.8 0 0
0.130480 0.431156 0.051287 0.8 0 0
0.358697 0.088010 0.108788 0.8 0 0
0.213895 0.857806 0.098418 0.8 0 0
0.270742 0.055836 0.108788 0.8 0 0
0.340685 0.201836 0.044927 0.8 0 0
0.115093 0.342686 0.055824 0.8 0 0
0.152414 0.470315 0.108788 0.8 0 0
0.293480 0.399383 0.058092 0.8 0 0
0.193542 0.797888 0.099354 0.8 0 0
0.189215 0.438673 0.105871 0.8 0 0
0.245967 0.203061 0.105896 0.8 0 0
0.096007 0.169140 0.108788 0.8 0 0
0.192066 0.621132 0.117103 0.8 0 0
0.163684 0.850348 0.082510 0.8 0 0
0.229701 0.890931 0.094046 0.8 0 0
0.101708 0.439014 0.058558 0.8 0 0
0.229097 0.892314 0.092333 0.8 0 0
0.105491 0.134246 0.105896 0.8 0 0
0.197823 0.193270 0.114316 0.8 0 0
0.246556 0.289318 0.106660 0.8 0 0
0.145076 0.145802 0.108788 0.8 0 0
0.199481 0.751500 0.111655 0.8 0 0
0.158359 0.309988 0.039848 0.8 0 0
0.387051 0.210664 0.069582 0.8 0 0
0.181831 0.295609 0.110234 0.8 0 0
0.094869 0.400511 0.060621 0.8 0 0
0.383049 0.102239 0.067552 0.8 0 0
0.193503 0.029443 0.105896 0.8 0 0
0.218347 0.547348 0.089988 0.8 0 0
0.359172 0.219927 0.105896 0.8 0 0
0.144367 0.252779 0.036078 0.8 0 0
0.251705 0.417175 0.068152 0.8 0 0
0.120235 0.477245 0.093638 0.8 0 0
0.146651 0.089755 0.108788 0.8 0 0
0.232977 0.445543 0.105871 0.8 0 0
0.130948 0.361189 0.108788 0.8 0 0
0.332178 0.129590 0.108788 0.8 0 0
0.291908 0.353304 0.105896 0.8 0 0
0.219846 0.762056 0.111655 0.8 0 0
0.380331 0.088192 0.082231 0.8 0 0
0.313639 0.108982 0.105896 0.8 0 0
0.339165 0.231343 0.105896 0.8 0 0
0.220969 0.395629 0.107860 0.8 0 0
0.219016 0.415044 0.105896 0.8 0 0
0.200994 0.806507 0.115006 0.8 0 0
0.111024 0.161809 0.108788 0.8 0 0
0.114948 0.430025 0.105896 0.8 0 0
0.338865 0.385039 0.063253 0.8 0 0
0.199146 0.405331 0.105896 0.8 0 0
0.291826 0.259201 0.105896 0.8 0 0
0.091204 0.046211 0.108788 0.8 0 0
0.143333 0.433028 0.108788 0.8 0 0
0.185525 0.433737 0.110831 0.8 0 0
0.306800 0.365088 0.049312 0.8 0 0
0.351852 0.234987 0.054575 0.8 0 0
0.147352 0.215574 0.032227 0.8 0 0
0.031432 0.189736 0.068792 0.8 0 0
0.179163 0.150649 0.105896 0.8 0 0
0.264483 0.048888 0.105896 0.8 0 0
0.314685 0.121041 0.105896 0.8 0 0
0.254398 0.104605 0.105896 0.8 0 0
0.104471 0.423976 0.057211 0.8 0 0
0.200803 0.256224 0.108788 0.8 0 0
0.253355 0.287142 0.108788 0.8 0 0
0.192688 0.396078 0.105896 0.8 0 0
0.204333 0.201222 0.109891 0.8 0 0
0.282194 0.288151 0.041700 0.8 0 0
0.289665 0.147045 0.032299 0.8 0 0
0.251504 0.139190 0.027672 0.8 0 0
0.189138 0.461303 0.105871 0.8 0 0
0.230012 0.925452 0.072743 0.8 0 0
0.266524 0.277635 0.036767 0.8 0 0
0.224331 0.506099 0.112723 0.8 0 0
0.346642 0.412574 0.071564 0.8 0 0
0.133507 0.174007 0.032056 0.8 0 0
0.173451 0.482856 0.108788 0.8 0 0
0.290143 0.372700 0.108788 0.8 0 0
0.071432 0.204008 0.105896 0.8 0 0
0.221382 0.064256 0.105896 0.8 0 0
0.185804 0.421844 0.115868 0.8 0 0
0.078673 0.281360 0.104720 0.8 0 0
0.250331 0.858694 0.090969 0.8 0 0
0.229198 0.917432 0.088322 0.8 0 0
0.386947 0.127240 0.105896 0.8 0 0
0.184778 0.213893 0.108788 0.8 0 0
0.265207 0.084842 0.105896 0.8 0 0
0.062443 0.232911 0.105896 0.8 0 0
0.228352 0.287548 0.033267 0.8 0 0
0.346679 0.272232 0.105896 0.8 0 0
0.300460 0.216140 0.108788 0.8 0 0
0.197035 0.230311 0.028578 0.8 0 0
0.195755 0.711637 0.111655 0.8 0 0
0.333354 0.290947 0.105896 0.8 0 0
0.071421 0.269178 0.105896 0.8 0 0
0.229562 0.805887 0.111655 0.8 0 0
0.391321 0.116505 0.082091 0.8 0 0
0.172048 0.487269 0.105264 0.8 0 0
0.391092 0.114883 0.089578 0.8 0 0
0.119095 0.137098 0.108788 0.8 0 0
0.229446 0.027092 0.098211 0.8 0 0
0.088297 0.437769 0.105896 0.8 0 0
0.029181 0.125591 0.096562 0.8 0 0
0.204517 0.035732 0.105896 0.8 0 0
0.134561 0.228284 0.105896 0.8 0 0
0.046438 0.132954 0.057198 0.8 0 0
0.207475 0.430527 0.050183 0.8 0 0
0.395220 0.180083 0.107031 0.8 0 0
0.190844 0.917234 0.071604 0.8 0 0
0.203813 0.301067 0.108788 0.8 0 0
0.199056 0.867050 0.096788 0.8 0 0
0.160177 0.311973 0.108788 0.8 0 0
0.202235 0.280119 0.106194 0.8 0 0
0.214254 0.868732 0.084745 0.8 0 0
0.087569 0.285428 0.108788 0.8 0 0
0.189334 0.847371 0.100922 0.8 0 0
0.206568 0.417388 0.105896 0.8 0 0
0.108806 0.184152 0.105896 0.8 0 0
0.231297 0.520101 0.111655 0.8 0 0
0.223394 0.300264 0.110234 0.8 0 0
0.238922 0.477650 0.097307 0.8 0 0
0.217736 0.462186 0.105896 0.8 0 0
0.175803 0.203513 0.105653 0.8 0 0
0.099688 0.243586 0.046473 0.8 0 0
0.343721 0.086607 0.052051 0.8 0 0
0.243936 0.223539 0.114572 0.8 0 0
0.360143 0.109740 0.105896 0.8 0 0
0.077510 0.244583 0.055157 0.8 0 0
0.193527 0.916259 0.091048 0.8 0 0
0.208590 0.072128 0.108788 0.8 0 0
0.240921 0.259478 0.105896 0.8 0 0
0.217285 0.398351 0.110234 0.8 0 0
0.183284 0.026101 0.103219 0.8 0 0
0.129315 0.093641 0.105896 0.8 0 0
0.153027 0.473895 0.108788 0.8 0 0
0.389900 0.180693 0.064261 0.8 0 0
0.308307 0.325575 0.105896 0.8 0 0
0.298286 0.389179 0.046123 0.8 0 0
0.281741 0.278728 0.040215 0.8 0 0
0.183179 0.253079 0.115966 0.8 0 0
0.296122 0.042946 0.059292 0.8 0 0
0.254985 0.027828 0.099300 0.8 0 0
0.161075 0.346585 0.108788 0.8 0 0
0.135785 0.184290 0.105896 0.8 0 0
0.210176 0.604129 0.090056 0.8 0 0
0.308693 0.352164 0.105896 0.8 0 0
0.180348 0.393216 0.105896 0.8 0 0
0.166316 0.389663 0.110234 0.8 0 0
0.219287 0.766134 0.111655 0.8 0 0
0.051635 0.222355 0.060030 0.8 0 0
0.287185 0.163320 0.031527 0.8 0 0
0.112229 0.305471 0.055788 0.8 0 0
0.031912 0.112862 0.097936 0.8 0 0
0.333105 0.110736 0.105896 0.8 0 0
0.191445 0.202116 0.108788 0.8 0 0
0.163791 0.034565 0.074873 0.8 0 0
0.340981 0.209546 0.108788 0.8 0 0
0.195478 0.849583 0.099868 0.8 0 0
0.102948 0.355147 0.105896 0.8 0 0
0.225529 0.137353 0.105896 0.8 0 0
0.124465 0.481191 0.106679 0.8 0 0
0.159670 0.203393 0.107344 0.8 0 0
0.199262 0.178858 0.025811 0.8 0 0
0.243906 0.405467 0.108788 0.8 0 0
0.181786 0.200327 0.108517 0.8 0 0
0.329421 0.172045 0.040696 0.8 0 0
0.278453 0.365579 0.107809 0.8 0 0
0.255592 0.311495 0.108788 0.8 0 0
0.204867 0.909069 0.077633 0.8 0 0
0.155455 0.364807 0.110234 0.8 0 0
0.250946 0.420497 0.095717 0.8 0 0
0.295285 0.385598 0.105896 0.8 0 0
0.232178 0.674199 0.105652 0.8 0 0
0.106721 0.196087 0.038707 0.8 0 0
0.177426 0.477113 0.068117 0.8 0 0
0.364406 0.068120 0.079248 0.8 0 0
0.122274 0.406867 0.108788 0.8 0 0
0.160774 0.044872 0.052426 0.8 0 0
0.220567 0.830313 0.111461 0.8 0 0
0.316184 0.052631 0.105896 0.8 0 0
0.211046 0.879120 0.094660 0.8 0 0
0.099681 0.099862 0.105896 0.8 0 0
0.199449 0.641537 0.114714 0.8 0 0
0.085706 0.082079 0.105896 0.8 0 0
0.395723 0.137658 0.090653 0.8 0 0
0.085130 0.436996 0.106013 0.8 0 0
0.310366 0.207490 0.108788 0.8 0 0
0.232978 0.558711 0.101752 0.8 0 0
0.348839 0.077059 0.056142 0.8 0 0
0.158325 0.404822 0.046704 0.8 0 0
0.285096 0.066201 0.044461 0.8 0 0
0.364487 0.226291 0.057411 0.8 0 0
0.206011 0.592405 0.115852 0.8 0 0
0.285511 0.395921 0.105896 0.8 0 0
0.238291 0.276335 0.108788 0.8 0 0
0.171913 0.387117 0.110234 0.8 0 0
0.365758 0.233441 0.059298 0.8 0 0
0.095711 0.409776 0.059589 0.8 0 0
0.101913 0.295065 0.108788 0.8 0 0
0.333500 0.298209 0.081933 0.8 0 0
0.224899 0.593099 0.111655 0.8 0 0
0.195600 0.348339 0.115771 0.8 0 0
0.141174 0.101584 0.035375 0.8 0 0
0.221795 0.272772 0.108788 0.8 0 0
0.237736 0.218370 0.028331 0.8 0 0
0.144241 0.350539 0.045872 0.8 0 0
0.337189 0.193226 0.105896 0.8 0 0
0.199822 0.726167 0.094026 0.8 0 0
0.162902 0.317246 0.039797 0.8 0 0
0.181218 0.156933 0.105896 0.8 0 0
0.171977 0.109492 0.108788 0.8 0 0
0.272328 0.185230 0.108788 0.8 0 0
0.267250 0.089771 0.036465 0.8 0 0
0.254035 0.320133 0.110234 0.8 0 0
0.131529 0.218334 0.105896 0.8 0 0
0.370612 0.122565 0.055858 0.8 0 0
0.222266 0.214336 0.103004 0.8 0 0
0.078329 0.091301 0.051077 0.8 0 0
0.214981 0.483831 0.116896 0.8 0 0
0.182606 0.302490 0.105896 0.8 0 0
0.187811 0.557864 0.107230 0.8 0 0
0.074845 0.166652 0.045956 0.8 0 0
0.227876 0.972539 0.067477 0.8 0 0
0.305148 0.303850 0.052315 0.8 0 0
0.229531 0.589247 0.097794 0.8 0 0
0.393343 0.195135 0.102404 0.8 0 0
0.297583 0.070443 0.108788 0.8 0 0
0.097195 0.087564 0.105896 0.8 0 0
0.186368 0.396304 0.111655 0.8 0 0
0.387352 0.216563 0.094767 0.8 0 0
0.370042 0.230488 0.061151 0.8 0 0
0.285539 0.313026 0.108788 0.8 0 0
0.131987 0.478966 0.105896 0.8 0 0
0.131324 0.075297 0.105896 0.8 0 0
0.174164 0.096036 0.033245 0.8 0 0
0.210146 0.876446 0.095132 0.8 0 0
0.185595 0.324065 0.117715 0.8 0 0
0.230466 0.239895 0.029452 0.8 0 0
0.094519 0.346666 0.080904 0.8 0 0
0.126145 0.430421 0.108788 0.8 0 0
0.112210 0.411791 0.105896 0.8 0 0
0.264597 0.341176 0.040859 0.8 0 0
0.142544 0.170152 0.105896 0.8 0 0
0.226478 0.398207 0.105896 0.8 0 0
0.219548 0.396429 0.108788 0.8 0 0
0.218546 0.267041 0.031119 0.8 0 0
0.362196 0.195317 0.105896 0.8 0 0
0.167188 0.281418 0.108788 0.8 0 0
0.188373 0.630433 0.109793 0.8 0 0
0.193564 0.717551 0.097899 0.8 0 0
0.042016 0.134483 0.105896 0.8 0 0
0.247581 0.314198 0.108788 0.8 0 0
0.103354 0.418750 0.108788 0.8 0 0
0.199790 0.213121 0.115236 0.8 0 0
0.290552 0.073783 0.042966 0.8 0 0
0.041615 0.221057 0.105896 0.8 0 0
0.123443 0.386130 0.050473 0.8 0 0
0.291113 0.161457 0.105896 0.8 0 0
0.130587 0.313334 0.108788 0.8 0 0
0.228752 0.457127 0.105871 0.8 0 0
0.254134 0.217390 0.113596 0.8 0 0
0.078029 0.167554 0.108788 0.8 0 0
0.174499 0.320425 0.107163 0.8 0 0
0.329147 0.050831 0.065093 0.8 0 0
0.267956 0.105390 0.105896 0.8 0 0
0.130275 0.287788 0.108788 0.8 0 0
0.169852 0.295233 0.105896 0.8 0 0
0.076666 0.054453 0.079234 0.8 0 0
0.096824 0.296040 0.108788 0.8 0 0
0.071251 0.144679 0.105896 0.8 0 0
0.185646 0.120025 0.108788 0.8 0 0
0.175387 0.083611 0.036057 0.8 0 0
0.036265 0.219223 0.100610 0.8 0 0
0.235371 0.491024 0.103603 0.8 0 0
0.248468 0.304687 0.036772 0.8 0 0
0.141109 0.401300 0.105896 0.8 0 0
0.355413 0.107099 0.105896 0.8 0 0
0.336180 0.051315 0.071725 0.8 0 0
0.105794 0.226495 0.108788 0.8 0 0
0.247078 0.355807 0.039147 0.8 0 0
0.293799 0.291619 0.045537 0.8 0 0
0.388430 0.148927 0.062689 0.8 0 0
0.186559 0.356413 0.116477 0.8 0 0
0.096094 0.458926 0.105896 0.8 0 0
0.212130 0.525968 0.076875 0.8 0 0
0.215549 0.617941 0.090649 0.8 0 0
0.091842 0.441611 0.065256 0.8 0 0
0.133014 0.296251 0.108788 0.8 0 0
0.235222 0.186520 0.108788 0.8 0 0
0.116171 0.324997 0.055262 0.8 0 0
0.201696 0.644980 0.112659 0.8 0 0
0.234351 0.871929 0.095928 0.8 0 0
0.228005 0.078914 0.108788 0.8 0 0
0.069647 0.102451 0.105896 0.8 0 0
0.166849 0.065323 0.108788 0.8 0 0
0.139480 0.032105 0.105896 0.8 0 0
0.205156 0.433282 0.105871 0.8 0 0
0.249413 0.108940 0.030931 0.8 0 0
0.220128 0.292207 0.033322 0.8 0 0
0.201059 0.218013 0.115440 0.8 0 0
0.166155 0.206363 0.105896 0.8 0 0
0.235529 0.419813 0.052074 0.8 0 0
0.164663 0.115047 0.108788 0.8 0 0
0.130696 0.246933 0.108788 0.8 0 0
0.195969 0.207833 0.112259 0.8 0 0
0.249109 0.201386 0.105896 0.8 0 0
0.093156 0.307828 0.079076 0.8 0 0
0.286882 0.034332 0.080562 0.8 0 0
0.266300 0.303145 0.105896 0.8 0 0
0.201401 0.767520 0.114203 0.8 0 0
0.152138 0.383833 0.110234 0.8 0 0
0.259532 0.369794 0.110234 0.8 0 0
0.272143 0.286240 0.108788 0.8 0 0
0.268090 0.192784 0.108788 0.8 0 0
0.205376 0.293009 0.105896 0.8 0 0
0.278737 0.281881 0.108788 0.8 0 0
0.212425 0.487390 0.105896 0.8 0 0
0.235532 0.460500 0.059225 0.8 0 0
0.064615 0.078908 0.105896 0.8 0 0
0.180453 0.292846 0.105896 0.8 0 0
0.310403 0.242277 0.042293 0.8 0 0
0.066151 0.123278 0.050723 0.8 0 0
0.068703 0.201019 0.050372 0.8 0 0
0.272240 0.215013 0.114572 0.8 0 0
0.208169 0.739051 0.111515 0.8 0 0
0.252914 0.029604 0.089421 0.8 0 0
0.164092 0.202282 0.108788 0.8 0 0
0.221562 0.921797 0.075388 0.8 0 0
0.306521 0.249610 0.108788 0.8 0 0
0.139399 0.450161 0.052266 0.8 0 0
0.246268 0.059654 0.108788 0.8 0 0
0.146996 0.429736 0.108788 0.8 0 0
0.250149 0.269591 0.108788 0.8 0 0
0.311591 0.352934 0.054143 0.8 0 0
0.059507 0.203317 0.054014 0.8 0 0
0.294781 0.169351 0.105896 0.8 0 0
0.271814 0.288572 0.108788 0.8 0 0
0.159535 0.192742 0.108788 0.8 0 0
0.237557 0.484356 0.108020 0.8 0 0
0.301960 0.234354 0.108788 0.8 0 0
0.163074 0.409418 0.047105 0.8 0 0
0.029460 0.198780 0.092384 0.8 0 0
0.251529 0.227581 0.106204 0.8 0 0
0.347959 0.201623 0.105896 0.8 0 0
0.326041 0.292453 0.060595 0.8 0 0
0.135731 0.297689 0.108788 0.8 0 0
0.033502 0.107263 0.088984 0.8 0 0
0.245738 0.391010 0.045518 0.8 0 0
0.240117 0.480685 0.078310 0.8 0 0
0.158291 0.459131 0.108788 0.8 0 0
0.197243 0.217468 0.114572 0.8 0 0
0.102580 0.322241 0.063692 0.8 0 0
0.143248 0.091282 0.105896 0.8 0 0
0.055147 0.169403 0.053339 0.8 0 0
0.240675 0.367854 0.040546 0.8 0 0
0.190848 0.458322 0.054267 0.8 0 0
0.114746 0.336792 0.108788 0.8 0 0
0.116516 0.272474 0.108788 0.8 0 0
0.217582 0.519229 0.073814 0.8 0 0
0.194554 0.591409 0.111655 0.8 0 0
0.201481 0.273656 0.031745 0.8 0 0
0.375032 0.231075 0.065915 0.8 0 0
0.386519 0.186347 0.108788 0.8 0 0
0.213295 0.047489 0.105896 0.8 0 0
0.143058 0.366009 0.105896 0.8 0 0
0.266331 0.163761 0.108788 0.8 0 0
0.161976 0.302224 0.105896 0.8 0 0
0.228095 0.919606 0.087908 0.8 0 0
0.362689 0.090119 0.108788 0.8 0 0
0.191462 0.478046 0.058311 0.8 0 0
0.244958 0.217092 0.115440 0.8 0 0
0.087215 0.153424 0.108788 0.8 0 0
0.067262 0.112057 0.108788 0.8 0 0
0.251679 0.245801 0.105896 0.8 0 0
0.075893 0.054101 0.085533 0.8 0 0
0.223777 0.063890 0.042535 0.8 0 0
0.189837 0.397862 0.105896 0.8 0 0
0.221943 0.137697 0.026516 0.8 0 0
0.198228 0.856123 0.078523 0.8 0 0
0.297294 0.342127 0.108788 0.8 0 0
0.027365 0.174258 0.075934 0.8 0 0
0.245109 0.295174 0.105896 0.8 0 0
0.271826 0.378562 0.042093 0.8 0 0
0.252888 0.309286 0.037857 0.8 0 0
0.321459 0.351210 0.059368 0.8 0 0
0.171649 0.031072 0.108788 0.8 0 0
0.088154 0.443263 0.105896 0.8 0 0
0.208658 0.925192 0.074790 0.8 0 0
0.378713 0.182257 0.105896 0.8 0 0
0.326478 0.057369 0.108788 0.8 0 0
0.163506 0.325110 0.105896 0.8 0 0
0.026306 0.157121 0.108788 0.8 0 0
0.344543 0.196514 0.045796 0.8 0 0
0.362162 0.161356 0.105896 0.8 0 0
0.083372 0.419448 0.083152 0.8 0 0
0.093577 0.352311 0.087198 0.8 0 0
0.216919 0.027643 0.086669 0.8 0 0
0.229293 0.869920 0.096282 0.8 0 0
0.230559 0.070146 0.108788 0.8 0 0
0.095714 0.310204 0.072040 0.8 0 0
0.127463 0.107272 0.105896 0.8 0 0
0.206073 0.823720 0.112969 0.8 0 0
0.132935 0.363774 0.105896 0.8 0 0
0.359830 0.065344 0.108788 0.8 0 0
0.260151 0.202938 0.106464 0.8 0 0
0.210995 0.405673 0.105896 0.8 0 0
0.375431 0.081119 0.090908 0.8 0 0
0.309234 0.326451 0.105896 0.8 0 0
0.126086 0.308189 0.105896 0.8 0 0
0.235149 0.507724 0.103839 0.8 0 0
0.193910 0.056364 0.105896 0.8 0 0
0.114601 0.174060 0.035672 0.8 0 0
0.302607 0.395341 0.105896 0.8 0 0
0.216327 0.214706 0.112259 0.8 0 0
0.321256 0.301936 0.108788 0.8 0 0
0.198392 0.797780 0.096092 0.8 0 0
0.283472 0.371469 0.108788 0.8 0 0
0.174670 0.215799 0.103004 0.8 0 0
0.223817 0.920592 0.087347 0.8 0 0
0.207072 0.755109 0.111655 0.8 0 0
0.272129 0.128862 0.031097 0.8 0 0
0.256774 0.406406 0.108788 0.8 0 0
0.294704 0.186644 0.108788 0.8 0 0
0.107794 0.451326 0.058132 0.8 0 0
0.243212 0.080008 0.037032 0.8 0 0
0.327534 0.260571 0.108788 0.8 0 0
0.264143 0.146276 0.105896 0.8 0 0
0.188774 0.480171 0.108788 0.8 0 0
0.120622 0.245819 0.108788 0.8 0 0
0.225883 0.295467 0.108788 0.8 0 0
0.216606 0.551216 0.089747 0.8 0 0
0.032100 0.183752 0.108788 0.8 0 0
0.242424 0.213663 0.112548 0.8 0 0
0.324436 0.179467 0.039603 0.8 0 0
0.204013 0.411334 0.047005 0.8 0 0
0.228792 0.418622 0.105896 0.8 0 0
0.328308 0.321839 0.090960 0.8 0 0
0.181880 0.102749 0.031580 0.8 0 0
0.230193 0.211963 0.109986 0.8 0 0
0.212143 0.422013 0.108788 0.8 0 0
0.207535 0.858624 0.086527 0.8 0 0
0.279458 0.143453 0.108788 0.8 0 0
0.308955 0.148402 0.035937 0.8 0 0
0.100282 0.051819 0.060949 0.8 0 0
0.224903 0.091329 0.108788 0.8 0 0
0.224617 0.417420 0.048813 0.8 0 0
0.163591 0.304484 0.105896 0.8 0 0
0.357760 0.208669 0.108788 0.8 0 0
0.314467 0.051290 0.105896 0.8 0 0
0.330336 0.190609 0.041430 0.8 0 0
0.228238 0.920204 0.075669 0.8 0 0
0.218842 0.224374 0.105896 0.8 0 0
0.293380 0.081035 0.041207 0.8 0 0
0.331554 0.090172 0.108788 0.8 0 0
0.191406 0.214961 0.112259 0.8 0 0
0.200354 0.891311 0.100864 0.8 0 0
0.032602 0.110632 0.101202 0.8 0 0
0.337180 0.281118 0.066064 0.8 0 0
0.197086 0.226779 0.114572 0.8 0 0
0.329905 0.350748 0.099628 0.8 0 0
0.162284 0.200655 0.108788 0.8 0 0
0.224559 0.857390 0.098491 0.8 0 0
0.042414 0.230528 0.098320 0.8 0 0
0.191071 0.445308 0.105896 0.8 0 0
0.127736 0.156435 0.105896 0.8 0 0
0.315199 0.249475 0.044563 0.8 0 0
0.129506 0.166621 0.105896 0.8 0 0
0.097451 0.227343 0.044283 0.8 0 0
0.382885 0.178868 0.108788 0.8 0 0
0.191581 0.549606 0.097663 0.8 0 0
0.183817 0.485057 0.097315 0.8 0 0
0.111173 0.039340 0.105896 0.8 0 0
0.077081 0.190818 0.046190 0.8 0 0
0.188751 0.605673 0.104990 0.8 0 0
0.328531 0.167830 0.108788 0.8 0 0
0.191993 0.696833 0.111680 0.8 0 0
0.297487 0.403134 0.105896 0.8 0 0
0.068905 0.138429 0.048590 0.8 0 0
0.178809 0.039849 0.108788 0.8 0 0
0.201704 0.767709 0.094007 0.8 0 0
0.158220 0.303935 0.110234 0.8 0 0
0.220564 0.294186 0.033534 0.8 0 0
0.309346 0.399533 0.105896 0.8 0 0
0.334935 0.047430 0.089529 0.8 0 0
0.184544 0.085593 0.035343 0.8 0 0
0.347304 0.224392 0.105896 0.8 0 0
0.161908 0.300855 0.105896 0.8 0 0
0.231760 0.217147 0.105896 0.8 0 0
0.231511 0.084291 0.108788 0.8 0 0
0.299808 0.208132 0.108788 0.8 0 0
0.303200 0.109229 0.105896 0.8 0 0
0.184938 0.321025 0.118137 0.8 0 0
0.182036 0.070417 0.108788 0.8 0 0
0.324956 0.095319 0.044370 0.8 0 0
0.137646 0.178958 0.105896 0.8 0 0
0.096255 0.183611 0.040515 0.8 0 0
0.111920 0.368958 0.108788 0.8 0 0
0.061747 0.122799 0.105896 0.8 0 0
0.233428 0.515216 0.100154 0.8 0 0
0.232423 0.272228 0.105896 0.8 0 0
0.087328 0.094265 0.108788 0.8 0 0
0.211723 0.480235 0.108788 0.8 0 0
0.232054 0.534010 0.100051 0.8 0 0
0.234466 0.329152 0.037653 0.8 0 0
0.060184 0.199986 0.053351 0.8 0 0
0.063164 0.071816 0.064134 0.8 0 0
0.025742 0.160337 0.100770 0.8 0 0
0.192609 0.795880 0.101293 0.8 0 0
0.229944 0.132240 0.105896 0.8 0 0
0.327857 0.164216 0.040166 0.8 0 0
0.188620 0.637928 0.108680 0.8 0 0
0.105641 0.075237 0.047201 0.8 0 0
0.119113 0.309440 0.105896 0.8 0 0
0.183639 0.856559 0.082503 0.8 0 0
0.237628 0.071907 0.105896 0.8 0 0
0.069644 0.093634 0.105896 0.8 0 0
0.105113 0.150950 0.108788 0.8 0 0
0.212615 0.351880 0.039467 0.8 0 0
0.241632 0.311416 0.105896 0.8 0 0
0.047507 0.091426 0.064178 0.8 0 0
0.230119 0.738783 0.102531 0.8 0 0
0.184684 0.446365 0.105896 0.8 0 0
0.320395 0.046960 0.108788 0.8 0 0
0.306338 0.280609 0.105896 0.8 0 0
0.037887 0.098103 0.078791 0.8 0 0
0.247730 0.035221 0.062613 0.8 0 0
0.132455 0.187608 0.105896 0.8 0 0
0.224811 0.476903 0.116576 0.8 0 0
0.201476 0.216356 0.103004 0.8 0 0
0.308788 0.290496 0.051561 0.8 0 0
0.156738 0.328273 0.105896 0.8 0 0
0.198900 0.199550 0.109312 0.8 0 0
0.132403 0.452981 0.052886 0.8 0 0
0.189471 0.149446 0.026414 0.8 0 0
0.180223 0.399262 0.105896 0.8 0 0
0.107415 0.291809 0.055394 0.8 0 0
0.157588 0.119940 0.108788 0.8 0 0
0.224553 0.969024 0.067061 0.8 0 0
0.059038 0.104713 0.108788 0.8 0 0
0.200510 0.876155 0.076611 0.8 0 0
0.057607 0.070105 0.105896 0.8 0 0
0.214569 0.411774 0.105871 0.8 0 0
0.327163 0.347786 0.105896 0.8 0 0
0.287116 0.214579 0.105896 0.8 0 0
0.056684 0.116711 0.105896 0.8 0 0
0.281731 0.213066 0.114572 0.8 0 0
0.203219 0.647045 0.111655 0.8 0 0
0.144975 0.485494 0.107619 0.8 0 0
0.251309 0.227581 0.110686 0.8 0 0
0.192539 0.544189 0.111655 0.8 0 0
0.286274 0.069932 0.043526 0.8 0 0
0.366879 0.087284 0.108788 0.8 0 0
0.080648 0.283655 0.095093 0.8 0 0
0.226481 0.036369 0.105896 0.8 0 0
0.227692 0.106804 0.030567 0.8 0 0
0.228778 0.026827 0.108788 0.8 0 0
0.169333 0.376074 0.105896 0.8 0 0
0.277273 0.221235 0.105896 0.8 0 0
0.264933 0.191051 0.108788 0.8 0 0
0.150580 0.243763 0.034239 0.8 0 0
0.387268 0.104519 0.095264 0.8 0 0
0.183112 0.304334 0.118014 0.8 0 0
0.226601 0.185980 0.026237 0.8 0 0
0.219981 0.765169 0.093821 0.8 0 0
0.196821 0.557943 0.111655 0.8 0 0
0.239560 0.479127 0.072661 0.8 0 0
0.266476 0.217372 0.105896 0.8 0 0
0.027816 0.188434 0.084994 0.8 0 0
0.139352 0.089879 0.108788 0.8 0 0
0.321422 0.409948 0.058989 0.8 0 0
0.337039 0.104343 0.046148 0.8 0 0
0.260375 0.183354 0.105896 0.8 0 0
0.196310 0.417034 0.107548 0.8 0 0
0.143796 0.100291 0.035292 0.8 0 0
0.188396 0.285212 0.105896 0.8 0 0
0.085393 0.072348 0.105896 0.8 0 0
0.392166 0.201140 0.076541 0.8 0 0
0.194425 0.858181 0.098352 0.8 0 0
0.145186 0.326046 0.109209 0.8 0 0
0.250435 0.051596 0.108788 0.8 0 0
0.191347 0.211694 0.107512 0.8 0 0
0.202782 0.351648 0.039829 0.8 0 0
0.277909 0.307070 0.108788 0.8 0 0
0.197731 0.443356 0.105871 0.8 0 0
0.216712 0.150001 0.108788 0.8 0 0
0.356466 0.162711 0.105896 0.8 0 0
0.048596 0.133404 0.108788 0.8 0 0
0.089603 0.271029 0.105896 0.8 0 0
0.262324 0.243077 0.105896 0.8 0 0
0.244666 0.031523 0.077550 0.8 0 0
0.301383 0.058999 0.105896 0.8 0 0
0.103234 0.081537 0.046049 0.8 0 0
0.211533 0.730489 0.111655 0.8 0 0
0.065644 0.060438 0.105443 0.8 0 0
0.256082 0.072610 0.040171 0.8 0 0
0.199818 0.766970 0.094621 0.8 0 0
0.145839 0.027858 0.107066 0.8 0 0
0.224837 0.851987 0.087698 0.8 0 0
0.209262 0.555901 0.112085 0.8 0 0
0.153451 0.190057 0.108788 0.8 0 0
0.207184 0.814124 0.114145 0.8 0 0
0.222587 0.441394 0.111655 0.8 0 0
0.040545 0.145397 0.108788 0.8 0 0
0.180033 0.232160 0.105896 0.8 0 0
0.197099 0.762446 0.111655 0.8 0 0
0.198049 0.731321 0.095131 0.8 0 0
0.395186 0.156244 0.072387 0.8 0 0
0.241640 0.166297 0.026448 0.8 0 0
0.324450 0.396151 0.053487 0.8 0 0
0.310007 0.331560 0.105896 0.8 0 0
0.058131 0.139774 0.108788 0.8 0 0
0.396956 0.168022 0.080917 0.8 0 0
0.292258 0.340094 0.047654 0.8 0 0
0.145830 0.363915 0.105896 0.8 0 0
0.227754 0.876686 0.074533 0.8 0 0
0.392795 0.145862 0.066825 0.8 0 0
0.280155 0.046334 0.052727 0.8 0 0
0.332321 0.355226 0.082410 0.8 0 0
0.195602 0.294815 0.033924 0.8 0 0
0.179306 0.039448 0.055743 0.8 0 0
0.184816 0.947350 0.071180 0.8 0 0
0.355588 0.079670 0.105896 0.8 0 0
0.126469 0.154065 0.108788 0.8 0 0
0.318260 0.326946 0.105896 0.8 0 0
0.308716 0.406179 0.081689 0.8 0 0
0.096082 0.339084 0.105896 0.8 0 0
0.194874 0.368083 0.117575 0.8 0 0
0.320957 0.411508 0.079638 0.8 0 0
0.233287 0.033179 0.068152 0.8 0 0
0.113990 0.376325 0.105896 0.8 0 0
0.188920 0.619286 0.105027 0.8 0 0
0.200501 0.142341 0.108788 0.8 0 0
0.200181 0.842931 0.089294 0.8 0 0
0.227463 0.879377 0.082868 0.8 0 0
0.118713 0.402908 0.108788 0.8 0 0
0.231910 0.066858 0.105896 0.8 0 0
0.241435 0.078193 0.108788 0.8 0 0
0.228517 0.814621 0.101502 0.8 0 0
0.098662 0.223857 0.108788 0.8 0 0
0.188172 0.579943 0.106690 0.8 0 0
0.212490 0.606093 0.111655 0.8 0 0
0.230896 0.579777 0.099429 0.8 0 0
0.307824 0.092092 0.041641 0.8 0 0
0.147428 0.484724 0.105896 0.8 0 0
0.033506 0.211084 0.093987 0.8 0 0
0.390862 0.114085 0.092136 0.8 0 0
0.255996 0.074857 0.108788 0.8 0 0
0.189082 0.659242 0.107392 0.8 0 0
0.158514 0.482955 0.092594 0.8 0 0
0.121175 0.391893 0.108788 0.8 0 0
0.344995 0.267770 0.105896 0.8 0 0
0.088598 0.158207 0.108788 0.8 0 0
0.249220 0.279166 0.034235 0.8 0 0
0.188683 0.650029 0.109417 0.8 0 0
0.112432 0.191249 0.036952 0.8 0 0
0.094885 0.340482 0.105185 0.8 0 0
0.142172 0.371496 0.105896 0.8 0 0
0.134556 0.084628 0.039453 0.8 0 0
0.162415 0.087182 0.036204 0.8 0 0
0.207072 0.216902 0.109331 0.8 0 0
0.171427 0.095137 0.108788 0.8 0 0
0.064498 0.172531 0.050001 0.8 0 0
0.219258 0.928210 0.074258 0.8 0 0
0.226827 0.723751 0.097158 0.8 0 0
0.362811 0.195930 0.105896 0.8 0 0
0.026516 0.169337 0.105896 0.8 0 0
0.359285 0.113396 0.105896 0.8 0 0
0.216305 0.469656 0.111655 0.8 0 0
0.213462 0.048298 0.105896 0.8 0 0
0.310093 0.174335 0.108788 0.8 0 0
0.191365 0.730729 0.111655 0.8 0 0
0.152770 0.232580 0.032831 0.8 0 0
0.292506 0.240395 0.108788 0.8 0 0
0.202382 0.587950 0.111655 0.8 0 0
0.208604 0.475747 0.111655 0.8 0 0
0.026864 0.166146 0.108788 0.8 0 0
0.096639 0.399440 0.059434 0.8 0 0
0.148628 0.084156 0.038116 0.8 0 0
0.174839 0.152602 0.105896 0.8 0 0
0.216623 0.790943 0.111655 0.8 0 0
0.089869 0.202230 0.043378 0.8 0 0
0.069000 0.247083 0.105896 0.8 0 0
0.265634 0.240040 0.032750 0.8 0 0
0.111837 0.072242 0.108788 0.8 0 0
0.335490 0.239981 0.108788 0.8 0 0
0.175374 0.114893 0.029937 0.8 0 0
0.115304 0.412453 0.108788 0.8 0 0
0.154071 0.222419 0.114572 0.8 0 0
0.120942 0.130263 0.108788 0.8 0 0
0.370296 0.173877 0.054104 0.8 0 0
0.027463 0.183018 0.081690 0.8 0 0
0.290172 0.389557 0.108788 0.8 0 0
0.217373 0.292318 0.108788 0.8 0 0
0.212560 0.912115 0.077095 0.8 0 0
0.191264 0.791353 0.111655 0.8 0 0
0.327378 0.397239 0.054614 0.8 0 0
0.164410 0.467139 0.105896 0.8 0 0
0.310430 0.218375 0.039076 0.8 0 0
0.389215 0.151542 0.063219 0.8 0 0
0.198889 0.679312 0.093852 0.8 0 0
0.213833 0.457716 0.112431 0.8 0 0
0.167966 0.195681 0.027974 0.8 0 0
0.244407 0.383598 0.108788 0.8 0 0
0.068138 0.161755 0.048372 0.8 0 0
0.110114 0.431672 0.055809 0.8 0 0
0.195127 0.449904 0.111655 0.8 0 0
0.163618 0.447753 0.105896 0.8 0 0
0.197625 0.064312 0.105896 0.8 0 0
0.046123 0.141611 0.108788 0.8 0 0
0.098457 0.188959 0.040216 0.8 0 0
0.270460 0.253904 0.105896 0.8 0 0
0.305854 0.133514 0.108788 0.8 0 0
0.391868 0.197737 0.071911 0.8 0 0
0.361679 0.257090 0.106818 0.8 0 0
0.172017 0.475367 0.055960 0.8 0 0
0.027533 0.186633 0.096212 0.8 0 0
0.278094 0.386916 0.108788 0.8 0 0
0.196400 0.173270 0.108788 0.8 0 0
0.237542 0.469829 0.065046 0.8 0 0
0.220103 0.218070 0.112548 0.8 0 0
0.276055 0.120012 0.108788 0.8 0 0
0.334054 0.208604 0.105896 0.8 0 0
0.249787 0.423186 0.092098 0.8 0 0
0.199976 0.903209 0.069856 0.8 0 0
0.093883 0.454191 0.071721 0.8 0 0
0.235079 0.512475 0.105365 0.8 0 0
0.252517 0.250589 0.108788 0.8 0 0
0.195123 0.763065 0.111655 0.8 0 0
0.080837 0.261087 0.058343 0.8 0 0
0.140620 0.138342 0.031550 0.8 0 0
0.298946 0.076207 0.105896 0.8 0 0
0.193504 0.193612 0.106598 0.8 0 0
0.211149 0.788111 0.093810 0.8 0 0
0.138689 0.037472 0.071112 0.8 0 0
0.314578 0.354038 0.108788 0.8 0 0
0.112898 0.311916 0.105896 0.8 0 0
0.359111 0.233181 0.056792 0.8 0 0
0.087422 0.293947 0.084020 0.8 0 0
0.235448 0.956152 0.081077 0.8 0 0
0.322701 0.079690 0.108788 0.8 0 0
0.224335 0.093968 0.108788 0.8 0 0
0.195701 0.673361 0.095672 0.8 0 0
0.195644 0.202954 0.103566 0.8 0 0
0.094635 0.338346 0.096665 0.8 0 0
0.162191 0.034988 0.073639 0.8 0 0
0.183861 0.092184 0.108788 0.8 0 0
0.329337 0.210074 0.108788 0.8 0 0
0.254274 0.309734 0.038101 0.8 0 0
0.215334 0.440053 0.051840 0.8 0 0
0.044643 0.100442 0.063426 0.8 0 0
0.293143 0.037256 0.073946 0.8 0 0
0.225069 0.205233 0.114572 0.8 0 0
0.130550 0.169242 0.108788 0.8 0 0
0.267335 0.367523 0.105896 0.8 0 0
0.219343 0.295447 0.105896 0.8 0 0
0.205627 0.937075 0.072694 0.8 0 0
0.212326 0.445511 0.105896 0.8 0 0
0.181340 0.278769 0.108788 0.8 0 0
0.096797 0.461270 0.105896 0.8 0 0
0.237393 0.827219 0.103811 0.8 0 0
0.297234 0.164841 0.105896 0.8 0 0
0.090313 0.236162 0.048334 0.8 0 0
0.299170 0.053550 0.108788 0.8 0 0
0.278909 0.340288 0.105896 0.8 0 0
0.179594 0.843467 0.100946 0.8 0 0
0.159845 0.210047 0.114572 0.8 0 0
0.211082 0.400055 0.105871 0.8 0 0
0.141519 0.047136 0.053690 0.8 0 0
0.248569 0.161518 0.105896 0.8 0 0
0.116946 0.238021 0.040757 0.8 0 0
0.313629 0.234959 0.041978 0.8 0 0
0.249894 0.060054 0.044429 0.8 0 0
0.160712 0.228507 0.031343 0.8 0 0
0.234709 0.071433 0.108788 0.8 0 0
0.209291 0.470867 0.105871 0.8 0 0
0.221415 0.430067 0.111655 0.8 0 0
0.258891 0.205461 0.108788 0.8 0 0
0.208419 0.081594 0.108788 0.8 0 0
0.215113 0.584037 0.115397 0.8 0 0
0.174727 0.165018 0.108788 0.8 0 0
0.103461 0.356505 0.061297 0.8 0 0
0.233513 0.598220 0.107898 0.8 0 0
0.198001 0.483387 0.079914 0.8 0 0
0.174742 0.073228 0.039395 0.8 0 0
0.039588 0.093045 0.093409 0.8 0 0
0.276333 0.250056 0.035264 0.8 0 0
0.363669 0.171162 0.051586 0.8 0 0
0.182920 0.412802 0.108403 0.8 0 0
0.266645 0.086688 0.105896 0.8 0 0
0.254062 0.178126 0.027194 0.8 0 0
0.224815 0.406694 0.111655 0.8 0 0
