0.568230 0.154611 0.052854 0.8 0 0
0.905026 0.146851 0.051870 0.8 0 0
0.902179 0.160779 0.051870 0.8 0 0
0.684225 0.142243 0.053920 0.8 0 0
0.950075 0.206547 0.035508 0.8 0 0
0.132026 0.138051 0.031234 0.8 0 0
0.444968 0.150288 0.054006 0.8 0 0
0.414882 0.081256 0.033917 0.8 0 0
0.409989 0.067389 0.048365 0.8 0 0
0.800810 0.178552 0.031245 0.8 0 0
0.330299 0.125411 0.050676 0.8 0 0
0.092884 0.036673 0.038837 0.8 0 0
0.146277 0.036503 0.045459 0.8 0 0
0.162718 0.103910 0.031234 0.8 0 0
0.191090 0.187979 0.031234 0.8 0 0
0.271543 0.259514 0.035941 0.8 0 0
0.557550 0.190548 0.041272 0.8 0 0
0.108571 0.093308 0.031234 0.8 0 0
0.857603 0.144300 0.054111 0.8 0 0
0.325673 0.182714 0.049527 0.8 0 0
0.662644 0.179103 0.050121 0.8 0 0
0.329374 0.177065 0.031245 0.8 0 0
0.514692 0.190548 0.048935 0.8 0 0
0.749399 0.154574 0.031245 0.8 0 0
0.356744 0.199856 0.031234 0.8 0 0
0.117736 0.110178 0.050676 0.8 0 0
0.200568 0.156305 0.053005 0.8 0 0
0.547558 0.138067 0.046661 0.8 0 0
0.573274 0.142394 0.048832 0.8 0 0
0.822698 0.183285 0.043459 0.8 0 0
0.849604 0.118482 0.029820 0.8 0 0
0.164749 0.071033 0.031234 0.8 0 0
0.226879 0.217690 0.050676 0.8 0 0
0.427571 0.144382 0.047341 0.8 0 0
0.109305 0.030987 0.042982 0.8 0 0
0.333269 0.166367 0.052854 0.8 0 0
0.412857 0.261159 0.046827 0.8 0 0
0.822542 0.177128 0.049923 0.8 0 0
0.491937 0.189573 0.033356 0.8 0 0
0.618099 0.139387 0.033012 0.8 0 0
0.112864 0.219792 0.050676 0.8 0 0
0.312871 0.163409 0.045043 0.8 0 0
0.154138 0.121721 0.031234 0.8 0 0
0.221076 0.085159 0.031234 0.8 0 0
0.465465 0.180799 0.050500 0.8 0 0
0.450712 0.139655 0.032744 0.8 0 0
0.493447 0.183704 0.047038 0.8 0 0
0.246821 0.264438 0.031234 0.8 0 0
0.488084 0.157234 0.053920 0.8 0 0
0.868460 0.150006 0.051870 0.8 0 0
0.115909 0.284636 0.031234 0.8 0 0
0.270745 0.117246 0.050676 0.8 0 0
0.761518 0.158831 0.052854 0.8 0 0
0.667593 0.175030 0.052854 0.8 0 0
0.904078 0.124529 0.030749 0.8 0 0
0.438704 0.168114 0.054574 0.8 0 0
0.381472 0.175758 0.047729 0.8 0 0
0.207293 0.231878 0.031234 0.8 0 0
0.188199 0.105624 0.050676 0.8 0 0
0.204005 0.147991 0.031234 0.8 0 0
0.188918 0.113450 0.050676 0.8 0 0
0.717564 0.149027 0.053531 0.8 0 0
0.074963 0.174882 0.031234 0.8 0 0
0.067630 0.132863 0.031234 0.8 0 0
0.072618 0.192664 0.050676 0.8 0 0
0.307041 0.141437 0.057088 0.8 0 0
0.295465 0.257509 0.045736 0.8 0 0
0.576103 0.153094 0.046152 0.8 0 0
0.952431 0.215231 0.032924 0.8 0 0
0.538151 0.143527 0.052854 0.8 0 0
0.343775 0.184035 0.055272 0.8 0 0
0.461865 0.181808 0.053758 0.8 0 0
0.824694 0.154104 0.037469 0.8 0 0
0.180186 0.180921 0.031234 0.8 0 0
0.441934 0.141151 0.031247 0.8 0 0
0.655334 0.151579 0.047759 0.8 0 0
0.117819 0.282012 0.045387 0.8 0 0
0.277865 0.121267 0.031234 0.8 0 0
0.143391 0.123811 0.031234 0.8 0 0
0.334021 0.201296 0.031234 0.8 0 0
0.224913 0.069915 0.048688 0.8 0 0
0.296744 0.110213 0.050676 0.8 0 0
0.225161 0.235711 0.031234 0.8 0 0
0.243011 0.166977 0.054066 0.8 0 0
0.086402 0.104864 0.050676 0.8 0 0
0.104757 0.223570 0.050676 0.8 0 0
0.916289 0.159912 0.037469 0.8 0 0
0.167496 0.040375 0.044217 0.8 0 0
0.258161 0.188295 0.031234 0.8 0 0
0.871910 0.163455 0.037469 0.8 0 0
0.947373 0.118327 0.036734 0.8 0 0
0.230073 0.125113 0.056623 0.8 0 0
0.962635 0.127268 0.044697 0.8 0 0
0.319243 0.247712 0.031234 0.8 0 0
0.550807 0.152933 0.053219 0.8 0 0
0.420692 0.190548 0.045691 0.8 0 0
0.849207 0.157071 0.054430 0.8 0 0
0.208194 0.128685 0.031234 0.8 0 0
0.905301 0.184673 0.037469 0.8 0 0
0.158472 0.089718 0.031234 0.8 0 0
0.107606 0.260523 0.031234 0.8 0 0
0.315509 0.120243 0.053642 0.8 0 0
0.904927 0.208567 0.039067 0.8 0 0
0.374190 0.175288 0.048922 0.8 0 0
0.280658 0.168303 0.054141 0.8 0 0
0.751451 0.141534 0.052855 0.8 0 0
0.707829 0.190548 0.046878 0.8 0 0
0.207409 0.132038 0.031234 0.8 0 0
0.565519 0.159578 0.052854 0.8 0 0
0.369536 0.134586 0.031234 0.8 0 0
0.232836 0.189633 0.048794 0.8 0 0
0.876228 0.170795 0.037469 0.8 0 0
0.729236 0.190548 0.041122 0.8 0 0
0.109966 0.249511 0.031234 0.8 0 0
0.321328 0.216445 0.050676 0.8 0 0
0.564231 0.161462 0.031245 0.8 0 0
0.325673 0.177693 0.037601 0.8 0 0
0.343248 0.157431 0.054790 0.8 0 0
0.234700 0.207537 0.045043 0.8 0 0
0.607780 0.156531 0.053572 0.8 0 0
0.056961 0.133446 0.031234 0.8 0 0
0.675592 0.190548 0.034705 0.8 0 0
0.139459 0.058543 0.051861 0.8 0 0
0.390216 0.266620 0.031234 0.8 0 0
0.381699 0.140340 0.052041 0.8 0 0
0.044392 0.159736 0.031234 0.8 0 0
0.392244 0.122860 0.037030 0.8 0 0
0.175920 0.149224 0.031234 0.8 0 0
0.359707 0.193151 0.031234 0.8 0 0
0.115481 0.195278 0.031234 0.8 0 0
0.235758 0.208419 0.045178 0.8 0 0
0.898131 0.163333 0.051870 0.8 0 0
0.335407 0.172461 0.031234 0.8 0 0
0.614818 0.142960 0.052854 0.8 0 0
0.095261 0.210013 0.050676 0.8 0 0
0.122889 0.135289 0.049820 0.8 0 0
0.377564 0.122810 0.048882 0.8 0 0
0.323237 0.127065 0.045043 0.8 0 0
0.377479 0.055320 0.031234 0.8 0 0
0.713477 0.174527 0.052854 0.8 0 0
0.389863 0.146969 0.052854 0.8 0 0
0.395783 0.049840 0.031234 0.8 0 0
0.125114 0.156465 0.050676 0.8 0 0
0.899404 0.162018 0.037469 0.8 0 0
0.299191 0.137724 0.056175 0.8 0 0
0.072821 0.113383 0.050676 0.8 0 0
0.078919 0.219252 0.050676 0.8 0 0
0.393040 0.148225 0.045405 0.8 0 0
0.307358 0.267532 0.031234 0.8 0 0
0.163391 0.162648 0.031234 0.8 0 0
0.346804 0.200894 0.031234 0.8 0 0
0.204773 0.200922 0.054171 0.8 0 0
0.415024 0.183856 0.053444 0.8 0 0
0.862824 0.149838 0.051870 0.8 0 0
0.397007 0.255047 0.031234 0.8 0 0
0.383994 0.209254 0.050676 0.8 0 0
0.244485 0.089512 0.050676 0.8 0 0
0.029889 0.183944 0.031234 0.8 0 0
0.393022 0.120752 0.036081 0.8 0 0
0.472922 0.176932 0.054089 0.8 0 0
0.362845 0.157923 0.031234 0.8 0 0
0.873739 0.202402 0.043790 0.8 0 0
0.296631 0.265225 0.035426 0.8 0 0
0.248227 0.119292 0.031234 0.8 0 0
0.239936 0.214016 0.050676 0.8 0 0
0.575064 0.147802 0.053647 0.8 0 0
0.210697 0.135757 0.053642 0.8 0 0
0.275135 0.105418 0.050676 0.8 0 0
0.162926 0.035817 0.041468 0.8 0 0
0.095946 0.124971 0.050676 0.8 0 0
0.591689 0.156671 0.052854 0.8 0 0
0.289812 0.141589 0.059088 0.8 0 0
0.314277 0.171824 0.050676 0.8 0 0
0.863428 0.198578 0.037469 0.8 0 0
0.179538 0.150312 0.054030 0.8 0 0
0.688220 0.162036 0.031245 0.8 0 0
0.215616 0.195537 0.055836 0.8 0 0
0.326514 0.159878 0.050608 0.8 0 0
0.189982 0.167672 0.050676 0.8 0 0
0.262863 0.201728 0.031234 0.8 0 0
0.354211 0.172232 0.031245 0.8 0 0
0.159965 0.145485 0.052197 0.8 0 0
0.127090 0.137909 0.050676 0.8 0 0
0.327445 0.180183 0.031234 0.8 0 0
0.292823 0.126741 0.031234 0.8 0 0
0.321566 0.238233 0.031234 0.8 0 0
0.523364 0.177160 0.050527 0.8 0 0
0.801469 0.174954 0.031245 0.8 0 0
0.375964 0.042015 0.047073 0.8 0 0
0.284838 0.069942 0.031234 0.8 0 0
0.071793 0.257724 0.036688 0.8 0 0
0.413547 0.159489 0.052854 0.8 0 0
0.904105 0.187373 0.049734 0.8 0 0
0.688990 0.149663 0.046152 0.8 0 0
0.103489 0.223361 0.031234 0.8 0 0
0.122054 0.156902 0.031234 0.8 0 0
0.398655 0.253774 0.031234 0.8 0 0
0.156845 0.170980 0.049533 0.8 0 0
0.124844 0.281678 0.046911 0.8 0 0
0.930429 0.176757 0.051870 0.8 0 0
0.303984 0.258061 0.031234 0.8 0 0
0.239227 0.094672 0.050676 0.8 0 0
0.405361 0.050069 0.031234 0.8 0 0
0.104225 0.263861 0.049401 0.8 0 0
0.127444 0.226458 0.050676 0.8 0 0
0.603943 0.190548 0.035982 0.8 0 0
0.690990 0.170514 0.049323 0.8 0 0
0.381877 0.197868 0.031234 0.8 0 0
0.393309 0.183700 0.052854 0.8 0 0
0.852260 0.184436 0.054921 0.8 0 0
0.620705 0.138067 0.043487 0.8 0 0
0.192492 0.111881 0.050676 0.8 0 0
0.044497 0.100583 0.042709 0.8 0 0
0.150822 0.278359 0.031234 0.8 0 0
0.851955 0.137303 0.037469 0.8 0 0
0.178069 0.149641 0.050676 0.8 0 0
0.264032 0.253957 0.031234 0.8 0 0
0.177928 0.092684 0.045043 0.8 0 0
0.257606 0.073046 0.031234 0.8 0 0
0.179722 0.202014 0.050676 0.8 0 0
0.224383 0.121160 0.049248 0.8 0 0
0.381632 0.162812 0.050606 0.8 0 0
0.874975 0.131180 0.048838 0.8 0 0
0.065677 0.065737 0.033239 0.8 0 0
0.295721 0.141240 0.049364 0.8 0 0
0.580713 0.180124 0.047887 0.8 0 0
0.195773 0.142439 0.054441 0.8 0 0
0.902341 0.148495 0.054686 0.8 0 0
0.629244 0.169187 0.031245 0.8 0 0
0.215914 0.076919 0.050577 0.8 0 0
0.538795 0.153142 0.031245 0.8 0 0
0.096560 0.212240 0.050676 0.8 0 0
0.713717 0.166501 0.046152 0.8 0 0
0.035149 0.180593 0.046652 0.8 0 0
0.592079 0.142888 0.052854 0.8 0 0
0.962165 0.177874 0.037469 0.8 0 0
0.156167 0.171808 0.031234 0.8 0 0
0.232789 0.179848 0.048530 0.8 0 0
0.473317 0.138067 0.035095 0.8 0 0
0.158026 0.151996 0.031234 0.8 0 0
0.185917 0.204755 0.050676 0.8 0 0
0.422805 0.138067 0.049692 0.8 0 0
0.179084 0.277710 0.050581 0.8 0 0
0.321273 0.100082 0.031234 0.8 0 0
0.344094 0.062838 0.031234 0.8 0 0
0.102111 0.087234 0.031234 0.8 0 0
0.234807 0.231223 0.031234 0.8 0 0
0.759600 0.156779 0.052854 0.8 0 0
0.195608 0.181047 0.031234 0.8 0 0
0.138869 0.190442 0.031234 0.8 0 0
0.099598 0.263264 0.048766 0.8 0 0
0.402870 0.270209 0.049335 0.8 0 0
0.822698 0.172051 0.048543 0.8 0 0
0.611717 0.138067 0.036536 0.8 0 0
0.469233 0.150281 0.054541 0.8 0 0
0.154501 0.161995 0.050676 0.8 0 0
0.420271 0.255150 0.031234 0.8 0 0
0.376033 0.179995 0.053699 0.8 0 0
0.233900 0.179601 0.031234 0.8 0 0
0.141544 0.163845 0.050676 0.8 0 0
0.366233 0.089824 0.031234 0.8 0 0
0.922663 0.200316 0.043481 0.8 0 0
0.383106 0.149362 0.047550 0.8 0 0
0.050313 0.117800 0.049420 0.8 0 0
0.738448 0.190548 0.039883 0.8 0 0
0.046929 0.186789 0.049852 0.8 0 0
0.292039 0.076519 0.031234 0.8 0 0
0.336832 0.061219 0.031234 0.8 0 0
0.226507 0.217388 0.050676 0.8 0 0
0.245626 0.137250 0.050676 0.8 0 0
0.323583 0.188142 0.053642 0.8 0 0
0.062092 0.210810 0.031234 0.8 0 0
0.104375 0.036420 0.031234 0.8 0 0
0.147254 0.095884 0.050676 0.8 0 0
0.394514 0.034342 0.031234 0.8 0 0
0.822087 0.188071 0.046604 0.8 0 0
0.095839 0.067685 0.050676 0.8 0 0
0.933924 0.151020 0.051870 0.8 0 0
0.122285 0.093257 0.050676 0.8 0 0
0.064497 0.093658 0.049771 0.8 0 0
0.346113 0.233648 0.031234 0.8 0 0
0.213389 0.171269 0.045043 0.8 0 0
0.171786 0.073967 0.055481 0.8 0 0
0.912410 0.118277 0.032124 0.8 0 0
0.202518 0.091796 0.050676 0.8 0 0
0.647010 0.163038 0.031245 0.8 0 0
0.871728 0.202611 0.041299 0.8 0 0
0.862722 0.140475 0.051870 0.8 0 0
0.678528 0.151373 0.052854 0.8 0 0
0.180431 0.236132 0.050676 0.8 0 0
0.189360 0.190303 0.050676 0.8 0 0
0.522755 0.172727 0.052465 0.8 0 0
0.743766 0.185008 0.054187 0.8 0 0
0.941204 0.132289 0.049043 0.8 0 0
0.417764 0.208239 0.046628 0.8 0 0
0.885583 0.157574 0.037469 0.8 0 0
0.220218 0.281018 0.031234 0.8 0 0
0.913527 0.162717 0.037469 0.8 0 0
0.696864 0.153523 0.031245 0.8 0 0
0.204406 0.156756 0.053642 0.8 0 0
0.574199 0.171889 0.047128 0.8 0 0
0.512355 0.154064 0.052854 0.8 0 0
0.115550 0.036098 0.046644 0.8 0 0
0.229134 0.164330 0.031234 0.8 0 0
0.377597 0.130551 0.031234 0.8 0 0
0.068911 0.151093 0.050676 0.8 0 0
0.821992 0.158733 0.037469 0.8 0 0
0.193849 0.223935 0.050676 0.8 0 0
0.124576 0.162962 0.031234 0.8 0 0
0.248591 0.190594 0.050676 0.8 0 0
0.722644 0.181111 0.031245 0.8 0 0
0.366781 0.291639 0.042713 0.8 0 0
0.391151 0.184413 0.050676 0.8 0 0
0.557984 0.177325 0.052854 0.8 0 0
0.409048 0.062926 0.049350 0.8 0 0
0.167492 0.140481 0.031234 0.8 0 0
0.311955 0.157201 0.053954 0.8 0 0
0.159296 0.177879 0.056737 0.8 0 0
0.385311 0.205241 0.031234 0.8 0 0
0.305837 0.246236 0.031234 0.8 0 0
0.471428 0.167205 0.054689 0.8 0 0
0.378293 0.142373 0.054051 0.8 0 0
0.287997 0.120009 0.047882 0.8 0 0
0.103239 0.071821 0.031234 0.8 0 0
0.451296 0.170546 0.052854 0.8 0 0
0.388905 0.188982 0.032765 0.8 0 0
0.341529 0.082874 0.050676 0.8 0 0
0.396733 0.183914 0.055151 0.8 0 0
0.575846 0.162195 0.053758 0.8 0 0
0.060960 0.230651 0.031234 0.8 0 0
0.799881 0.190548 0.041160 0.8 0 0
0.914586 0.199802 0.041750 0.8 0 0
0.386969 0.073133 0.050676 0.8 0 0
0.102673 0.089825 0.050676 0.8 0 0
0.094228 0.167551 0.031234 0.8 0 0
0.967815 0.139418 0.051870 0.8 0 0
0.311670 0.191096 0.049364 0.8 0 0
0.325673 0.185880 0.034491 0.8 0 0
0.196669 0.175204 0.048476 0.8 0 0
0.114338 0.153942 0.050676 0.8 0 0
0.315649 0.112157 0.050676 0.8 0 0
0.853891 0.141248 0.034507 0.8 0 0
0.153592 0.280122 0.031234 0.8 0 0
0.163621 0.257031 0.031234 0.8 0 0
0.307652 0.199812 0.031234 0.8 0 0
0.353219 0.200670 0.031234 0.8 0 0
0.075605 0.055402 0.031234 0.8 0 0
0.028275 0.162663 0.031234 0.8 0 0
0.307041 0.142328 0.051569 0.8 0 0
0.336655 0.157470 0.050676 0.8 0 0
0.200037 0.069951 0.050478 0.8 0 0
0.811539 0.161836 0.052363 0.8 0 0
0.125145 0.217972 0.031234 0.8 0 0
0.397554 0.142140 0.054640 0.8 0 0
0.221804 0.124485 0.045043 0.8 0 0
0.406472 0.141994 0.052559 0.8 0 0
0.198257 0.166900 0.054142 0.8 0 0
0.551721 0.169774 0.047606 0.8 0 0
0.176286 0.157031 0.054390 0.8 0 0
0.672866 0.149245 0.052854 0.8 0 0
0.686452 0.161987 0.053758 0.8 0 0
0.254368 0.202284 0.050676 0.8 0 0
0.354146 0.149190 0.031234 0.8 0 0
0.490619 0.170945 0.031245 0.8 0 0
0.032525 0.178478 0.045387 0.8 0 0
0.316310 0.128253 0.031234 0.8 0 0
0.229265 0.225438 0.031234 0.8 0 0
0.138052 0.118378 0.050676 0.8 0 0
0.655833 0.179308 0.047260 0.8 0 0
0.653751 0.174223 0.031245 0.8 0 0
0.144900 0.296288 0.037837 0.8 0 0
0.379478 0.209363 0.050676 0.8 0 0
0.230447 0.161361 0.053642 0.8 0 0
0.297540 0.205443 0.045043 0.8 0 0
0.366959 0.157342 0.052854 0.8 0 0
0.747355 0.186626 0.051899 0.8 0 0
0.343635 0.152820 0.052854 0.8 0 0
0.733276 0.183315 0.053984 0.8 0 0
0.284435 0.250958 0.031234 0.8 0 0
0.230316 0.079083 0.050459 0.8 0 0
0.747346 0.148648 0.031245 0.8 0 0
0.511966 0.153262 0.031245 0.8 0 0
0.659106 0.187098 0.047550 0.8 0 0
0.364670 0.098519 0.050676 0.8 0 0
0.179670 0.081457 0.059390 0.8 0 0
0.160538 0.175971 0.054775 0.8 0 0
0.817729 0.139540 0.031234 0.8 0 0
0.230584 0.174822 0.058817 0.8 0 0
0.400200 0.184215 0.052854 0.8 0 0
0.078014 0.120111 0.031234 0.8 0 0
0.742238 0.189753 0.033537 0.8 0 0
0.606609 0.140538 0.031861 0.8 0 0
0.465455 0.174567 0.051867 0.8 0 0
0.881841 0.140242 0.037469 0.8 0 0
0.871997 0.156450 0.051870 0.8 0 0
0.432213 0.148452 0.046152 0.8 0 0
0.286186 0.176891 0.050676 0.8 0 0
0.412214 0.182184 0.031245 0.8 0 0
0.409819 0.069932 0.047853 0.8 0 0
0.816948 0.188767 0.036279 0.8 0 0
0.654815 0.160461 0.052854 0.8 0 0
0.252506 0.210588 0.031234 0.8 0 0
0.124705 0.269143 0.050434 0.8 0 0
0.186232 0.178269 0.031234 0.8 0 0
0.108077 0.200217 0.031234 0.8 0 0
0.154295 0.132969 0.050676 0.8 0 0
0.880436 0.170698 0.037469 0.8 0 0
0.132174 0.239298 0.031234 0.8 0 0
0.521585 0.140091 0.050557 0.8 0 0
0.566493 0.189379 0.050936 0.8 0 0
0.497824 0.152065 0.031245 0.8 0 0
0.207790 0.184321 0.053642 0.8 0 0
0.427688 0.060708 0.036965 0.8 0 0
0.136184 0.072284 0.045043 0.8 0 0
0.085720 0.144897 0.050676 0.8 0 0
0.088375 0.095027 0.031234 0.8 0 0
0.199153 0.266771 0.031234 0.8 0 0
0.517582 0.143848 0.046230 0.8 0 0
0.494154 0.143172 0.031245 0.8 0 0
0.633676 0.156019 0.053758 0.8 0 0
0.642411 0.138067 0.039534 0.8 0 0
0.134899 0.281368 0.048360 0.8 0 0
0.822698 0.162648 0.036045 0.8 0 0
0.319176 0.126315 0.050676 0.8 0 0
0.407470 0.287322 0.031234 0.8 0 0
0.933504 0.133102 0.040993 0.8 0 0
0.141208 0.111598 0.031234 0.8 0 0
0.357342 0.149676 0.031245 0.8 0 0
0.580567 0.184511 0.047741 0.8 0 0
0.328016 0.092727 0.031234 0.8 0 0
0.387391 0.150277 0.031234 0.8 0 0
0.071783 0.119935 0.050676 0.8 0 0
0.083751 0.223064 0.031234 0.8 0 0
0.635402 0.168626 0.047341 0.8 0 0
0.609425 0.158254 0.052854 0.8 0 0
0.494462 0.147305 0.049057 0.8 0 0
0.627297 0.142070 0.052854 0.8 0 0
0.318592 0.197798 0.031234 0.8 0 0
0.579031 0.172105 0.031245 0.8 0 0
0.408719 0.246647 0.031234 0.8 0 0
0.311268 0.225073 0.050676 0.8 0 0
0.399061 0.190548 0.038439 0.8 0 0
0.574629 0.157746 0.054643 0.8 0 0
0.178220 0.063057 0.050555 0.8 0 0
0.674379 0.182386 0.031245 0.8 0 0
0.213420 0.167136 0.031234 0.8 0 0
0.408516 0.226114 0.049783 0.8 0 0
0.231205 0.180574 0.045043 0.8 0 0
0.366258 0.150096 0.054725 0.8 0 0
0.320461 0.056487 0.045080 0.8 0 0
0.126935 0.188771 0.031234 0.8 0 0
0.837423 0.178400 0.037469 0.8 0 0
0.819354 0.165112 0.031234 0.8 0 0
0.684799 0.170831 0.053272 0.8 0 0
0.381432 0.235694 0.031234 0.8 0 0
0.722853 0.150284 0.054002 0.8 0 0
0.128909 0.206897 0.050676 0.8 0 0
0.705372 0.138067 0.039366 0.8 0 0
0.095685 0.094772 0.050676 0.8 0 0
0.350466 0.171350 0.052854 0.8 0 0
0.147953 0.069124 0.046136 0.8 0 0
0.908303 0.173003 0.037469 0.8 0 0
0.257366 0.102414 0.031234 0.8 0 0
0.603335 0.157565 0.053690 0.8 0 0
0.490140 0.190548 0.034601 0.8 0 0
0.315291 0.136252 0.045043 0.8 0 0
0.149492 0.107786 0.050676 0.8 0 0
0.166568 0.151475 0.056799 0.8 0 0
0.315063 0.201892 0.031234 0.8 0 0
0.304839 0.178499 0.058662 0.8 0 0
0.743693 0.185557 0.053758 0.8 0 0
0.862149 0.119025 0.037054 0.8 0 0
0.375572 0.290870 0.031234 0.8 0 0
0.142350 0.071170 0.050676 0.8 0 0
0.905708 0.128536 0.037234 0.8 0 0
0.286396 0.213178 0.031234 0.8 0 0
0.074350 0.155062 0.050676 0.8 0 0
0.057101 0.117774 0.050538 0.8 0 0
0.222359 0.099294 0.031234 0.8 0 0
0.862312 0.180685 0.037469 0.8 0 0
0.628509 0.154226 0.050177 0.8 0 0
0.584978 0.158223 0.052854 0.8 0 0
0.039478 0.126547 0.046882 0.8 0 0
0.315040 0.127022 0.031234 0.8 0 0
0.209460 0.127148 0.053642 0.8 0 0
0.613230 0.140925 0.052626 0.8 0 0
0.471205 0.189255 0.033039 0.8 0 0
0.193530 0.289718 0.046860 0.8 0 0
0.374990 0.141078 0.047254 0.8 0 0
0.388267 0.075940 0.031234 0.8 0 0
0.206957 0.192803 0.045043 0.8 0 0
0.220503 0.163368 0.031234 0.8 0 0
0.376619 0.141152 0.049165 0.8 0 0
0.399349 0.231361 0.050676 0.8 0 0
0.044933 0.211017 0.045753 0.8 0 0
0.393006 0.170565 0.050676 0.8 0 0
0.852056 0.142968 0.055175 0.8 0 0
0.391661 0.138067 0.036811 0.8 0 0
0.321792 0.200337 0.059191 0.8 0 0
0.295512 0.224664 0.050676 0.8 0 0
0.167804 0.190970 0.049813 0.8 0 0
0.055470 0.095976 0.047505 0.8 0 0
0.136972 0.143125 0.031234 0.8 0 0
0.545611 0.138443 0.050144 0.8 0 0
0.905844 0.215236 0.031234 0.8 0 0
0.232438 0.192754 0.050676 0.8 0 0
0.147336 0.226292 0.050676 0.8 0 0
0.953799 0.174923 0.051870 0.8 0 0
0.203638 0.129264 0.050216 0.8 0 0
0.414654 0.051053 0.031234 0.8 0 0
0.555602 0.154568 0.031245 0.8 0 0
0.853324 0.163087 0.051870 0.8 0 0
0.957526 0.127583 0.034840 0.8 0 0
0.116926 0.130944 0.031234 0.8 0 0
0.157304 0.164113 0.051180 0.8 0 0
0.410462 0.203073 0.049208 0.8 0 0
0.913778 0.149814 0.051870 0.8 0 0
0.467670 0.177673 0.052854 0.8 0 0
0.213884 0.288494 0.031234 0.8 0 0
0.123599 0.077311 0.049600 0.8 0 0
0.272876 0.133263 0.031234 0.8 0 0
0.363279 0.155880 0.031234 0.8 0 0
0.811539 0.185753 0.053719 0.8 0 0
0.177412 0.294627 0.031234 0.8 0 0
0.540532 0.168248 0.031245 0.8 0 0
0.424737 0.188619 0.051696 0.8 0 0
0.776703 0.148045 0.046152 0.8 0 0
0.786969 0.166822 0.054221 0.8 0 0
0.379145 0.157147 0.053758 0.8 0 0
0.285913 0.194346 0.047894 0.8 0 0
0.433287 0.172010 0.053033 0.8 0 0
0.189063 0.081541 0.031234 0.8 0 0
0.235758 0.187006 0.046306 0.8 0 0
0.529282 0.157788 0.031245 0.8 0 0
0.436017 0.153718 0.052854 0.8 0 0
0.182797 0.102546 0.050676 0.8 0 0
0.316666 0.149914 0.050676 0.8 0 0
0.632405 0.158651 0.052854 0.8 0 0
0.203418 0.203460 0.056997 0.8 0 0
0.233972 0.131885 0.053642 0.8 0 0
0.883805 0.163766 0.037469 0.8 0 0
0.089013 0.038875 0.035042 0.8 0 0
0.369251 0.152719 0.050645 0.8 0 0
0.212690 0.245676 0.031234 0.8 0 0
0.323745 0.062065 0.031234 0.8 0 0
0.226842 0.107249 0.031234 0.8 0 0
0.695156 0.157578 0.052854 0.8 0 0
0.071169 0.235126 0.031234 0.8 0 0
0.175352 0.234012 0.031234 0.8 0 0
0.543304 0.139412 0.051112 0.8 0 0
0.703575 0.172568 0.052854 0.8 0 0
0.112099 0.170476 0.050676 0.8 0 0
0.691965 0.188201 0.031984 0.8 0 0
0.325003 0.135483 0.050163 0.8 0 0
0.172130 0.055271 0.031234 0.8 0 0
0.214004 0.290782 0.035648 0.8 0 0
0.187228 0.235351 0.031234 0.8 0 0
0.180236 0.142015 0.054043 0.8 0 0
0.186398 0.187132 0.031234 0.8 0 0
0.336911 0.077268 0.050676 0.8 0 0
0.630402 0.175861 0.046160 0.8 0 0
0.071307 0.057967 0.039284 0.8 0 0
0.257433 0.204843 0.031234 0.8 0 0
0.045786 0.225609 0.038707 0.8 0 0
0.855504 0.191348 0.053132 0.8 0 0
0.772063 0.138067 0.035012 0.8 0 0
0.410731 0.173462 0.052854 0.8 0 0
0.385196 0.190508 0.031234 0.8 0 0
0.262611 0.158713 0.031234 0.8 0 0
0.230753 0.184339 0.048530 0.8 0 0
0.790024 0.173187 0.052854 0.8 0 0
0.362274 0.040022 0.031234 0.8 0 0
0.232806 0.167287 0.054751 0.8 0 0
0.270676 0.194012 0.050676 0.8 0 0
0.311179 0.172399 0.031234 0.8 0 0
0.408640 0.030280 0.037247 0.8 0 0
0.407525 0.050693 0.031234 0.8 0 0
0.251158 0.064319 0.031234 0.8 0 0
0.348890 0.212313 0.031234 0.8 0 0
0.741548 0.187380 0.046298 0.8 0 0
0.464999 0.168253 0.054091 0.8 0 0
0.139332 0.105753 0.031234 0.8 0 0
0.906532 0.126330 0.039409 0.8 0 0
0.099594 0.111642 0.050676 0.8 0 0
0.351485 0.167561 0.031245 0.8 0 0
0.303885 0.195582 0.050676 0.8 0 0
0.905773 0.179474 0.054111 0.8 0 0
0.765697 0.168335 0.054174 0.8 0 0
0.416117 0.157942 0.037330 0.8 0 0
0.174860 0.234942 0.050676 0.8 0 0
0.332390 0.128666 0.031234 0.8 0 0
0.204949 0.160391 0.048530 0.8 0 0
0.241721 0.232321 0.050676 0.8 0 0
0.184434 0.166561 0.031234 0.8 0 0
0.631070 0.142023 0.054035 0.8 0 0
0.314232 0.176505 0.045043 0.8 0 0
0.397033 0.187859 0.031234 0.8 0 0
0.344804 0.138067 0.049444 0.8 0 0
0.350929 0.092974 0.031234 0.8 0 0
0.034435 0.138355 0.045602 0.8 0 0
0.321803 0.170024 0.050676 0.8 0 0
0.378944 0.046012 0.031234 0.8 0 0
0.400036 0.264662 0.031234 0.8 0 0
0.305373 0.144045 0.031234 0.8 0 0
0.486857 0.142969 0.048855 0.8 0 0
0.419224 0.190548 0.035578 0.8 0 0
0.220104 0.124254 0.053642 0.8 0 0
0.058663 0.243444 0.035391 0.8 0 0
0.159220 0.146246 0.031234 0.8 0 0
0.138463 0.156965 0.054190 0.8 0 0
0.470920 0.178805 0.052854 0.8 0 0
0.662634 0.138067 0.034992 0.8 0 0
0.450667 0.158958 0.052854 0.8 0 0
0.820880 0.148751 0.040347 0.8 0 0
0.799522 0.156223 0.052854 0.8 0 0
0.372078 0.040222 0.045413 0.8 0 0
0.740593 0.183810 0.053490 0.8 0 0
0.953909 0.161452 0.037469 0.8 0 0
0.742630 0.143873 0.046192 0.8 0 0
0.074284 0.134085 0.031234 0.8 0 0
0.325909 0.183300 0.034096 0.8 0 0
0.425637 0.205391 0.038140 0.8 0 0
0.657886 0.156243 0.052854 0.8 0 0
0.947362 0.128573 0.034843 0.8 0 0
0.374190 0.152361 0.048242 0.8 0 0
0.052652 0.160745 0.050676 0.8 0 0
0.290730 0.171395 0.050676 0.8 0 0
0.048635 0.137802 0.031234 0.8 0 0
0.137669 0.265532 0.031234 0.8 0 0
0.240216 0.135730 0.031234 0.8 0 0
0.248941 0.160296 0.031234 0.8 0 0
0.218238 0.153311 0.031234 0.8 0 0
0.096468 0.113411 0.031234 0.8 0 0
0.299849 0.178517 0.057234 0.8 0 0
0.036146 0.180065 0.031234 0.8 0 0
0.857820 0.182405 0.037469 0.8 0 0
0.469752 0.165182 0.031245 0.8 0 0
0.238401 0.156163 0.050676 0.8 0 0
0.156088 0.159708 0.031234 0.8 0 0
0.396898 0.042028 0.031234 0.8 0 0
0.630712 0.148267 0.052854 0.8 0 0
0.598370 0.138067 0.044736 0.8 0 0
0.173282 0.067378 0.045043 0.8 0 0
0.626922 0.157252 0.031245 0.8 0 0
0.900720 0.191525 0.033858 0.8 0 0
0.218505 0.283588 0.031234 0.8 0 0
0.415086 0.202436 0.031234 0.8 0 0
0.303934 0.147546 0.031234 0.8 0 0
0.096950 0.109071 0.031234 0.8 0 0
0.750180 0.184415 0.054943 0.8 0 0
0.605520 0.157379 0.054738 0.8 0 0
0.965090 0.143125 0.051870 0.8 0 0
0.361756 0.055099 0.049643 0.8 0 0
0.285913 0.156708 0.045075 0.8 0 0
0.311543 0.127173 0.045043 0.8 0 0
0.137636 0.250808 0.050676 0.8 0 0
0.425726 0.169081 0.052854 0.8 0 0
0.693448 0.190548 0.042794 0.8 0 0
0.389824 0.104316 0.031234 0.8 0 0
0.771734 0.142775 0.031245 0.8 0 0
0.385045 0.146421 0.031234 0.8 0 0
0.187323 0.127430 0.031234 0.8 0 0
0.809783 0.138067 0.035748 0.8 0 0
0.714041 0.159863 0.046152 0.8 0 0
0.324217 0.170417 0.045043 0.8 0 0
0.589736 0.176975 0.054132 0.8 0 0
0.196669 0.150619 0.053305 0.8 0 0
0.091362 0.197352 0.031234 0.8 0 0
0.073762 0.062421 0.044831 0.8 0 0
0.053358 0.167412 0.031234 0.8 0 0
0.159223 0.073028 0.050676 0.8 0 0
0.164101 0.147502 0.031234 0.8 0 0
0.885439 0.133091 0.048226 0.8 0 0
0.327930 0.048594 0.035916 0.8 0 0
0.209288 0.196744 0.056593 0.8 0 0
0.925646 0.138084 0.051904 0.8 0 0
0.890486 0.177598 0.051870 0.8 0 0
0.679397 0.172943 0.052854 0.8 0 0
0.389674 0.161975 0.031234 0.8 0 0
0.126828 0.135812 0.031234 0.8 0 0
0.672342 0.147316 0.052854 0.8 0 0
0.274990 0.134945 0.031234 0.8 0 0
0.270690 0.171550 0.031234 0.8 0 0
0.418221 0.077103 0.037280 0.8 0 0
0.941444 0.216735 0.026826 0.8 0 0
0.396821 0.184328 0.053507 0.8 0 0
0.146581 0.153427 0.050676 0.8 0 0
0.657454 0.178126 0.053758 0.8 0 0
0.780391 0.148663 0.048179 0.8 0 0
0.426074 0.045973 0.032570 0.8 0 0
0.221611 0.186037 0.031234 0.8 0 0
0.198484 0.276910 0.050176 0.8 0 0
0.900114 0.135235 0.051315 0.8 0 0
0.167851 0.231014 0.050676 0.8 0 0
0.455386 0.190548 0.042020 0.8 0 0
0.181781 0.238984 0.031234 0.8 0 0
0.515758 0.181325 0.049182 0.8 0 0
0.930685 0.165481 0.037469 0.8 0 0
0.230898 0.154313 0.048530 0.8 0 0
0.673944 0.185495 0.052854 0.8 0 0
0.380888 0.163155 0.047146 0.8 0 0
0.189728 0.047581 0.043534 0.8 0 0
0.245602 0.157684 0.054705 0.8 0 0
0.548861 0.184489 0.052854 0.8 0 0
0.400762 0.159137 0.053049 0.8 0 0
0.706496 0.190548 0.046333 0.8 0 0
0.195831 0.157680 0.050676 0.8 0 0
0.317749 0.076402 0.050676 0.8 0 0
0.113736 0.103616 0.050676 0.8 0 0
0.857005 0.196944 0.031542 0.8 0 0
0.182623 0.210411 0.031234 0.8 0 0
0.198330 0.058422 0.031234 0.8 0 0
0.201160 0.242832 0.050676 0.8 0 0
0.113624 0.238026 0.031234 0.8 0 0
0.538711 0.167160 0.053882 0.8 0 0
0.315074 0.090945 0.050676 0.8 0 0
0.227714 0.205794 0.045043 0.8 0 0
0.869275 0.168480 0.051870 0.8 0 0
0.098612 0.092196 0.050676 0.8 0 0
0.102670 0.269574 0.047495 0.8 0 0
0.057225 0.234758 0.044197 0.8 0 0
0.146179 0.240848 0.050676 0.8 0 0
0.099031 0.247452 0.031234 0.8 0 0
0.734002 0.166950 0.054434 0.8 0 0
0.774629 0.189500 0.051231 0.8 0 0
0.279428 0.217349 0.050676 0.8 0 0
0.136769 0.048351 0.031234 0.8 0 0
0.353363 0.085450 0.050676 0.8 0 0
0.201868 0.149071 0.048530 0.8 0 0
0.965502 0.126559 0.047259 0.8 0 0
0.356398 0.168680 0.050676 0.8 0 0
0.031458 0.144088 0.044671 0.8 0 0
0.821753 0.140209 0.044945 0.8 0 0
0.152093 0.157095 0.031234 0.8 0 0
0.152238 0.255249 0.031234 0.8 0 0
0.396005 0.188699 0.032482 0.8 0 0
0.947295 0.196011 0.030758 0.8 0 0
0.732007 0.166958 0.052854 0.8 0 0
0.237106 0.222930 0.050676 0.8 0 0
0.822104 0.155358 0.033738 0.8 0 0
0.567152 0.139146 0.033252 0.8 0 0
0.480582 0.190548 0.038182 0.8 0 0
0.958559 0.124803 0.030433 0.8 0 0
0.618843 0.176810 0.054573 0.8 0 0
0.807782 0.176286 0.053451 0.8 0 0
0.326764 0.142577 0.031234 0.8 0 0
0.529867 0.145883 0.031245 0.8 0 0
0.317904 0.175786 0.045043 0.8 0 0
0.034781 0.172592 0.046862 0.8 0 0
0.361836 0.174767 0.031245 0.8 0 0
0.720487 0.141523 0.031245 0.8 0 0
0.231886 0.118501 0.031234 0.8 0 0
0.186757 0.263191 0.050676 0.8 0 0
0.208565 0.209307 0.052932 0.8 0 0
0.531125 0.175858 0.052854 0.8 0 0
0.103963 0.268437 0.048176 0.8 0 0
0.597142 0.158477 0.052854 0.8 0 0
0.409532 0.156804 0.052854 0.8 0 0
0.600497 0.171783 0.031245 0.8 0 0
0.187726 0.105616 0.031234 0.8 0 0
0.213633 0.130092 0.050676 0.8 0 0
0.639595 0.154262 0.031245 0.8 0 0
0.398028 0.138067 0.047300 0.8 0 0
0.375450 0.156227 0.046794 0.8 0 0
0.246859 0.212510 0.050676 0.8 0 0
0.137605 0.055703 0.051156 0.8 0 0
0.860628 0.145218 0.051870 0.8 0 0
0.197986 0.180348 0.050676 0.8 0 0
0.219681 0.228937 0.031234 0.8 0 0
0.397182 0.268955 0.031234 0.8 0 0
0.719349 0.159671 0.052854 0.8 0 0
0.464166 0.176385 0.054999 0.8 0 0
0.155845 0.096840 0.031234 0.8 0 0
0.062243 0.245898 0.040988 0.8 0 0
0.511351 0.152395 0.031245 0.8 0 0
0.296554 0.264209 0.040309 0.8 0 0
0.066677 0.243058 0.045673 0.8 0 0
0.407174 0.182395 0.050679 0.8 0 0
0.039197 0.167664 0.031234 0.8 0 0
0.819907 0.167550 0.031542 0.8 0 0
0.318047 0.135184 0.053642 0.8 0 0
0.396377 0.059010 0.050676 0.8 0 0
0.382635 0.096470 0.050332 0.8 0 0
0.292912 0.151629 0.045043 0.8 0 0
0.214865 0.076795 0.031234 0.8 0 0
0.756634 0.190548 0.037271 0.8 0 0
0.221471 0.196520 0.058817 0.8 0 0
0.391938 0.193509 0.031234 0.8 0 0
0.088834 0.163252 0.031234 0.8 0 0
0.389474 0.176175 0.052854 0.8 0 0
0.089470 0.247893 0.031234 0.8 0 0
0.191366 0.180979 0.031234 0.8 0 0
0.739910 0.187762 0.050837 0.8 0 0
0.576805 0.141898 0.046164 0.8 0 0
0.853903 0.127756 0.037469 0.8 0 0
0.692578 0.142434 0.054446 0.8 0 0
0.493357 0.172988 0.052961 0.8 0 0
0.169806 0.123902 0.048435 0.8 0 0
0.594520 0.167583 0.052854 0.8 0 0
0.247409 0.140621 0.031234 0.8 0 0
0.181031 0.073390 0.031234 0.8 0 0
0.819955 0.176271 0.052510 0.8 0 0
0.091228 0.041693 0.043658 0.8 0 0
0.170530 0.298338 0.041215 0.8 0 0
0.715691 0.189534 0.051779 0.8 0 0
0.094992 0.206701 0.050676 0.8 0 0
0.047063 0.162836 0.050506 0.8 0 0
0.270816 0.070387 0.046646 0.8 0 0
0.314738 0.145163 0.049364 0.8 0 0
0.576054 0.179625 0.053758 0.8 0 0
0.589577 0.167686 0.031245 0.8 0 0
0.080617 0.204263 0.050676 0.8 0 0
0.618129 0.152374 0.052854 0.8 0 0
0.921426 0.200150 0.047365 0.8 0 0
0.807641 0.190548 0.039850 0.8 0 0
0.133824 0.078630 0.045043 0.8 0 0
0.158677 0.174716 0.045900 0.8 0 0
0.731722 0.156654 0.052854 0.8 0 0
0.464370 0.163361 0.052952 0.8 0 0
0.261781 0.261395 0.033069 0.8 0 0
0.315441 0.127695 0.045043 0.8 0 0
0.336052 0.270497 0.031234 0.8 0 0
0.298921 0.146570 0.031234 0.8 0 0
0.839370 0.164592 0.037469 0.8 0 0
0.410783 0.033254 0.031234 0.8 0 0
0.896561 0.149468 0.037469 0.8 0 0
0.420827 0.176326 0.052854 0.8 0 0
0.073403 0.169863 0.031234 0.8 0 0
0.079629 0.255598 0.031234 0.8 0 0
0.494993 0.149500 0.031245 0.8 0 0
0.067138 0.210814 0.031234 0.8 0 0
0.288088 0.124913 0.061531 0.8 0 0
0.784677 0.159842 0.052854 0.8 0 0
0.948516 0.174501 0.051870 0.8 0 0
0.402302 0.292584 0.031234 0.8 0 0
0.317882 0.192594 0.058346 0.8 0 0
0.461213 0.155169 0.052854 0.8 0 0
0.377878 0.156201 0.031234 0.8 0 0
0.306074 0.256348 0.048274 0.8 0 0
0.813464 0.180906 0.031234 0.8 0 0
0.504790 0.189968 0.033752 0.8 0 0
0.958738 0.180562 0.037469 0.8 0 0
0.133456 0.195145 0.050858 0.8 0 0
0.200107 0.050026 0.042418 0.8 0 0
0.665196 0.152670 0.031245 0.8 0 0
0.378823 0.152939 0.052854 0.8 0 0
0.167163 0.186715 0.047088 0.8 0 0
0.127669 0.125481 0.048951 0.8 0 0
0.424767 0.179095 0.031245 0.8 0 0
0.970509 0.145409 0.037469 0.8 0 0
0.390855 0.193354 0.050676 0.8 0 0
0.184528 0.069465 0.049272 0.8 0 0
0.230222 0.181634 0.053642 0.8 0 0
0.396979 0.164930 0.031245 0.8 0 0
0.348698 0.175173 0.052854 0.8 0 0
0.202940 0.284000 0.031234 0.8 0 0
0.773951 0.147711 0.031245 0.8 0 0
0.384217 0.074626 0.031234 0.8 0 0
0.299494 0.199972 0.050676 0.8 0 0
0.297516 0.192567 0.055882 0.8 0 0
0.291530 0.128932 0.050676 0.8 0 0
0.384702 0.258805 0.050676 0.8 0 0
0.932439 0.189001 0.037469 0.8 0 0
0.615912 0.138067 0.039395 0.8 0 0
0.423479 0.156210 0.031245 0.8 0 0
0.360904 0.141047 0.046851 0.8 0 0
0.125626 0.211822 0.049849 0.8 0 0
0.811539 0.182893 0.041448 0.8 0 0
0.196669 0.136981 0.047805 0.8 0 0
0.274211 0.139233 0.050676 0.8 0 0
0.370302 0.036586 0.042198 0.8 0 0
0.461842 0.138067 0.042889 0.8 0 0
0.405328 0.184597 0.054760 0.8 0 0
0.036076 0.201134 0.042829 0.8 0 0
0.906272 0.194665 0.051870 0.8 0 0
0.421394 0.181043 0.041718 0.8 0 0
0.179862 0.085406 0.050676 0.8 0 0
0.543206 0.167062 0.053980 0.8 0 0
0.313244 0.136097 0.031234 0.8 0 0
0.310559 0.239601 0.031234 0.8 0 0
0.498394 0.156677 0.052854 0.8 0 0
0.166944 0.219742 0.031234 0.8 0 0
0.212206 0.181647 0.031234 0.8 0 0
0.319398 0.271642 0.044196 0.8 0 0
0.295565 0.103144 0.050676 0.8 0 0
0.607990 0.184033 0.055270 0.8 0 0
0.177989 0.167463 0.054947 0.8 0 0
0.205816 0.159418 0.048530 0.8 0 0
0.292561 0.249750 0.048494 0.8 0 0
0.738823 0.138067 0.036508 0.8 0 0
0.325091 0.086681 0.031234 0.8 0 0
0.367938 0.036099 0.040047 0.8 0 0
0.812360 0.183302 0.052854 0.8 0 0
0.269554 0.222033 0.031234 0.8 0 0
0.957855 0.133266 0.037469 0.8 0 0
0.279369 0.150354 0.031234 0.8 0 0
0.917510 0.161817 0.037469 0.8 0 0
0.373202 0.208658 0.031234 0.8 0 0
0.888360 0.188097 0.037469 0.8 0 0
0.031871 0.136689 0.031234 0.8 0 0
0.187150 0.115061 0.050676 0.8 0 0
0.512190 0.178655 0.031245 0.8 0 0
0.181220 0.070407 0.051047 0.8 0 0
0.213224 0.096966 0.031234 0.8 0 0
0.379179 0.220589 0.050676 0.8 0 0
0.464749 0.153371 0.052854 0.8 0 0
0.335211 0.047141 0.039885 0.8 0 0
0.309376 0.069784 0.031234 0.8 0 0
0.144522 0.264347 0.050676 0.8 0 0
0.414570 0.044993 0.047379 0.8 0 0
0.152277 0.276823 0.031234 0.8 0 0
0.138175 0.107834 0.031234 0.8 0 0
0.655040 0.167309 0.048952 0.8 0 0
0.074639 0.192091 0.031234 0.8 0 0
0.604226 0.141177 0.053004 0.8 0 0
0.402466 0.283188 0.031234 0.8 0 0
0.434463 0.176488 0.048776 0.8 0 0
0.378787 0.077409 0.031234 0.8 0 0
0.249533 0.117558 0.031234 0.8 0 0
0.215914 0.221249 0.031234 0.8 0 0
0.230208 0.130724 0.052541 0.8 0 0
0.781594 0.149709 0.053878 0.8 0 0
0.630188 0.169755 0.031245 0.8 0 0
0.124360 0.156876 0.050676 0.8 0 0
0.254498 0.188987 0.050676 0.8 0 0
0.423884 0.210765 0.031234 0.8 0 0
0.314716 0.141623 0.059651 0.8 0 0
0.424788 0.224544 0.033236 0.8 0 0
0.339591 0.150645 0.052854 0.8 0 0
0.249657 0.263413 0.044624 0.8 0 0
0.843193 0.126116 0.037835 0.8 0 0
0.075071 0.259319 0.040814 0.8 0 0
0.746362 0.157741 0.054648 0.8 0 0
0.653062 0.167523 0.031245 0.8 0 0
0.198918 0.171382 0.031234 0.8 0 0
0.208775 0.149741 0.031234 0.8 0 0
0.346345 0.170708 0.053758 0.8 0 0
0.304936 0.199262 0.050676 0.8 0 0
0.366024 0.243194 0.050676 0.8 0 0
0.151642 0.123200 0.050676 0.8 0 0
0.307456 0.208157 0.047640 0.8 0 0
0.769322 0.163688 0.031245 0.8 0 0
0.811539 0.155877 0.035272 0.8 0 0
0.656822 0.148489 0.052854 0.8 0 0
0.960316 0.160512 0.051870 0.8 0 0
0.608512 0.168887 0.031245 0.8 0 0
0.223674 0.193570 0.053642 0.8 0 0
0.694170 0.167413 0.054897 0.8 0 0
0.050712 0.136106 0.031234 0.8 0 0
0.168277 0.126506 0.053780 0.8 0 0
0.202627 0.135815 0.048530 0.8 0 0
0.253526 0.081641 0.050223 0.8 0 0
0.158658 0.297323 0.032540 0.8 0 0
0.197278 0.083507 0.031234 0.8 0 0
0.296976 0.194460 0.061371 0.8 0 0
0.046528 0.098592 0.031234 0.8 0 0
0.325966 0.186079 0.050676 0.8 0 0
0.382229 0.186190 0.052544 0.8 0 0
0.282227 0.065071 0.044745 0.8 0 0
0.128078 0.042780 0.049260 0.8 0 0
0.221442 0.058868 0.031234 0.8 0 0
0.948182 0.139437 0.037399 0.8 0 0
0.820749 0.176664 0.051716 0.8 0 0
0.093402 0.114368 0.031234 0.8 0 0
0.133554 0.105360 0.031234 0.8 0 0
0.440655 0.183973 0.055210 0.8 0 0
0.371136 0.081684 0.031234 0.8 0 0
0.947141 0.186782 0.037469 0.8 0 0
0.082443 0.247301 0.049178 0.8 0 0
0.293328 0.150081 0.059651 0.8 0 0
0.927773 0.200074 0.050176 0.8 0 0
0.365886 0.250013 0.050676 0.8 0 0
0.580381 0.168714 0.047554 0.8 0 0
0.215600 0.184116 0.052512 0.8 0 0
0.246046 0.140577 0.031234 0.8 0 0
0.164648 0.108064 0.031234 0.8 0 0
0.460479 0.148590 0.031245 0.8 0 0
0.291802 0.226448 0.031234 0.8 0 0
0.141857 0.287112 0.046771 0.8 0 0
0.158750 0.296764 0.041979 0.8 0 0
0.391880 0.233630 0.031234 0.8 0 0
0.035947 0.130270 0.031234 0.8 0 0
0.946755 0.201914 0.038792 0.8 0 0
0.263101 0.213339 0.050676 0.8 0 0
0.372830 0.148129 0.031234 0.8 0 0
0.365408 0.082632 0.050676 0.8 0 0
0.853812 0.153993 0.037469 0.8 0 0
0.522420 0.185645 0.052755 0.8 0 0
0.648284 0.143600 0.052854 0.8 0 0
0.125622 0.224007 0.031234 0.8 0 0
0.401112 0.157811 0.053936 0.8 0 0
0.591854 0.148116 0.031245 0.8 0 0
0.393006 0.215987 0.031234 0.8 0 0
0.196060 0.139253 0.050676 0.8 0 0
0.143543 0.032414 0.042900 0.8 0 0
0.272562 0.112542 0.050676 0.8 0 0
0.228203 0.138065 0.048530 0.8 0 0
0.721236 0.161773 0.052854 0.8 0 0
0.345884 0.117149 0.031234 0.8 0 0
0.950543 0.188075 0.057060 0.8 0 0
0.457860 0.161235 0.051830 0.8 0 0
0.123489 0.053117 0.031234 0.8 0 0
0.304819 0.163063 0.052932 0.8 0 0
0.747242 0.138067 0.037254 0.8 0 0
0.297145 0.225179 0.031234 0.8 0 0
0.027700 0.165809 0.042056 0.8 0 0
0.263505 0.118766 0.031234 0.8 0 0
0.308880 0.200974 0.045043 0.8 0 0
0.355282 0.163805 0.031234 0.8 0 0
0.743333 0.154945 0.046152 0.8 0 0
0.541461 0.169550 0.031245 0.8 0 0
0.082924 0.251956 0.031234 0.8 0 0
0.947624 0.210245 0.030204 0.8 0 0
0.343379 0.273856 0.031234 0.8 0 0
0.295667 0.062522 0.044974 0.8 0 0
0.269112 0.178376 0.031234 0.8 0 0
0.094217 0.248554 0.050576 0.8 0 0
0.078339 0.107383 0.050676 0.8 0 0
0.278423 0.204162 0.050676 0.8 0 0
0.170249 0.167115 0.050676 0.8 0 0
0.239259 0.098932 0.050676 0.8 0 0
0.222812 0.166598 0.056852 0.8 0 0
0.373171 0.090370 0.031234 0.8 0 0
0.624346 0.144156 0.052854 0.8 0 0
0.690992 0.144895 0.052854 0.8 0 0
0.467924 0.189105 0.051210 0.8 0 0
0.093651 0.038226 0.042021 0.8 0 0
0.457860 0.166790 0.049270 0.8 0 0
0.912140 0.128673 0.032475 0.8 0 0
0.529058 0.181631 0.052854 0.8 0 0
0.317619 0.191112 0.045043 0.8 0 0
0.648898 0.188095 0.031879 0.8 0 0
0.371633 0.141019 0.031380 0.8 0 0
0.392620 0.147935 0.031245 0.8 0 0
0.346897 0.239666 0.050676 0.8 0 0
0.028423 0.161624 0.031234 0.8 0 0
0.089761 0.189439 0.031234 0.8 0 0
0.247634 0.067121 0.044771 0.8 0 0
0.362713 0.149077 0.031234 0.8 0 0
0.866941 0.169070 0.051870 0.8 0 0
0.253218 0.183396 0.050676 0.8 0 0
0.166608 0.178778 0.057106 0.8 0 0
0.840263 0.149874 0.054827 0.8 0 0
0.814996 0.154249 0.031245 0.8 0 0
0.832537 0.184608 0.037469 0.8 0 0
0.878070 0.131695 0.047439 0.8 0 0
0.604141 0.140029 0.049487 0.8 0 0
0.071287 0.255654 0.040809 0.8 0 0
0.190982 0.045548 0.032704 0.8 0 0
0.068716 0.129677 0.031234 0.8 0 0
0.495233 0.164229 0.052854 0.8 0 0
0.180536 0.245021 0.050676 0.8 0 0
0.799747 0.153692 0.052854 0.8 0 0
0.316766 0.148394 0.057182 0.8 0 0
0.309430 0.195615 0.050676 0.8 0 0
0.246695 0.155179 0.050676 0.8 0 0
0.617155 0.186265 0.031245 0.8 0 0
0.318569 0.272948 0.031234 0.8 0 0
0.081108 0.070747 0.031234 0.8 0 0
0.867811 0.169415 0.037469 0.8 0 0
0.745357 0.184951 0.053758 0.8 0 0
0.395477 0.181139 0.050676 0.8 0 0
0.290729 0.147707 0.045043 0.8 0 0
0.379129 0.139865 0.050400 0.8 0 0
0.264811 0.254388 0.045872 0.8 0 0
0.129576 0.118200 0.048884 0.8 0 0
0.074170 0.218675 0.050676 0.8 0 0
0.374719 0.145363 0.052854 0.8 0 0
0.288921 0.068998 0.047510 0.8 0 0
0.164018 0.073156 0.050042 0.8 0 0
0.525268 0.190548 0.048629 0.8 0 0
0.287133 0.207059 0.031234 0.8 0 0
0.934028 0.143335 0.037469 0.8 0 0
0.348156 0.174889 0.031234 0.8 0 0
0.964612 0.139712 0.037469 0.8 0 0
0.516385 0.149198 0.052854 0.8 0 0
0.055910 0.120723 0.031234 0.8 0 0
0.206588 0.170526 0.053642 0.8 0 0
0.867674 0.152614 0.037469 0.8 0 0
0.407169 0.252822 0.031234 0.8 0 0
0.951292 0.160567 0.051870 0.8 0 0
0.904817 0.156181 0.052670 0.8 0 0
0.897962 0.172262 0.037469 0.8 0 0
0.201542 0.185426 0.050676 0.8 0 0
0.227964 0.111487 0.050676 0.8 0 0
0.838896 0.179943 0.051870 0.8 0 0
0.325003 0.132365 0.050157 0.8 0 0
0.735153 0.138067 0.037912 0.8 0 0
0.201852 0.178266 0.053642 0.8 0 0
0.431401 0.152580 0.053758 0.8 0 0
0.331411 0.145455 0.031234 0.8 0 0
0.347230 0.158938 0.052854 0.8 0 0
0.589892 0.150697 0.031245 0.8 0 0
0.660822 0.175799 0.052854 0.8 0 0
0.081213 0.118616 0.031234 0.8 0 0
0.905453 0.145666 0.051870 0.8 0 0
0.169945 0.066109 0.031234 0.8 0 0
0.059279 0.072058 0.036547 0.8 0 0
0.038431 0.139481 0.047654 0.8 0 0
0.908999 0.128844 0.028537 0.8 0 0
0.215579 0.168197 0.057191 0.8 0 0
0.395631 0.168012 0.031245 0.8 0 0
0.176998 0.067955 0.050676 0.8 0 0
0.085153 0.102245 0.050676 0.8 0 0
0.135949 0.271914 0.031234 0.8 0 0
0.072687 0.224861 0.031234 0.8 0 0
0.320448 0.054676 0.031234 0.8 0 0
0.410104 0.149976 0.041972 0.8 0 0
0.631435 0.175523 0.046152 0.8 0 0
0.813393 0.178070 0.052854 0.8 0 0
0.322068 0.177879 0.057656 0.8 0 0
0.715054 0.181255 0.053758 0.8 0 0
0.311517 0.175496 0.054241 0.8 0 0
0.660732 0.160245 0.031245 0.8 0 0
0.359823 0.039337 0.032993 0.8 0 0
0.474698 0.157049 0.054408 0.8 0 0
0.151975 0.289660 0.046564 0.8 0 0
0.158724 0.204546 0.050103 0.8 0 0
0.192476 0.291001 0.046255 0.8 0 0
0.654815 0.190548 0.039136 0.8 0 0
0.340021 0.242168 0.050676 0.8 0 0
0.898439 0.204516 0.035500 0.8 0 0
0.229484 0.126008 0.053642 0.8 0 0
0.403029 0.153387 0.046152 0.8 0 0
0.517718 0.138067 0.036763 0.8 0 0
0.411829 0.203265 0.048817 0.8 0 0
0.164091 0.280897 0.049986 0.8 0 0
0.399750 0.138067 0.038383 0.8 0 0
0.730119 0.138067 0.045404 0.8 0 0
0.222612 0.283732 0.041874 0.8 0 0
0.821398 0.164504 0.044945 0.8 0 0
0.130595 0.177096 0.054254 0.8 0 0
0.633543 0.190548 0.040556 0.8 0 0
0.297020 0.256224 0.046774 0.8 0 0
0.325673 0.187461 0.043885 0.8 0 0
0.690990 0.186270 0.051079 0.8 0 0
0.157838 0.161167 0.050640 0.8 0 0
0.494379 0.147133 0.052854 0.8 0 0
0.598505 0.138067 0.035513 0.8 0 0
0.325472 0.273388 0.031234 0.8 0 0
0.762896 0.162984 0.052854 0.8 0 0
0.277860 0.159474 0.050676 0.8 0 0
0.853841 0.148527 0.054111 0.8 0 0
0.964653 0.181845 0.037469 0.8 0 0
0.417677 0.259284 0.031234 0.8 0 0
0.416990 0.034463 0.035540 0.8 0 0
0.687972 0.145653 0.046152 0.8 0 0
0.887229 0.192110 0.051870 0.8 0 0
0.228528 0.124487 0.050676 0.8 0 0
0.651534 0.159865 0.052854 0.8 0 0
0.410351 0.089615 0.037124 0.8 0 0
0.578222 0.138067 0.047130 0.8 0 0
0.942321 0.165750 0.051870 0.8 0 0
0.333286 0.164788 0.050676 0.8 0 0
0.311105 0.074407 0.050437 0.8 0 0
0.328641 0.143028 0.031364 0.8 0 0
0.299535 0.169367 0.031234 0.8 0 0
0.715329 0.175805 0.053932 0.8 0 0
0.730973 0.138067 0.043374 0.8 0 0
0.253315 0.208541 0.050676 0.8 0 0
0.627207 0.138067 0.038086 0.8 0 0
0.430384 0.183897 0.052854 0.8 0 0
0.217778 0.177515 0.031234 0.8 0 0
0.434174 0.164979 0.052854 0.8 0 0
0.099866 0.261795 0.031234 0.8 0 0
0.580880 0.143250 0.049804 0.8 0 0
0.815490 0.160905 0.031245 0.8 0 0
0.350406 0.141209 0.052855 0.8 0 0
0.345293 0.269250 0.049796 0.8 0 0
0.249139 0.197683 0.050676 0.8 0 0
0.360330 0.204791 0.031234 0.8 0 0
0.209829 0.121160 0.048037 0.8 0 0
0.767480 0.138067 0.044080 0.8 0 0
0.335799 0.077448 0.031234 0.8 0 0
0.138875 0.060431 0.058607 0.8 0 0
0.569713 0.190548 0.042365 0.8 0 0
0.229085 0.198793 0.048530 0.8 0 0
0.185804 0.053109 0.047457 0.8 0 0
0.407600 0.073716 0.047760 0.8 0 0
0.338874 0.235776 0.031234 0.8 0 0
0.125187 0.148458 0.050676 0.8 0 0
0.469800 0.157622 0.054767 0.8 0 0
0.399322 0.209364 0.050676 0.8 0 0
0.493181 0.190548 0.046212 0.8 0 0
0.233634 0.260566 0.031234 0.8 0 0
0.180964 0.268753 0.050676 0.8 0 0
0.303423 0.068542 0.048603 0.8 0 0
0.546285 0.142727 0.031245 0.8 0 0
0.307667 0.098836 0.031234 0.8 0 0
0.429021 0.181300 0.046152 0.8 0 0
0.329781 0.184752 0.054605 0.8 0 0
0.233117 0.169285 0.031234 0.8 0 0
0.413658 0.184511 0.053691 0.8 0 0
0.509479 0.138067 0.047371 0.8 0 0
0.677075 0.190548 0.045422 0.8 0 0
0.382179 0.161379 0.031245 0.8 0 0
0.094991 0.226758 0.031234 0.8 0 0
0.197331 0.194018 0.031234 0.8 0 0
0.133456 0.160264 0.054317 0.8 0 0
0.102717 0.035242 0.043740 0.8 0 0
0.473722 0.169068 0.052854 0.8 0 0
0.388408 0.273952 0.031234 0.8 0 0
0.885273 0.153156 0.037469 0.8 0 0
0.057908 0.121309 0.050676 0.8 0 0
0.085827 0.101222 0.050676 0.8 0 0
0.339472 0.279232 0.045233 0.8 0 0
0.296656 0.179997 0.053642 0.8 0 0
0.382267 0.171088 0.053199 0.8 0 0
0.370338 0.149812 0.054765 0.8 0 0
0.325003 0.131924 0.045759 0.8 0 0
0.974746 0.187554 0.048483 0.8 0 0
0.250319 0.173621 0.050676 0.8 0 0
0.363636 0.167487 0.052002 0.8 0 0
0.530570 0.183175 0.054124 0.8 0 0
0.396245 0.142080 0.031245 0.8 0 0
0.133663 0.263181 0.031234 0.8 0 0
0.769577 0.155729 0.052854 0.8 0 0
0.121260 0.195961 0.050676 0.8 0 0
0.227249 0.184273 0.045043 0.8 0 0
0.380372 0.048879 0.031234 0.8 0 0
0.132883 0.180110 0.058374 0.8 0 0
0.385122 0.176596 0.053753 0.8 0 0
0.893726 0.188861 0.037469 0.8 0 0
0.430272 0.154436 0.053758 0.8 0 0
0.689585 0.148818 0.053262 0.8 0 0
0.386852 0.144331 0.052854 0.8 0 0
0.107907 0.164892 0.050676 0.8 0 0
0.215480 0.167452 0.058817 0.8 0 0
0.225403 0.173399 0.053642 0.8 0 0
0.314748 0.169658 0.053642 0.8 0 0
0.196669 0.148801 0.046218 0.8 0 0
0.082052 0.128023 0.050676 0.8 0 0
0.163274 0.187642 0.031234 0.8 0 0
0.247205 0.239249 0.050676 0.8 0 0
0.053798 0.234524 0.031538 0.8 0 0
0.027744 0.171126 0.041645 0.8 0 0
0.335591 0.177949 0.031245 0.8 0 0
0.146118 0.121787 0.050676 0.8 0 0
0.225511 0.203727 0.058348 0.8 0 0
0.109902 0.111799 0.031234 0.8 0 0
0.237791 0.125808 0.050676 0.8 0 0
0.143602 0.130758 0.031234 0.8 0 0
0.202601 0.061151 0.048203 0.8 0 0
0.477987 0.184256 0.053435 0.8 0 0
0.834834 0.146137 0.037469 0.8 0 0
0.138875 0.056859 0.031234 0.8 0 0
0.144171 0.068290 0.031234 0.8 0 0
0.416264 0.042833 0.031234 0.8 0 0
0.488466 0.140240 0.049111 0.8 0 0
0.856422 0.145122 0.053990 0.8 0 0
0.228243 0.134664 0.053642 0.8 0 0
0.110046 0.228739 0.050676 0.8 0 0
0.407211 0.215926 0.031234 0.8 0 0
0.565815 0.141855 0.054203 0.8 0 0
0.575629 0.171728 0.053758 0.8 0 0
0.170852 0.263303 0.031234 0.8 0 0
0.095075 0.205642 0.031234 0.8 0 0
0.292162 0.168014 0.050676 0.8 0 0
0.309559 0.208945 0.050676 0.8 0 0
0.313311 0.086531 0.050676 0.8 0 0
0.227759 0.188670 0.031234 0.8 0 0
0.200510 0.209307 0.050164 0.8 0 0
0.207300 0.129334 0.048530 0.8 0 0
0.904528 0.192669 0.037469 0.8 0 0
0.284466 0.260081 0.037096 0.8 0 0
0.779853 0.158945 0.031245 0.8 0 0
0.070761 0.175340 0.050676 0.8 0 0
0.389040 0.138067 0.035931 0.8 0 0
0.318424 0.160070 0.049364 0.8 0 0
0.726314 0.138067 0.044040 0.8 0 0
0.235762 0.100202 0.031234 0.8 0 0
0.910842 0.199820 0.042433 0.8 0 0
0.398357 0.166405 0.052854 0.8 0 0
0.325591 0.088390 0.031234 0.8 0 0
0.377843 0.171647 0.053694 0.8 0 0
0.552996 0.152392 0.052854 0.8 0 0
0.222532 0.149823 0.053764 0.8 0 0
0.630272 0.151677 0.053619 0.8 0 0
0.955971 0.150080 0.051870 0.8 0 0
0.294185 0.101175 0.031234 0.8 0 0
0.306044 0.248198 0.031234 0.8 0 0
0.852115 0.206202 0.041626 0.8 0 0
0.155937 0.177935 0.050676 0.8 0 0
0.129182 0.061941 0.050676 0.8 0 0
0.258420 0.095265 0.050676 0.8 0 0
0.628540 0.171326 0.052854 0.8 0 0
0.381999 0.159984 0.031245 0.8 0 0
0.171453 0.248456 0.050676 0.8 0 0
0.222444 0.056611 0.033194 0.8 0 0
0.325673 0.165142 0.044635 0.8 0 0
0.239502 0.220897 0.031234 0.8 0 0
0.234010 0.244216 0.050676 0.8 0 0
0.169635 0.254164 0.031234 0.8 0 0
0.769568 0.158010 0.054135 0.8 0 0
0.289656 0.204786 0.031234 0.8 0 0
0.326232 0.051034 0.031234 0.8 0 0
0.286156 0.060978 0.041855 0.8 0 0
0.232793 0.157970 0.052864 0.8 0 0
0.121585 0.120990 0.050676 0.8 0 0
0.907937 0.141453 0.037508 0.8 0 0
0.406132 0.150155 0.031245 0.8 0 0
0.300359 0.153852 0.049364 0.8 0 0
0.207183 0.173977 0.031234 0.8 0 0
0.319476 0.169344 0.053642 0.8 0 0
0.548375 0.187522 0.050753 0.8 0 0
0.077192 0.248606 0.047576 0.8 0 0
0.857146 0.204960 0.037646 0.8 0 0
0.031385 0.195290 0.037858 0.8 0 0
0.302216 0.204797 0.031234 0.8 0 0
0.138289 0.224459 0.031234 0.8 0 0
0.338167 0.153267 0.031245 0.8 0 0
0.170075 0.174328 0.050676 0.8 0 0
0.398911 0.100452 0.043931 0.8 0 0
0.711635 0.166068 0.051506 0.8 0 0
0.635565 0.155634 0.052406 0.8 0 0
0.170010 0.234754 0.031234 0.8 0 0
0.319431 0.269988 0.031234 0.8 0 0
0.454712 0.149886 0.031245 0.8 0 0
0.726524 0.190548 0.041239 0.8 0 0
0.775539 0.138067 0.041757 0.8 0 0
0.297552 0.167030 0.049364 0.8 0 0
0.385669 0.148114 0.052854 0.8 0 0
0.215583 0.171303 0.054851 0.8 0 0
0.394513 0.104553 0.031234 0.8 0 0
0.858057 0.204328 0.050699 0.8 0 0
0.520190 0.182282 0.052854 0.8 0 0
0.344155 0.047154 0.031234 0.8 0 0
0.227803 0.207943 0.053642 0.8 0 0
0.301468 0.118399 0.031234 0.8 0 0
0.196669 0.128714 0.052869 0.8 0 0
0.579316 0.157461 0.031245 0.8 0 0
0.170360 0.130213 0.058883 0.8 0 0
0.610759 0.156161 0.052854 0.8 0 0
0.655040 0.163491 0.051020 0.8 0 0
0.344501 0.157995 0.050676 0.8 0 0
0.688385 0.165967 0.053758 0.8 0 0
0.838986 0.183949 0.037469 0.8 0 0
0.163421 0.130351 0.054654 0.8 0 0
0.061803 0.110258 0.031234 0.8 0 0
0.298372 0.137750 0.059651 0.8 0 0
0.094348 0.274776 0.040653 0.8 0 0
0.287236 0.168852 0.050676 0.8 0 0
0.154037 0.186797 0.031234 0.8 0 0
0.149812 0.086117 0.050676 0.8 0 0
0.257320 0.264519 0.038321 0.8 0 0
0.303787 0.093669 0.031234 0.8 0 0
0.338807 0.079526 0.031234 0.8 0 0
0.905488 0.145786 0.054111 0.8 0 0
0.393054 0.110234 0.044385 0.8 0 0
0.337388 0.138161 0.034238 0.8 0 0
0.204283 0.156260 0.058817 0.8 0 0
0.377839 0.155783 0.053758 0.8 0 0
0.187278 0.083524 0.045043 0.8 0 0
0.232791 0.156090 0.051512 0.8 0 0
0.123360 0.197116 0.052519 0.8 0 0
0.197567 0.175985 0.054788 0.8 0 0
0.618054 0.186424 0.031245 0.8 0 0
0.418331 0.166807 0.031878 0.8 0 0
0.417136 0.268533 0.042697 0.8 0 0
0.156222 0.261338 0.050676 0.8 0 0
0.287145 0.109361 0.050676 0.8 0 0
0.127732 0.101354 0.031234 0.8 0 0
0.061932 0.138555 0.050676 0.8 0 0
0.412512 0.065249 0.047989 0.8 0 0
0.919161 0.200073 0.046599 0.8 0 0
0.641558 0.167916 0.052854 0.8 0 0
0.328139 0.098984 0.031234 0.8 0 0
0.759286 0.145233 0.052854 0.8 0 0
0.186128 0.214579 0.031234 0.8 0 0
0.367775 0.183986 0.055223 0.8 0 0
0.365176 0.167764 0.031245 0.8 0 0
