0.841841 0.062571 0.187075 0.8 0 0
0.905040 0.068828 0.173561 0.8 0 0
0.865364 0.062571 0.246816 0.8 0 0
0.654527 0.025598 0.191007 0.8 0 0
0.559412 0.044782 0.272891 0.8 0 0
0.571779 0.065036 0.168628 0.8 0 0
0.922285 0.062571 0.235724 0.8 0 0
0.107890 0.048970 0.194950 0.8 0 0
0.740538 0.062571 0.128097 0.8 0 0
0.852249 0.042263 0.032603 0.8 0 0
0.864006 0.071312 0.172462 0.8 0 0
0.664825 0.049718 0.289728 0.8 0 0
0.726324 0.025598 0.098262 0.8 0 0
0.894084 0.062571 0.106232 0.8 0 0
0.615246 0.058894 0.148888 0.8 0 0
0.056497 0.042322 0.192378 0.8 0 0
0.870929 0.062571 0.167958 0.8 0 0
0.880668 0.025598 0.282351 0.8 0 0
0.843119 0.025598 0.201331 0.8 0 0
0.797948 0.025598 0.226907 0.8 0 0
0.337246 0.069715 0.157744 0.8 0 0
0.739158 0.062571 0.271580 0.8 0 0
0.761729 0.062571 0.166526 0.8 0 0
0.395386 0.049646 0.193731 0.8 0 0
0.727707 0.062571 0.226325 0.8 0 0
0.891993 0.053068 0.036032 0.8 0 0
0.132873 0.043003 0.183046 0.8 0 0
0.792141 0.029204 0.313001 0.8 0 0
0.124997 0.048970 0.213414 0.8 0 0
0.920694 0.062571 0.143420 0.8 0 0
0.810692 0.028990 0.045943 0.8 0 0
0.917048 0.025598 0.279178 0.8 0 0
0.780715 0.062571 0.196406 0.8 0 0
0.867444 0.025598 0.276685 0.8 0 0
0.711556 0.062571 0.201303 0.8 0 0
0.822603 0.062571 0.279666 0.8 0 0
0.217189 0.069754 0.167528 0.8 0 0
0.865782 0.062571 0.229520 0.8 0 0
0.541826 0.047903 0.168674 0.8 0 0
0.926070 0.062571 0.212648 0.8 0 0
0.817737 0.025598 0.132749 0.8 0 0
0.290693 0.071409 0.193631 0.8 0 0
0.918741 0.072092 0.204585 0.8 0 0
0.791523 0.025598 0.197402 0.8 0 0
0.788513 0.025598 0.233302 0.8 0 0
0.666158 0.040418 0.072300 0.8 0 0
0.128213 0.048970 0.206940 0.8 0 0
0.862471 0.062571 0.288791 0.8 0 0
0.740217 0.062571 0.232704 0.8 0 0
0.100124 0.042572 0.145582 0.8 0 0
0.683397 0.062571 0.058278 0.8 0 0
0.594437 0.072280 0.195639 0.8 0 0
0.700856 0.025597 0.131330 0.8 0 0
0.893921 0.025598 0.068044 0.8 0 0
0.529979 0.047853 0.188329 0.8 0 0
0.938715 0.025598 0.097460 0.8 0 0
0.933737 0.025598 0.090589 0.8 0 0
0.849566 0.073354 0.193542 0.8 0 0
0.874018 0.062571 0.076154 0.8 0 0
0.921567 0.025000 0.075906 0.8 0 0
0.811264 0.025598 0.102775 0.8 0 0
0.376029 0.054353 0.198296 0.8 0 0
0.972067 0.035136 0.138465 0.8 0 0
0.953828 0.062571 0.136953 0.8 0 0
0.966147 0.025598 0.127807 0.8 0 0
0.755323 0.025598 0.171444 0.8 0 0
0.623472 0.025598 0.268938 0.8 0 0
0.579786 0.062571 0.281416 0.8 0 0
0.925856 0.025598 0.061119 0.8 0 0
0.611809 0.073012 0.181908 0.8 0 0
0.849827 0.025598 0.245746 0.8 0 0
0.546702 0.062571 0.311775 0.8 0 0
0.678325 0.025598 0.059993 0.8 0 0
0.970957 0.054051 0.130200 0.8 0 0
0.607761 0.065036 0.181327 0.8 0 0
0.848062 0.025352 0.111516 0.8 0 0
0.481190 0.049455 0.161227 0.8 0 0
0.663353 0.025598 0.160338 0.8 0 0
0.946843 0.062571 0.119154 0.8 0 0
0.815109 0.062571 0.046173 0.8 0 0
0.526104 0.061642 0.203628 0.8 0 0
0.944661 0.062571 0.258269 0.8 0 0
0.854426 0.025598 0.178454 0.8 0 0
0.889394 0.025352 0.124178 0.8 0 0
0.681496 0.062571 0.274811 0.8 0 0
0.787455 0.025598 0.192975 0.8 0 0
0.374583 0.049509 0.162467 0.8 0 0
0.198661 0.071591 0.168863 0.8 0 0
0.813224 0.074245 0.181550 0.8 0 0
0.559603 0.049494 0.195679 0.8 0 0
0.925589 0.062571 0.294714 0.8 0 0
0.863435 0.025598 0.049179 0.8 0 0
0.916829 0.025598 0.054636 0.8 0 0
0.464783 0.065036 0.182453 0.8 0 0
0.809537 0.062571 0.256308 0.8 0 0
0.817602 0.025000 0.064904 0.8 0 0
0.605307 0.025598 0.308034 0.8 0 0
0.800288 0.025598 0.259421 0.8 0 0
0.407825 0.065036 0.152306 0.8 0 0
0.332369 0.072186 0.180823 0.8 0 0
0.866514 0.051020 0.032452 0.8 0 0
0.919664 0.062571 0.243075 0.8 0 0
0.935668 0.062571 0.196729 0.8 0 0
0.944788 0.052814 0.284269 0.8 0 0
0.739568 0.025598 0.080719 0.8 0 0
0.583748 0.062571 0.273462 0.8 0 0
0.549604 0.065036 0.157825 0.8 0 0
0.965733 0.058339 0.238223 0.8 0 0
0.972033 0.057543 0.209167 0.8 0 0
0.922247 0.034821 0.049468 0.8 0 0
0.726081 0.025598 0.113312 0.8 0 0
0.878547 0.025598 0.215364 0.8 0 0
0.857238 0.025598 0.069805 0.8 0 0
0.074790 0.042950 0.186340 0.8 0 0
0.749097 0.047423 0.295537 0.8 0 0
0.788070 0.062571 0.202012 0.8 0 0
0.172121 0.071495 0.169498 0.8 0 0
0.559340 0.049945 0.314334 0.8 0 0
0.789928 0.033064 0.312099 0.8 0 0
0.763133 0.062571 0.067635 0.8 0 0
0.349339 0.062147 0.200148 0.8 0 0
0.706778 0.062571 0.210276 0.8 0 0
0.623778 0.062571 0.279303 0.8 0 0
0.177188 0.071417 0.168641 0.8 0 0
0.744782 0.062571 0.164874 0.8 0 0
0.729327 0.062571 0.159709 0.8 0 0
0.544734 0.029585 0.313025 0.8 0 0
0.951224 0.062571 0.103747 0.8 0 0
0.618981 0.065036 0.152689 0.8 0 0
0.897732 0.049012 0.318216 0.8 0 0
0.777703 0.061879 0.057628 0.8 0 0
0.897309 0.025598 0.224941 0.8 0 0
0.463937 0.065036 0.199625 0.8 0 0
0.824027 0.071011 0.048502 0.8 0 0
0.778570 0.025598 0.097607 0.8 0 0
0.575366 0.065036 0.175168 0.8 0 0
0.903562 0.062571 0.055721 0.8 0 0
0.432327 0.053814 0.155625 0.8 0 0
0.681660 0.062571 0.163379 0.8 0 0
0.859078 0.025598 0.167292 0.8 0 0
0.826905 0.062571 0.318716 0.8 0 0
0.307239 0.068693 0.180437 0.8 0 0
0.690742 0.053596 0.285518 0.8 0 0
0.514891 0.069654 0.180994 0.8 0 0
0.286289 0.069387 0.167540 0.8 0 0
0.689032 0.025598 0.066464 0.8 0 0
0.856904 0.062571 0.245332 0.8 0 0
0.959585 0.041496 0.256730 0.8 0 0
0.778906 0.062571 0.119041 0.8 0 0
0.874869 0.025000 0.096043 0.8 0 0
0.842175 0.074347 0.153678 0.8 0 0
0.785773 0.062571 0.235657 0.8 0 0
0.851723 0.062571 0.038944 0.8 0 0
0.931960 0.057827 0.056876 0.8 0 0
0.623718 0.025598 0.263318 0.8 0 0
0.144810 0.054074 0.188566 0.8 0 0
0.882319 0.062571 0.191413 0.8 0 0
0.757786 0.062571 0.244628 0.8 0 0
0.884276 0.062571 0.317203 0.8 0 0
0.928737 0.062571 0.088460 0.8 0 0
0.900462 0.025598 0.302340 0.8 0 0
0.934260 0.025598 0.295737 0.8 0 0
0.657155 0.025598 0.160595 0.8 0 0
0.833261 0.025598 0.151423 0.8 0 0
0.967356 0.025598 0.216060 0.8 0 0
0.954482 0.063596 0.206542 0.8 0 0
0.616630 0.046700 0.169487 0.8 0 0
0.686560 0.062571 0.142181 0.8 0 0
0.889744 0.062571 0.243343 0.8 0 0
0.606353 0.049508 0.042228 0.8 0 0
0.311778 0.071582 0.181917 0.8 0 0
0.747759 0.070875 0.181492 0.8 0 0
0.918257 0.025598 0.175062 0.8 0 0
0.574238 0.047298 0.181979 0.8 0 0
0.865952 0.025000 0.072372 0.8 0 0
0.152282 0.069583 0.168593 0.8 0 0
0.722698 0.025598 0.193626 0.8 0 0
0.954614 0.025598 0.139935 0.8 0 0
0.577838 0.042925 0.313010 0.8 0 0
0.204778 0.047298 0.182619 0.8 0 0
0.703067 0.062571 0.158813 0.8 0 0
0.808727 0.025598 0.190979 0.8 0 0
0.930309 0.061670 0.055617 0.8 0 0
0.826908 0.071705 0.066427 0.8 0 0
0.878168 0.065544 0.138847 0.8 0 0
0.678634 0.037974 0.121052 0.8 0 0
0.709160 0.025598 0.088847 0.8 0 0
0.517348 0.069957 0.194849 0.8 0 0
0.760849 0.062571 0.150503 0.8 0 0
0.214553 0.060018 0.156561 0.8 0 0
0.099726 0.042944 0.165021 0.8 0 0
0.648668 0.025598 0.164972 0.8 0 0
0.074220 0.048970 0.159272 0.8 0 0
0.750728 0.025598 0.112677 0.8 0 0
0.758465 0.062571 0.254698 0.8 0 0
0.815386 0.062571 0.309088 0.8 0 0
0.911328 0.062571 0.311417 0.8 0 0
0.865111 0.055907 0.325421 0.8 0 0
0.848192 0.062571 0.321947 0.8 0 0
0.947646 0.063112 0.146891 0.8 0 0
0.632570 0.040520 0.153987 0.8 0 0
0.788490 0.025598 0.125679 0.8 0 0
0.169013 0.053796 0.159890 0.8 0 0
0.940797 0.063112 0.211826 0.8 0 0
0.750805 0.062571 0.148913 0.8 0 0
0.124770 0.048970 0.207617 0.8 0 0
0.843237 0.074308 0.165106 0.8 0 0
0.833017 0.062571 0.111877 0.8 0 0
0.948333 0.045799 0.277963 0.8 0 0
0.750716 0.025598 0.210142 0.8 0 0
0.867945 0.076157 0.047140 0.8 0 0
0.849474 0.073482 0.182354 0.8 0 0
0.759041 0.053376 0.299545 0.8 0 0
0.662727 0.062571 0.283536 0.8 0 0
0.870187 0.071312 0.141192 0.8 0 0
0.904096 0.068353 0.048493 0.8 0 0
0.611275 0.055891 0.213286 0.8 0 0
0.744633 0.025598 0.286494 0.8 0 0
0.282590 0.065036 0.163488 0.8 0 0
0.846556 0.071312 0.188831 0.8 0 0
0.630101 0.062571 0.211198 0.8 0 0
0.609799 0.039443 0.196532 0.8 0 0
0.756271 0.062571 0.228793 0.8 0 0
0.900686 0.062571 0.107267 0.8 0 0
0.791882 0.034273 0.312895 0.8 0 0
0.154840 0.044595 0.181886 0.8 0 0
0.318290 0.065036 0.192840 0.8 0 0
0.903393 0.064503 0.194548 0.8 0 0
0.431325 0.065036 0.194630 0.8 0 0
0.627121 0.063690 0.205894 0.8 0 0
0.751091 0.025598 0.253598 0.8 0 0
0.674685 0.037726 0.031441 0.8 0 0
0.570173 0.030485 0.313559 0.8 0 0
0.633781 0.025598 0.049053 0.8 0 0
0.895654 0.072136 0.066070 0.8 0 0
0.792617 0.062571 0.105463 0.8 0 0
0.696331 0.062571 0.159050 0.8 0 0
0.601433 0.065036 0.203753 0.8 0 0
0.866672 0.072785 0.182458 0.8 0 0
0.683160 0.046096 0.034068 0.8 0 0
0.874114 0.025598 0.173882 0.8 0 0
0.324935 0.071972 0.181422 0.8 0 0
0.769965 0.025598 0.301484 0.8 0 0
0.877021 0.071596 0.181685 0.8 0 0
0.181635 0.047534 0.184367 0.8 0 0
0.850179 0.025598 0.179542 0.8 0 0
0.117758 0.041839 0.196880 0.8 0 0
0.102062 0.048970 0.161471 0.8 0 0
0.749308 0.062571 0.155505 0.8 0 0
0.911384 0.062571 0.165171 0.8 0 0
0.898678 0.062571 0.051644 0.8 0 0
0.753865 0.073470 0.179417 0.8 0 0
0.424757 0.065036 0.188862 0.8 0 0
0.865588 0.025598 0.227975 0.8 0 0
0.854954 0.025598 0.081144 0.8 0 0
0.596667 0.025598 0.300830 0.8 0 0
0.948062 0.074640 0.164439 0.8 0 0
0.691075 0.031683 0.036592 0.8 0 0
0.069821 0.042950 0.163975 0.8 0 0
0.447793 0.071625 0.179214 0.8 0 0
0.631776 0.059250 0.154237 0.8 0 0
0.668054 0.062571 0.063448 0.8 0 0
0.746173 0.025598 0.244621 0.8 0 0
0.625682 0.062571 0.048176 0.8 0 0
0.725658 0.025598 0.277488 0.8 0 0
0.126619 0.046862 0.216220 0.8 0 0
0.733979 0.025598 0.247974 0.8 0 0
0.859773 0.062571 0.157032 0.8 0 0
0.179832 0.057195 0.195801 0.8 0 0
0.538624 0.055540 0.280572 0.8 0 0
0.845686 0.071312 0.200089 0.8 0 0
0.874423 0.062571 0.047422 0.8 0 0
0.183539 0.065036 0.168240 0.8 0 0
0.750177 0.062571 0.142373 0.8 0 0
0.406193 0.070480 0.179132 0.8 0 0
0.099550 0.041906 0.227231 0.8 0 0
0.269362 0.050901 0.193697 0.8 0 0
0.417931 0.070687 0.169569 0.8 0 0
0.958134 0.062571 0.193075 0.8 0 0
0.878634 0.062571 0.150436 0.8 0 0
0.912236 0.025598 0.256300 0.8 0 0
0.802429 0.062571 0.284607 0.8 0 0
0.944014 0.025598 0.099717 0.8 0 0
0.353929 0.050741 0.159723 0.8 0 0
0.690364 0.025598 0.082174 0.8 0 0
0.138582 0.043023 0.205212 0.8 0 0
0.718143 0.062571 0.079016 0.8 0 0
0.898836 0.062571 0.066965 0.8 0 0
0.658198 0.025598 0.258777 0.8 0 0
0.828740 0.025598 0.217576 0.8 0 0
0.564889 0.048434 0.271256 0.8 0 0
0.332367 0.047298 0.179736 0.8 0 0
0.517854 0.065036 0.191136 0.8 0 0
0.649863 0.062232 0.147118 0.8 0 0
0.651869 0.025598 0.208771 0.8 0 0
0.550097 0.070438 0.195327 0.8 0 0
0.736877 0.062571 0.142612 0.8 0 0
0.942705 0.075004 0.180524 0.8 0 0
0.842581 0.025598 0.134583 0.8 0 0
0.644716 0.070405 0.180051 0.8 0 0
0.850560 0.025598 0.252931 0.8 0 0
0.666741 0.041517 0.289184 0.8 0 0
0.910612 0.062571 0.072924 0.8 0 0
0.897865 0.062571 0.041372 0.8 0 0
0.915818 0.025598 0.120048 0.8 0 0
0.341350 0.065036 0.159103 0.8 0 0
0.626893 0.063999 0.147432 0.8 0 0
0.522171 0.047465 0.186551 0.8 0 0
0.731396 0.062571 0.284896 0.8 0 0
0.694376 0.040792 0.285455 0.8 0 0
0.803229 0.062571 0.143575 0.8 0 0
0.626950 0.062571 0.255994 0.8 0 0
0.803378 0.025598 0.112059 0.8 0 0
0.611212 0.041499 0.229084 0.8 0 0
0.651846 0.062571 0.191472 0.8 0 0
0.865789 0.025598 0.100246 0.8 0 0
0.834720 0.062571 0.239185 0.8 0 0
0.909535 0.072092 0.191028 0.8 0 0
0.574550 0.025598 0.312177 0.8 0 0
0.720304 0.073832 0.154411 0.8 0 0
0.756938 0.070670 0.195135 0.8 0 0
0.889439 0.062571 0.040461 0.8 0 0
0.904813 0.068232 0.180400 0.8 0 0
0.823468 0.062571 0.177357 0.8 0 0
0.302289 0.065036 0.177731 0.8 0 0
0.653090 0.025598 0.050222 0.8 0 0
0.130307 0.064444 0.169817 0.8 0 0
0.653367 0.070873 0.155951 0.8 0 0
0.683388 0.062571 0.091189 0.8 0 0
0.696958 0.025597 0.143144 0.8 0 0
0.606355 0.040312 0.042284 0.8 0 0
0.840841 0.062571 0.190718 0.8 0 0
0.865979 0.062571 0.149521 0.8 0 0
0.875284 0.025598 0.159788 0.8 0 0
0.131812 0.042970 0.175860 0.8 0 0
0.762784 0.025598 0.284329 0.8 0 0
0.598063 0.070690 0.156629 0.8 0 0
0.618224 0.025598 0.222305 0.8 0 0
0.827143 0.025598 0.070266 0.8 0 0
0.478260 0.063994 0.150508 0.8 0 0
0.942664 0.025598 0.219797 0.8 0 0
0.619653 0.025598 0.293197 0.8 0 0
0.700546 0.062571 0.112387 0.8 0 0
0.895315 0.062571 0.256198 0.8 0 0
0.791339 0.058587 0.312673 0.8 0 0
0.114257 0.042950 0.203807 0.8 0 0
0.934398 0.072355 0.164205 0.8 0 0
0.614974 0.070267 0.181580 0.8 0 0
0.489878 0.057421 0.151864 0.8 0 0
0.859921 0.062571 0.179002 0.8 0 0
0.692378 0.025597 0.147839 0.8 0 0
0.472578 0.065036 0.170575 0.8 0 0
0.097462 0.048970 0.201866 0.8 0 0
0.883112 0.025000 0.095530 0.8 0 0
0.640695 0.025598 0.164907 0.8 0 0
0.965333 0.025598 0.112318 0.8 0 0
0.738487 0.062571 0.111350 0.8 0 0
0.904754 0.062571 0.231395 0.8 0 0
0.844463 0.025598 0.171970 0.8 0 0
0.871883 0.057013 0.324385 0.8 0 0
0.516954 0.059290 0.150786 0.8 0 0
0.667570 0.065036 0.185265 0.8 0 0
0.419419 0.072342 0.181681 0.8 0 0
0.447558 0.065036 0.163968 0.8 0 0
0.626164 0.025598 0.263119 0.8 0 0
0.678762 0.042061 0.120704 0.8 0 0
0.101272 0.042950 0.158064 0.8 0 0
0.895275 0.025598 0.151370 0.8 0 0
0.708120 0.025598 0.085300 0.8 0 0
0.812825 0.062571 0.262653 0.8 0 0
0.662915 0.025598 0.209726 0.8 0 0
0.785658 0.032598 0.055635 0.8 0 0
0.114286 0.041877 0.188641 0.8 0 0
0.163094 0.071260 0.181242 0.8 0 0
0.690811 0.062571 0.049184 0.8 0 0
0.764553 0.062571 0.208148 0.8 0 0
0.066090 0.042950 0.198642 0.8 0 0
0.903837 0.025598 0.205413 0.8 0 0
0.625137 0.039899 0.302139 0.8 0 0
0.912148 0.062571 0.309509 0.8 0 0
0.691263 0.025597 0.177711 0.8 0 0
0.170891 0.056597 0.158060 0.8 0 0
0.081978 0.052789 0.170369 0.8 0 0
0.669309 0.062571 0.054340 0.8 0 0
0.891466 0.025000 0.065477 0.8 0 0
0.497344 0.048510 0.166058 0.8 0 0
0.487828 0.065036 0.186362 0.8 0 0
0.644633 0.052542 0.200966 0.8 0 0
0.491149 0.065036 0.168979 0.8 0 0
0.912453 0.072092 0.152727 0.8 0 0
0.136402 0.043011 0.160286 0.8 0 0
0.739832 0.062571 0.112741 0.8 0 0
0.738652 0.062571 0.230157 0.8 0 0
0.631980 0.036081 0.025182 0.8 0 0
0.434544 0.069469 0.179863 0.8 0 0
0.699790 0.025598 0.095551 0.8 0 0
0.734353 0.025598 0.163493 0.8 0 0
0.595493 0.062571 0.291163 0.8 0 0
0.793551 0.062571 0.266099 0.8 0 0
0.960710 0.049712 0.253344 0.8 0 0
0.969159 0.059342 0.227048 0.8 0 0
0.578522 0.057761 0.312960 0.8 0 0
0.168322 0.065036 0.184738 0.8 0 0
0.844666 0.062571 0.260671 0.8 0 0
0.818724 0.062571 0.293317 0.8 0 0
0.195224 0.070839 0.167763 0.8 0 0
0.110703 0.042950 0.201329 0.8 0 0
0.778787 0.025598 0.190048 0.8 0 0
0.527897 0.065036 0.194065 0.8 0 0
0.967775 0.072092 0.198618 0.8 0 0
0.834358 0.025598 0.063423 0.8 0 0
0.922539 0.051768 0.308880 0.8 0 0
0.779232 0.025598 0.095151 0.8 0 0
0.826947 0.025598 0.072752 0.8 0 0
0.949468 0.025598 0.101647 0.8 0 0
0.643494 0.070203 0.180710 0.8 0 0
0.445568 0.069693 0.191876 0.8 0 0
0.839842 0.062571 0.218006 0.8 0 0
0.751354 0.062571 0.183304 0.8 0 0
0.562718 0.060242 0.204009 0.8 0 0
0.683480 0.034113 0.103205 0.8 0 0
0.953023 0.063112 0.213890 0.8 0 0
0.457972 0.065036 0.188698 0.8 0 0
0.577082 0.065036 0.151820 0.8 0 0
0.547723 0.040848 0.313789 0.8 0 0
0.167419 0.057219 0.158003 0.8 0 0
0.825641 0.062571 0.263002 0.8 0 0
0.743859 0.025598 0.182391 0.8 0 0
0.891896 0.025598 0.311625 0.8 0 0
0.241737 0.065036 0.156836 0.8 0 0
0.787189 0.062571 0.233846 0.8 0 0
0.654607 0.025598 0.040225 0.8 0 0
0.601987 0.070454 0.166293 0.8 0 0
0.888941 0.062619 0.055821 0.8 0 0
0.290761 0.047298 0.184016 0.8 0 0
0.710387 0.062571 0.132421 0.8 0 0
0.480344 0.071920 0.169185 0.8 0 0
0.847190 0.071312 0.184250 0.8 0 0
0.974116 0.040400 0.155964 0.8 0 0
0.107635 0.042950 0.201534 0.8 0 0
0.752388 0.025598 0.191976 0.8 0 0
0.094946 0.048970 0.190568 0.8 0 0
0.751935 0.025598 0.180380 0.8 0 0
0.716534 0.062571 0.190018 0.8 0 0
0.857034 0.062571 0.160187 0.8 0 0
0.638426 0.062571 0.182813 0.8 0 0
0.633241 0.025598 0.197409 0.8 0 0
0.613816 0.051482 0.154986 0.8 0 0
0.797047 0.025598 0.066769 0.8 0 0
0.904812 0.025598 0.043394 0.8 0 0
0.739482 0.025598 0.192895 0.8 0 0
0.619997 0.065036 0.172132 0.8 0 0
0.592913 0.065036 0.195443 0.8 0 0
0.769404 0.025598 0.259977 0.8 0 0
0.750952 0.062571 0.265207 0.8 0 0
0.780021 0.031960 0.057408 0.8 0 0
0.642933 0.062571 0.172511 0.8 0 0
0.685891 0.025598 0.072291 0.8 0 0
0.073244 0.042950 0.188145 0.8 0 0
0.731954 0.062571 0.164973 0.8 0 0
0.776645 0.042902 0.306684 0.8 0 0
0.609434 0.062571 0.270298 0.8 0 0
0.837276 0.062571 0.205085 0.8 0 0
0.790747 0.025598 0.283253 0.8 0 0
0.861365 0.062571 0.108562 0.8 0 0
0.336409 0.071959 0.193333 0.8 0 0
0.482383 0.072804 0.168172 0.8 0 0
0.724319 0.025598 0.204867 0.8 0 0
0.624699 0.025598 0.293919 0.8 0 0
0.551046 0.030635 0.275387 0.8 0 0
0.624441 0.047584 0.169201 0.8 0 0
0.455395 0.048849 0.164843 0.8 0 0
0.967586 0.062571 0.198854 0.8 0 0
0.826557 0.062571 0.282492 0.8 0 0
0.121260 0.042950 0.143630 0.8 0 0
0.942250 0.072395 0.182205 0.8 0 0
0.936332 0.025598 0.192430 0.8 0 0
0.614867 0.026066 0.172537 0.8 0 0
0.717707 0.025598 0.233701 0.8 0 0
0.924450 0.025598 0.164570 0.8 0 0
0.879765 0.025598 0.044217 0.8 0 0
0.784137 0.052809 0.309738 0.8 0 0
0.502364 0.070278 0.191891 0.8 0 0
0.840289 0.025598 0.253293 0.8 0 0
0.857994 0.071700 0.164887 0.8 0 0
0.866745 0.071312 0.169624 0.8 0 0
0.483516 0.069761 0.167448 0.8 0 0
0.904924 0.037106 0.040275 0.8 0 0
0.173850 0.065036 0.188020 0.8 0 0
0.696407 0.025597 0.130583 0.8 0 0
0.669123 0.062571 0.215872 0.8 0 0
0.685321 0.025598 0.063437 0.8 0 0
0.730000 0.031420 0.053169 0.8 0 0
0.648407 0.073058 0.156515 0.8 0 0
0.914022 0.025000 0.062210 0.8 0 0
0.735619 0.035301 0.055550 0.8 0 0
0.786663 0.052119 0.055247 0.8 0 0
0.602549 0.070202 0.181551 0.8 0 0
0.792553 0.062571 0.177406 0.8 0 0
0.887774 0.025598 0.316071 0.8 0 0
0.903731 0.040506 0.039883 0.8 0 0
0.935745 0.071786 0.165122 0.8 0 0
0.673770 0.062571 0.031157 0.8 0 0
0.896593 0.025598 0.311257 0.8 0 0
0.879116 0.065127 0.145549 0.8 0 0
0.747125 0.062571 0.120156 0.8 0 0
0.675643 0.028427 0.031738 0.8 0 0
0.179981 0.058884 0.157438 0.8 0 0
0.670692 0.058299 0.075831 0.8 0 0
0.566435 0.065036 0.192462 0.8 0 0
0.891958 0.025598 0.198338 0.8 0 0
0.763202 0.025598 0.215058 0.8 0 0
0.310848 0.053739 0.157906 0.8 0 0
0.815578 0.073361 0.196756 0.8 0 0
0.913271 0.025598 0.302742 0.8 0 0
0.775860 0.025598 0.289320 0.8 0 0
0.621891 0.065036 0.184852 0.8 0 0
0.597492 0.062571 0.306758 0.8 0 0
0.182460 0.069939 0.193637 0.8 0 0
0.795581 0.056253 0.051803 0.8 0 0
0.795475 0.025598 0.063605 0.8 0 0
0.311113 0.065036 0.172852 0.8 0 0
0.893634 0.025000 0.061410 0.8 0 0
0.974963 0.027094 0.189266 0.8 0 0
0.108434 0.042944 0.196265 0.8 0 0
0.863233 0.025598 0.153850 0.8 0 0
0.786613 0.047257 0.055266 0.8 0 0
0.485579 0.065036 0.195453 0.8 0 0
0.743676 0.057070 0.057590 0.8 0 0
0.572943 0.062571 0.305227 0.8 0 0
0.849118 0.062571 0.082708 0.8 0 0
0.754619 0.062571 0.184393 0.8 0 0
0.890364 0.062571 0.258503 0.8 0 0
0.950290 0.025598 0.198908 0.8 0 0
0.838780 0.046801 0.325362 0.8 0 0
0.609870 0.062571 0.199103 0.8 0 0
0.901105 0.025000 0.060800 0.8 0 0
0.505134 0.065036 0.151797 0.8 0 0
0.038331 0.046211 0.148286 0.8 0 0
0.695323 0.062571 0.226387 0.8 0 0
0.795087 0.029525 0.051994 0.8 0 0
0.083830 0.041839 0.182064 0.8 0 0
0.812378 0.071021 0.059989 0.8 0 0
0.965155 0.043748 0.107630 0.8 0 0
0.628526 0.025598 0.277689 0.8 0 0
0.552099 0.071672 0.168960 0.8 0 0
0.172502 0.069526 0.170779 0.8 0 0
0.147326 0.057209 0.190183 0.8 0 0
0.460119 0.047298 0.173397 0.8 0 0
0.840200 0.025598 0.274019 0.8 0 0
0.189224 0.065036 0.158046 0.8 0 0
0.962799 0.037983 0.099975 0.8 0 0
0.818707 0.062571 0.078782 0.8 0 0
0.570646 0.055354 0.202695 0.8 0 0
0.903027 0.072012 0.152027 0.8 0 0
0.868697 0.061315 0.324872 0.8 0 0
0.102911 0.041370 0.227487 0.8 0 0
0.687139 0.025598 0.090377 0.8 0 0
0.877527 0.025598 0.129962 0.8 0 0
0.822844 0.062571 0.044045 0.8 0 0
0.873671 0.025598 0.162547 0.8 0 0
0.776471 0.048959 0.057745 0.8 0 0
0.963284 0.051835 0.101548 0.8 0 0
0.611962 0.037722 0.219877 0.8 0 0
0.904351 0.062571 0.303813 0.8 0 0
0.901082 0.062571 0.088360 0.8 0 0
0.853464 0.068778 0.058382 0.8 0 0
0.674374 0.073493 0.181733 0.8 0 0
0.753720 0.062571 0.246137 0.8 0 0
0.349936 0.053930 0.157044 0.8 0 0
0.747155 0.025598 0.126188 0.8 0 0
0.593028 0.047637 0.169365 0.8 0 0
0.440792 0.048932 0.164607 0.8 0 0
0.365970 0.069303 0.168796 0.8 0 0
0.788575 0.062571 0.291703 0.8 0 0
0.652718 0.025598 0.051415 0.8 0 0
0.847484 0.025598 0.089974 0.8 0 0
0.768886 0.062571 0.297847 0.8 0 0
0.815497 0.025598 0.137990 0.8 0 0
0.545792 0.065036 0.200893 0.8 0 0
0.607738 0.025598 0.040558 0.8 0 0
0.873068 0.025598 0.195969 0.8 0 0
0.795362 0.058227 0.314313 0.8 0 0
0.934620 0.062571 0.198613 0.8 0 0
0.680849 0.033466 0.087506 0.8 0 0
0.505004 0.047298 0.182565 0.8 0 0
0.663361 0.062571 0.261110 0.8 0 0
0.033463 0.048970 0.184047 0.8 0 0
0.941249 0.063155 0.083837 0.8 0 0
0.875884 0.025598 0.142846 0.8 0 0
0.739496 0.025598 0.274532 0.8 0 0
0.689550 0.025598 0.073833 0.8 0 0
0.931790 0.025598 0.128732 0.8 0 0
0.727772 0.062571 0.118820 0.8 0 0
0.633964 0.047298 0.180531 0.8 0 0
0.928161 0.078610 0.079703 0.8 0 0
0.633307 0.062571 0.199218 0.8 0 0
0.770613 0.062571 0.137683 0.8 0 0
0.700282 0.062571 0.170785 0.8 0 0
0.574431 0.048352 0.165803 0.8 0 0
0.915384 0.062571 0.193775 0.8 0 0
0.638891 0.065036 0.148621 0.8 0 0
0.412644 0.069050 0.192323 0.8 0 0
0.413022 0.069140 0.180617 0.8 0 0
0.557483 0.054462 0.314467 0.8 0 0
0.233359 0.047298 0.176795 0.8 0 0
0.694612 0.025598 0.283259 0.8 0 0
0.848619 0.062571 0.170412 0.8 0 0
0.623656 0.065036 0.166359 0.8 0 0
0.877961 0.062571 0.280268 0.8 0 0
0.809519 0.072995 0.167626 0.8 0 0
0.892210 0.025598 0.119862 0.8 0 0
0.670344 0.025597 0.189790 0.8 0 0
0.817905 0.062571 0.179210 0.8 0 0
0.804309 0.062571 0.210929 0.8 0 0
0.070906 0.048970 0.184779 0.8 0 0
0.971511 0.025598 0.161931 0.8 0 0
0.906267 0.025598 0.096329 0.8 0 0
0.663316 0.062571 0.218021 0.8 0 0
0.337537 0.047904 0.187268 0.8 0 0
0.577322 0.061239 0.148926 0.8 0 0
0.840568 0.025598 0.086967 0.8 0 0
0.952531 0.025598 0.157484 0.8 0 0
0.960447 0.062571 0.153372 0.8 0 0
0.858454 0.062571 0.310834 0.8 0 0
0.363134 0.065036 0.172612 0.8 0 0
0.334964 0.065036 0.154654 0.8 0 0
0.887891 0.025352 0.122561 0.8 0 0
0.813300 0.062571 0.066847 0.8 0 0
0.692296 0.062571 0.154030 0.8 0 0
0.556594 0.025598 0.306219 0.8 0 0
0.741712 0.025598 0.273409 0.8 0 0
0.188460 0.070850 0.190723 0.8 0 0
0.765188 0.048366 0.302024 0.8 0 0
0.507120 0.047298 0.180457 0.8 0 0
0.740993 0.033969 0.057241 0.8 0 0
0.716636 0.025598 0.173144 0.8 0 0
0.847039 0.032626 0.033525 0.8 0 0
0.717431 0.062571 0.089758 0.8 0 0
0.809015 0.025598 0.302914 0.8 0 0
0.709948 0.062571 0.188341 0.8 0 0
0.063375 0.042950 0.167517 0.8 0 0
0.636471 0.025598 0.034524 0.8 0 0
0.723372 0.062571 0.149209 0.8 0 0
0.828153 0.025598 0.236537 0.8 0 0
0.929486 0.025598 0.238454 0.8 0 0
0.801026 0.025598 0.081109 0.8 0 0
0.074692 0.035550 0.206176 0.8 0 0
0.094461 0.048970 0.158372 0.8 0 0
0.801736 0.025598 0.298930 0.8 0 0
0.292266 0.048716 0.189478 0.8 0 0
0.219769 0.053291 0.159574 0.8 0 0
0.578670 0.065036 0.185795 0.8 0 0
0.591325 0.062571 0.281858 0.8 0 0
0.601801 0.058561 0.308689 0.8 0 0
0.575384 0.054812 0.202391 0.8 0 0
0.541766 0.070978 0.191970 0.8 0 0
0.672457 0.057043 0.030750 0.8 0 0
0.792454 0.062571 0.065824 0.8 0 0
0.693823 0.065036 0.148190 0.8 0 0
0.948397 0.062571 0.156485 0.8 0 0
0.827978 0.025598 0.265500 0.8 0 0
0.050425 0.038546 0.172472 0.8 0 0
0.105429 0.042950 0.147146 0.8 0 0
0.588190 0.070894 0.179239 0.8 0 0
0.650154 0.025598 0.258384 0.8 0 0
0.468449 0.047298 0.172780 0.8 0 0
0.711631 0.025598 0.200729 0.8 0 0
0.577970 0.056743 0.312999 0.8 0 0
0.640478 0.025598 0.231585 0.8 0 0
0.881917 0.062571 0.100705 0.8 0 0
0.768203 0.062571 0.115611 0.8 0 0
0.947547 0.025598 0.194399 0.8 0 0
0.511577 0.072906 0.166979 0.8 0 0
0.823955 0.025598 0.216936 0.8 0 0
0.723022 0.073877 0.195360 0.8 0 0
0.075728 0.046399 0.208097 0.8 0 0
0.949944 0.062571 0.220624 0.8 0 0
0.549293 0.061862 0.314190 0.8 0 0
0.184109 0.052817 0.193558 0.8 0 0
0.732542 0.072204 0.182474 0.8 0 0
0.917634 0.025598 0.189591 0.8 0 0
0.942930 0.025598 0.151865 0.8 0 0
0.935902 0.062571 0.158342 0.8 0 0
0.181948 0.056229 0.157924 0.8 0 0
0.926589 0.035085 0.304874 0.8 0 0
0.896623 0.055559 0.037551 0.8 0 0
0.798951 0.028918 0.050502 0.8 0 0
0.692729 0.025598 0.240470 0.8 0 0
0.710090 0.062571 0.139992 0.8 0 0
0.621096 0.025598 0.283129 0.8 0 0
0.129226 0.042978 0.199152 0.8 0 0
0.804037 0.025598 0.175723 0.8 0 0
0.683305 0.035882 0.092976 0.8 0 0
0.142136 0.043073 0.169034 0.8 0 0
0.669191 0.062571 0.192569 0.8 0 0
0.072290 0.032873 0.215958 0.8 0 0
0.688924 0.062571 0.156746 0.8 0 0
0.771850 0.043698 0.304729 0.8 0 0
0.941642 0.072092 0.177303 0.8 0 0
0.632386 0.062571 0.252373 0.8 0 0
0.921345 0.025598 0.191725 0.8 0 0
0.401051 0.065036 0.154698 0.8 0 0
0.914881 0.025598 0.267536 0.8 0 0
0.648918 0.025598 0.176340 0.8 0 0
0.936134 0.072092 0.168153 0.8 0 0
0.857444 0.062571 0.198792 0.8 0 0
0.615953 0.025598 0.232588 0.8 0 0
0.603332 0.070187 0.180124 0.8 0 0
0.354213 0.065036 0.198332 0.8 0 0
0.921114 0.062571 0.192379 0.8 0 0
0.591091 0.049589 0.158937 0.8 0 0
0.352562 0.071453 0.191310 0.8 0 0
0.072221 0.035475 0.218967 0.8 0 0
0.045751 0.042950 0.163422 0.8 0 0
0.905327 0.025598 0.052603 0.8 0 0
0.572877 0.071451 0.182475 0.8 0 0
0.974893 0.026075 0.191378 0.8 0 0
0.535574 0.025598 0.294678 0.8 0 0
0.907333 0.025598 0.175311 0.8 0 0
0.841828 0.062664 0.179022 0.8 0 0
0.615011 0.025598 0.229510 0.8 0 0
0.903812 0.067581 0.063598 0.8 0 0
0.874689 0.025598 0.117561 0.8 0 0
0.596473 0.061743 0.255562 0.8 0 0
0.283362 0.069124 0.193997 0.8 0 0
0.357808 0.072011 0.179857 0.8 0 0
0.626080 0.054911 0.203288 0.8 0 0
0.414415 0.065036 0.190495 0.8 0 0
0.882723 0.062571 0.120618 0.8 0 0
0.487255 0.047527 0.170271 0.8 0 0
0.228412 0.069884 0.170532 0.8 0 0
0.815080 0.025598 0.304151 0.8 0 0
0.675104 0.039010 0.127679 0.8 0 0
0.051495 0.042944 0.171371 0.8 0 0
0.618027 0.062571 0.227265 0.8 0 0
0.945768 0.062571 0.132566 0.8 0 0
0.878192 0.025598 0.130291 0.8 0 0
0.540619 0.046844 0.311633 0.8 0 0
0.604803 0.065036 0.148628 0.8 0 0
0.071457 0.042950 0.159182 0.8 0 0
0.633362 0.060882 0.153737 0.8 0 0
0.710495 0.025598 0.167167 0.8 0 0
0.853352 0.062571 0.169598 0.8 0 0
0.655804 0.049863 0.149039 0.8 0 0
0.930476 0.025598 0.236028 0.8 0 0
0.349414 0.065036 0.170320 0.8 0 0
0.534414 0.027264 0.302456 0.8 0 0
0.851577 0.037071 0.326959 0.8 0 0
0.919685 0.072092 0.191264 0.8 0 0
0.778295 0.059316 0.057572 0.8 0 0
0.826385 0.062571 0.307362 0.8 0 0
0.437627 0.065036 0.197530 0.8 0 0
0.368920 0.048325 0.189351 0.8 0 0
0.763355 0.062571 0.265646 0.8 0 0
0.493671 0.064541 0.203181 0.8 0 0
0.912301 0.025598 0.187305 0.8 0 0
0.340115 0.065036 0.155250 0.8 0 0
0.462369 0.049749 0.159925 0.8 0 0
0.727120 0.041257 0.289026 0.8 0 0
0.666658 0.025598 0.238359 0.8 0 0
0.757275 0.073799 0.165403 0.8 0 0
0.532948 0.057675 0.296136 0.8 0 0
0.767059 0.062571 0.294919 0.8 0 0
0.959156 0.055370 0.090758 0.8 0 0
0.821208 0.025598 0.063213 0.8 0 0
0.353946 0.065036 0.170928 0.8 0 0
0.666499 0.062571 0.206812 0.8 0 0
0.690525 0.025598 0.116511 0.8 0 0
0.638039 0.028612 0.152265 0.8 0 0
0.957889 0.031899 0.260968 0.8 0 0
0.874600 0.025598 0.286476 0.8 0 0
0.702606 0.062571 0.122191 0.8 0 0
0.584817 0.053621 0.201274 0.8 0 0
0.588122 0.027390 0.311229 0.8 0 0
0.773732 0.062571 0.156780 0.8 0 0
0.102739 0.039902 0.223867 0.8 0 0
0.667886 0.032954 0.073646 0.8 0 0
0.832600 0.062571 0.192465 0.8 0 0
0.767754 0.058722 0.058574 0.8 0 0
0.500935 0.065036 0.180869 0.8 0 0
0.132911 0.062327 0.170519 0.8 0 0
0.944229 0.074636 0.153047 0.8 0 0
0.780608 0.073299 0.152803 0.8 0 0
0.863863 0.025598 0.250544 0.8 0 0
0.355747 0.049421 0.192487 0.8 0 0
0.682146 0.025598 0.052201 0.8 0 0
0.758137 0.025598 0.202371 0.8 0 0
0.614667 0.051335 0.027118 0.8 0 0
0.677739 0.025598 0.245554 0.8 0 0
0.598918 0.065036 0.194878 0.8 0 0
0.706367 0.025598 0.240726 0.8 0 0
0.826092 0.062571 0.271641 0.8 0 0
0.631489 0.060343 0.205334 0.8 0 0
0.874257 0.025598 0.176127 0.8 0 0
0.804671 0.025598 0.080673 0.8 0 0
0.828808 0.025598 0.055543 0.8 0 0
0.815119 0.025598 0.256869 0.8 0 0
0.072837 0.032591 0.213381 0.8 0 0
0.743141 0.025598 0.096576 0.8 0 0
0.924522 0.062571 0.066184 0.8 0 0
0.724113 0.025598 0.284123 0.8 0 0
0.800310 0.062571 0.122645 0.8 0 0
0.890297 0.079825 0.056574 0.8 0 0
0.217121 0.065036 0.173253 0.8 0 0
0.879371 0.062571 0.121117 0.8 0 0
0.973919 0.025598 0.187636 0.8 0 0
0.823821 0.046919 0.323495 0.8 0 0
0.524407 0.065036 0.157245 0.8 0 0
0.787772 0.025598 0.280421 0.8 0 0
0.620121 0.046196 0.025838 0.8 0 0
0.252986 0.065036 0.189826 0.8 0 0
0.150102 0.046629 0.163523 0.8 0 0
0.917778 0.025000 0.054838 0.8 0 0
0.867111 0.062571 0.050542 0.8 0 0
0.927949 0.025598 0.093779 0.8 0 0
0.790936 0.062571 0.169356 0.8 0 0
0.374200 0.065036 0.157386 0.8 0 0
0.927999 0.025598 0.060265 0.8 0 0
0.784200 0.025598 0.212475 0.8 0 0
0.752268 0.062571 0.216409 0.8 0 0
0.274980 0.052857 0.159135 0.8 0 0
0.655038 0.062571 0.186208 0.8 0 0
0.564634 0.062571 0.294994 0.8 0 0
0.724058 0.025598 0.060631 0.8 0 0
0.676880 0.070402 0.180574 0.8 0 0
0.096882 0.046851 0.227853 0.8 0 0
0.867185 0.025598 0.151227 0.8 0 0
0.626796 0.064914 0.205887 0.8 0 0
0.870487 0.025598 0.262726 0.8 0 0
0.593187 0.065036 0.195979 0.8 0 0
0.861135 0.027327 0.326029 0.8 0 0
0.955685 0.072052 0.166180 0.8 0 0
0.974705 0.028064 0.179102 0.8 0 0
0.811242 0.062571 0.067619 0.8 0 0
0.629931 0.073351 0.179911 0.8 0 0
0.624971 0.062571 0.041150 0.8 0 0
0.849129 0.028639 0.033155 0.8 0 0
0.606234 0.062571 0.271253 0.8 0 0
0.643841 0.025598 0.253962 0.8 0 0
0.146489 0.043073 0.186375 0.8 0 0
0.844139 0.071312 0.191424 0.8 0 0
0.830200 0.025598 0.182487 0.8 0 0
0.531906 0.071905 0.179179 0.8 0 0
0.971870 0.048484 0.136996 0.8 0 0
0.092615 0.048970 0.198546 0.8 0 0
0.788281 0.074001 0.196041 0.8 0 0
0.031514 0.043481 0.150250 0.8 0 0
0.900736 0.025000 0.046161 0.8 0 0
0.805502 0.052991 0.047972 0.8 0 0
0.796985 0.025598 0.245346 0.8 0 0
0.918691 0.072092 0.183533 0.8 0 0
0.748209 0.025598 0.063400 0.8 0 0
0.696851 0.025598 0.120323 0.8 0 0
0.959200 0.028076 0.257891 0.8 0 0
0.685086 0.025597 0.221706 0.8 0 0
0.824893 0.025000 0.074694 0.8 0 0
0.585643 0.065036 0.174830 0.8 0 0
0.366059 0.065036 0.184247 0.8 0 0
0.538610 0.065036 0.169195 0.8 0 0
0.749374 0.025598 0.088090 0.8 0 0
0.852480 0.025598 0.040354 0.8 0 0
0.887956 0.062571 0.213935 0.8 0 0
0.695734 0.062571 0.132405 0.8 0 0
0.871347 0.062571 0.157233 0.8 0 0
0.540399 0.065036 0.160637 0.8 0 0
0.696140 0.062571 0.281771 0.8 0 0
0.745890 0.062571 0.100257 0.8 0 0
0.726731 0.062571 0.210665 0.8 0 0
0.825663 0.079428 0.066342 0.8 0 0
0.293234 0.049463 0.163879 0.8 0 0
0.698883 0.025598 0.247312 0.8 0 0
0.465718 0.065036 0.172021 0.8 0 0
0.667378 0.025598 0.036088 0.8 0 0
0.799203 0.062571 0.279102 0.8 0 0
0.510934 0.054166 0.200705 0.8 0 0
0.639982 0.062571 0.229355 0.8 0 0
0.950017 0.025598 0.269784 0.8 0 0
0.518220 0.070507 0.155862 0.8 0 0
0.786154 0.072301 0.179127 0.8 0 0
0.894184 0.025598 0.218814 0.8 0 0
0.534086 0.041386 0.287930 0.8 0 0
0.441194 0.061685 0.201919 0.8 0 0
0.675152 0.062571 0.142041 0.8 0 0
0.810897 0.073493 0.152521 0.8 0 0
0.740392 0.062571 0.190374 0.8 0 0
0.741066 0.062571 0.095832 0.8 0 0
0.659257 0.025598 0.205138 0.8 0 0
0.555553 0.065036 0.175533 0.8 0 0
0.969096 0.039226 0.227439 0.8 0 0
0.916451 0.025000 0.074602 0.8 0 0
0.941016 0.063112 0.147348 0.8 0 0
0.813382 0.062571 0.121899 0.8 0 0
0.879116 0.064581 0.152486 0.8 0 0
0.780055 0.062571 0.126165 0.8 0 0
0.402554 0.047298 0.184069 0.8 0 0
0.713280 0.062571 0.092647 0.8 0 0
0.202647 0.047298 0.173930 0.8 0 0
0.553908 0.065036 0.175372 0.8 0 0
0.322602 0.065036 0.193941 0.8 0 0
0.313894 0.068576 0.193451 0.8 0 0
0.747374 0.048409 0.058071 0.8 0 0
0.945933 0.062571 0.083877 0.8 0 0
0.696271 0.025597 0.160312 0.8 0 0
0.801509 0.062571 0.231002 0.8 0 0
0.104964 0.036375 0.229658 0.8 0 0
0.369375 0.068872 0.191974 0.8 0 0
0.927415 0.025598 0.224281 0.8 0 0
0.492045 0.071657 0.169201 0.8 0 0
0.964238 0.062571 0.212503 0.8 0 0
0.485257 0.065036 0.194810 0.8 0 0
0.815293 0.073449 0.167495 0.8 0 0
0.946114 0.072092 0.156847 0.8 0 0
0.828344 0.025598 0.250913 0.8 0 0
0.325453 0.069858 0.167074 0.8 0 0
0.597990 0.058595 0.204213 0.8 0 0
0.473233 0.049045 0.163538 0.8 0 0
0.899292 0.025598 0.205374 0.8 0 0
0.446284 0.071265 0.194960 0.8 0 0
0.651586 0.065036 0.158870 0.8 0 0
0.848685 0.025598 0.033954 0.8 0 0
0.769525 0.025598 0.247717 0.8 0 0
0.596203 0.073304 0.167621 0.8 0 0
0.929358 0.062571 0.217381 0.8 0 0
0.885966 0.025598 0.280539 0.8 0 0
0.495451 0.057073 0.201853 0.8 0 0
0.493618 0.059069 0.202377 0.8 0 0
0.620359 0.065036 0.155052 0.8 0 0
0.799346 0.025598 0.166670 0.8 0 0
0.578296 0.025598 0.310508 0.8 0 0
0.799268 0.052797 0.050379 0.8 0 0
0.961037 0.039949 0.252358 0.8 0 0
0.809811 0.025598 0.256962 0.8 0 0
0.620360 0.027864 0.025825 0.8 0 0
0.333782 0.072371 0.158618 0.8 0 0
0.831501 0.025598 0.202521 0.8 0 0
0.147625 0.043324 0.194133 0.8 0 0
0.836487 0.062571 0.291184 0.8 0 0
0.956584 0.025598 0.123156 0.8 0 0
0.730909 0.025598 0.120092 0.8 0 0
0.566467 0.065036 0.187362 0.8 0 0
0.287333 0.055858 0.197586 0.8 0 0
0.925531 0.062571 0.084411 0.8 0 0
0.492956 0.064163 0.150204 0.8 0 0
0.925984 0.062571 0.301720 0.8 0 0
0.806144 0.025598 0.159909 0.8 0 0
0.673114 0.025598 0.052239 0.8 0 0
0.734654 0.025598 0.119413 0.8 0 0
0.915252 0.025598 0.194725 0.8 0 0
0.218677 0.070816 0.158366 0.8 0 0
0.761937 0.062571 0.209562 0.8 0 0
0.860357 0.071312 0.165811 0.8 0 0
0.476511 0.049519 0.194539 0.8 0 0
0.772770 0.040663 0.305105 0.8 0 0
0.908660 0.072092 0.183247 0.8 0 0
0.688784 0.025598 0.102724 0.8 0 0
0.936418 0.049050 0.294615 0.8 0 0
0.103350 0.042944 0.200573 0.8 0 0
0.679612 0.025598 0.281912 0.8 0 0
0.951298 0.025598 0.085490 0.8 0 0
0.064685 0.048970 0.188304 0.8 0 0
0.614039 0.025598 0.180551 0.8 0 0
0.634852 0.065036 0.200097 0.8 0 0
0.192984 0.070823 0.179425 0.8 0 0
0.753660 0.025598 0.100397 0.8 0 0
0.752841 0.025598 0.253243 0.8 0 0
0.562813 0.071078 0.195563 0.8 0 0
0.172143 0.058786 0.157606 0.8 0 0
0.641397 0.025598 0.198824 0.8 0 0
0.837694 0.071384 0.165501 0.8 0 0
0.367026 0.065036 0.182767 0.8 0 0
0.455937 0.070188 0.158122 0.8 0 0
0.704009 0.062571 0.283553 0.8 0 0
0.708907 0.025597 0.139467 0.8 0 0
0.907783 0.062571 0.299613 0.8 0 0
0.572266 0.062571 0.298123 0.8 0 0
0.856220 0.025000 0.090518 0.8 0 0
0.530720 0.071477 0.195434 0.8 0 0
0.671348 0.062571 0.222588 0.8 0 0
0.856156 0.072044 0.152290 0.8 0 0
0.812354 0.025598 0.212735 0.8 0 0
0.793755 0.025598 0.174758 0.8 0 0
0.195389 0.048672 0.187933 0.8 0 0
0.543971 0.057410 0.202863 0.8 0 0
0.904522 0.025598 0.045754 0.8 0 0
0.146578 0.056338 0.159377 0.8 0 0
0.837461 0.025598 0.246155 0.8 0 0
0.887384 0.062571 0.261603 0.8 0 0
0.906431 0.053001 0.314942 0.8 0 0
0.835252 0.025000 0.052125 0.8 0 0
0.974539 0.049898 0.172573 0.8 0 0
0.363689 0.065036 0.193192 0.8 0 0
0.076930 0.042635 0.196724 0.8 0 0
0.794812 0.074338 0.195383 0.8 0 0
0.562957 0.063079 0.148755 0.8 0 0
0.873761 0.062571 0.111592 0.8 0 0
0.870070 0.025598 0.070605 0.8 0 0
0.127850 0.042950 0.178804 0.8 0 0
0.099238 0.040239 0.147278 0.8 0 0
0.822108 0.062571 0.128183 0.8 0 0
0.640795 0.025598 0.260325 0.8 0 0
0.884005 0.054150 0.034034 0.8 0 0
0.554556 0.039744 0.274340 0.8 0 0
0.885125 0.025598 0.058502 0.8 0 0
0.674221 0.062571 0.160320 0.8 0 0
0.402658 0.047475 0.170841 0.8 0 0
0.820880 0.062571 0.120066 0.8 0 0
0.840253 0.062571 0.196094 0.8 0 0
0.054923 0.047579 0.153330 0.8 0 0
0.932139 0.063112 0.213199 0.8 0 0
0.865955 0.025598 0.083138 0.8 0 0
0.872434 0.062571 0.074086 0.8 0 0
0.746623 0.062571 0.261922 0.8 0 0
0.904554 0.062571 0.289049 0.8 0 0
0.429081 0.065036 0.200799 0.8 0 0
0.854532 0.062571 0.310144 0.8 0 0
0.581315 0.054272 0.152258 0.8 0 0
0.100400 0.041635 0.225299 0.8 0 0
0.703732 0.062571 0.180398 0.8 0 0
0.198860 0.065036 0.177821 0.8 0 0
0.348751 0.065036 0.173567 0.8 0 0
0.172038 0.049545 0.190176 0.8 0 0
0.899261 0.025598 0.122158 0.8 0 0
0.454039 0.048422 0.167151 0.8 0 0
0.761017 0.025598 0.251615 0.8 0 0
0.658395 0.061682 0.291552 0.8 0 0
0.753066 0.025598 0.118493 0.8 0 0
0.674276 0.065036 0.199027 0.8 0 0
0.496136 0.070650 0.195201 0.8 0 0
0.967141 0.058748 0.114087 0.8 0 0
0.884408 0.025598 0.299297 0.8 0 0
0.769453 0.062571 0.076428 0.8 0 0
0.244476 0.053927 0.195504 0.8 0 0
0.906022 0.071410 0.179970 0.8 0 0
0.743302 0.025598 0.078201 0.8 0 0
0.945979 0.025598 0.220247 0.8 0 0
0.646618 0.050744 0.062600 0.8 0 0
0.842932 0.025598 0.042520 0.8 0 0
0.567442 0.048989 0.162492 0.8 0 0
0.825013 0.062571 0.222104 0.8 0 0
0.751286 0.062571 0.127156 0.8 0 0
0.790607 0.025598 0.242716 0.8 0 0
0.861707 0.079825 0.050306 0.8 0 0
0.663449 0.045229 0.290118 0.8 0 0
0.687787 0.046281 0.035503 0.8 0 0
0.880653 0.073724 0.193762 0.8 0 0
0.932936 0.025598 0.209462 0.8 0 0
0.715124 0.025598 0.255024 0.8 0 0
0.877148 0.034092 0.323581 0.8 0 0
0.718049 0.025598 0.282639 0.8 0 0
0.449896 0.065036 0.198286 0.8 0 0
0.777360 0.059074 0.057661 0.8 0 0
0.517565 0.053965 0.153831 0.8 0 0
0.444696 0.058379 0.201260 0.8 0 0
0.048285 0.040702 0.211938 0.8 0 0
0.617644 0.041123 0.167732 0.8 0 0
0.282206 0.065036 0.194785 0.8 0 0
0.743541 0.048374 0.293297 0.8 0 0
0.807688 0.025598 0.218050 0.8 0 0
0.974525 0.056320 0.172042 0.8 0 0
0.610426 0.030335 0.205128 0.8 0 0
0.747154 0.062571 0.222229 0.8 0 0
0.815558 0.034572 0.043803 0.8 0 0
0.835326 0.062571 0.102986 0.8 0 0
0.773165 0.025598 0.152391 0.8 0 0
0.907154 0.062571 0.185593 0.8 0 0
0.147986 0.058030 0.169885 0.8 0 0
0.866681 0.025598 0.191813 0.8 0 0
0.661491 0.029305 0.068799 0.8 0 0
0.336910 0.065036 0.177791 0.8 0 0
0.339425 0.071845 0.191730 0.8 0 0
0.856353 0.079825 0.043372 0.8 0 0
0.960845 0.025598 0.218979 0.8 0 0
0.211710 0.069362 0.160727 0.8 0 0
0.921017 0.062571 0.180076 0.8 0 0
0.435642 0.070201 0.182296 0.8 0 0
0.682225 0.025598 0.070863 0.8 0 0
0.583462 0.055494 0.312093 0.8 0 0
0.316359 0.070314 0.167002 0.8 0 0
0.693580 0.062571 0.168649 0.8 0 0
0.407114 0.058426 0.153232 0.8 0 0
0.933105 0.062571 0.075939 0.8 0 0
0.950289 0.025598 0.192457 0.8 0 0
0.830295 0.025598 0.142393 0.8 0 0
0.705555 0.025597 0.179717 0.8 0 0
0.725991 0.062571 0.154655 0.8 0 0
0.833136 0.025598 0.279498 0.8 0 0
0.093587 0.048970 0.189908 0.8 0 0
0.637514 0.043548 0.058806 0.8 0 0
0.527671 0.065036 0.182311 0.8 0 0
0.851160 0.062571 0.320574 0.8 0 0
0.830671 0.062571 0.146615 0.8 0 0
0.677568 0.025598 0.136150 0.8 0 0
0.624670 0.055919 0.054745 0.8 0 0
0.607540 0.059707 0.045162 0.8 0 0
0.603199 0.073290 0.181418 0.8 0 0
0.875213 0.062571 0.043713 0.8 0 0
0.706501 0.062571 0.282710 0.8 0 0
0.928974 0.062571 0.151654 0.8 0 0
0.311963 0.070359 0.190759 0.8 0 0
0.947047 0.062571 0.086195 0.8 0 0
0.868057 0.044967 0.324970 0.8 0 0
0.657192 0.062571 0.291705 0.8 0 0
0.677398 0.025597 0.213911 0.8 0 0
0.845719 0.071312 0.176463 0.8 0 0
0.720187 0.062571 0.180981 0.8 0 0
0.665919 0.062571 0.161977 0.8 0 0
0.638405 0.036859 0.025330 0.8 0 0
0.596649 0.047298 0.172816 0.8 0 0
0.698454 0.062571 0.171873 0.8 0 0
0.641327 0.051663 0.060395 0.8 0 0
0.842903 0.025598 0.037756 0.8 0 0
0.953448 0.058288 0.268866 0.8 0 0
0.659938 0.026014 0.291115 0.8 0 0
0.743474 0.062571 0.058005 0.8 0 0
0.802708 0.025598 0.053648 0.8 0 0
0.852375 0.025598 0.264253 0.8 0 0
0.801548 0.039969 0.049499 0.8 0 0
0.082181 0.048970 0.178422 0.8 0 0
0.476035 0.047298 0.181395 0.8 0 0
0.811787 0.074118 0.196161 0.8 0 0
0.741060 0.025598 0.059790 0.8 0 0
0.262009 0.065036 0.159272 0.8 0 0
0.886043 0.062571 0.253654 0.8 0 0
0.673124 0.062571 0.048112 0.8 0 0
0.548397 0.056168 0.151003 0.8 0 0
0.685045 0.071263 0.182260 0.8 0 0
0.636721 0.025598 0.218259 0.8 0 0
0.940692 0.062571 0.233072 0.8 0 0
0.923911 0.062571 0.078781 0.8 0 0
0.778336 0.025598 0.229860 0.8 0 0
0.757814 0.062571 0.150092 0.8 0 0
0.657876 0.062571 0.269657 0.8 0 0
0.612604 0.038327 0.306504 0.8 0 0
0.657252 0.065036 0.186636 0.8 0 0
0.726888 0.073098 0.182308 0.8 0 0
0.959677 0.042786 0.256455 0.8 0 0
0.639055 0.062571 0.195184 0.8 0 0
0.888951 0.069397 0.055602 0.8 0 0
0.676677 0.025598 0.045520 0.8 0 0
0.089189 0.042950 0.172886 0.8 0 0
0.868509 0.062571 0.150133 0.8 0 0
0.865353 0.062571 0.193919 0.8 0 0
0.925667 0.072092 0.164036 0.8 0 0
0.834090 0.026418 0.324777 0.8 0 0
0.204453 0.068487 0.168962 0.8 0 0
0.216966 0.065036 0.157749 0.8 0 0
0.596740 0.025598 0.304284 0.8 0 0
0.920643 0.062571 0.273523 0.8 0 0
0.611115 0.034888 0.229696 0.8 0 0
0.682994 0.062571 0.049538 0.8 0 0
0.717487 0.025598 0.109007 0.8 0 0
0.890858 0.062571 0.177399 0.8 0 0
0.855025 0.062571 0.045095 0.8 0 0
0.945366 0.062571 0.149272 0.8 0 0
0.934107 0.062571 0.169741 0.8 0 0
0.634047 0.049910 0.057601 0.8 0 0
0.901560 0.066245 0.046294 0.8 0 0
0.891591 0.025598 0.204022 0.8 0 0
0.957694 0.026710 0.261315 0.8 0 0
0.916104 0.063112 0.210849 0.8 0 0
0.788463 0.062571 0.094691 0.8 0 0
0.144134 0.053375 0.164960 0.8 0 0
0.686344 0.041051 0.035056 0.8 0 0
0.806281 0.062571 0.126919 0.8 0 0
0.836777 0.062571 0.192153 0.8 0 0
0.922195 0.025598 0.229644 0.8 0 0
0.629134 0.057532 0.025340 0.8 0 0
0.829680 0.062571 0.189240 0.8 0 0
0.962917 0.025598 0.116103 0.8 0 0
0.824731 0.072281 0.167466 0.8 0 0
0.741413 0.025598 0.254736 0.8 0 0
0.730447 0.025598 0.231414 0.8 0 0
0.107440 0.048970 0.171334 0.8 0 0
0.274682 0.047298 0.173805 0.8 0 0
0.622123 0.025598 0.196633 0.8 0 0
0.799802 0.062571 0.273719 0.8 0 0
0.629339 0.065036 0.204693 0.8 0 0
0.691002 0.065036 0.198787 0.8 0 0
0.669381 0.062571 0.220698 0.8 0 0
0.382786 0.072254 0.193360 0.8 0 0
0.189944 0.070393 0.193575 0.8 0 0
0.688247 0.073624 0.154396 0.8 0 0
0.899596 0.062571 0.272277 0.8 0 0
0.459255 0.049058 0.192926 0.8 0 0
0.800369 0.062571 0.121762 0.8 0 0
0.906454 0.025598 0.088053 0.8 0 0
0.810912 0.062571 0.106439 0.8 0 0
0.967702 0.072092 0.191149 0.8 0 0
0.612007 0.025598 0.284967 0.8 0 0
0.348997 0.058558 0.199474 0.8 0 0
0.932745 0.062571 0.240804 0.8 0 0
0.890327 0.062571 0.077386 0.8 0 0
0.693734 0.060800 0.285466 0.8 0 0
0.087611 0.041839 0.180392 0.8 0 0
0.814158 0.025598 0.291278 0.8 0 0
0.084306 0.042950 0.195764 0.8 0 0
0.210273 0.065036 0.162745 0.8 0 0
0.964829 0.048810 0.106569 0.8 0 0
0.632586 0.039126 0.057156 0.8 0 0
0.923485 0.062571 0.194825 0.8 0 0
0.467168 0.053206 0.155694 0.8 0 0
0.901874 0.062571 0.276427 0.8 0 0
0.912930 0.025598 0.307450 0.8 0 0
0.744149 0.025599 0.293542 0.8 0 0
0.886705 0.025598 0.141359 0.8 0 0
0.256869 0.069983 0.158045 0.8 0 0
0.554895 0.072606 0.182037 0.8 0 0
0.904650 0.062571 0.118902 0.8 0 0
0.257575 0.071729 0.158472 0.8 0 0
0.542551 0.061187 0.277923 0.8 0 0
0.266073 0.065036 0.180825 0.8 0 0
0.929033 0.028338 0.054643 0.8 0 0
0.767248 0.043961 0.058622 0.8 0 0
0.499282 0.065036 0.170483 0.8 0 0
0.745825 0.053613 0.057869 0.8 0 0
0.708716 0.025598 0.283635 0.8 0 0
0.763242 0.025598 0.124023 0.8 0 0
0.839679 0.025598 0.106285 0.8 0 0
0.614299 0.025598 0.194914 0.8 0 0
0.804729 0.051878 0.048270 0.8 0 0
0.821531 0.062571 0.318401 0.8 0 0
0.520522 0.065036 0.163469 0.8 0 0
0.725519 0.072877 0.165010 0.8 0 0
0.179852 0.065036 0.166005 0.8 0 0
0.482770 0.053135 0.155484 0.8 0 0
0.688815 0.057942 0.285551 0.8 0 0
0.851220 0.025598 0.052589 0.8 0 0
0.914099 0.072092 0.182397 0.8 0 0
0.701301 0.025598 0.097446 0.8 0 0
0.912236 0.025598 0.263411 0.8 0 0
0.966924 0.050862 0.234635 0.8 0 0
0.596380 0.057798 0.309695 0.8 0 0
0.818608 0.050541 0.042462 0.8 0 0
0.838865 0.032297 0.034970 0.8 0 0
0.538637 0.064313 0.204095 0.8 0 0
0.238545 0.059764 0.197465 0.8 0 0
0.726926 0.047919 0.051867 0.8 0 0
0.974841 0.059290 0.184463 0.8 0 0
0.606697 0.051407 0.036026 0.8 0 0
0.382243 0.050288 0.194672 0.8 0 0
0.075804 0.042950 0.159820 0.8 0 0
0.739313 0.025598 0.215289 0.8 0 0
0.758840 0.062571 0.284837 0.8 0 0
0.901570 0.025000 0.079504 0.8 0 0
0.664101 0.062571 0.202063 0.8 0 0
0.951009 0.025598 0.088673 0.8 0 0
0.725464 0.025598 0.144413 0.8 0 0
0.799314 0.062571 0.206535 0.8 0 0
0.945165 0.025598 0.265130 0.8 0 0
0.296428 0.065036 0.156678 0.8 0 0
0.208119 0.071490 0.192101 0.8 0 0
0.932573 0.062571 0.162057 0.8 0 0
0.692509 0.062571 0.169835 0.8 0 0
0.489610 0.058075 0.202023 0.8 0 0
0.281080 0.068810 0.168635 0.8 0 0
0.807566 0.072343 0.152482 0.8 0 0
0.742090 0.025598 0.104842 0.8 0 0
0.686361 0.071734 0.153727 0.8 0 0
0.720834 0.062571 0.106554 0.8 0 0
0.437036 0.050002 0.195159 0.8 0 0
0.611968 0.047298 0.173400 0.8 0 0
0.613820 0.062571 0.216206 0.8 0 0
0.611315 0.071307 0.165598 0.8 0 0
0.778077 0.025598 0.076662 0.8 0 0
0.630927 0.025598 0.047087 0.8 0 0
0.601865 0.048038 0.167091 0.8 0 0
0.603946 0.025598 0.257468 0.8 0 0
0.660895 0.025598 0.049898 0.8 0 0
0.066130 0.048970 0.158504 0.8 0 0
0.403864 0.065036 0.199943 0.8 0 0
0.952057 0.062571 0.153143 0.8 0 0
0.778134 0.025598 0.074025 0.8 0 0
0.697001 0.025598 0.068749 0.8 0 0
0.969943 0.072092 0.171691 0.8 0 0
0.731803 0.062571 0.277001 0.8 0 0
0.933475 0.073947 0.197348 0.8 0 0
0.972657 0.048393 0.205286 0.8 0 0
0.651221 0.062571 0.261447 0.8 0 0
0.855562 0.062571 0.165778 0.8 0 0
0.238169 0.070863 0.167499 0.8 0 0
0.565294 0.037642 0.271105 0.8 0 0
0.066970 0.042950 0.182310 0.8 0 0
0.928124 0.062571 0.108760 0.8 0 0
0.600323 0.071360 0.192242 0.8 0 0
0.176762 0.049548 0.164484 0.8 0 0
0.172858 0.057164 0.195654 0.8 0 0
0.649912 0.025974 0.149521 0.8 0 0
0.072922 0.037449 0.218060 0.8 0 0
0.703258 0.025598 0.071156 0.8 0 0
0.163455 0.049050 0.166319 0.8 0 0
0.919500 0.062571 0.179034 0.8 0 0
0.791732 0.062571 0.144331 0.8 0 0
0.778665 0.062571 0.235718 0.8 0 0
0.231663 0.069606 0.190370 0.8 0 0
0.941590 0.025598 0.280051 0.8 0 0
0.945506 0.025598 0.163810 0.8 0 0
0.752711 0.025598 0.207412 0.8 0 0
0.906638 0.075416 0.059083 0.8 0 0
0.695325 0.062571 0.090684 0.8 0 0
0.114393 0.041839 0.171781 0.8 0 0
0.098372 0.042944 0.165866 0.8 0 0
0.087282 0.042950 0.188247 0.8 0 0
0.708758 0.025597 0.158415 0.8 0 0
0.971292 0.028281 0.132697 0.8 0 0
0.847495 0.059810 0.033444 0.8 0 0
0.287244 0.048556 0.167514 0.8 0 0
0.617345 0.065036 0.175220 0.8 0 0
0.903064 0.025598 0.220168 0.8 0 0
0.864063 0.025598 0.175085 0.8 0 0
0.835386 0.025598 0.036523 0.8 0 0
0.509781 0.071987 0.195183 0.8 0 0
0.798960 0.072058 0.152636 0.8 0 0
0.862538 0.025598 0.046108 0.8 0 0
0.480471 0.071245 0.179055 0.8 0 0
0.611724 0.046392 0.217594 0.8 0 0
0.756861 0.025598 0.189902 0.8 0 0
0.810581 0.062571 0.096030 0.8 0 0
0.870306 0.043411 0.324627 0.8 0 0
0.827391 0.062571 0.276748 0.8 0 0
0.124542 0.042950 0.183603 0.8 0 0
0.520740 0.060396 0.203260 0.8 0 0
0.908270 0.072092 0.190486 0.8 0 0
0.948325 0.071970 0.166164 0.8 0 0
0.841381 0.071598 0.153969 0.8 0 0
0.139961 0.049502 0.169171 0.8 0 0
0.630285 0.039628 0.025276 0.8 0 0
0.079279 0.042950 0.191943 0.8 0 0
0.962282 0.062571 0.244459 0.8 0 0
0.839042 0.025598 0.314344 0.8 0 0
0.913407 0.062571 0.175102 0.8 0 0
0.774684 0.029367 0.057915 0.8 0 0
0.797507 0.025598 0.098201 0.8 0 0
0.577020 0.071904 0.165661 0.8 0 0
0.940148 0.062571 0.223194 0.8 0 0
0.073521 0.048970 0.161762 0.8 0 0
0.188257 0.070025 0.167578 0.8 0 0
0.572684 0.058228 0.268188 0.8 0 0
0.905352 0.066361 0.146170 0.8 0 0
0.585833 0.035956 0.262997 0.8 0 0
0.695557 0.062571 0.173970 0.8 0 0
0.610679 0.053932 0.232462 0.8 0 0
0.076679 0.040179 0.208852 0.8 0 0
0.904890 0.068435 0.203669 0.8 0 0
0.075120 0.048970 0.186568 0.8 0 0
0.832433 0.062571 0.293977 0.8 0 0
0.674976 0.025598 0.265337 0.8 0 0
0.824478 0.025598 0.164721 0.8 0 0
0.459911 0.058188 0.152280 0.8 0 0
0.286514 0.070424 0.160431 0.8 0 0
0.974557 0.045834 0.173279 0.8 0 0
0.862357 0.025000 0.077485 0.8 0 0
0.772022 0.047855 0.304800 0.8 0 0
0.616051 0.047298 0.171628 0.8 0 0
0.801192 0.025000 0.065218 0.8 0 0
0.617622 0.061796 0.025977 0.8 0 0
0.525756 0.070472 0.168684 0.8 0 0
0.156542 0.065034 0.166529 0.8 0 0
0.963859 0.062571 0.148823 0.8 0 0
0.896072 0.072301 0.182272 0.8 0 0
0.351575 0.048933 0.165882 0.8 0 0
0.749186 0.059830 0.295573 0.8 0 0
0.458897 0.060685 0.151540 0.8 0 0
0.447115 0.065036 0.166307 0.8 0 0
0.688322 0.025597 0.222836 0.8 0 0
0.915020 0.025598 0.222753 0.8 0 0
0.197774 0.047298 0.182557 0.8 0 0
0.032920 0.042950 0.168113 0.8 0 0
0.667763 0.025598 0.220284 0.8 0 0
0.410635 0.071417 0.159206 0.8 0 0
0.679236 0.062571 0.256259 0.8 0 0
