0.440619 0.233757 0.077822 0.8 0 0
0.906074 0.204047 0.097835 0.8 0 0
0.410781 0.278550 0.087124 0.8 0 0
0.268014 0.145265 0.089791 0.8 0 0
0.688637 0.199624 0.112207 0.8 0 0
0.944001 0.151485 0.093447 0.8 0 0
0.042426 0.126007 0.060122 0.8 0 0
0.205562 0.158653 0.122638 0.8 0 0
0.385664 0.211930 0.105309 0.8 0 0
0.251304 0.258730 0.102355 0.8 0 0
0.045986 0.250118 0.063053 0.8 0 0
0.136618 0.096442 0.092991 0.8 0 0
0.375185 0.261792 0.068802 0.8 0 0
0.966043 0.204832 0.084228 0.8 0 0
0.369614 0.244461 0.120969 0.8 0 0
0.109809 0.054326 0.068962 0.8 0 0
0.335568 0.108162 0.118485 0.8 0 0
0.528748 0.203127 0.119780 0.8 0 0
0.626062 0.182556 0.119802 0.8 0 0
0.139012 0.194503 0.072838 0.8 0 0
0.184331 0.113057 0.044080 0.8 0 0
0.417333 0.167032 0.122015 0.8 0 0
0.101123 0.081752 0.032435 0.8 0 0
0.096154 0.066858 0.032472 0.8 0 0
0.271086 0.125742 0.090195 0.8 0 0
0.143615 0.056904 0.036139 0.8 0 0
0.845718 0.174332 0.106950 0.8 0 0
0.097303 0.047574 0.038721 0.8 0 0
0.177760 0.025755 0.050073 0.8 0 0
0.087816 0.303556 0.031374 0.8 0 0
0.325913 0.236987 0.062720 0.8 0 0
0.456387 0.194018 0.111512 0.8 0 0
0.255941 0.066834 0.053508 0.8 0 0
0.175960 0.131785 0.042978 0.8 0 0
0.483836 0.171032 0.126684 0.8 0 0
0.831640 0.174526 0.117843 0.8 0 0
0.143610 0.118295 0.036138 0.8 0 0
0.104003 0.094903 0.032815 0.8 0 0
0.290743 0.095070 0.092858 0.8 0 0
0.194625 0.119175 0.080129 0.8 0 0
0.134347 0.233424 0.072193 0.8 0 0
0.241441 0.174249 0.111392 0.8 0 0
0.376312 0.150769 0.069355 0.8 0 0
0.170716 0.081421 0.076981 0.8 0 0
0.190820 0.027495 0.073413 0.8 0 0
0.140802 0.046477 0.073073 0.8 0 0
0.346068 0.097760 0.117529 0.8 0 0
0.651709 0.193396 0.125580 0.8 0 0
0.166508 0.066873 0.102811 0.8 0 0
0.906505 0.189100 0.101588 0.8 0 0
0.335390 0.266219 0.066973 0.8 0 0
0.186410 0.026643 0.061556 0.8 0 0
0.381579 0.087025 0.104742 0.8 0 0
0.368008 0.238927 0.102955 0.8 0 0
0.372438 0.161032 0.111284 0.8 0 0
0.061874 0.163908 0.027959 0.8 0 0
0.963252 0.213263 0.088329 0.8 0 0
0.099901 0.133194 0.067658 0.8 0 0
0.386127 0.069684 0.083065 0.8 0 0
0.090431 0.107004 0.029138 0.8 0 0
0.092359 0.207339 0.066665 0.8 0 0
0.146487 0.273024 0.073822 0.8 0 0
0.133601 0.203743 0.072095 0.8 0 0
0.900222 0.210061 0.102952 0.8 0 0
0.117137 0.323867 0.069928 0.8 0 0
0.782924 0.175898 0.104734 0.8 0 0
0.897603 0.205249 0.087006 0.8 0 0
0.343106 0.225556 0.099706 0.8 0 0
0.330265 0.190194 0.097986 0.8 0 0
0.498168 0.202282 0.127632 0.8 0 0
0.238214 0.067389 0.085897 0.8 0 0
0.218927 0.286861 0.083358 0.8 0 0
0.386793 0.192783 0.119858 0.8 0 0
0.259981 0.187111 0.088733 0.8 0 0
0.273679 0.265289 0.090536 0.8 0 0
0.078207 0.216095 0.082917 0.8 0 0
0.125718 0.093680 0.091113 0.8 0 0
0.037138 0.177671 0.059426 0.8 0 0
0.670610 0.196687 0.119780 0.8 0 0
0.260105 0.270087 0.088779 0.8 0 0
0.321971 0.218871 0.062201 0.8 0 0
0.175654 0.196424 0.077661 0.8 0 0
0.369974 0.204548 0.128726 0.8 0 0
0.448758 0.201786 0.111371 0.8 0 0
0.223346 0.283270 0.099993 0.8 0 0
0.663295 0.188608 0.119793 0.8 0 0
0.632624 0.199675 0.119780 0.8 0 0
0.348204 0.199826 0.065655 0.8 0 0
0.041664 0.236947 0.057624 0.8 0 0
0.147143 0.186687 0.073877 0.8 0 0
0.129622 0.225720 0.071602 0.8 0 0
0.286715 0.170872 0.092253 0.8 0 0
0.141325 0.153607 0.038418 0.8 0 0
0.373871 0.191257 0.103727 0.8 0 0
0.033302 0.185867 0.072447 0.8 0 0
0.557616 0.186059 0.125953 0.8 0 0
0.945352 0.150178 0.094495 0.8 0 0
0.451578 0.184785 0.082847 0.8 0 0
0.818128 0.186930 0.119780 0.8 0 0
0.156035 0.061697 0.040355 0.8 0 0
0.324237 0.214061 0.119253 0.8 0 0
0.887421 0.150364 0.098069 0.8 0 0
0.134221 0.313969 0.072177 0.8 0 0
0.378495 0.120565 0.099817 0.8 0 0
0.220524 0.221300 0.106730 0.8 0 0
0.033999 0.183182 0.066251 0.8 0 0
0.381392 0.170881 0.103085 0.8 0 0
0.204343 0.302186 0.046715 0.8 0 0
0.409859 0.169946 0.119852 0.8 0 0
0.182573 0.152882 0.114739 0.8 0 0
0.914537 0.197271 0.092310 0.8 0 0
0.119942 0.168900 0.093775 0.8 0 0
0.146124 0.303480 0.089609 0.8 0 0
0.180576 0.212748 0.043586 0.8 0 0
0.165347 0.116509 0.102284 0.8 0 0
0.154278 0.040940 0.074847 0.8 0 0
0.876146 0.215120 0.100645 0.8 0 0
0.064408 0.169401 0.062985 0.8 0 0
0.075297 0.151650 0.029726 0.8 0 0
0.080371 0.252727 0.065118 0.8 0 0
0.232558 0.142989 0.085153 0.8 0 0
0.339935 0.150082 0.105899 0.8 0 0
0.361150 0.186930 0.119864 0.8 0 0
0.177675 0.157377 0.077897 0.8 0 0
0.471282 0.167455 0.125315 0.8 0 0
0.353851 0.237819 0.101121 0.8 0 0
0.188709 0.034790 0.044657 0.8 0 0
0.249054 0.156477 0.052601 0.8 0 0
0.060068 0.274581 0.049419 0.8 0 0
0.443882 0.200502 0.094434 0.8 0 0
0.255048 0.295299 0.053391 0.8 0 0
0.180004 0.260195 0.043511 0.8 0 0
0.359309 0.180533 0.101839 0.8 0 0
0.643001 0.173962 0.125304 0.8 0 0
0.970694 0.193963 0.082456 0.8 0 0
0.336840 0.220732 0.119881 0.8 0 0
0.215800 0.190905 0.048223 0.8 0 0
0.086161 0.308060 0.072970 0.8 0 0
0.835316 0.187063 0.104971 0.8 0 0
0.239932 0.093496 0.104300 0.8 0 0
0.242618 0.191628 0.111301 0.8 0 0
0.113680 0.296888 0.084891 0.8 0 0
0.321794 0.238232 0.117779 0.8 0 0
0.768474 0.174487 0.119769 0.8 0 0
0.222310 0.274503 0.102930 0.8 0 0
0.380505 0.213359 0.104600 0.8 0 0
0.045042 0.114759 0.056381 0.8 0 0
0.235011 0.309010 0.094450 0.8 0 0
0.567708 0.173430 0.119780 0.8 0 0
0.044083 0.126292 0.036289 0.8 0 0
0.325779 0.232118 0.062703 0.8 0 0
0.110786 0.076431 0.069091 0.8 0 0
0.096831 0.247302 0.086627 0.8 0 0
0.169723 0.317332 0.089183 0.8 0 0
0.410467 0.198719 0.125001 0.8 0 0
0.917605 0.209702 0.100520 0.8 0 0
0.422158 0.195220 0.104853 0.8 0 0
0.519676 0.184947 0.101911 0.8 0 0
0.556950 0.201519 0.119818 0.8 0 0
0.329681 0.104825 0.117594 0.8 0 0
0.693935 0.162061 0.119786 0.8 0 0
0.093164 0.202724 0.087361 0.8 0 0
0.398672 0.097504 0.090987 0.8 0 0
0.963663 0.218432 0.084577 0.8 0 0
0.307800 0.187532 0.129412 0.8 0 0
0.438778 0.186071 0.129515 0.8 0 0
0.147633 0.287448 0.093289 0.8 0 0
0.909364 0.147286 0.093433 0.8 0 0
0.916191 0.132819 0.090067 0.8 0 0
0.168606 0.185259 0.102232 0.8 0 0
0.226299 0.190340 0.108726 0.8 0 0
0.396123 0.091808 0.106686 0.8 0 0
0.453497 0.189025 0.097571 0.8 0 0
0.193424 0.260794 0.045277 0.8 0 0
0.174840 0.161116 0.108601 0.8 0 0
0.164640 0.168142 0.119032 0.8 0 0
0.048180 0.111501 0.074695 0.8 0 0
0.246209 0.257874 0.086950 0.8 0 0
0.130010 0.214214 0.071653 0.8 0 0
0.058353 0.104674 0.076680 0.8 0 0
0.441160 0.178082 0.126246 0.8 0 0
0.325115 0.261446 0.107974 0.8 0 0
0.621224 0.185551 0.119780 0.8 0 0
0.236473 0.148754 0.117415 0.8 0 0
0.449715 0.177969 0.113264 0.8 0 0
0.380617 0.263123 0.069922 0.8 0 0
0.913800 0.213756 0.100004 0.8 0 0
0.235829 0.064351 0.050860 0.8 0 0
0.125842 0.129619 0.036380 0.8 0 0
0.131589 0.057708 0.071830 0.8 0 0
0.159434 0.163768 0.075526 0.8 0 0
0.242790 0.218410 0.051776 0.8 0 0
0.075298 0.246685 0.081142 0.8 0 0
0.346351 0.212495 0.121107 0.8 0 0
0.354695 0.176100 0.129498 0.8 0 0
0.691804 0.199972 0.112716 0.8 0 0
0.360737 0.206762 0.121990 0.8 0 0
0.861441 0.188486 0.114995 0.8 0 0
0.189643 0.210632 0.079473 0.8 0 0
0.196632 0.281663 0.045700 0.8 0 0
0.293222 0.243400 0.058417 0.8 0 0
0.041107 0.229639 0.073940 0.8 0 0
0.417315 0.177124 0.128718 0.8 0 0
0.380656 0.211454 0.122052 0.8 0 0
0.133443 0.077603 0.036690 0.8 0 0
0.706036 0.194205 0.125218 0.8 0 0
0.136316 0.096067 0.035178 0.8 0 0
0.479350 0.166542 0.125210 0.8 0 0
0.082582 0.209913 0.065378 0.8 0 0
0.352116 0.280303 0.103555 0.8 0 0
0.043736 0.173227 0.025571 0.8 0 0
0.054517 0.099418 0.074951 0.8 0 0
0.251620 0.258703 0.102294 0.8 0 0
0.103374 0.042780 0.044634 0.8 0 0
0.438978 0.157644 0.079417 0.8 0 0
0.062228 0.130089 0.062698 0.8 0 0
0.232494 0.235904 0.050421 0.8 0 0
0.247979 0.104833 0.105904 0.8 0 0
0.799286 0.179291 0.119761 0.8 0 0
0.044360 0.184263 0.075332 0.8 0 0
0.530818 0.189125 0.119824 0.8 0 0
0.061968 0.279333 0.060674 0.8 0 0
0.196579 0.031445 0.089160 0.8 0 0
0.231997 0.267249 0.085049 0.8 0 0
0.918478 0.158532 0.098971 0.8 0 0
0.129895 0.078644 0.092737 0.8 0 0
0.292687 0.219223 0.115122 0.8 0 0
0.973944 0.174070 0.085072 0.8 0 0
0.378486 0.086679 0.117335 0.8 0 0
0.388317 0.086594 0.070936 0.8 0 0
0.952398 0.179733 0.091624 0.8 0 0
0.690841 0.189039 0.104297 0.8 0 0
0.354679 0.076048 0.104751 0.8 0 0
0.550583 0.167349 0.125113 0.8 0 0
0.154983 0.134616 0.040217 0.8 0 0
0.277932 0.244605 0.091126 0.8 0 0
0.227413 0.141814 0.115293 0.8 0 0
0.336960 0.254374 0.117921 0.8 0 0
0.185187 0.271612 0.078886 0.8 0 0
0.320543 0.191772 0.119933 0.8 0 0
0.228015 0.188726 0.084525 0.8 0 0
0.113811 0.067640 0.032215 0.8 0 0
0.093776 0.173472 0.066852 0.8 0 0
0.683813 0.201491 0.119788 0.8 0 0
0.378711 0.114448 0.109656 0.8 0 0
0.182878 0.205615 0.078612 0.8 0 0
0.415645 0.275234 0.087329 0.8 0 0
0.258492 0.209108 0.111233 0.8 0 0
0.159654 0.112414 0.102110 0.8 0 0
0.355325 0.187907 0.114934 0.8 0 0
0.100451 0.101032 0.067731 0.8 0 0
0.878439 0.159323 0.103888 0.8 0 0
0.036645 0.158346 0.057379 0.8 0 0
0.372316 0.183812 0.103551 0.8 0 0
0.318582 0.140688 0.118396 0.8 0 0
0.290205 0.206940 0.092742 0.8 0 0
0.055537 0.208150 0.061817 0.8 0 0
0.120845 0.204285 0.070415 0.8 0 0
0.407611 0.209903 0.108198 0.8 0 0
0.037069 0.161580 0.051412 0.8 0 0
0.216553 0.231891 0.083015 0.8 0 0
0.898071 0.146949 0.100234 0.8 0 0
0.364026 0.155750 0.067738 0.8 0 0
0.267305 0.258176 0.089727 0.8 0 0
0.368041 0.159200 0.122155 0.8 0 0
0.406921 0.183495 0.119853 0.8 0 0
0.690363 0.195828 0.125074 0.8 0 0
0.041051 0.142308 0.040943 0.8 0 0
0.680254 0.195640 0.107833 0.8 0 0
0.334800 0.180122 0.112177 0.8 0 0
0.386256 0.196394 0.129277 0.8 0 0
0.688585 0.185524 0.125961 0.8 0 0
0.232447 0.093719 0.104693 0.8 0 0
0.283802 0.089527 0.073659 0.8 0 0
0.579680 0.176242 0.102863 0.8 0 0
0.329100 0.188823 0.063140 0.8 0 0
0.385585 0.158264 0.122071 0.8 0 0
0.892370 0.169351 0.105999 0.8 0 0
0.566300 0.193951 0.119780 0.8 0 0
0.949569 0.189002 0.092221 0.8 0 0
0.162016 0.140379 0.099205 0.8 0 0
0.124548 0.063787 0.035520 0.8 0 0
0.930523 0.152038 0.079091 0.8 0 0
0.086879 0.055505 0.044980 0.8 0 0
0.913296 0.155264 0.092451 0.8 0 0
0.742547 0.199448 0.124631 0.8 0 0
0.120055 0.135633 0.035618 0.8 0 0
0.248830 0.212529 0.105259 0.8 0 0
0.136769 0.105346 0.072542 0.8 0 0
0.339586 0.207837 0.099214 0.8 0 0
0.229583 0.179998 0.084731 0.8 0 0
0.122814 0.270950 0.070705 0.8 0 0
0.414726 0.087241 0.109135 0.8 0 0
0.370002 0.071889 0.086548 0.8 0 0
0.493864 0.186807 0.128779 0.8 0 0
0.155912 0.244458 0.075062 0.8 0 0
0.242267 0.188793 0.086430 0.8 0 0
0.115811 0.193622 0.035060 0.8 0 0
0.941691 0.234413 0.084763 0.8 0 0
0.840478 0.187174 0.115924 0.8 0 0
0.138522 0.195539 0.072773 0.8 0 0
0.460142 0.179799 0.104355 0.8 0 0
0.292611 0.263353 0.058336 0.8 0 0
0.438419 0.157864 0.116773 0.8 0 0
0.343476 0.272708 0.077472 0.8 0 0
0.058237 0.086483 0.061944 0.8 0 0
0.321116 0.220738 0.118086 0.8 0 0
0.253666 0.142641 0.053208 0.8 0 0
0.150601 0.038031 0.085650 0.8 0 0
0.345119 0.188340 0.126114 0.8 0 0
0.199301 0.084880 0.100897 0.8 0 0
0.226503 0.247714 0.105461 0.8 0 0
0.247290 0.170896 0.111758 0.8 0 0
0.432977 0.175246 0.101903 0.8 0 0
0.125910 0.068443 0.087948 0.8 0 0
0.231916 0.065163 0.050345 0.8 0 0
0.474523 0.204646 0.117084 0.8 0 0
0.461548 0.176917 0.128446 0.8 0 0
0.586395 0.195613 0.119811 0.8 0 0
0.261850 0.075890 0.088979 0.8 0 0
0.634989 0.175935 0.125325 0.8 0 0
0.825419 0.177150 0.119755 0.8 0 0
0.931262 0.153862 0.078928 0.8 0 0
0.377426 0.197876 0.106227 0.8 0 0
0.218784 0.223832 0.083339 0.8 0 0
0.205635 0.165302 0.118520 0.8 0 0
0.943040 0.152771 0.093656 0.8 0 0
0.305663 0.225446 0.060054 0.8 0 0
0.046906 0.240682 0.026549 0.8 0 0
0.364954 0.166509 0.067860 0.8 0 0
0.440180 0.176217 0.103821 0.8 0 0
0.082872 0.114809 0.030723 0.8 0 0
0.265824 0.202560 0.054809 0.8 0 0
0.243552 0.148526 0.101369 0.8 0 0
0.825616 0.176895 0.126736 0.8 0 0
0.137336 0.117609 0.072586 0.8 0 0
0.163604 0.179667 0.110180 0.8 0 0
0.636714 0.169222 0.106508 0.8 0 0
0.100373 0.312874 0.033027 0.8 0 0
0.508977 0.204188 0.124392 0.8 0 0
0.277664 0.227838 0.056368 0.8 0 0
0.210885 0.326295 0.086384 0.8 0 0
0.249293 0.067506 0.052633 0.8 0 0
0.915775 0.207049 0.092041 0.8 0 0
0.342726 0.104576 0.118893 0.8 0 0
0.424532 0.162773 0.124765 0.8 0 0
0.420193 0.231672 0.075132 0.8 0 0
0.725427 0.160908 0.124038 0.8 0 0
0.193213 0.097490 0.100898 0.8 0 0
0.109542 0.074623 0.033544 0.8 0 0
0.763247 0.195760 0.119770 0.8 0 0
0.162954 0.332164 0.075959 0.8 0 0
0.418594 0.271954 0.095001 0.8 0 0
0.440444 0.184480 0.121020 0.8 0 0
0.435962 0.193918 0.084971 0.8 0 0
0.256388 0.059705 0.073826 0.8 0 0
0.381076 0.221567 0.104705 0.8 0 0
0.400757 0.183490 0.107266 0.8 0 0
0.037027 0.195264 0.049748 0.8 0 0
0.495058 0.205292 0.122206 0.8 0 0
0.356002 0.076420 0.087683 0.8 0 0
0.439780 0.241809 0.081796 0.8 0 0
0.203947 0.311064 0.081356 0.8 0 0
0.307881 0.111234 0.115080 0.8 0 0
0.182637 0.266340 0.099413 0.8 0 0
0.093119 0.190906 0.032073 0.8 0 0
0.346461 0.212830 0.100148 0.8 0 0
0.105029 0.150433 0.068333 0.8 0 0
0.212735 0.309348 0.094026 0.8 0 0
0.749657 0.176979 0.126328 0.8 0 0
0.186753 0.100585 0.100267 0.8 0 0
0.178936 0.264682 0.099039 0.8 0 0
0.419009 0.182191 0.126091 0.8 0 0
0.258807 0.096728 0.088578 0.8 0 0
0.146972 0.334343 0.059643 0.8 0 0
0.316663 0.112455 0.096225 0.8 0 0
0.347337 0.202802 0.100234 0.8 0 0
0.252796 0.103545 0.053094 0.8 0 0
0.155971 0.335555 0.078357 0.8 0 0
0.676187 0.186032 0.103511 0.8 0 0
0.201166 0.298181 0.080990 0.8 0 0
0.142674 0.044656 0.036015 0.8 0 0
0.163125 0.335447 0.041947 0.8 0 0
0.523502 0.178512 0.119780 0.8 0 0
0.850401 0.177029 0.113753 0.8 0 0
0.336069 0.090988 0.073458 0.8 0 0
0.144850 0.250855 0.073576 0.8 0 0
0.176154 0.334625 0.060156 0.8 0 0
0.034170 0.178900 0.072940 0.8 0 0
0.161445 0.098899 0.099481 0.8 0 0
0.548751 0.196425 0.106963 0.8 0 0
0.736327 0.161027 0.122795 0.8 0 0
0.124188 0.057057 0.036163 0.8 0 0
0.302355 0.182427 0.118828 0.8 0 0
0.821257 0.200470 0.127338 0.8 0 0
0.094653 0.093274 0.031584 0.8 0 0
0.653865 0.193703 0.119795 0.8 0 0
0.204564 0.045873 0.081467 0.8 0 0
0.436466 0.194631 0.094128 0.8 0 0
0.577604 0.174951 0.125779 0.8 0 0
0.090619 0.190826 0.086963 0.8 0 0
0.161431 0.195115 0.075789 0.8 0 0
0.293302 0.162506 0.117347 0.8 0 0
0.116163 0.257553 0.035106 0.8 0 0
0.124786 0.055140 0.090362 0.8 0 0
0.485465 0.189521 0.125753 0.8 0 0
0.357017 0.190366 0.119865 0.8 0 0
0.278255 0.211876 0.091168 0.8 0 0
0.243737 0.108750 0.106470 0.8 0 0
0.140111 0.186459 0.072952 0.8 0 0
0.850186 0.184500 0.113799 0.8 0 0
0.240604 0.269212 0.051489 0.8 0 0
0.173564 0.064490 0.042663 0.8 0 0
0.381887 0.224143 0.070089 0.8 0 0
0.383617 0.260425 0.070317 0.8 0 0
0.369331 0.117920 0.068437 0.8 0 0
0.130481 0.245875 0.036991 0.8 0 0
0.944292 0.136115 0.078239 0.8 0 0
0.226126 0.259398 0.049583 0.8 0 0
0.162967 0.153218 0.075991 0.8 0 0
0.206334 0.042419 0.092352 0.8 0 0
0.354663 0.211001 0.101198 0.8 0 0
0.117717 0.042989 0.035311 0.8 0 0
0.375279 0.071059 0.081408 0.8 0 0
0.464399 0.188759 0.119840 0.8 0 0
0.112420 0.094913 0.032032 0.8 0 0
0.903686 0.206020 0.105333 0.8 0 0
0.374691 0.247953 0.068737 0.8 0 0
0.238676 0.176730 0.085958 0.8 0 0
0.311001 0.235838 0.060757 0.8 0 0
0.172843 0.274013 0.077261 0.8 0 0
0.076451 0.295945 0.045038 0.8 0 0
0.160286 0.254578 0.040915 0.8 0 0
0.104596 0.123591 0.088721 0.8 0 0
0.295166 0.207445 0.116643 0.8 0 0
0.089798 0.257767 0.066359 0.8 0 0
0.795251 0.189903 0.119780 0.8 0 0
0.560372 0.171598 0.104422 0.8 0 0
0.396065 0.186751 0.101214 0.8 0 0
0.218402 0.144334 0.083259 0.8 0 0
0.449367 0.167773 0.119843 0.8 0 0
0.372240 0.256629 0.120520 0.8 0 0
0.217841 0.033798 0.063236 0.8 0 0
0.766393 0.199938 0.127191 0.8 0 0
0.445665 0.157984 0.079743 0.8 0 0
0.224237 0.066448 0.049334 0.8 0 0
0.186304 0.102223 0.041759 0.8 0 0
0.331592 0.114480 0.118380 0.8 0 0
0.641621 0.181024 0.102800 0.8 0 0
0.118202 0.216996 0.092193 0.8 0 0
0.494477 0.160363 0.119833 0.8 0 0
0.099871 0.165152 0.032961 0.8 0 0
0.595102 0.181920 0.119780 0.8 0 0
0.191636 0.246627 0.045042 0.8 0 0
0.217566 0.252324 0.083149 0.8 0 0
0.167664 0.084412 0.041886 0.8 0 0
0.043526 0.127487 0.060267 0.8 0 0
0.439158 0.157775 0.121264 0.8 0 0
0.875898 0.232645 0.097992 0.8 0 0
0.073695 0.281740 0.064239 0.8 0 0
0.124613 0.156549 0.070942 0.8 0 0
0.240511 0.167670 0.121081 0.8 0 0
0.445383 0.187417 0.083030 0.8 0 0
0.127373 0.171074 0.036582 0.8 0 0
0.434076 0.192662 0.119847 0.8 0 0
0.285800 0.266070 0.070265 0.8 0 0
0.442064 0.184128 0.078012 0.8 0 0
0.396633 0.206369 0.123366 0.8 0 0
0.144494 0.089755 0.073559 0.8 0 0
0.139957 0.149837 0.096410 0.8 0 0
0.171864 0.080233 0.077132 0.8 0 0
0.183717 0.071543 0.098081 0.8 0 0
0.204105 0.079701 0.101150 0.8 0 0
0.208832 0.196133 0.118112 0.8 0 0
0.320168 0.202430 0.061964 0.8 0 0
0.918823 0.152120 0.098914 0.8 0 0
0.124656 0.328136 0.070948 0.8 0 0
0.250756 0.144615 0.087519 0.8 0 0
0.116430 0.100483 0.096131 0.8 0 0
0.236118 0.098921 0.050898 0.8 0 0
0.060868 0.249493 0.077649 0.8 0 0
0.157309 0.237335 0.075246 0.8 0 0
0.432600 0.247459 0.111488 0.8 0 0
0.446948 0.181388 0.090659 0.8 0 0
0.230897 0.179082 0.110487 0.8 0 0
0.459772 0.184297 0.119780 0.8 0 0
0.281897 0.191482 0.116421 0.8 0 0
0.449302 0.179038 0.100928 0.8 0 0
0.246843 0.097604 0.104215 0.8 0 0
0.114829 0.102456 0.092828 0.8 0 0
0.301847 0.118496 0.094245 0.8 0 0
0.958695 0.208831 0.082722 0.8 0 0
0.083507 0.161045 0.065500 0.8 0 0
0.176789 0.151978 0.077811 0.8 0 0
0.254802 0.110647 0.053358 0.8 0 0
0.420522 0.081504 0.075176 0.8 0 0
0.283040 0.221521 0.091769 0.8 0 0
0.108136 0.061978 0.034050 0.8 0 0
0.230497 0.184655 0.110408 0.8 0 0
0.966923 0.166199 0.080935 0.8 0 0
0.458391 0.180450 0.101216 0.8 0 0
0.153894 0.186397 0.074797 0.8 0 0
0.076330 0.175557 0.064555 0.8 0 0
0.693376 0.190066 0.125617 0.8 0 0
0.546161 0.196436 0.125119 0.8 0 0
0.253945 0.228546 0.087938 0.8 0 0
0.194800 0.173388 0.045459 0.8 0 0
0.218420 0.257077 0.104119 0.8 0 0
0.222554 0.178581 0.109380 0.8 0 0
0.076669 0.063018 0.041090 0.8 0 0
0.184130 0.321495 0.044054 0.8 0 0
0.918619 0.188862 0.091423 0.8 0 0
0.361687 0.127120 0.102152 0.8 0 0
0.068089 0.077347 0.063501 0.8 0 0
0.936350 0.146808 0.095091 0.8 0 0
0.520831 0.168809 0.119780 0.8 0 0
0.126910 0.098082 0.033940 0.8 0 0
0.152347 0.100989 0.039870 0.8 0 0
0.204977 0.109243 0.046798 0.8 0 0
0.172208 0.176804 0.113153 0.8 0 0
0.287792 0.222474 0.092423 0.8 0 0
0.449123 0.183133 0.089895 0.8 0 0
0.350669 0.171830 0.100672 0.8 0 0
0.172606 0.157435 0.108307 0.8 0 0
0.173724 0.210021 0.119593 0.8 0 0
0.163538 0.100139 0.100264 0.8 0 0
0.233755 0.178324 0.085310 0.8 0 0
0.135276 0.236405 0.094210 0.8 0 0
0.148895 0.271721 0.094505 0.8 0 0
0.053231 0.101492 0.037862 0.8 0 0
0.267033 0.205459 0.128483 0.8 0 0
0.355361 0.175964 0.106818 0.8 0 0
0.825023 0.190097 0.125538 0.8 0 0
0.129762 0.330039 0.080143 0.8 0 0
0.701254 0.200778 0.127184 0.8 0 0
0.390260 0.159086 0.071192 0.8 0 0
0.275000 0.169230 0.090710 0.8 0 0
0.498829 0.158745 0.118530 0.8 0 0
0.446658 0.181380 0.081167 0.8 0 0
0.689594 0.192547 0.125401 0.8 0 0
0.789755 0.180387 0.119764 0.8 0 0
0.590009 0.167639 0.119810 0.8 0 0
0.397941 0.089557 0.118749 0.8 0 0
0.248787 0.082841 0.052567 0.8 0 0
0.307166 0.203095 0.094945 0.8 0 0
0.385123 0.167488 0.128166 0.8 0 0
0.101597 0.126043 0.032498 0.8 0 0
0.232856 0.124614 0.106823 0.8 0 0
0.385795 0.176605 0.105296 0.8 0 0
0.378389 0.138187 0.107425 0.8 0 0
0.215351 0.261202 0.082887 0.8 0 0
0.319441 0.113999 0.096561 0.8 0 0
0.322749 0.125579 0.062304 0.8 0 0
0.118070 0.244462 0.070050 0.8 0 0
0.453188 0.162902 0.103738 0.8 0 0
0.138489 0.269318 0.093021 0.8 0 0
0.088076 0.146187 0.031409 0.8 0 0
0.465568 0.166688 0.125113 0.8 0 0
0.390155 0.259596 0.120403 0.8 0 0
0.406690 0.178613 0.119780 0.8 0 0
0.571268 0.179514 0.119780 0.8 0 0
0.183161 0.057127 0.094120 0.8 0 0
0.077498 0.245378 0.030016 0.8 0 0
0.164442 0.167860 0.107233 0.8 0 0
0.439108 0.160228 0.113722 0.8 0 0
0.893414 0.148410 0.096891 0.8 0 0
0.964243 0.155866 0.089052 0.8 0 0
0.765994 0.182428 0.103932 0.8 0 0
0.372704 0.109582 0.068880 0.8 0 0
0.165740 0.097601 0.104231 0.8 0 0
0.407526 0.091250 0.119134 0.8 0 0
0.185322 0.302293 0.078904 0.8 0 0
0.138633 0.207515 0.038064 0.8 0 0
0.411932 0.163688 0.119852 0.8 0 0
0.067944 0.102868 0.028758 0.8 0 0
0.275222 0.139045 0.056046 0.8 0 0
0.317435 0.128721 0.117598 0.8 0 0
0.235493 0.272269 0.101849 0.8 0 0
0.270313 0.228116 0.090123 0.8 0 0
0.037029 0.210922 0.064211 0.8 0 0
0.063718 0.167567 0.079831 0.8 0 0
0.884214 0.129216 0.090698 0.8 0 0
0.465642 0.189756 0.101577 0.8 0 0
0.402167 0.256370 0.072759 0.8 0 0
0.082791 0.066370 0.030713 0.8 0 0
0.318663 0.203227 0.121491 0.8 0 0
0.457344 0.166924 0.119780 0.8 0 0
0.379397 0.200592 0.119780 0.8 0 0
0.328219 0.152703 0.119909 0.8 0 0
0.213724 0.207531 0.082643 0.8 0 0
0.851624 0.155683 0.110229 0.8 0 0
0.672029 0.161354 0.124400 0.8 0 0
0.358308 0.204753 0.101707 0.8 0 0
0.140969 0.292983 0.090881 0.8 0 0
0.375548 0.282062 0.113308 0.8 0 0
0.092340 0.081487 0.066663 0.8 0 0
0.434652 0.187161 0.119847 0.8 0 0
0.056310 0.124335 0.061950 0.8 0 0
0.153019 0.097896 0.102930 0.8 0 0
0.878302 0.175920 0.111334 0.8 0 0
0.908022 0.158015 0.104154 0.8 0 0
0.255996 0.159530 0.108496 0.8 0 0
0.060978 0.131864 0.078593 0.8 0 0
0.917903 0.194749 0.099801 0.8 0 0
0.399031 0.181925 0.100743 0.8 0 0
0.068986 0.250331 0.063588 0.8 0 0
0.041996 0.224659 0.041438 0.8 0 0
0.246238 0.210992 0.086954 0.8 0 0
0.413902 0.077181 0.108426 0.8 0 0
0.240080 0.261952 0.086143 0.8 0 0
0.380256 0.166533 0.119859 0.8 0 0
0.217483 0.244132 0.048445 0.8 0 0
0.134885 0.127357 0.037571 0.8 0 0
0.319202 0.187517 0.128647 0.8 0 0
0.231948 0.249782 0.050349 0.8 0 0
0.934870 0.154642 0.092088 0.8 0 0
0.468868 0.177303 0.119652 0.8 0 0
0.070851 0.264403 0.063864 0.8 0 0
0.038450 0.195224 0.059568 0.8 0 0
0.925400 0.159336 0.081484 0.8 0 0
0.625399 0.193155 0.119802 0.8 0 0
0.445336 0.157986 0.082478 0.8 0 0
0.713574 0.171013 0.125388 0.8 0 0
0.226225 0.203166 0.110135 0.8 0 0
0.182421 0.159136 0.115893 0.8 0 0
0.120192 0.237834 0.070360 0.8 0 0
0.117912 0.051191 0.070060 0.8 0 0
0.498612 0.165134 0.119780 0.8 0 0
0.362767 0.176550 0.128463 0.8 0 0
0.523489 0.200918 0.119826 0.8 0 0
0.898579 0.159720 0.088329 0.8 0 0
0.348280 0.128518 0.100387 0.8 0 0
0.263848 0.267437 0.100316 0.8 0 0
0.051512 0.219980 0.061319 0.8 0 0
0.864037 0.216852 0.110792 0.8 0 0
0.922038 0.226039 0.088056 0.8 0 0
0.775817 0.192718 0.106858 0.8 0 0
0.385646 0.269533 0.117448 0.8 0 0
0.461332 0.160076 0.119840 0.8 0 0
0.297320 0.223106 0.058956 0.8 0 0
0.769201 0.199110 0.127211 0.8 0 0
0.268542 0.071726 0.074357 0.8 0 0
0.633567 0.172526 0.126498 0.8 0 0
0.943023 0.137204 0.084305 0.8 0 0
0.378819 0.244873 0.109161 0.8 0 0
0.964275 0.208827 0.090387 0.8 0 0
0.086914 0.203616 0.065979 0.8 0 0
0.159710 0.063257 0.040148 0.8 0 0
0.280559 0.266369 0.099801 0.8 0 0
0.410889 0.210746 0.121934 0.8 0 0
0.427599 0.172347 0.110830 0.8 0 0
0.332707 0.141402 0.120040 0.8 0 0
0.590887 0.175458 0.119810 0.8 0 0
0.427450 0.158738 0.110780 0.8 0 0
0.502161 0.161320 0.119780 0.8 0 0
0.173696 0.076570 0.041990 0.8 0 0
0.127363 0.144355 0.094076 0.8 0 0
0.536184 0.201823 0.124600 0.8 0 0
0.046323 0.223991 0.060636 0.8 0 0
0.378372 0.201495 0.119780 0.8 0 0
0.171189 0.034690 0.077043 0.8 0 0
0.236851 0.194101 0.110470 0.8 0 0
0.046286 0.242829 0.038107 0.8 0 0
0.381494 0.142037 0.098340 0.8 0 0
0.676498 0.189597 0.119790 0.8 0 0
0.241707 0.157218 0.051634 0.8 0 0
0.346844 0.135861 0.065476 0.8 0 0
0.656474 0.188952 0.125749 0.8 0 0
0.881473 0.160129 0.107006 0.8 0 0
0.104146 0.153951 0.089883 0.8 0 0
0.228105 0.196772 0.109261 0.8 0 0
0.224647 0.099225 0.084111 0.8 0 0
0.787807 0.181777 0.126099 0.8 0 0
0.135458 0.055065 0.036956 0.8 0 0
0.059531 0.089241 0.036749 0.8 0 0
0.415697 0.181664 0.126096 0.8 0 0
0.470024 0.160562 0.116860 0.8 0 0
0.441027 0.219299 0.106262 0.8 0 0
0.086457 0.241031 0.065919 0.8 0 0
0.359927 0.282308 0.082963 0.8 0 0
0.064598 0.168848 0.063041 0.8 0 0
0.166222 0.309293 0.076390 0.8 0 0
0.172154 0.177340 0.077201 0.8 0 0
0.143818 0.271232 0.038747 0.8 0 0
0.288384 0.229602 0.092473 0.8 0 0
0.227045 0.058726 0.096297 0.8 0 0
0.902511 0.226552 0.089688 0.8 0 0
0.347440 0.144612 0.065554 0.8 0 0
0.925060 0.167644 0.098901 0.8 0 0
0.610483 0.193029 0.119805 0.8 0 0
0.426658 0.180075 0.126040 0.8 0 0
0.283335 0.266652 0.081296 0.8 0 0
0.209767 0.072949 0.082122 0.8 0 0
0.731995 0.189220 0.119780 0.8 0 0
0.185718 0.059723 0.044263 0.8 0 0
0.090079 0.184596 0.031673 0.8 0 0
0.082302 0.145394 0.084346 0.8 0 0
0.080038 0.150292 0.030350 0.8 0 0
0.346083 0.262296 0.116550 0.8 0 0
0.127836 0.227634 0.071336 0.8 0 0
0.092586 0.070926 0.081355 0.8 0 0
0.238107 0.044451 0.070728 0.8 0 0
0.415226 0.266768 0.074478 0.8 0 0
0.339700 0.164970 0.064535 0.8 0 0
0.297993 0.153248 0.093767 0.8 0 0
0.148584 0.025868 0.077043 0.8 0 0
0.200546 0.055891 0.094714 0.8 0 0
0.152368 0.128969 0.074565 0.8 0 0
0.388741 0.229134 0.105684 0.8 0 0
0.064664 0.268405 0.063019 0.8 0 0
0.245871 0.158643 0.086905 0.8 0 0
0.440703 0.237249 0.100538 0.8 0 0
0.719981 0.161930 0.119780 0.8 0 0
0.577624 0.187506 0.125890 0.8 0 0
0.258913 0.290986 0.091467 0.8 0 0
0.391206 0.186874 0.119780 0.8 0 0
0.290917 0.230037 0.113698 0.8 0 0
0.371097 0.253752 0.068264 0.8 0 0
0.297459 0.151503 0.058974 0.8 0 0
0.319380 0.104463 0.061860 0.8 0 0
0.288343 0.141876 0.114695 0.8 0 0
0.849285 0.192054 0.113995 0.8 0 0
0.879438 0.208857 0.108807 0.8 0 0
0.126797 0.049922 0.071199 0.8 0 0
0.766277 0.168925 0.108163 0.8 0 0
0.170961 0.142807 0.114515 0.8 0 0
0.234837 0.146982 0.118105 0.8 0 0
0.745351 0.176034 0.119774 0.8 0 0
0.170773 0.286708 0.077019 0.8 0 0
0.205173 0.301316 0.095211 0.8 0 0
0.680349 0.200968 0.114090 0.8 0 0
0.214898 0.227195 0.105733 0.8 0 0
0.240624 0.269587 0.051491 0.8 0 0
0.894830 0.227032 0.090603 0.8 0 0
0.149290 0.068149 0.074190 0.8 0 0
0.885732 0.166776 0.106098 0.8 0 0
0.205278 0.213997 0.120877 0.8 0 0
0.333687 0.108011 0.063744 0.8 0 0
0.876593 0.206333 0.090440 0.8 0 0
0.178194 0.285164 0.043273 0.8 0 0
0.436770 0.182283 0.125394 0.8 0 0
0.387744 0.190244 0.122175 0.8 0 0
0.626662 0.163215 0.124629 0.8 0 0
0.790989 0.187449 0.126590 0.8 0 0
0.395955 0.154846 0.071941 0.8 0 0
0.111748 0.091047 0.069248 0.8 0 0
0.318657 0.188553 0.121604 0.8 0 0
0.142119 0.248695 0.038523 0.8 0 0
0.052309 0.200261 0.026700 0.8 0 0
0.121136 0.156187 0.093555 0.8 0 0
0.212667 0.032151 0.067343 0.8 0 0
0.080690 0.107782 0.065160 0.8 0 0
0.503670 0.178073 0.126901 0.8 0 0
0.168117 0.097494 0.076669 0.8 0 0
0.170309 0.326344 0.076958 0.8 0 0
0.894331 0.188590 0.105573 0.8 0 0
0.253527 0.254617 0.103411 0.8 0 0
0.364358 0.100125 0.102504 0.8 0 0
0.385226 0.251990 0.070529 0.8 0 0
0.105484 0.088187 0.033700 0.8 0 0
0.370747 0.204004 0.127505 0.8 0 0
0.094743 0.047365 0.059992 0.8 0 0
0.573277 0.203043 0.119780 0.8 0 0
0.423573 0.205172 0.119780 0.8 0 0
0.200914 0.275366 0.080957 0.8 0 0
0.173947 0.272757 0.042713 0.8 0 0
0.092564 0.077320 0.066723 0.8 0 0
0.400985 0.254597 0.107297 0.8 0 0
0.406007 0.072693 0.077778 0.8 0 0
0.890545 0.177140 0.097518 0.8 0 0
0.249949 0.222442 0.087442 0.8 0 0
0.077727 0.212146 0.082863 0.8 0 0
0.687340 0.177348 0.119788 0.8 0 0
0.199263 0.162016 0.046046 0.8 0 0
0.270003 0.208095 0.112847 0.8 0 0
0.539624 0.186592 0.128733 0.8 0 0
0.163886 0.278906 0.076082 0.8 0 0
0.348900 0.161844 0.100439 0.8 0 0
0.520942 0.173843 0.119780 0.8 0 0
0.422617 0.238219 0.110144 0.8 0 0
0.439450 0.187726 0.121896 0.8 0 0
0.253186 0.164863 0.108349 0.8 0 0
0.102563 0.042524 0.054587 0.8 0 0
0.144837 0.110539 0.095036 0.8 0 0
0.068272 0.109905 0.079302 0.8 0 0
0.179534 0.312045 0.043449 0.8 0 0
0.285184 0.191999 0.092081 0.8 0 0
0.198909 0.065438 0.043419 0.8 0 0
0.044983 0.244227 0.052463 0.8 0 0
0.440118 0.158139 0.119780 0.8 0 0
0.444260 0.210458 0.088131 0.8 0 0
0.352345 0.176658 0.124264 0.8 0 0
0.038515 0.143246 0.059129 0.8 0 0
0.301664 0.125072 0.115352 0.8 0 0
0.378688 0.263954 0.067373 0.8 0 0
0.122651 0.115381 0.035960 0.8 0 0
0.105483 0.064183 0.068423 0.8 0 0
0.055650 0.264484 0.061833 0.8 0 0
0.539845 0.166575 0.125049 0.8 0 0
0.439136 0.236486 0.098169 0.8 0 0
0.833958 0.184479 0.109503 0.8 0 0
0.165237 0.214819 0.076260 0.8 0 0
0.094039 0.047499 0.054476 0.8 0 0
0.244456 0.148071 0.086689 0.8 0 0
0.350329 0.264743 0.100628 0.8 0 0
0.875241 0.208279 0.106243 0.8 0 0
0.221657 0.035292 0.066153 0.8 0 0
0.669991 0.179472 0.119792 0.8 0 0
0.440815 0.194629 0.119845 0.8 0 0
0.324090 0.168183 0.125012 0.8 0 0
0.463054 0.158087 0.124304 0.8 0 0
0.070682 0.116389 0.080148 0.8 0 0
0.389282 0.239613 0.105785 0.8 0 0
0.435941 0.206097 0.086323 0.8 0 0
0.759134 0.185528 0.104125 0.8 0 0
0.174887 0.139858 0.116912 0.8 0 0
0.175595 0.191947 0.122459 0.8 0 0
0.309550 0.257797 0.104652 0.8 0 0
0.938156 0.196439 0.096057 0.8 0 0
0.185083 0.249565 0.044179 0.8 0 0
0.154246 0.202203 0.040120 0.8 0 0
0.530040 0.168587 0.125257 0.8 0 0
0.057997 0.087119 0.060224 0.8 0 0
0.143860 0.238374 0.073476 0.8 0 0
0.396248 0.225292 0.106673 0.8 0 0
0.932180 0.208463 0.098525 0.8 0 0
0.276046 0.085232 0.098169 0.8 0 0
0.181163 0.195388 0.113579 0.8 0 0
0.221757 0.264926 0.083731 0.8 0 0
0.039668 0.141769 0.059759 0.8 0 0
0.360289 0.248756 0.119760 0.8 0 0
0.417823 0.205276 0.119780 0.8 0 0
0.204103 0.188358 0.120969 0.8 0 0
0.178405 0.254798 0.043300 0.8 0 0
0.750404 0.189059 0.119773 0.8 0 0
0.266912 0.204888 0.089645 0.8 0 0
0.228340 0.167993 0.119901 0.8 0 0
0.937472 0.152675 0.087202 0.8 0 0
0.086307 0.059803 0.055074 0.8 0 0
0.356211 0.214464 0.101402 0.8 0 0
0.385001 0.084355 0.117310 0.8 0 0
0.052990 0.261733 0.061482 0.8 0 0
0.242594 0.294606 0.051751 0.8 0 0
0.201894 0.197183 0.081116 0.8 0 0
0.332785 0.106630 0.118070 0.8 0 0
0.967467 0.159850 0.089694 0.8 0 0
0.329458 0.219158 0.122047 0.8 0 0
0.386228 0.162301 0.122165 0.8 0 0
0.612697 0.181919 0.119780 0.8 0 0
0.372120 0.141055 0.103526 0.8 0 0
0.125421 0.120039 0.071018 0.8 0 0
0.740038 0.165714 0.119775 0.8 0 0
0.742989 0.184835 0.119780 0.8 0 0
0.916600 0.222332 0.089234 0.8 0 0
0.128879 0.078849 0.092598 0.8 0 0
0.069302 0.072503 0.055799 0.8 0 0
0.136872 0.240678 0.072556 0.8 0 0
0.405835 0.072876 0.085231 0.8 0 0
0.145218 0.252022 0.073655 0.8 0 0
0.564797 0.178223 0.119816 0.8 0 0
0.152727 0.275271 0.039920 0.8 0 0
0.712359 0.196842 0.109343 0.8 0 0
0.215199 0.207676 0.082868 0.8 0 0
0.210328 0.260212 0.082196 0.8 0 0
0.148988 0.286896 0.074151 0.8 0 0
0.155180 0.110082 0.096546 0.8 0 0
0.205218 0.223809 0.081553 0.8 0 0
0.298844 0.150064 0.093850 0.8 0 0
0.374010 0.259138 0.103746 0.8 0 0
0.100453 0.105894 0.067762 0.8 0 0
0.620128 0.169224 0.106324 0.8 0 0
0.087663 0.111548 0.030663 0.8 0 0
0.763226 0.199174 0.112762 0.8 0 0
0.115637 0.060089 0.084637 0.8 0 0
0.061440 0.083912 0.051949 0.8 0 0
0.628149 0.161719 0.119801 0.8 0 0
0.331920 0.205770 0.128528 0.8 0 0
0.438340 0.173083 0.080949 0.8 0 0
0.189312 0.270600 0.044736 0.8 0 0
0.089652 0.114222 0.066340 0.8 0 0
0.064649 0.214673 0.028324 0.8 0 0
0.577700 0.159291 0.123287 0.8 0 0
0.770374 0.194519 0.125080 0.8 0 0
0.392064 0.218954 0.106151 0.8 0 0
0.349736 0.113674 0.100579 0.8 0 0
0.155271 0.040373 0.086815 0.8 0 0
0.245911 0.264910 0.086881 0.8 0 0
0.134710 0.203787 0.072241 0.8 0 0
0.175687 0.067236 0.042943 0.8 0 0
0.112866 0.169180 0.034672 0.8 0 0
0.157876 0.025097 0.040653 0.8 0 0
0.510365 0.204117 0.119780 0.8 0 0
0.208188 0.073722 0.100504 0.8 0 0
0.457077 0.195455 0.117119 0.8 0 0
0.396888 0.206289 0.106786 0.8 0 0
0.334747 0.168966 0.120754 0.8 0 0
0.180168 0.205859 0.102557 0.8 0 0
0.625287 0.200759 0.127422 0.8 0 0
0.208053 0.207376 0.119194 0.8 0 0
0.309788 0.211974 0.118141 0.8 0 0
0.659064 0.197672 0.119780 0.8 0 0
0.916725 0.133799 0.084197 0.8 0 0
0.574973 0.191954 0.119780 0.8 0 0
0.158007 0.110772 0.101801 0.8 0 0
0.937636 0.202552 0.096170 0.8 0 0
0.130604 0.084196 0.071730 0.8 0 0
0.432869 0.197279 0.106346 0.8 0 0
0.138607 0.054503 0.087745 0.8 0 0
0.151211 0.096739 0.039029 0.8 0 0
0.842483 0.176906 0.115488 0.8 0 0
0.922058 0.190756 0.098211 0.8 0 0
0.119930 0.087395 0.034911 0.8 0 0
0.094707 0.084609 0.031246 0.8 0 0
0.420559 0.203520 0.119780 0.8 0 0
0.247853 0.219361 0.114514 0.8 0 0
0.124388 0.273570 0.090578 0.8 0 0
0.148896 0.117369 0.110068 0.8 0 0
0.681834 0.173795 0.119780 0.8 0 0
0.346421 0.159358 0.126216 0.8 0 0
0.364691 0.190580 0.122219 0.8 0 0
0.908099 0.155468 0.083855 0.8 0 0
0.606984 0.176441 0.119806 0.8 0 0
0.159619 0.048467 0.040136 0.8 0 0
0.055610 0.254714 0.061827 0.8 0 0
0.234660 0.212520 0.112146 0.8 0 0
0.084262 0.054046 0.062488 0.8 0 0
0.173588 0.119334 0.099625 0.8 0 0
0.135275 0.155958 0.072346 0.8 0 0
0.107561 0.225322 0.068666 0.8 0 0
0.481290 0.205443 0.123494 0.8 0 0
0.362823 0.157428 0.122015 0.8 0 0
0.063951 0.196963 0.062956 0.8 0 0
0.378652 0.162210 0.104356 0.8 0 0
0.435903 0.162377 0.088868 0.8 0 0
0.355668 0.197147 0.122862 0.8 0 0
0.184668 0.063946 0.041543 0.8 0 0
0.228926 0.309359 0.084675 0.8 0 0
0.635094 0.186729 0.126528 0.8 0 0
0.912860 0.216636 0.095709 0.8 0 0
0.122478 0.076616 0.091518 0.8 0 0
0.048868 0.251978 0.047677 0.8 0 0
0.163075 0.260945 0.097105 0.8 0 0
0.084768 0.109909 0.029158 0.8 0 0
0.398370 0.196689 0.106952 0.8 0 0
0.111289 0.100700 0.033774 0.8 0 0
0.444579 0.164596 0.104697 0.8 0 0
0.392425 0.091509 0.071477 0.8 0 0
0.699363 0.194549 0.119785 0.8 0 0
0.126053 0.119477 0.036408 0.8 0 0
0.204409 0.295425 0.097267 0.8 0 0
0.827707 0.185032 0.128204 0.8 0 0
0.376671 0.204795 0.119860 0.8 0 0
0.942481 0.182146 0.093777 0.8 0 0
0.369933 0.182716 0.103209 0.8 0 0
0.199657 0.315983 0.080792 0.8 0 0
0.667058 0.199528 0.111748 0.8 0 0
0.180398 0.074862 0.040981 0.8 0 0
0.098468 0.315417 0.042482 0.8 0 0
0.852003 0.188031 0.117044 0.8 0 0
0.177284 0.059132 0.101480 0.8 0 0
0.417728 0.268567 0.109530 0.8 0 0
0.738555 0.197443 0.119780 0.8 0 0
0.612051 0.160346 0.119780 0.8 0 0
0.135668 0.321196 0.072367 0.8 0 0
0.111050 0.083746 0.069126 0.8 0 0
0.289684 0.210385 0.115593 0.8 0 0
0.936560 0.149351 0.096404 0.8 0 0
0.115244 0.118283 0.104900 0.8 0 0
0.307552 0.252312 0.060303 0.8 0 0
0.266172 0.237737 0.089548 0.8 0 0
0.817021 0.195950 0.119780 0.8 0 0
0.482102 0.186602 0.128453 0.8 0 0
0.250108 0.303212 0.060467 0.8 0 0
0.068124 0.087209 0.077601 0.8 0 0
0.126384 0.161974 0.094881 0.8 0 0
0.338558 0.201329 0.064385 0.8 0 0
0.149311 0.143699 0.097497 0.8 0 0
0.108238 0.123951 0.033372 0.8 0 0
0.176228 0.077267 0.099615 0.8 0 0
0.345223 0.272029 0.111823 0.8 0 0
0.125705 0.123878 0.036362 0.8 0 0
0.295532 0.189845 0.058721 0.8 0 0
0.395676 0.097457 0.114495 0.8 0 0
0.506892 0.188430 0.119780 0.8 0 0
0.403365 0.172155 0.119854 0.8 0 0
0.114127 0.248237 0.069531 0.8 0 0
0.251043 0.258117 0.087586 0.8 0 0
0.241498 0.259494 0.086299 0.8 0 0
0.126849 0.204448 0.071206 0.8 0 0
0.631357 0.170906 0.119780 0.8 0 0
0.484543 0.163529 0.109815 0.8 0 0
0.388145 0.189587 0.122173 0.8 0 0
0.240030 0.048038 0.092608 0.8 0 0
0.777340 0.170890 0.106861 0.8 0 0
0.052584 0.127460 0.061459 0.8 0 0
0.393288 0.218244 0.106283 0.8 0 0
0.429523 0.246636 0.120806 0.8 0 0
0.107891 0.188407 0.091040 0.8 0 0
0.289099 0.205028 0.127551 0.8 0 0
0.201562 0.124472 0.046349 0.8 0 0
0.261947 0.204096 0.111659 0.8 0 0
0.226924 0.202057 0.084381 0.8 0 0
0.711725 0.189388 0.104634 0.8 0 0
0.316628 0.098693 0.070863 0.8 0 0
0.161747 0.073698 0.075830 0.8 0 0
0.130728 0.201246 0.095464 0.8 0 0
0.104996 0.101345 0.068360 0.8 0 0
0.148401 0.060052 0.090519 0.8 0 0
0.344476 0.249137 0.119274 0.8 0 0
0.738886 0.166934 0.119776 0.8 0 0
0.195140 0.196548 0.080196 0.8 0 0
0.261668 0.109930 0.088985 0.8 0 0
0.715482 0.193407 0.106686 0.8 0 0
0.478678 0.164221 0.108981 0.8 0 0
0.614675 0.159803 0.119337 0.8 0 0
0.179618 0.219216 0.078153 0.8 0 0
0.200779 0.108306 0.046246 0.8 0 0
0.319478 0.234696 0.096566 0.8 0 0
0.207604 0.168804 0.115332 0.8 0 0
0.500394 0.165543 0.124981 0.8 0 0
0.167718 0.333947 0.084980 0.8 0 0
0.117218 0.081962 0.069938 0.8 0 0
0.272389 0.198382 0.090396 0.8 0 0
0.059994 0.227882 0.027711 0.8 0 0
0.349997 0.236813 0.100584 0.8 0 0
0.115765 0.133773 0.035053 0.8 0 0
0.752949 0.187888 0.119780 0.8 0 0
0.165691 0.150552 0.100280 0.8 0 0
0.131094 0.116222 0.071795 0.8 0 0
0.182537 0.314382 0.043845 0.8 0 0
0.119470 0.325886 0.035542 0.8 0 0
0.387617 0.069646 0.082021 0.8 0 0
0.070155 0.178579 0.081422 0.8 0 0
0.163005 0.160997 0.100534 0.8 0 0
0.449884 0.193930 0.104303 0.8 0 0
0.162622 0.087266 0.075916 0.8 0 0
0.099187 0.273452 0.067564 0.8 0 0
0.186992 0.332966 0.080638 0.8 0 0
0.152211 0.299851 0.091371 0.8 0 0
0.213914 0.040693 0.047975 0.8 0 0
0.205797 0.225202 0.046906 0.8 0 0
0.848649 0.183693 0.114133 0.8 0 0
0.849443 0.194517 0.113961 0.8 0 0
0.936911 0.206114 0.087451 0.8 0 0
0.337351 0.203978 0.064226 0.8 0 0
0.682127 0.202193 0.116522 0.8 0 0
0.350907 0.157604 0.100733 0.8 0 0
0.092437 0.088583 0.066706 0.8 0 0
0.437497 0.205517 0.124338 0.8 0 0
0.446513 0.177282 0.128839 0.8 0 0
0.182351 0.195058 0.078513 0.8 0 0
0.107968 0.079085 0.033336 0.8 0 0
0.273203 0.164707 0.090503 0.8 0 0
0.166219 0.106715 0.039115 0.8 0 0
0.385169 0.212925 0.070521 0.8 0 0
0.199948 0.053791 0.080860 0.8 0 0
0.502928 0.165568 0.119831 0.8 0 0
0.074008 0.070107 0.033414 0.8 0 0
0.385140 0.198388 0.122189 0.8 0 0
0.497068 0.181215 0.119832 0.8 0 0
0.051567 0.097345 0.063735 0.8 0 0
0.400591 0.205629 0.122046 0.8 0 0
0.168407 0.289453 0.076707 0.8 0 0
0.242461 0.309498 0.062126 0.8 0 0
0.383326 0.145464 0.100858 0.8 0 0
0.247180 0.067456 0.087078 0.8 0 0
0.201632 0.091862 0.081051 0.8 0 0
0.062536 0.198245 0.062739 0.8 0 0
0.428495 0.247457 0.110918 0.8 0 0
0.443802 0.179469 0.091971 0.8 0 0
0.063517 0.281073 0.071894 0.8 0 0
0.263198 0.238031 0.089156 0.8 0 0
0.203078 0.198729 0.122872 0.8 0 0
0.196743 0.057199 0.045024 0.8 0 0
0.382745 0.149326 0.070202 0.8 0 0
0.384981 0.103891 0.105189 0.8 0 0
0.210202 0.068502 0.047486 0.8 0 0
0.265921 0.224501 0.110455 0.8 0 0
0.156990 0.335511 0.067464 0.8 0 0
0.170888 0.025306 0.055293 0.8 0 0
0.422543 0.168802 0.125336 0.8 0 0
0.378949 0.241216 0.104425 0.8 0 0
0.085553 0.096256 0.065769 0.8 0 0
0.287850 0.158614 0.092432 0.8 0 0
0.342755 0.272158 0.108997 0.8 0 0
0.306205 0.185833 0.094848 0.8 0 0
0.325079 0.163443 0.062611 0.8 0 0
0.421902 0.161001 0.112207 0.8 0 0
0.100691 0.271712 0.085075 0.8 0 0
0.765231 0.190171 0.125547 0.8 0 0
0.267245 0.077123 0.089719 0.8 0 0
0.751386 0.161192 0.120888 0.8 0 0
0.170251 0.335050 0.065422 0.8 0 0
0.224725 0.184200 0.049398 0.8 0 0
0.396210 0.075680 0.116168 0.8 0 0
0.228836 0.049056 0.084633 0.8 0 0
0.383532 0.200847 0.119780 0.8 0 0
0.334892 0.153403 0.120399 0.8 0 0
0.385752 0.203358 0.122140 0.8 0 0
0.225706 0.092048 0.049527 0.8 0 0
0.061236 0.266251 0.062568 0.8 0 0
0.365379 0.195799 0.128101 0.8 0 0
0.116525 0.117123 0.032573 0.8 0 0
0.180249 0.066977 0.040962 0.8 0 0
0.385951 0.230365 0.105346 0.8 0 0
0.701479 0.166412 0.119784 0.8 0 0
0.376053 0.124159 0.104044 0.8 0 0
0.198797 0.029012 0.079001 0.8 0 0
0.087388 0.306087 0.066041 0.8 0 0
0.242023 0.149620 0.111490 0.8 0 0
0.241650 0.046279 0.063511 0.8 0 0
0.731245 0.197881 0.110555 0.8 0 0
0.232397 0.315425 0.079884 0.8 0 0
0.357305 0.202314 0.119865 0.8 0 0
0.423052 0.204790 0.128242 0.8 0 0
0.878509 0.154917 0.090081 0.8 0 0
0.779244 0.179398 0.119766 0.8 0 0
0.080672 0.161371 0.084309 0.8 0 0
0.858733 0.160019 0.111943 0.8 0 0
0.248583 0.251176 0.105708 0.8 0 0
0.203238 0.183504 0.081293 0.8 0 0
0.890578 0.234189 0.094865 0.8 0 0
0.205423 0.277745 0.046857 0.8 0 0
0.257633 0.178260 0.088454 0.8 0 0
0.405398 0.184139 0.119780 0.8 0 0
0.437869 0.182554 0.125386 0.8 0 0
0.177470 0.094400 0.043177 0.8 0 0
0.072957 0.146464 0.064111 0.8 0 0
0.493811 0.202796 0.124544 0.8 0 0
0.234277 0.316187 0.057273 0.8 0 0
0.038160 0.173524 0.035774 0.8 0 0
0.154159 0.104761 0.096109 0.8 0 0
0.417060 0.200652 0.119780 0.8 0 0
0.125752 0.057897 0.091971 0.8 0 0
0.393531 0.178921 0.106344 0.8 0 0
0.252694 0.140055 0.109443 0.8 0 0
0.908418 0.208420 0.105663 0.8 0 0
0.294794 0.212682 0.093346 0.8 0 0
0.355551 0.144446 0.101345 0.8 0 0
0.165842 0.189704 0.101574 0.8 0 0
0.051600 0.259339 0.073411 0.8 0 0
0.443446 0.229089 0.106308 0.8 0 0
0.562554 0.186841 0.125924 0.8 0 0
0.263428 0.247240 0.089187 0.8 0 0
0.826953 0.197187 0.119002 0.8 0 0
0.118959 0.215646 0.035474 0.8 0 0
0.192924 0.231225 0.079905 0.8 0 0
0.634664 0.163584 0.119780 0.8 0 0
0.139714 0.053007 0.072930 0.8 0 0
0.240052 0.163762 0.107661 0.8 0 0
0.081388 0.299244 0.035441 0.8 0 0
0.810661 0.167039 0.119759 0.8 0 0
0.234973 0.050011 0.050748 0.8 0 0
0.126129 0.162307 0.094838 0.8 0 0
0.326356 0.096587 0.107214 0.8 0 0
0.394945 0.089124 0.106501 0.8 0 0
0.079320 0.063977 0.032727 0.8 0 0
0.467955 0.203340 0.119455 0.8 0 0
0.215186 0.133098 0.082866 0.8 0 0
0.171855 0.281111 0.042438 0.8 0 0
0.822816 0.176900 0.126595 0.8 0 0
0.398876 0.223573 0.121722 0.8 0 0
0.638685 0.178652 0.126564 0.8 0 0
0.281751 0.099018 0.102052 0.8 0 0
0.242542 0.187122 0.128414 0.8 0 0
0.879787 0.210388 0.099727 0.8 0 0
0.107129 0.128804 0.033226 0.8 0 0
0.062369 0.153504 0.028024 0.8 0 0
0.083889 0.056137 0.055452 0.8 0 0
0.167128 0.136172 0.076508 0.8 0 0
0.380225 0.168334 0.104397 0.8 0 0
0.850832 0.187281 0.115018 0.8 0 0
0.226536 0.097212 0.104477 0.8 0 0
0.927705 0.149151 0.096968 0.8 0 0
0.058002 0.145204 0.062142 0.8 0 0
0.806179 0.177760 0.129123 0.8 0 0
0.293134 0.151374 0.093127 0.8 0 0
0.759719 0.171958 0.125452 0.8 0 0
0.257996 0.098225 0.101896 0.8 0 0
0.734204 0.168038 0.108490 0.8 0 0
0.190996 0.057036 0.101465 0.8 0 0
0.182253 0.053204 0.078530 0.8 0 0
0.681899 0.192006 0.125383 0.8 0 0
0.381721 0.189949 0.101873 0.8 0 0
0.117373 0.096169 0.069989 0.8 0 0
0.470024 0.185139 0.103407 0.8 0 0
0.162593 0.162187 0.112734 0.8 0 0
0.091190 0.154925 0.086887 0.8 0 0
0.375189 0.279873 0.069208 0.8 0 0
0.252458 0.192961 0.087742 0.8 0 0
0.339289 0.086345 0.107648 0.8 0 0
0.528939 0.161977 0.112565 0.8 0 0
0.281898 0.268362 0.073449 0.8 0 0
0.234367 0.172591 0.120759 0.8 0 0
0.964556 0.206199 0.089484 0.8 0 0
0.128079 0.115459 0.035984 0.8 0 0
0.408707 0.237799 0.108313 0.8 0 0
0.597637 0.162643 0.124604 0.8 0 0
0.865651 0.145800 0.110458 0.8 0 0
0.765630 0.168344 0.125079 0.8 0 0
0.138660 0.251528 0.093946 0.8 0 0
0.202688 0.123800 0.081190 0.8 0 0
0.211493 0.068082 0.098784 0.8 0 0
0.137484 0.197017 0.072636 0.8 0 0
0.352177 0.179399 0.115283 0.8 0 0
0.331388 0.173394 0.098163 0.8 0 0
0.093339 0.046958 0.064568 0.8 0 0
0.324210 0.158860 0.097218 0.8 0 0
0.068349 0.142446 0.028812 0.8 0 0
0.272998 0.266330 0.090447 0.8 0 0
0.153530 0.228375 0.097472 0.8 0 0
0.216878 0.304079 0.083088 0.8 0 0
0.136817 0.036301 0.072548 0.8 0 0
0.436765 0.236635 0.116406 0.8 0 0
0.231912 0.315683 0.080759 0.8 0 0
0.328301 0.239112 0.097757 0.8 0 0
0.300520 0.122665 0.059377 0.8 0 0
0.184190 0.194797 0.078785 0.8 0 0
0.263547 0.195240 0.113671 0.8 0 0
0.438722 0.174417 0.112294 0.8 0 0
0.906978 0.205756 0.102828 0.8 0 0
0.041101 0.173028 0.025224 0.8 0 0
0.070825 0.161315 0.081434 0.8 0 0
0.548000 0.160610 0.128094 0.8 0 0
0.324321 0.137159 0.097204 0.8 0 0
0.087602 0.133137 0.066070 0.8 0 0
0.336802 0.212506 0.123622 0.8 0 0
0.933443 0.168725 0.095722 0.8 0 0
0.266484 0.070746 0.082976 0.8 0 0
0.913726 0.153601 0.100020 0.8 0 0
0.331067 0.142935 0.063399 0.8 0 0
0.230509 0.170142 0.109792 0.8 0 0
0.263445 0.180286 0.115673 0.8 0 0
0.926130 0.152699 0.097310 0.8 0 0
0.199956 0.119856 0.103047 0.8 0 0
0.134404 0.193804 0.072231 0.8 0 0
0.497385 0.162689 0.119832 0.8 0 0
0.090023 0.217336 0.066357 0.8 0 0
0.523586 0.199241 0.109276 0.8 0 0
0.438647 0.199881 0.100490 0.8 0 0
0.062692 0.103625 0.077583 0.8 0 0
0.384648 0.197702 0.119780 0.8 0 0
0.264206 0.287083 0.078748 0.8 0 0
0.152175 0.243258 0.096506 0.8 0 0
0.854610 0.156058 0.114197 0.8 0 0
0.126380 0.110076 0.092045 0.8 0 0
0.394017 0.257083 0.106379 0.8 0 0
0.798295 0.170739 0.129044 0.8 0 0
0.685964 0.198218 0.119780 0.8 0 0
0.132296 0.077029 0.108036 0.8 0 0
0.315609 0.252654 0.061364 0.8 0 0
0.618725 0.184477 0.126008 0.8 0 0
0.362022 0.282876 0.081601 0.8 0 0
0.128105 0.089807 0.034097 0.8 0 0
0.448230 0.171711 0.081294 0.8 0 0
0.221931 0.106279 0.083754 0.8 0 0
0.255090 0.058185 0.070411 0.8 0 0
0.913372 0.227065 0.090613 0.8 0 0
0.039528 0.225256 0.061012 0.8 0 0
0.433287 0.185096 0.125996 0.8 0 0
0.142661 0.069675 0.102266 0.8 0 0
0.419436 0.078792 0.080904 0.8 0 0
0.488303 0.158313 0.120739 0.8 0 0
0.164455 0.330754 0.076157 0.8 0 0
0.915071 0.154863 0.099728 0.8 0 0
0.152696 0.053607 0.037335 0.8 0 0
0.076219 0.252999 0.064571 0.8 0 0
0.880887 0.200597 0.094497 0.8 0 0
0.070789 0.136914 0.081046 0.8 0 0
0.136048 0.100014 0.072447 0.8 0 0
0.178770 0.152008 0.109119 0.8 0 0
0.362184 0.240492 0.102218 0.8 0 0
0.872996 0.215757 0.101329 0.8 0 0
0.370674 0.160369 0.103306 0.8 0 0
0.529920 0.185866 0.125381 0.8 0 0
0.344050 0.185813 0.099802 0.8 0 0
0.359426 0.262381 0.101855 0.8 0 0
0.346768 0.080069 0.108043 0.8 0 0
0.117085 0.192749 0.035228 0.8 0 0
0.396330 0.262217 0.071990 0.8 0 0
0.140091 0.246979 0.038256 0.8 0 0
0.361514 0.165890 0.102100 0.8 0 0
0.619665 0.178824 0.102744 0.8 0 0
0.518623 0.191790 0.119827 0.8 0 0
0.508155 0.163937 0.119829 0.8 0 0
0.837925 0.171778 0.120101 0.8 0 0
0.080646 0.175634 0.065123 0.8 0 0
0.406655 0.237372 0.108072 0.8 0 0
0.089111 0.050819 0.045857 0.8 0 0
0.281664 0.118759 0.109082 0.8 0 0
0.709381 0.164530 0.111747 0.8 0 0
0.256343 0.206322 0.088254 0.8 0 0
0.525695 0.198290 0.108417 0.8 0 0
0.074177 0.258663 0.080120 0.8 0 0
0.763574 0.175524 0.119780 0.8 0 0
0.422276 0.170022 0.125430 0.8 0 0
0.141607 0.090179 0.093456 0.8 0 0
0.232003 0.073791 0.098734 0.8 0 0
0.289010 0.190441 0.092555 0.8 0 0
0.398472 0.200537 0.072273 0.8 0 0
0.728522 0.162555 0.124483 0.8 0 0
0.570010 0.174856 0.119815 0.8 0 0
0.342783 0.248362 0.064941 0.8 0 0
0.272975 0.188787 0.090473 0.8 0 0
0.399860 0.072908 0.107148 0.8 0 0
0.164211 0.153271 0.117650 0.8 0 0
0.936456 0.190854 0.095086 0.8 0 0
0.941399 0.142002 0.080093 0.8 0 0
0.097635 0.295609 0.032667 0.8 0 0
0.939719 0.229745 0.080124 0.8 0 0
0.457785 0.160381 0.113812 0.8 0 0
0.184836 0.156453 0.078840 0.8 0 0
0.384084 0.215299 0.070378 0.8 0 0
0.110624 0.063549 0.069069 0.8 0 0
0.359999 0.203840 0.101901 0.8 0 0
0.469078 0.176120 0.126083 0.8 0 0
0.904631 0.184070 0.101971 0.8 0 0
0.132773 0.096853 0.036602 0.8 0 0
0.286221 0.196832 0.057495 0.8 0 0
0.242784 0.177649 0.086499 0.8 0 0
0.264760 0.214815 0.113548 0.8 0 0
0.268276 0.283684 0.067099 0.8 0 0
0.206340 0.165133 0.115165 0.8 0 0
0.312804 0.178586 0.119615 0.8 0 0
0.745050 0.201945 0.119780 0.8 0 0
0.216372 0.155044 0.048299 0.8 0 0
0.091019 0.052811 0.051426 0.8 0 0
0.801987 0.199930 0.119780 0.8 0 0
0.876229 0.139577 0.097965 0.8 0 0
0.034773 0.166035 0.065189 0.8 0 0
0.648987 0.202704 0.119780 0.8 0 0
0.265399 0.156483 0.089446 0.8 0 0
0.116068 0.210832 0.069787 0.8 0 0
0.241325 0.136466 0.108346 0.8 0 0
0.536038 0.204498 0.123020 0.8 0 0
0.294032 0.203514 0.093216 0.8 0 0
0.037763 0.140476 0.067564 0.8 0 0
0.104033 0.116119 0.068233 0.8 0 0
0.815377 0.193513 0.125175 0.8 0 0
0.187505 0.123209 0.044498 0.8 0 0
0.102725 0.126663 0.088496 0.8 0 0
0.271552 0.120448 0.090256 0.8 0 0
0.268050 0.172667 0.089795 0.8 0 0
0.347564 0.216591 0.100263 0.8 0 0
0.123079 0.271026 0.070740 0.8 0 0
0.440089 0.203255 0.112474 0.8 0 0
0.191584 0.057448 0.042454 0.8 0 0
0.177062 0.141198 0.112118 0.8 0 0
0.181029 0.064384 0.078369 0.8 0 0
0.343852 0.153604 0.126047 0.8 0 0
0.858145 0.163316 0.112088 0.8 0 0
0.089213 0.310568 0.070999 0.8 0 0
0.254813 0.059895 0.087317 0.8 0 0
0.104940 0.166405 0.033629 0.8 0 0
0.157107 0.297033 0.092767 0.8 0 0
0.280323 0.197613 0.091441 0.8 0 0
0.398627 0.263466 0.106987 0.8 0 0
0.256846 0.070249 0.088320 0.8 0 0
0.284809 0.161101 0.057308 0.8 0 0
0.863650 0.187771 0.112234 0.8 0 0
0.229049 0.215295 0.049967 0.8 0 0
0.140818 0.333380 0.073075 0.8 0 0
0.359129 0.094581 0.117753 0.8 0 0
0.307453 0.214270 0.095012 0.8 0 0
0.335847 0.152872 0.120447 0.8 0 0
0.697721 0.173687 0.125635 0.8 0 0
0.352890 0.172947 0.124293 0.8 0 0
0.920433 0.137946 0.083838 0.8 0 0
0.236243 0.185956 0.085608 0.8 0 0
0.573038 0.202873 0.128054 0.8 0 0
0.875363 0.223811 0.095314 0.8 0 0
