0.974128 0.085822 0.173166 0.8 0 0
0.759110 0.284512 0.162934 0.8 0 0
0.872637 0.035845 0.197485 0.8 0 0
0.836286 0.093962 0.178559 0.8 0 0
0.370576 0.470078 0.132322 0.8 0 0
0.244717 0.403525 0.117795 0.8 0 0
0.881215 0.253371 0.086369 0.8 0 0
0.486909 0.402347 0.178559 0.8 0 0
0.197317 0.662388 0.134871 0.8 0 0
0.716022 0.278023 0.133398 0.8 0 0
0.456160 0.386286 0.157638 0.8 0 0
0.481343 0.503758 0.086879 0.8 0 0
0.525365 0.469478 0.178559 0.8 0 0
0.728977 0.143408 0.113631 0.8 0 0
0.353656 0.571744 0.100357 0.8 0 0
0.437233 0.492423 0.178189 0.8 0 0
0.515450 0.354561 0.149626 0.8 0 0
0.556886 0.477219 0.139435 0.8 0 0
0.355096 0.588601 0.179753 0.8 0 0
0.379052 0.602645 0.087417 0.8 0 0
0.434070 0.170739 0.153377 0.8 0 0
0.907260 0.230485 0.134477 0.8 0 0
0.349159 0.181045 0.163066 0.8 0 0
0.105163 0.640554 0.132167 0.8 0 0
0.586757 0.359933 0.117795 0.8 0 0
0.374417 0.434003 0.104604 0.8 0 0
0.415283 0.534486 0.156716 0.8 0 0
0.749529 0.389781 0.087164 0.8 0 0
0.113094 0.624105 0.174374 0.8 0 0
0.298690 0.604948 0.105096 0.8 0 0
0.492681 0.517175 0.139374 0.8 0 0
0.235956 0.418766 0.117795 0.8 0 0
0.725277 0.394291 0.090531 0.8 0 0
0.432996 0.530989 0.153069 0.8 0 0
0.267094 0.561641 0.169462 0.8 0 0
0.254483 0.511265 0.145523 0.8 0 0
0.421393 0.182632 0.133866 0.8 0 0
0.747268 0.190164 0.178559 0.8 0 0
0.974765 0.061471 0.145033 0.8 0 0
0.437232 0.604357 0.059531 0.8 0 0
0.710320 0.445510 0.125799 0.8 0 0
0.951614 0.169938 0.133028 0.8 0 0
0.928385 0.045762 0.199552 0.8 0 0
0.555215 0.446837 0.146263 0.8 0 0
0.876545 0.167583 0.134342 0.8 0 0
0.762030 0.369422 0.134243 0.8 0 0
0.437232 0.574288 0.052628 0.8 0 0
0.736141 0.084756 0.163527 0.8 0 0
0.618728 0.492591 0.117795 0.8 0 0
0.947509 0.078622 0.134252 0.8 0 0
0.787395 0.090955 0.089141 0.8 0 0
0.395278 0.592405 0.098821 0.8 0 0
0.250829 0.273530 0.137097 0.8 0 0
0.252613 0.515972 0.191392 0.8 0 0
0.423029 0.609888 0.157971 0.8 0 0
0.235952 0.532063 0.153292 0.8 0 0
0.427428 0.617588 0.205747 0.8 0 0
0.481343 0.517113 0.174244 0.8 0 0
0.385043 0.653660 0.200745 0.8 0 0
0.860053 0.259287 0.117795 0.8 0 0
0.725111 0.213361 0.192899 0.8 0 0
0.231785 0.566887 0.150779 0.8 0 0
0.944021 0.190724 0.137817 0.8 0 0
0.797151 0.114530 0.214549 0.8 0 0
0.820900 0.316585 0.163048 0.8 0 0
0.765815 0.253917 0.178559 0.8 0 0
0.366256 0.628508 0.218998 0.8 0 0
0.206910 0.563936 0.169183 0.8 0 0
0.494182 0.607908 0.091324 0.8 0 0
0.392971 0.385270 0.157638 0.8 0 0
0.468346 0.180683 0.137097 0.8 0 0
0.842139 0.182070 0.065529 0.8 0 0
0.256201 0.346609 0.168538 0.8 0 0
0.271057 0.657581 0.099518 0.8 0 0
0.508150 0.188592 0.161467 0.8 0 0
0.295125 0.435557 0.154000 0.8 0 0
0.657878 0.622656 0.155309 0.8 0 0
0.542289 0.457744 0.117795 0.8 0 0
0.087144 0.517137 0.139926 0.8 0 0
0.173305 0.546372 0.117488 0.8 0 0
0.409068 0.651939 0.204032 0.8 0 0
0.291972 0.401797 0.117795 0.8 0 0
0.473691 0.552127 0.098061 0.8 0 0
0.430670 0.473976 0.232418 0.8 0 0
0.737060 0.090580 0.134302 0.8 0 0
0.468257 0.598201 0.162695 0.8 0 0
0.249095 0.663848 0.151310 0.8 0 0
0.754037 0.395780 0.134247 0.8 0 0
0.040796 0.625125 0.119205 0.8 0 0
0.056533 0.597751 0.101340 0.8 0 0
0.097152 0.555343 0.157007 0.8 0 0
0.344057 0.571703 0.197095 0.8 0 0
0.380088 0.475085 0.084594 0.8 0 0
0.448194 0.550154 0.160350 0.8 0 0
0.974882 0.069202 0.118963 0.8 0 0
0.246879 0.511516 0.147323 0.8 0 0
0.522721 0.478896 0.117795 0.8 0 0
0.900513 0.089632 0.134247 0.8 0 0
0.355974 0.680276 0.127142 0.8 0 0
0.771315 0.401885 0.163195 0.8 0 0
0.492616 0.653572 0.129866 0.8 0 0
0.794815 0.229555 0.231845 0.8 0 0
0.883780 0.271984 0.092483 0.8 0 0
0.792014 0.109910 0.117795 0.8 0 0
0.381380 0.575942 0.197926 0.8 0 0
0.748659 0.059267 0.108557 0.8 0 0
0.351028 0.539223 0.133361 0.8 0 0
0.036605 0.676152 0.140353 0.8 0 0
0.071493 0.538811 0.118261 0.8 0 0
0.465328 0.185027 0.161403 0.8 0 0
0.512766 0.569411 0.080765 0.8 0 0
0.473694 0.565469 0.185913 0.8 0 0
0.756241 0.104516 0.178559 0.8 0 0
0.862304 0.321440 0.134428 0.8 0 0
0.959818 0.140270 0.163193 0.8 0 0
0.112616 0.536543 0.134866 0.8 0 0
0.184361 0.526155 0.144981 0.8 0 0
0.406502 0.603768 0.237931 0.8 0 0
0.191171 0.517944 0.164100 0.8 0 0
0.696353 0.331178 0.117795 0.8 0 0
0.042536 0.648606 0.181814 0.8 0 0
0.963648 0.032203 0.146507 0.8 0 0
0.543236 0.581214 0.178559 0.8 0 0
0.347244 0.594400 0.125156 0.8 0 0
0.758798 0.270617 0.078794 0.8 0 0
0.187159 0.665213 0.127716 0.8 0 0
0.299507 0.569687 0.265150 0.8 0 0
0.724394 0.226084 0.185786 0.8 0 0
0.590596 0.638927 0.139433 0.8 0 0
0.914235 0.134201 0.178559 0.8 0 0
0.941069 0.169506 0.097511 0.8 0 0
0.397208 0.615311 0.226407 0.8 0 0
0.481341 0.600077 0.207021 0.8 0 0
0.435400 0.555365 0.136426 0.8 0 0
0.243164 0.302590 0.161246 0.8 0 0
0.921982 0.034837 0.197096 0.8 0 0
0.218652 0.583544 0.183391 0.8 0 0
0.560818 0.326848 0.178559 0.8 0 0
0.226121 0.387518 0.140020 0.8 0 0
0.067039 0.575439 0.118762 0.8 0 0
0.330916 0.635728 0.189851 0.8 0 0
0.583468 0.428784 0.117795 0.8 0 0
0.204487 0.576632 0.117148 0.8 0 0
0.888051 0.288108 0.162860 0.8 0 0
0.273816 0.419772 0.117795 0.8 0 0
0.276422 0.229578 0.137097 0.8 0 0
0.385889 0.565760 0.058612 0.8 0 0
0.834748 0.025166 0.129179 0.8 0 0
0.929303 0.094924 0.088980 0.8 0 0
0.308218 0.485937 0.226086 0.8 0 0
0.899274 0.126591 0.134260 0.8 0 0
0.371911 0.650005 0.207729 0.8 0 0
0.707972 0.398195 0.178559 0.8 0 0
0.308284 0.557077 0.083777 0.8 0 0
0.749316 0.116585 0.117795 0.8 0 0
0.146218 0.643380 0.154176 0.8 0 0
0.254044 0.444617 0.117795 0.8 0 0
0.486421 0.508513 0.223756 0.8 0 0
0.451879 0.485152 0.223912 0.8 0 0
0.403380 0.547618 0.232072 0.8 0 0
0.736121 0.337888 0.218297 0.8 0 0
0.339135 0.625471 0.161364 0.8 0 0
0.027758 0.620279 0.194861 0.8 0 0
0.411577 0.288748 0.141896 0.8 0 0
0.893317 0.228483 0.178559 0.8 0 0
0.437235 0.623208 0.097521 0.8 0 0
0.804063 0.041375 0.197075 0.8 0 0
0.267095 0.496455 0.251681 0.8 0 0
0.347791 0.652711 0.144420 0.8 0 0
0.437233 0.474749 0.232190 0.8 0 0
0.482468 0.605794 0.178559 0.8 0 0
0.695183 0.450629 0.117795 0.8 0 0
0.437231 0.521310 0.103817 0.8 0 0
0.800450 0.062172 0.202053 0.8 0 0
0.748558 0.098848 0.178559 0.8 0 0
0.775728 0.402444 0.117795 0.8 0 0
0.763383 0.187269 0.162961 0.8 0 0
0.319711 0.592234 0.228887 0.8 0 0
0.314857 0.598556 0.247858 0.8 0 0
0.571342 0.281703 0.165052 0.8 0 0
0.639425 0.474906 0.117795 0.8 0 0
0.786714 0.121019 0.215188 0.8 0 0
0.563332 0.276557 0.137097 0.8 0 0
0.118732 0.548219 0.172290 0.8 0 0
0.070848 0.658590 0.124787 0.8 0 0
0.746310 0.320611 0.117795 0.8 0 0
0.339064 0.591128 0.033837 0.8 0 0
0.726418 0.187045 0.166042 0.8 0 0
0.389833 0.200936 0.143494 0.8 0 0
0.860809 0.213273 0.162972 0.8 0 0
0.227173 0.578071 0.136947 0.8 0 0
0.769644 0.267658 0.178559 0.8 0 0
0.927065 0.231103 0.164708 0.8 0 0
0.481270 0.424641 0.144878 0.8 0 0
0.333065 0.481959 0.061417 0.8 0 0
0.186300 0.524343 0.174521 0.8 0 0
0.254585 0.542702 0.170678 0.8 0 0
0.855092 0.345596 0.122086 0.8 0 0
0.473689 0.447318 0.080407 0.8 0 0
0.633145 0.381974 0.117795 0.8 0 0
0.898364 0.199470 0.082578 0.8 0 0
0.287862 0.667500 0.116314 0.8 0 0
0.302127 0.531077 0.208670 0.8 0 0
0.644799 0.409163 0.178559 0.8 0 0
0.756759 0.203191 0.117795 0.8 0 0
0.334818 0.539127 0.161076 0.8 0 0
0.438975 0.634831 0.172090 0.8 0 0
0.570384 0.469699 0.155234 0.8 0 0
0.164964 0.519487 0.133506 0.8 0 0
0.383614 0.499052 0.113252 0.8 0 0
0.437236 0.597656 0.229680 0.8 0 0
0.712668 0.332203 0.083994 0.8 0 0
0.473690 0.446420 0.127119 0.8 0 0
0.706384 0.314134 0.178559 0.8 0 0
0.336397 0.555838 0.158373 0.8 0 0
0.427619 0.670721 0.179944 0.8 0 0
0.773361 0.069029 0.163195 0.8 0 0
0.439339 0.512350 0.192624 0.8 0 0
0.771070 0.359046 0.218602 0.8 0 0
0.819068 0.393981 0.193300 0.8 0 0
0.912420 0.035511 0.134261 0.8 0 0
0.854406 0.216751 0.231914 0.8 0 0
0.213166 0.644090 0.107594 0.8 0 0
0.235760 0.498307 0.174353 0.8 0 0
0.357247 0.546579 0.040097 0.8 0 0
0.301313 0.592000 0.169446 0.8 0 0
0.407818 0.613771 0.049904 0.8 0 0
0.544749 0.263586 0.157595 0.8 0 0
0.250794 0.561866 0.113993 0.8 0 0
0.794992 0.234896 0.231835 0.8 0 0
0.529637 0.239061 0.161403 0.8 0 0
0.094236 0.519302 0.133900 0.8 0 0
0.488635 0.515547 0.210339 0.8 0 0
0.566797 0.585191 0.156280 0.8 0 0
0.738154 0.079676 0.161673 0.8 0 0
0.603415 0.354697 0.168538 0.8 0 0
0.252509 0.565797 0.145743 0.8 0 0
0.550067 0.224487 0.137097 0.8 0 0
0.404585 0.568018 0.197090 0.8 0 0
0.583806 0.498974 0.183459 0.8 0 0
0.517675 0.380623 0.117795 0.8 0 0
0.895973 0.169183 0.163111 0.8 0 0
0.837156 0.179034 0.231314 0.8 0 0
0.723088 0.249032 0.162855 0.8 0 0
0.488632 0.603277 0.118133 0.8 0 0
0.759267 0.452385 0.100304 0.8 0 0
0.958567 0.057454 0.163193 0.8 0 0
0.228099 0.662067 0.112204 0.8 0 0
0.356142 0.680276 0.162823 0.8 0 0
0.860861 0.242038 0.178559 0.8 0 0
0.103933 0.649605 0.112320 0.8 0 0
0.555990 0.229481 0.157136 0.8 0 0
0.886406 0.260384 0.134562 0.8 0 0
0.493460 0.623295 0.177420 0.8 0 0
0.898621 0.108382 0.163200 0.8 0 0
0.425718 0.608313 0.147090 0.8 0 0
0.948374 0.056771 0.163190 0.8 0 0
0.574013 0.328434 0.117795 0.8 0 0
0.267824 0.602675 0.240021 0.8 0 0
0.488635 0.531366 0.194799 0.8 0 0
0.746956 0.155988 0.205367 0.8 0 0
0.507528 0.468464 0.156263 0.8 0 0
0.347568 0.549275 0.040339 0.8 0 0
0.255313 0.486315 0.121054 0.8 0 0
0.251090 0.250912 0.168538 0.8 0 0
0.667990 0.632708 0.140428 0.8 0 0
0.716697 0.365943 0.210544 0.8 0 0
0.439967 0.427555 0.174391 0.8 0 0
0.488634 0.535408 0.101504 0.8 0 0
0.970123 0.042997 0.179019 0.8 0 0
0.451645 0.579435 0.030407 0.8 0 0
0.830049 0.367579 0.117795 0.8 0 0
0.838549 0.072112 0.205232 0.8 0 0
0.512975 0.606187 0.113026 0.8 0 0
0.561612 0.452328 0.155234 0.8 0 0
0.754999 0.292687 0.227570 0.8 0 0
0.608325 0.597675 0.146558 0.8 0 0
0.280092 0.658006 0.100877 0.8 0 0
0.302611 0.509868 0.256109 0.8 0 0
0.749940 0.283684 0.073827 0.8 0 0
0.437233 0.523411 0.171699 0.8 0 0
0.838988 0.086912 0.178559 0.8 0 0
0.251812 0.541762 0.175466 0.8 0 0
0.674659 0.324554 0.130298 0.8 0 0
0.321066 0.526973 0.030725 0.8 0 0
0.285606 0.503060 0.258227 0.8 0 0
0.488634 0.568466 0.100221 0.8 0 0
0.481649 0.620248 0.133326 0.8 0 0
0.925541 0.140845 0.210116 0.8 0 0
0.465968 0.642761 0.126257 0.8 0 0
0.570660 0.415024 0.178559 0.8 0 0
0.961577 0.069405 0.163194 0.8 0 0
0.319495 0.580859 0.101950 0.8 0 0
0.496714 0.388898 0.145915 0.8 0 0
0.476040 0.406106 0.143726 0.8 0 0
0.256614 0.674459 0.136129 0.8 0 0
0.904303 0.189379 0.213752 0.8 0 0
0.939752 0.201223 0.143848 0.8 0 0
0.590775 0.293048 0.154383 0.8 0 0
0.974623 0.059400 0.169408 0.8 0 0
0.260690 0.389348 0.178559 0.8 0 0
0.902738 0.194585 0.213636 0.8 0 0
0.411877 0.556315 0.137447 0.8 0 0
0.037753 0.595584 0.190996 0.8 0 0
0.523936 0.213479 0.137097 0.8 0 0
0.500913 0.476334 0.102028 0.8 0 0
0.816826 0.171528 0.068319 0.8 0 0
0.435244 0.567657 0.098380 0.8 0 0
0.439666 0.664569 0.139337 0.8 0 0
0.255313 0.466326 0.117530 0.8 0 0
0.481342 0.540372 0.197365 0.8 0 0
0.404470 0.633267 0.106046 0.8 0 0
0.488633 0.549229 0.064377 0.8 0 0
0.796272 0.027910 0.138550 0.8 0 0
0.293401 0.439439 0.142366 0.8 0 0
0.428492 0.467738 0.146567 0.8 0 0
0.270647 0.659320 0.105075 0.8 0 0
0.773779 0.349669 0.134250 0.8 0 0
0.039195 0.596683 0.124095 0.8 0 0
0.488634 0.567491 0.067903 0.8 0 0
0.255618 0.250341 0.129486 0.8 0 0
0.386733 0.504746 0.240344 0.8 0 0
0.275521 0.618546 0.065070 0.8 0 0
0.855422 0.128018 0.178559 0.8 0 0
0.596914 0.296325 0.145893 0.8 0 0
0.789047 0.409935 0.134247 0.8 0 0
0.660579 0.341156 0.111632 0.8 0 0
0.713270 0.385888 0.163196 0.8 0 0
0.734055 0.399796 0.163196 0.8 0 0
0.856599 0.239903 0.162908 0.8 0 0
0.714349 0.367812 0.134244 0.8 0 0
0.437231 0.474888 0.063764 0.8 0 0
0.750749 0.103962 0.094680 0.8 0 0
0.317686 0.588306 0.235996 0.8 0 0
0.217995 0.628558 0.099929 0.8 0 0
0.556640 0.459127 0.178559 0.8 0 0
0.840660 0.109631 0.082998 0.8 0 0
0.555637 0.475357 0.155234 0.8 0 0
0.441578 0.173748 0.161246 0.8 0 0
0.096209 0.657103 0.171167 0.8 0 0
0.473693 0.572185 0.157288 0.8 0 0
0.201857 0.652024 0.178239 0.8 0 0
0.428240 0.517769 0.194247 0.8 0 0
0.905112 0.173301 0.163110 0.8 0 0
0.774067 0.317326 0.178559 0.8 0 0
0.914453 0.112210 0.213200 0.8 0 0
0.733367 0.396634 0.134246 0.8 0 0
0.402663 0.434431 0.097981 0.8 0 0
0.338684 0.629578 0.199432 0.8 0 0
0.421240 0.531060 0.153201 0.8 0 0
0.516650 0.458474 0.178559 0.8 0 0
0.600530 0.333683 0.137188 0.8 0 0
0.465685 0.330301 0.155295 0.8 0 0
0.809789 0.218874 0.117795 0.8 0 0
0.405215 0.178750 0.129486 0.8 0 0
0.096378 0.626778 0.173335 0.8 0 0
0.719998 0.261675 0.175377 0.8 0 0
0.185315 0.563476 0.153971 0.8 0 0
0.567335 0.629649 0.139433 0.8 0 0
0.854544 0.028811 0.128867 0.8 0 0
0.271304 0.685458 0.154938 0.8 0 0
0.289714 0.660003 0.130432 0.8 0 0
0.428176 0.355676 0.142189 0.8 0 0
0.337263 0.453466 0.204370 0.8 0 0
0.573922 0.288134 0.131923 0.8 0 0
0.771003 0.337991 0.074326 0.8 0 0
0.970834 0.105702 0.149344 0.8 0 0
0.753983 0.140680 0.089324 0.8 0 0
0.713626 0.518703 0.117795 0.8 0 0
0.925429 0.231100 0.104461 0.8 0 0
0.357921 0.614771 0.149076 0.8 0 0
0.510280 0.590399 0.204560 0.8 0 0
0.437230 0.509449 0.035976 0.8 0 0
0.279818 0.537963 0.057506 0.8 0 0
0.320037 0.451733 0.103610 0.8 0 0
0.242689 0.680276 0.139691 0.8 0 0
0.566372 0.445553 0.153148 0.8 0 0
0.844618 0.286262 0.078428 0.8 0 0
0.243669 0.248765 0.161246 0.8 0 0
0.807123 0.345042 0.218266 0.8 0 0
0.710956 0.302032 0.198328 0.8 0 0
0.516865 0.549534 0.082514 0.8 0 0
0.430302 0.531499 0.222782 0.8 0 0
0.418646 0.460075 0.074770 0.8 0 0
0.831825 0.146404 0.117795 0.8 0 0
0.407764 0.606147 0.234062 0.8 0 0
0.418803 0.566272 0.041523 0.8 0 0
0.573548 0.474249 0.178605 0.8 0 0
0.880763 0.218685 0.162974 0.8 0 0
0.627432 0.526374 0.156280 0.8 0 0
0.334509 0.498105 0.061519 0.8 0 0
0.507469 0.537549 0.139374 0.8 0 0
0.104300 0.586239 0.143885 0.8 0 0
0.773127 0.040408 0.132357 0.8 0 0
0.210411 0.540370 0.132922 0.8 0 0
0.356942 0.488989 0.183907 0.8 0 0
0.462946 0.429562 0.180808 0.8 0 0
0.481342 0.552886 0.064744 0.8 0 0
0.432165 0.601470 0.039248 0.8 0 0
0.226221 0.387329 0.156033 0.8 0 0
0.313641 0.634613 0.192336 0.8 0 0
0.228434 0.660895 0.157752 0.8 0 0
0.255655 0.530712 0.187870 0.8 0 0
0.061407 0.586070 0.146568 0.8 0 0
0.490767 0.572990 0.117795 0.8 0 0
0.894073 0.073427 0.178559 0.8 0 0
0.881436 0.072234 0.178559 0.8 0 0
0.399328 0.484755 0.210206 0.8 0 0
0.964032 0.043699 0.163194 0.8 0 0
0.859319 0.295314 0.162891 0.8 0 0
0.604663 0.518108 0.117795 0.8 0 0
0.880528 0.051922 0.096310 0.8 0 0
0.352640 0.593322 0.167687 0.8 0 0
0.562275 0.603359 0.156280 0.8 0 0
0.270074 0.364003 0.156401 0.8 0 0
0.427401 0.485364 0.086772 0.8 0 0
0.685183 0.468886 0.117795 0.8 0 0
0.757554 0.382899 0.117795 0.8 0 0
0.534552 0.320465 0.167551 0.8 0 0
0.881129 0.258772 0.117795 0.8 0 0
0.952109 0.048845 0.098756 0.8 0 0
0.302487 0.588722 0.185405 0.8 0 0
0.431936 0.586857 0.035118 0.8 0 0
0.772570 0.498173 0.142034 0.8 0 0
0.918741 0.218090 0.134434 0.8 0 0
0.591424 0.390916 0.117795 0.8 0 0
0.466756 0.630925 0.104285 0.8 0 0
0.413320 0.503058 0.090909 0.8 0 0
0.234699 0.364638 0.168237 0.8 0 0
0.342624 0.372147 0.148954 0.8 0 0
0.134642 0.637941 0.164818 0.8 0 0
0.787080 0.118042 0.082896 0.8 0 0
0.971557 0.098267 0.117092 0.8 0 0
0.088336 0.657385 0.122473 0.8 0 0
0.393680 0.532210 0.213762 0.8 0 0
0.481342 0.546840 0.107894 0.8 0 0
0.783904 0.367891 0.178559 0.8 0 0
0.134526 0.630907 0.100622 0.8 0 0
0.127742 0.615148 0.098082 0.8 0 0
0.064411 0.596293 0.191277 0.8 0 0
0.404215 0.503744 0.240147 0.8 0 0
0.330928 0.442432 0.198572 0.8 0 0
0.289812 0.499935 0.259120 0.8 0 0
0.770611 0.101345 0.208271 0.8 0 0
0.054706 0.522859 0.164897 0.8 0 0
0.417754 0.311868 0.141896 0.8 0 0
0.621200 0.355052 0.117795 0.8 0 0
0.235842 0.562269 0.153743 0.8 0 0
0.027528 0.570662 0.161273 0.8 0 0
0.784665 0.382031 0.163196 0.8 0 0
0.812530 0.389779 0.117795 0.8 0 0
0.386480 0.167098 0.131705 0.8 0 0
0.481343 0.498055 0.093514 0.8 0 0
0.708220 0.342946 0.117795 0.8 0 0
0.257682 0.347688 0.168538 0.8 0 0
0.503226 0.196662 0.136778 0.8 0 0
0.223280 0.568764 0.120226 0.8 0 0
0.930346 0.033166 0.163186 0.8 0 0
0.506200 0.673621 0.162117 0.8 0 0
0.089233 0.540159 0.165262 0.8 0 0
0.064009 0.683596 0.142971 0.8 0 0
0.326468 0.598198 0.037537 0.8 0 0
0.949350 0.112181 0.117795 0.8 0 0
0.458197 0.528268 0.229834 0.8 0 0
0.433357 0.499393 0.106096 0.8 0 0
0.481482 0.533924 0.125681 0.8 0 0
0.771185 0.127935 0.163094 0.8 0 0
0.267309 0.382131 0.178559 0.8 0 0
0.462606 0.664570 0.125307 0.8 0 0
0.364591 0.469314 0.220656 0.8 0 0
0.794299 0.348248 0.075307 0.8 0 0
0.488635 0.501346 0.157901 0.8 0 0
0.045299 0.542538 0.171903 0.8 0 0
0.488634 0.523670 0.091878 0.8 0 0
0.919074 0.248200 0.145847 0.8 0 0
0.250794 0.498891 0.143617 0.8 0 0
0.724530 0.325236 0.134243 0.8 0 0
0.130264 0.635387 0.102396 0.8 0 0
0.471080 0.379890 0.141896 0.8 0 0
0.527588 0.561586 0.156388 0.8 0 0
0.905846 0.045467 0.178559 0.8 0 0
0.836431 0.203811 0.065523 0.8 0 0
0.743454 0.217194 0.162897 0.8 0 0
0.132636 0.610462 0.175335 0.8 0 0
0.470957 0.485717 0.251678 0.8 0 0
0.430453 0.374346 0.134092 0.8 0 0
0.722838 0.326605 0.080897 0.8 0 0
0.256278 0.242767 0.161246 0.8 0 0
0.874619 0.311527 0.099919 0.8 0 0
0.852424 0.066045 0.163204 0.8 0 0
0.323256 0.657861 0.100415 0.8 0 0
0.095027 0.549639 0.132989 0.8 0 0
0.400123 0.484328 0.212383 0.8 0 0
0.305004 0.602736 0.087221 0.8 0 0
0.207005 0.557877 0.139823 0.8 0 0
0.437232 0.464885 0.145794 0.8 0 0
0.387728 0.670453 0.113690 0.8 0 0
0.768550 0.424887 0.163195 0.8 0 0
0.842120 0.163398 0.069838 0.8 0 0
0.106786 0.539706 0.159248 0.8 0 0
0.249162 0.336915 0.155141 0.8 0 0
0.488635 0.479725 0.113473 0.8 0 0
0.366972 0.657497 0.135236 0.8 0 0
0.782652 0.221574 0.178559 0.8 0 0
0.766927 0.399532 0.117795 0.8 0 0
0.915540 0.026284 0.173233 0.8 0 0
0.267092 0.531273 0.108230 0.8 0 0
0.447577 0.534104 0.156308 0.8 0 0
0.221658 0.562236 0.139621 0.8 0 0
0.903095 0.243443 0.178559 0.8 0 0
0.364095 0.180428 0.133785 0.8 0 0
0.407224 0.497511 0.083227 0.8 0 0
0.085337 0.608291 0.194622 0.8 0 0
0.473691 0.539356 0.101423 0.8 0 0
0.473693 0.617150 0.078241 0.8 0 0
0.291694 0.664570 0.131127 0.8 0 0
0.457226 0.555651 0.156678 0.8 0 0
0.530264 0.531395 0.167047 0.8 0 0
0.423606 0.337099 0.155208 0.8 0 0
0.733874 0.495164 0.178559 0.8 0 0
0.843958 0.110382 0.214770 0.8 0 0
0.347472 0.484429 0.221243 0.8 0 0
0.595082 0.585968 0.155231 0.8 0 0
0.417617 0.545218 0.218025 0.8 0 0
0.266372 0.363936 0.162999 0.8 0 0
0.728287 0.409456 0.093242 0.8 0 0
0.928755 0.220648 0.101819 0.8 0 0
0.166901 0.523816 0.127140 0.8 0 0
0.744492 0.439755 0.098344 0.8 0 0
0.255305 0.531522 0.153380 0.8 0 0
0.205132 0.671229 0.170277 0.8 0 0
0.331733 0.529634 0.145826 0.8 0 0
0.481541 0.501658 0.178559 0.8 0 0
0.257951 0.559767 0.153841 0.8 0 0
0.581515 0.299283 0.168538 0.8 0 0
0.570036 0.625915 0.139433 0.8 0 0
0.752927 0.256350 0.117795 0.8 0 0
0.772329 0.098164 0.134290 0.8 0 0
0.126329 0.637556 0.127912 0.8 0 0
0.351001 0.449834 0.155592 0.8 0 0
0.471765 0.586092 0.203796 0.8 0 0
0.209931 0.407204 0.170299 0.8 0 0
0.152944 0.527746 0.138745 0.8 0 0
0.488635 0.526808 0.209506 0.8 0 0
0.473689 0.452396 0.091622 0.8 0 0
0.451598 0.445387 0.177027 0.8 0 0
0.240926 0.520677 0.161812 0.8 0 0
0.272232 0.465668 0.146646 0.8 0 0
0.510618 0.396768 0.157638 0.8 0 0
0.473693 0.534142 0.202709 0.8 0 0
0.581127 0.282790 0.137097 0.8 0 0
0.192405 0.514541 0.132623 0.8 0 0
0.545692 0.217351 0.163181 0.8 0 0
0.902448 0.140790 0.163171 0.8 0 0
0.051154 0.563814 0.169271 0.8 0 0
0.911235 0.025952 0.174680 0.8 0 0
0.730848 0.112404 0.126808 0.8 0 0
0.437232 0.564183 0.036510 0.8 0 0
0.895774 0.288315 0.126413 0.8 0 0
0.507624 0.517894 0.178559 0.8 0 0
0.297427 0.488772 0.184199 0.8 0 0
0.216788 0.511425 0.149552 0.8 0 0
0.196984 0.561818 0.145712 0.8 0 0
0.236464 0.547731 0.117539 0.8 0 0
0.460983 0.465143 0.146661 0.8 0 0
0.939488 0.100939 0.134253 0.8 0 0
0.601675 0.337085 0.131828 0.8 0 0
0.370539 0.387322 0.117795 0.8 0 0
0.255825 0.465633 0.171603 0.8 0 0
0.200112 0.521579 0.119421 0.8 0 0
0.355844 0.442843 0.081910 0.8 0 0
0.444509 0.373277 0.174175 0.8 0 0
0.268771 0.543819 0.162358 0.8 0 0
0.342867 0.424359 0.172387 0.8 0 0
0.736297 0.169651 0.117795 0.8 0 0
0.410188 0.606456 0.158709 0.8 0 0
0.877240 0.103782 0.213456 0.8 0 0
0.573017 0.519424 0.139434 0.8 0 0
0.308352 0.182942 0.168538 0.8 0 0
0.673526 0.416353 0.131807 0.8 0 0
0.764358 0.132223 0.163080 0.8 0 0
0.713581 0.285075 0.167520 0.8 0 0
0.342135 0.372091 0.148177 0.8 0 0
0.324642 0.433078 0.101631 0.8 0 0
0.427219 0.589979 0.173786 0.8 0 0
0.467443 0.636913 0.141000 0.8 0 0
0.766131 0.266982 0.117795 0.8 0 0
0.185822 0.442592 0.132812 0.8 0 0
0.814141 0.401209 0.192900 0.8 0 0
0.488634 0.601127 0.151262 0.8 0 0
0.458200 0.664569 0.164267 0.8 0 0
0.678172 0.329175 0.200249 0.8 0 0
0.312723 0.480036 0.149306 0.8 0 0
0.737914 0.407177 0.205563 0.8 0 0
0.346655 0.461552 0.193900 0.8 0 0
0.470286 0.406106 0.147163 0.8 0 0
0.297740 0.553459 0.202891 0.8 0 0
0.775652 0.295963 0.134472 0.8 0 0
0.516203 0.447875 0.117795 0.8 0 0
0.210162 0.621498 0.093598 0.8 0 0
0.473691 0.505043 0.165004 0.8 0 0
0.830554 0.208631 0.162959 0.8 0 0
0.395401 0.400989 0.157638 0.8 0 0
0.588074 0.302078 0.168538 0.8 0 0
0.488634 0.616110 0.169094 0.8 0 0
0.819577 0.289352 0.229183 0.8 0 0
0.623373 0.478525 0.117795 0.8 0 0
0.549815 0.520978 0.117795 0.8 0 0
0.879075 0.314021 0.111758 0.8 0 0
0.726546 0.306086 0.078835 0.8 0 0
0.365680 0.641132 0.215025 0.8 0 0
0.684275 0.380316 0.095565 0.8 0 0
0.369827 0.553190 0.256551 0.8 0 0
0.485728 0.622579 0.178559 0.8 0 0
0.483918 0.555006 0.140350 0.8 0 0
0.794168 0.449464 0.171384 0.8 0 0
0.779567 0.161252 0.221787 0.8 0 0
0.855236 0.169857 0.163074 0.8 0 0
0.459478 0.614643 0.046844 0.8 0 0
0.403591 0.596407 0.059552 0.8 0 0
0.255830 0.624718 0.097010 0.8 0 0
0.846913 0.242016 0.178559 0.8 0 0
0.794772 0.253517 0.117795 0.8 0 0
0.779670 0.472237 0.178559 0.8 0 0
0.267093 0.503919 0.157544 0.8 0 0
0.524699 0.562254 0.190730 0.8 0 0
0.454697 0.173668 0.167043 0.8 0 0
0.678597 0.323885 0.177368 0.8 0 0
0.425375 0.600466 0.141216 0.8 0 0
0.488635 0.478002 0.153456 0.8 0 0
0.309565 0.636917 0.181882 0.8 0 0
0.214308 0.656723 0.171765 0.8 0 0
0.807293 0.119635 0.163138 0.8 0 0
0.739286 0.127964 0.163068 0.8 0 0
0.394246 0.643844 0.091869 0.8 0 0
0.589699 0.292473 0.137595 0.8 0 0
0.864777 0.295184 0.178559 0.8 0 0
0.800248 0.089472 0.117795 0.8 0 0
0.570132 0.250104 0.148008 0.8 0 0
0.107250 0.564364 0.124381 0.8 0 0
0.888349 0.065279 0.134256 0.8 0 0
0.481342 0.556493 0.183047 0.8 0 0
0.417107 0.539396 0.161196 0.8 0 0
0.211518 0.542104 0.175510 0.8 0 0
0.381036 0.194598 0.161403 0.8 0 0
0.359515 0.588593 0.181882 0.8 0 0
0.785754 0.402978 0.134247 0.8 0 0
0.437233 0.556324 0.118938 0.8 0 0
0.438277 0.498162 0.061384 0.8 0 0
0.481599 0.594172 0.119935 0.8 0 0
0.569644 0.516259 0.198050 0.8 0 0
0.918513 0.196611 0.163065 0.8 0 0
0.437232 0.547102 0.049941 0.8 0 0
0.814957 0.259532 0.134580 0.8 0 0
0.967879 0.117441 0.146904 0.8 0 0
0.208657 0.573862 0.127911 0.8 0 0
0.860578 0.025684 0.158533 0.8 0 0
0.413883 0.382686 0.178559 0.8 0 0
0.794596 0.190043 0.231540 0.8 0 0
0.437235 0.588434 0.164820 0.8 0 0
0.104829 0.533818 0.157625 0.8 0 0
0.718998 0.380887 0.134247 0.8 0 0
0.772144 0.154729 0.079385 0.8 0 0
0.364068 0.433546 0.103137 0.8 0 0
0.691134 0.318950 0.177840 0.8 0 0
0.412012 0.475723 0.147465 0.8 0 0
0.636912 0.522445 0.178559 0.8 0 0
0.446056 0.666660 0.149610 0.8 0 0
0.403459 0.502204 0.055943 0.8 0 0
0.821825 0.274808 0.178559 0.8 0 0
0.377642 0.561082 0.260664 0.8 0 0
0.444703 0.571052 0.100045 0.8 0 0
0.715626 0.384357 0.163196 0.8 0 0
0.870607 0.139114 0.075601 0.8 0 0
0.031057 0.552781 0.166261 0.8 0 0
0.954427 0.161940 0.188614 0.8 0 0
0.863045 0.334824 0.176732 0.8 0 0
0.488635 0.498153 0.127659 0.8 0 0
0.704984 0.385897 0.178559 0.8 0 0
0.817155 0.268850 0.134574 0.8 0 0
0.291785 0.522061 0.236289 0.8 0 0
0.749411 0.282308 0.117795 0.8 0 0
0.556776 0.530527 0.155233 0.8 0 0
0.481710 0.488433 0.156388 0.8 0 0
0.373685 0.566192 0.245224 0.8 0 0
0.474708 0.542275 0.132417 0.8 0 0
0.322329 0.170832 0.168538 0.8 0 0
0.763438 0.087226 0.093586 0.8 0 0
0.380944 0.634058 0.170632 0.8 0 0
0.191017 0.523819 0.138409 0.8 0 0
0.784719 0.317794 0.178559 0.8 0 0
0.481340 0.461124 0.124744 0.8 0 0
0.233028 0.369971 0.178502 0.8 0 0
0.820616 0.378139 0.117795 0.8 0 0
0.472741 0.450180 0.220913 0.8 0 0
0.311766 0.664570 0.131794 0.8 0 0
0.715214 0.283734 0.185703 0.8 0 0
0.319045 0.494355 0.041683 0.8 0 0
0.270276 0.556887 0.155176 0.8 0 0
0.916541 0.238964 0.134492 0.8 0 0
0.267094 0.540712 0.196519 0.8 0 0
0.411611 0.674459 0.136308 0.8 0 0
0.878785 0.061741 0.203449 0.8 0 0
0.383597 0.375003 0.168039 0.8 0 0
0.725735 0.297689 0.209064 0.8 0 0
0.782047 0.267259 0.065521 0.8 0 0
0.791744 0.146627 0.221683 0.8 0 0
0.340427 0.639639 0.089660 0.8 0 0
0.227626 0.621479 0.199600 0.8 0 0
0.872379 0.220501 0.074107 0.8 0 0
0.277007 0.513603 0.239956 0.8 0 0
0.708094 0.516540 0.178559 0.8 0 0
0.863548 0.025726 0.133064 0.8 0 0
0.672059 0.357209 0.200765 0.8 0 0
0.514409 0.662535 0.117795 0.8 0 0
0.726613 0.478446 0.156280 0.8 0 0
0.564529 0.597812 0.161002 0.8 0 0
0.534444 0.325424 0.117795 0.8 0 0
0.329331 0.385512 0.178559 0.8 0 0
0.437235 0.642344 0.078198 0.8 0 0
0.721882 0.250608 0.174818 0.8 0 0
0.427547 0.175340 0.168538 0.8 0 0
0.313153 0.173066 0.161246 0.8 0 0
0.237899 0.509409 0.119299 0.8 0 0
0.488635 0.543276 0.176731 0.8 0 0
0.317001 0.557020 0.154993 0.8 0 0
0.437233 0.524525 0.181839 0.8 0 0
0.488634 0.542816 0.095072 0.8 0 0
0.351228 0.253279 0.141896 0.8 0 0
0.112410 0.640183 0.104949 0.8 0 0
0.162264 0.609614 0.117987 0.8 0 0
0.245153 0.566957 0.141298 0.8 0 0
0.351738 0.382375 0.140624 0.8 0 0
0.752288 0.381501 0.134244 0.8 0 0
0.735464 0.412651 0.093253 0.8 0 0
0.889150 0.026076 0.121079 0.8 0 0
0.817708 0.395976 0.187474 0.8 0 0
0.375653 0.480166 0.085089 0.8 0 0
0.787979 0.284731 0.117795 0.8 0 0
0.437235 0.566576 0.185896 0.8 0 0
0.282732 0.572057 0.055061 0.8 0 0
0.074291 0.571499 0.159712 0.8 0 0
0.437200 0.448215 0.183627 0.8 0 0
0.425033 0.615549 0.149227 0.8 0 0
0.421524 0.584467 0.261035 0.8 0 0
0.488635 0.492365 0.157211 0.8 0 0
0.568714 0.516259 0.183242 0.8 0 0
0.752275 0.375565 0.134240 0.8 0 0
0.545641 0.228397 0.168538 0.8 0 0
0.481607 0.598756 0.137946 0.8 0 0
0.498064 0.677389 0.165791 0.8 0 0
0.437235 0.524679 0.243671 0.8 0 0
0.868086 0.327982 0.134286 0.8 0 0
0.559249 0.437711 0.178559 0.8 0 0
0.212988 0.577412 0.116206 0.8 0 0
0.721487 0.516932 0.178559 0.8 0 0
0.932182 0.209035 0.134397 0.8 0 0
0.408184 0.592562 0.215065 0.8 0 0
0.273353 0.652884 0.144091 0.8 0 0
0.482984 0.384021 0.140624 0.8 0 0
0.832798 0.221150 0.065549 0.8 0 0
0.250702 0.577642 0.135628 0.8 0 0
0.808493 0.414262 0.151440 0.8 0 0
0.438519 0.473638 0.132968 0.8 0 0
0.869314 0.234827 0.178559 0.8 0 0
0.254900 0.299876 0.136115 0.8 0 0
0.555408 0.496011 0.117795 0.8 0 0
0.473693 0.551257 0.199423 0.8 0 0
0.171333 0.574598 0.120088 0.8 0 0
0.724345 0.451650 0.189082 0.8 0 0
0.366429 0.492324 0.175696 0.8 0 0
0.565443 0.530028 0.155233 0.8 0 0
0.349630 0.460276 0.147952 0.8 0 0
0.242452 0.280188 0.136778 0.8 0 0
0.810759 0.290577 0.134528 0.8 0 0
0.329243 0.187917 0.161403 0.8 0 0
0.338461 0.592478 0.227987 0.8 0 0
0.280758 0.350471 0.178559 0.8 0 0
0.354357 0.532211 0.155366 0.8 0 0
0.323116 0.505802 0.032202 0.8 0 0
0.388348 0.547341 0.210917 0.8 0 0
0.505463 0.577765 0.117795 0.8 0 0
0.792469 0.235498 0.117795 0.8 0 0
0.294056 0.493606 0.124638 0.8 0 0
0.547693 0.219634 0.157996 0.8 0 0
0.354264 0.682453 0.136657 0.8 0 0
0.467202 0.180337 0.161403 0.8 0 0
0.255368 0.534949 0.093880 0.8 0 0
0.807697 0.411628 0.192529 0.8 0 0
0.481663 0.183761 0.136778 0.8 0 0
0.180461 0.531239 0.170949 0.8 0 0
0.488635 0.491868 0.106025 0.8 0 0
0.828766 0.362722 0.134262 0.8 0 0
0.416415 0.459188 0.126831 0.8 0 0
0.732078 0.448199 0.134247 0.8 0 0
0.501280 0.625695 0.142291 0.8 0 0
0.639251 0.421891 0.117795 0.8 0 0
0.437233 0.488492 0.195009 0.8 0 0
0.442997 0.574345 0.054435 0.8 0 0
0.225205 0.653548 0.109367 0.8 0 0
0.734679 0.505978 0.117795 0.8 0 0
0.211938 0.431370 0.117795 0.8 0 0
0.930066 0.221412 0.103969 0.8 0 0
0.774799 0.348692 0.076314 0.8 0 0
0.658200 0.386858 0.187027 0.8 0 0
0.473138 0.423404 0.177333 0.8 0 0
0.312961 0.609257 0.231468 0.8 0 0
0.208267 0.674831 0.147946 0.8 0 0
0.437231 0.547587 0.063490 0.8 0 0
0.369325 0.657068 0.188271 0.8 0 0
0.403888 0.483809 0.250681 0.8 0 0
0.030524 0.554749 0.168109 0.8 0 0
0.617520 0.494332 0.183466 0.8 0 0
0.308620 0.614576 0.206126 0.8 0 0
0.873940 0.320038 0.170919 0.8 0 0
0.473690 0.551586 0.056073 0.8 0 0
0.850045 0.352382 0.162214 0.8 0 0
0.127216 0.614083 0.195113 0.8 0 0
0.358800 0.379480 0.140624 0.8 0 0
0.402029 0.524145 0.198214 0.8 0 0
0.539038 0.219906 0.137097 0.8 0 0
0.255655 0.523708 0.121416 0.8 0 0
0.255313 0.482765 0.126716 0.8 0 0
0.749615 0.338205 0.178559 0.8 0 0
0.740110 0.488413 0.149415 0.8 0 0
0.182396 0.524196 0.174109 0.8 0 0
0.273017 0.685088 0.145896 0.8 0 0
0.488635 0.508029 0.110228 0.8 0 0
0.871930 0.088555 0.134237 0.8 0 0
0.437185 0.456974 0.206212 0.8 0 0
0.119285 0.619323 0.175422 0.8 0 0
0.802512 0.426678 0.176834 0.8 0 0
0.231008 0.504402 0.119258 0.8 0 0
0.307119 0.650501 0.167158 0.8 0 0
0.473689 0.471625 0.064971 0.8 0 0
0.449024 0.174513 0.161246 0.8 0 0
0.208562 0.514593 0.159218 0.8 0 0
0.716880 0.512198 0.178559 0.8 0 0
0.467549 0.674426 0.176669 0.8 0 0
0.748267 0.512867 0.132484 0.8 0 0
0.341103 0.488891 0.052082 0.8 0 0
0.431748 0.445158 0.165263 0.8 0 0
0.194837 0.451337 0.178559 0.8 0 0
0.518019 0.590826 0.104856 0.8 0 0
0.273950 0.652920 0.174933 0.8 0 0
0.278628 0.452769 0.100027 0.8 0 0
0.526030 0.445358 0.178559 0.8 0 0
0.488634 0.531346 0.085968 0.8 0 0
0.523916 0.548638 0.097565 0.8 0 0
0.347431 0.674459 0.142053 0.8 0 0
0.353915 0.535263 0.134652 0.8 0 0
0.733150 0.098678 0.153773 0.8 0 0
0.542551 0.465257 0.117795 0.8 0 0
0.025000 0.589019 0.105724 0.8 0 0
0.872402 0.085487 0.209090 0.8 0 0
0.379899 0.494713 0.256387 0.8 0 0
0.268865 0.684142 0.151427 0.8 0 0
0.819839 0.298272 0.117795 0.8 0 0
0.182396 0.475968 0.136266 0.8 0 0
0.195936 0.656228 0.178643 0.8 0 0
0.872338 0.281287 0.162860 0.8 0 0
0.485092 0.616705 0.192202 0.8 0 0
0.887994 0.154831 0.074734 0.8 0 0
0.274050 0.542340 0.161005 0.8 0 0
0.121325 0.555004 0.129678 0.8 0 0
0.481342 0.562454 0.173249 0.8 0 0
0.552856 0.594430 0.139266 0.8 0 0
0.595852 0.482550 0.178559 0.8 0 0
0.660958 0.635087 0.145078 0.8 0 0
0.515766 0.204969 0.161403 0.8 0 0
0.438988 0.680977 0.145708 0.8 0 0
0.884525 0.140470 0.221585 0.8 0 0
0.473691 0.538653 0.088477 0.8 0 0
0.107226 0.571313 0.167204 0.8 0 0
0.453827 0.425571 0.161816 0.8 0 0
0.306710 0.395662 0.117795 0.8 0 0
0.573710 0.574839 0.117795 0.8 0 0
0.542536 0.647282 0.156280 0.8 0 0
0.888438 0.250926 0.178559 0.8 0 0
0.296703 0.634998 0.191479 0.8 0 0
0.378443 0.406106 0.156978 0.8 0 0
0.077921 0.569217 0.161969 0.8 0 0
0.832702 0.292809 0.162921 0.8 0 0
0.494812 0.616032 0.156388 0.8 0 0
0.500385 0.439337 0.178559 0.8 0 0
0.128985 0.521835 0.129559 0.8 0 0
0.864770 0.323745 0.197187 0.8 0 0
0.121814 0.550581 0.160188 0.8 0 0
0.390191 0.435484 0.109367 0.8 0 0
0.733502 0.247984 0.162865 0.8 0 0
0.362584 0.468356 0.072165 0.8 0 0
0.386977 0.685199 0.142652 0.8 0 0
0.069479 0.591069 0.162843 0.8 0 0
0.214118 0.511709 0.142797 0.8 0 0
0.908052 0.242470 0.096895 0.8 0 0
0.857877 0.135435 0.163147 0.8 0 0
0.452657 0.581069 0.242255 0.8 0 0
0.246015 0.339870 0.173341 0.8 0 0
0.266226 0.382042 0.163400 0.8 0 0
0.277486 0.394434 0.178559 0.8 0 0
0.403437 0.567143 0.197122 0.8 0 0
0.735131 0.472644 0.156280 0.8 0 0
0.683007 0.409048 0.117795 0.8 0 0
0.790224 0.463519 0.158294 0.8 0 0
0.474431 0.405742 0.156480 0.8 0 0
0.233780 0.574562 0.129015 0.8 0 0
0.385002 0.577900 0.053733 0.8 0 0
0.436811 0.171068 0.140382 0.8 0 0
0.404347 0.500880 0.088471 0.8 0 0
0.808295 0.253041 0.117795 0.8 0 0
0.187865 0.529469 0.116655 0.8 0 0
0.366764 0.432100 0.160628 0.8 0 0
0.187814 0.551819 0.164966 0.8 0 0
0.666452 0.405065 0.113541 0.8 0 0
0.201472 0.657040 0.129116 0.8 0 0
0.781819 0.034381 0.117795 0.8 0 0
0.281818 0.217439 0.137097 0.8 0 0
0.896468 0.287246 0.170402 0.8 0 0
0.468298 0.551298 0.161292 0.8 0 0
0.381792 0.442517 0.198616 0.8 0 0
0.421704 0.555239 0.201366 0.8 0 0
0.250794 0.529485 0.113627 0.8 0 0
0.392873 0.648820 0.209993 0.8 0 0
0.249661 0.337195 0.168038 0.8 0 0
0.732127 0.181214 0.178559 0.8 0 0
0.473452 0.538848 0.160950 0.8 0 0
0.251789 0.318292 0.161403 0.8 0 0
0.465804 0.353748 0.156480 0.8 0 0
0.505347 0.187340 0.134491 0.8 0 0
0.868795 0.046739 0.178559 0.8 0 0
0.870255 0.026186 0.114959 0.8 0 0
0.652120 0.366213 0.178559 0.8 0 0
0.571563 0.504021 0.200888 0.8 0 0
0.488635 0.513624 0.168796 0.8 0 0
0.254815 0.567258 0.154005 0.8 0 0
0.894819 0.066383 0.117795 0.8 0 0
0.460534 0.499097 0.034296 0.8 0 0
0.665272 0.354581 0.134246 0.8 0 0
0.530970 0.424334 0.178559 0.8 0 0
0.884519 0.187505 0.074737 0.8 0 0
0.309560 0.375732 0.117795 0.8 0 0
0.355273 0.482522 0.060946 0.8 0 0
0.404858 0.488284 0.230343 0.8 0 0
0.800773 0.167639 0.134407 0.8 0 0
0.726471 0.194211 0.134513 0.8 0 0
0.557896 0.500617 0.155233 0.8 0 0
0.154701 0.555383 0.136444 0.8 0 0
0.284391 0.474274 0.067840 0.8 0 0
0.492583 0.193949 0.137097 0.8 0 0
0.875332 0.142337 0.117795 0.8 0 0
0.818222 0.345484 0.178559 0.8 0 0
0.334870 0.577567 0.101835 0.8 0 0
0.437477 0.534213 0.156425 0.8 0 0
0.686304 0.322446 0.126597 0.8 0 0
0.879322 0.275817 0.091282 0.8 0 0
0.597145 0.296448 0.147703 0.8 0 0
0.587256 0.291169 0.134631 0.8 0 0
0.891317 0.288568 0.178559 0.8 0 0
0.807188 0.286591 0.162903 0.8 0 0
0.245004 0.237483 0.133828 0.8 0 0
0.454957 0.504861 0.053671 0.8 0 0
0.433459 0.544984 0.219751 0.8 0 0
0.500560 0.487926 0.205998 0.8 0 0
0.098539 0.516617 0.142651 0.8 0 0
0.822925 0.142121 0.178559 0.8 0 0
0.182396 0.469036 0.124403 0.8 0 0
0.267095 0.557712 0.182600 0.8 0 0
0.083620 0.641091 0.160019 0.8 0 0
0.685693 0.379031 0.163196 0.8 0 0
0.276581 0.607090 0.103959 0.8 0 0
0.266900 0.223476 0.130520 0.8 0 0
0.662426 0.397181 0.194104 0.8 0 0
0.205365 0.564846 0.124835 0.8 0 0
0.569572 0.263644 0.136778 0.8 0 0
0.297806 0.604088 0.072542 0.8 0 0
0.317307 0.602754 0.239867 0.8 0 0
0.392999 0.531687 0.154382 0.8 0 0
0.850968 0.262194 0.223753 0.8 0 0
0.561000 0.528502 0.139434 0.8 0 0
0.277396 0.615703 0.101159 0.8 0 0
0.781121 0.197926 0.117795 0.8 0 0
0.726179 0.391073 0.117795 0.8 0 0
0.760329 0.338463 0.117795 0.8 0 0
0.488633 0.568918 0.088503 0.8 0 0
0.212563 0.563667 0.160588 0.8 0 0
0.233967 0.373226 0.117795 0.8 0 0
0.578382 0.494927 0.183466 0.8 0 0
0.219292 0.470356 0.114032 0.8 0 0
0.756312 0.289108 0.162948 0.8 0 0
0.887420 0.026901 0.178559 0.8 0 0
0.830006 0.030706 0.119656 0.8 0 0
0.300722 0.629480 0.164415 0.8 0 0
0.936937 0.157268 0.203192 0.8 0 0
0.962462 0.033600 0.187036 0.8 0 0
0.488635 0.587571 0.173549 0.8 0 0
0.471324 0.558215 0.026231 0.8 0 0
0.808195 0.169317 0.178559 0.8 0 0
0.437232 0.514933 0.134447 0.8 0 0
0.197086 0.563244 0.134339 0.8 0 0
0.451400 0.599242 0.254953 0.8 0 0
0.806461 0.178795 0.163016 0.8 0 0
0.378612 0.264809 0.156480 0.8 0 0
0.403083 0.530952 0.150320 0.8 0 0
0.746337 0.390968 0.117795 0.8 0 0
0.431486 0.618405 0.101057 0.8 0 0
0.510715 0.476910 0.175140 0.8 0 0
0.932888 0.192614 0.199739 0.8 0 0
0.726190 0.191973 0.116544 0.8 0 0
0.236757 0.579724 0.113411 0.8 0 0
0.516746 0.599953 0.139374 0.8 0 0
0.268737 0.424471 0.171668 0.8 0 0
0.353337 0.650425 0.164448 0.8 0 0
0.383998 0.601920 0.241450 0.8 0 0
0.820541 0.391815 0.132273 0.8 0 0
0.743336 0.506397 0.178559 0.8 0 0
0.054792 0.663169 0.138966 0.8 0 0
0.125659 0.632797 0.191824 0.8 0 0
0.349428 0.674459 0.153192 0.8 0 0
0.471147 0.559562 0.266603 0.8 0 0
0.364724 0.180426 0.135682 0.8 0 0
0.451287 0.565140 0.059138 0.8 0 0
0.725299 0.210035 0.171234 0.8 0 0
0.272418 0.508055 0.051690 0.8 0 0
0.205844 0.657665 0.161189 0.8 0 0
0.882013 0.310222 0.178640 0.8 0 0
0.282401 0.231808 0.161403 0.8 0 0
0.884841 0.287570 0.200244 0.8 0 0
0.592763 0.307349 0.136153 0.8 0 0
0.083679 0.574099 0.152014 0.8 0 0
0.437235 0.581491 0.180371 0.8 0 0
0.488634 0.519474 0.170814 0.8 0 0
0.388262 0.634576 0.217088 0.8 0 0
0.563992 0.295854 0.162355 0.8 0 0
0.382836 0.656187 0.195917 0.8 0 0
0.362956 0.496582 0.237692 0.8 0 0
0.437234 0.576476 0.149628 0.8 0 0
0.863190 0.288881 0.134570 0.8 0 0
0.456295 0.666913 0.144266 0.8 0 0
0.488635 0.485098 0.143093 0.8 0 0
0.968157 0.116336 0.120323 0.8 0 0
0.705665 0.443023 0.112535 0.8 0 0
0.815157 0.044360 0.178559 0.8 0 0
0.495943 0.557394 0.229738 0.8 0 0
0.875089 0.283064 0.206245 0.8 0 0
0.814787 0.135379 0.220278 0.8 0 0
0.314808 0.505407 0.032325 0.8 0 0
0.277256 0.424529 0.171878 0.8 0 0
0.178170 0.589282 0.105502 0.8 0 0
0.448316 0.542758 0.079498 0.8 0 0
0.359087 0.614915 0.053535 0.8 0 0
0.473695 0.577273 0.246187 0.8 0 0
0.461823 0.630040 0.059296 0.8 0 0
0.444513 0.484551 0.188918 0.8 0 0
0.422611 0.473846 0.232007 0.8 0 0
0.182271 0.577441 0.148017 0.8 0 0
0.525316 0.499105 0.143933 0.8 0 0
0.721151 0.241562 0.133022 0.8 0 0
0.533506 0.339463 0.117795 0.8 0 0
0.668141 0.325057 0.124727 0.8 0 0
0.764030 0.213676 0.080316 0.8 0 0
0.831509 0.061878 0.178559 0.8 0 0
0.572607 0.556765 0.117795 0.8 0 0
0.398510 0.636464 0.141599 0.8 0 0
0.305089 0.664570 0.135175 0.8 0 0
0.899869 0.134914 0.218437 0.8 0 0
0.481342 0.575612 0.224085 0.8 0 0
0.831960 0.218765 0.231896 0.8 0 0
0.393478 0.435496 0.109405 0.8 0 0
0.188323 0.583869 0.103421 0.8 0 0
0.754188 0.325100 0.178559 0.8 0 0
0.917661 0.246724 0.194155 0.8 0 0
0.191874 0.658222 0.170905 0.8 0 0
0.437235 0.517136 0.252278 0.8 0 0
0.788512 0.299396 0.134453 0.8 0 0
0.332965 0.680276 0.154273 0.8 0 0
0.301169 0.572785 0.264695 0.8 0 0
0.727097 0.147911 0.120690 0.8 0 0
0.235373 0.593277 0.103306 0.8 0 0
0.134127 0.534968 0.130261 0.8 0 0
0.437235 0.520810 0.258992 0.8 0 0
0.424250 0.682110 0.138105 0.8 0 0
0.792519 0.318878 0.068588 0.8 0 0
0.612251 0.539321 0.176630 0.8 0 0
0.862794 0.128812 0.117795 0.8 0 0
0.510507 0.189644 0.160165 0.8 0 0
0.517617 0.594446 0.178559 0.8 0 0
0.354413 0.593045 0.034840 0.8 0 0
0.229406 0.380331 0.134917 0.8 0 0
0.227019 0.445951 0.117795 0.8 0 0
0.107112 0.533171 0.131566 0.8 0 0
0.267094 0.515372 0.182878 0.8 0 0
0.805252 0.277693 0.117795 0.8 0 0
0.199124 0.595047 0.102411 0.8 0 0
0.358874 0.166847 0.142071 0.8 0 0
0.055771 0.572873 0.170388 0.8 0 0
0.356181 0.627064 0.147937 0.8 0 0
0.727210 0.146499 0.121941 0.8 0 0
0.326885 0.170968 0.137097 0.8 0 0
0.307211 0.529407 0.228030 0.8 0 0
0.378309 0.664569 0.159448 0.8 0 0
0.149101 0.646417 0.109326 0.8 0 0
0.289252 0.436777 0.113519 0.8 0 0
0.690339 0.360452 0.163196 0.8 0 0
0.256300 0.348784 0.117795 0.8 0 0
0.252296 0.582679 0.188910 0.8 0 0
0.393108 0.272570 0.156480 0.8 0 0
0.807111 0.412062 0.195239 0.8 0 0
0.239645 0.680276 0.165252 0.8 0 0
0.893241 0.147529 0.134291 0.8 0 0
0.068186 0.685985 0.147471 0.8 0 0
0.825208 0.319375 0.117795 0.8 0 0
0.817312 0.025581 0.160037 0.8 0 0
0.587713 0.561456 0.133844 0.8 0 0
0.546367 0.560431 0.178559 0.8 0 0
0.320050 0.467364 0.218322 0.8 0 0
0.901308 0.196114 0.117795 0.8 0 0
0.250794 0.509089 0.177837 0.8 0 0
0.335798 0.478025 0.148403 0.8 0 0
0.063942 0.663131 0.146038 0.8 0 0
0.267094 0.575138 0.150350 0.8 0 0
0.555837 0.631719 0.170373 0.8 0 0
0.267091 0.489764 0.088433 0.8 0 0
0.769706 0.311962 0.069222 0.8 0 0
0.780925 0.379942 0.117795 0.8 0 0
0.373059 0.463974 0.214264 0.8 0 0
0.393870 0.534180 0.135575 0.8 0 0
0.421466 0.626663 0.148045 0.8 0 0
0.304677 0.596433 0.115534 0.8 0 0
0.864442 0.259728 0.217733 0.8 0 0
0.437231 0.456060 0.148800 0.8 0 0
0.770173 0.100633 0.163145 0.8 0 0
0.340848 0.565412 0.197208 0.8 0 0
0.812471 0.062401 0.134232 0.8 0 0
0.471346 0.456375 0.149885 0.8 0 0
0.438802 0.373797 0.127023 0.8 0 0
0.786412 0.250447 0.065848 0.8 0 0
0.428813 0.559023 0.142598 0.8 0 0
0.191017 0.557817 0.130088 0.8 0 0
0.642991 0.478317 0.139266 0.8 0 0
0.287938 0.451806 0.103242 0.8 0 0
0.057842 0.687165 0.140350 0.8 0 0
0.358803 0.424242 0.129192 0.8 0 0
0.823066 0.031128 0.175271 0.8 0 0
0.571073 0.518758 0.139266 0.8 0 0
0.884651 0.229132 0.162949 0.8 0 0
0.414474 0.595368 0.036055 0.8 0 0
0.854497 0.088409 0.134238 0.8 0 0
0.226263 0.387248 0.147293 0.8 0 0
0.339786 0.576936 0.038208 0.8 0 0
0.400891 0.549089 0.161926 0.8 0 0
0.388703 0.167212 0.164064 0.8 0 0
0.523382 0.644234 0.178559 0.8 0 0
0.361200 0.188555 0.161403 0.8 0 0
0.486752 0.593065 0.168941 0.8 0 0
0.183399 0.549723 0.160490 0.8 0 0
0.488635 0.475540 0.160016 0.8 0 0
0.811381 0.371176 0.206207 0.8 0 0
0.401136 0.475801 0.238215 0.8 0 0
0.545748 0.617025 0.178559 0.8 0 0
0.303660 0.462167 0.074115 0.8 0 0
0.757885 0.231508 0.117795 0.8 0 0
0.157451 0.519519 0.159755 0.8 0 0
0.490833 0.444015 0.117795 0.8 0 0
0.134102 0.589572 0.132767 0.8 0 0
0.813151 0.302153 0.162989 0.8 0 0
0.722330 0.224715 0.153654 0.8 0 0
0.721637 0.436922 0.197828 0.8 0 0
0.093668 0.654832 0.174747 0.8 0 0
0.483550 0.491078 0.081118 0.8 0 0
0.450678 0.591731 0.034152 0.8 0 0
0.911644 0.258412 0.173323 0.8 0 0
0.473695 0.645440 0.146527 0.8 0 0
0.293876 0.599764 0.092358 0.8 0 0
0.488634 0.600961 0.083485 0.8 0 0
0.182987 0.586208 0.137259 0.8 0 0
0.571034 0.595976 0.155232 0.8 0 0
0.515115 0.533475 0.213395 0.8 0 0
0.650226 0.637676 0.140815 0.8 0 0
0.572260 0.567267 0.139266 0.8 0 0
0.284765 0.676348 0.135493 0.8 0 0
0.295740 0.538177 0.160650 0.8 0 0
0.437235 0.499249 0.244176 0.8 0 0
0.367881 0.559605 0.147492 0.8 0 0
0.299952 0.532246 0.214671 0.8 0 0
0.173696 0.627426 0.120117 0.8 0 0
0.267092 0.498915 0.134812 0.8 0 0
0.492536 0.602258 0.139374 0.8 0 0
0.642897 0.404021 0.178559 0.8 0 0
0.914851 0.026278 0.139783 0.8 0 0
0.810613 0.387261 0.178559 0.8 0 0
0.437234 0.500504 0.256256 0.8 0 0
0.408186 0.563574 0.060478 0.8 0 0
0.664832 0.371640 0.099556 0.8 0 0
0.751259 0.415638 0.163195 0.8 0 0
0.740740 0.423898 0.134247 0.8 0 0
0.662062 0.440784 0.178559 0.8 0 0
0.273173 0.253907 0.147198 0.8 0 0
0.565766 0.259082 0.168538 0.8 0 0
0.364558 0.174549 0.129486 0.8 0 0
0.473691 0.484179 0.142409 0.8 0 0
0.239981 0.423709 0.117795 0.8 0 0
0.267095 0.549903 0.205765 0.8 0 0
0.795272 0.446122 0.154711 0.8 0 0
0.254095 0.555469 0.198739 0.8 0 0
0.258373 0.374111 0.155402 0.8 0 0
0.528468 0.653453 0.155473 0.8 0 0
0.529065 0.215995 0.137097 0.8 0 0
0.273848 0.531884 0.140444 0.8 0 0
0.555038 0.506282 0.178559 0.8 0 0
0.488635 0.579879 0.183338 0.8 0 0
0.287351 0.494977 0.040501 0.8 0 0
0.214050 0.612085 0.093231 0.8 0 0
0.525059 0.566045 0.117795 0.8 0 0
0.739362 0.443572 0.163195 0.8 0 0
0.551962 0.588242 0.178559 0.8 0 0
0.574487 0.258679 0.163533 0.8 0 0
0.799261 0.344500 0.163184 0.8 0 0
0.267091 0.528488 0.043511 0.8 0 0
0.828731 0.372775 0.178559 0.8 0 0
0.177688 0.612064 0.117657 0.8 0 0
0.541771 0.602467 0.139266 0.8 0 0
0.252509 0.533377 0.165428 0.8 0 0
0.766724 0.216257 0.134535 0.8 0 0
0.473690 0.442020 0.163050 0.8 0 0
0.484671 0.396534 0.141896 0.8 0 0
0.863060 0.083893 0.117795 0.8 0 0
0.698133 0.382341 0.163196 0.8 0 0
0.939653 0.028128 0.117795 0.8 0 0
0.563601 0.477536 0.178559 0.8 0 0
0.945221 0.027586 0.125430 0.8 0 0
0.531247 0.541139 0.131136 0.8 0 0
0.182396 0.485804 0.153394 0.8 0 0
0.774574 0.060205 0.163203 0.8 0 0
0.437232 0.482441 0.197710 0.8 0 0
0.918795 0.123471 0.134248 0.8 0 0
0.824975 0.374951 0.198390 0.8 0 0
0.570032 0.501685 0.201229 0.8 0 0
0.430033 0.660232 0.129985 0.8 0 0
0.557264 0.491397 0.117795 0.8 0 0
0.735298 0.096965 0.114582 0.8 0 0
0.834504 0.373574 0.127568 0.8 0 0
0.505990 0.443356 0.117795 0.8 0 0
0.437235 0.550574 0.198970 0.8 0 0
0.304074 0.603906 0.083847 0.8 0 0
0.962623 0.136784 0.177374 0.8 0 0
0.536808 0.657580 0.156280 0.8 0 0
0.730812 0.457027 0.117795 0.8 0 0
0.335711 0.620116 0.070060 0.8 0 0
0.526879 0.528477 0.110049 0.8 0 0
0.530342 0.595334 0.117795 0.8 0 0
0.374400 0.604511 0.074119 0.8 0 0
0.430155 0.452844 0.188995 0.8 0 0
0.669598 0.505040 0.117795 0.8 0 0
0.656718 0.345706 0.113428 0.8 0 0
0.428947 0.434469 0.097907 0.8 0 0
0.706994 0.496995 0.139266 0.8 0 0
0.557570 0.488433 0.156280 0.8 0 0
0.536216 0.414206 0.178559 0.8 0 0
0.410336 0.538618 0.160847 0.8 0 0
0.439331 0.636257 0.141865 0.8 0 0
0.323581 0.674459 0.137747 0.8 0 0
0.025000 0.638442 0.107332 0.8 0 0
0.345376 0.641949 0.131445 0.8 0 0
0.056908 0.689910 0.152504 0.8 0 0
0.905047 0.049549 0.178559 0.8 0 0
0.409345 0.585500 0.101469 0.8 0 0
0.971888 0.046464 0.178822 0.8 0 0
0.739549 0.428313 0.096239 0.8 0 0
0.456763 0.532896 0.154738 0.8 0 0
0.267093 0.477373 0.200715 0.8 0 0
0.747394 0.232653 0.117795 0.8 0 0
0.566060 0.521934 0.156280 0.8 0 0
0.817103 0.083722 0.163196 0.8 0 0
0.292753 0.394731 0.178559 0.8 0 0
0.923964 0.068569 0.092718 0.8 0 0
0.354572 0.501438 0.056732 0.8 0 0
0.210533 0.574642 0.146235 0.8 0 0
0.267094 0.612518 0.097000 0.8 0 0
0.350320 0.650348 0.165310 0.8 0 0
0.961435 0.110452 0.117795 0.8 0 0
0.772122 0.270255 0.065521 0.8 0 0
0.473689 0.494507 0.045385 0.8 0 0
0.885266 0.254905 0.117795 0.8 0 0
0.091856 0.574571 0.148087 0.8 0 0
0.437231 0.509102 0.040563 0.8 0 0
0.479610 0.550255 0.160317 0.8 0 0
0.082777 0.662220 0.134203 0.8 0 0
0.888333 0.055396 0.201942 0.8 0 0
0.447161 0.478821 0.045161 0.8 0 0
0.337863 0.559851 0.260023 0.8 0 0
0.547333 0.471829 0.155234 0.8 0 0
0.370150 0.592301 0.228736 0.8 0 0
0.858929 0.340411 0.124966 0.8 0 0
0.696085 0.314874 0.166754 0.8 0 0
0.428770 0.548841 0.208087 0.8 0 0
0.298180 0.492576 0.174420 0.8 0 0
0.522386 0.561021 0.096085 0.8 0 0
0.683403 0.430287 0.178559 0.8 0 0
0.267094 0.485538 0.231251 0.8 0 0
0.820970 0.393158 0.169374 0.8 0 0
0.965086 0.128531 0.141819 0.8 0 0
0.626131 0.497494 0.178559 0.8 0 0
0.268271 0.285962 0.141703 0.8 0 0
0.437236 0.630429 0.213384 0.8 0 0
0.921693 0.207658 0.095367 0.8 0 0
0.484129 0.606073 0.174869 0.8 0 0
0.259053 0.397806 0.117795 0.8 0 0
0.516761 0.590531 0.192431 0.8 0 0
0.505916 0.195923 0.137097 0.8 0 0
0.552933 0.485333 0.178559 0.8 0 0
0.329824 0.598196 0.138365 0.8 0 0
0.379228 0.530183 0.142545 0.8 0 0
0.841609 0.179259 0.117795 0.8 0 0
0.708828 0.494363 0.139266 0.8 0 0
0.433906 0.452413 0.077182 0.8 0 0
0.488273 0.406106 0.153783 0.8 0 0
0.312519 0.620513 0.204957 0.8 0 0
0.945615 0.122601 0.093950 0.8 0 0
0.063693 0.556967 0.162253 0.8 0 0
0.274558 0.355953 0.117795 0.8 0 0
0.101383 0.585942 0.107912 0.8 0 0
0.925203 0.235262 0.127564 0.8 0 0
0.893610 0.205755 0.216038 0.8 0 0
0.506955 0.502287 0.211450 0.8 0 0
0.605641 0.342528 0.178559 0.8 0 0
0.676700 0.411358 0.134247 0.8 0 0
0.343153 0.503307 0.258149 0.8 0 0
0.787107 0.035893 0.182316 0.8 0 0
0.772732 0.402426 0.209054 0.8 0 0
0.790581 0.116820 0.134311 0.8 0 0
0.472823 0.451767 0.070146 0.8 0 0
0.161309 0.640064 0.188311 0.8 0 0
0.210812 0.649570 0.105632 0.8 0 0
0.423043 0.443511 0.080630 0.8 0 0
0.295381 0.675868 0.174899 0.8 0 0
0.853671 0.090834 0.178559 0.8 0 0
0.921745 0.167084 0.134306 0.8 0 0
0.811606 0.362880 0.134257 0.8 0 0
0.600904 0.643043 0.147706 0.8 0 0
0.257144 0.558785 0.167022 0.8 0 0
0.349229 0.589176 0.187358 0.8 0 0
0.896596 0.204035 0.163028 0.8 0 0
0.537199 0.208714 0.159427 0.8 0 0
0.949255 0.102218 0.094258 0.8 0 0
0.669898 0.325340 0.118650 0.8 0 0
0.844161 0.329876 0.093492 0.8 0 0
0.546847 0.354393 0.178559 0.8 0 0
0.824333 0.300737 0.223135 0.8 0 0
0.568335 0.274271 0.133678 0.8 0 0
0.443421 0.380511 0.140624 0.8 0 0
0.921463 0.243614 0.153825 0.8 0 0
0.892549 0.233233 0.117795 0.8 0 0
0.311724 0.492491 0.045232 0.8 0 0
0.739783 0.511585 0.117795 0.8 0 0
0.408439 0.454213 0.151301 0.8 0 0
0.254076 0.652339 0.177858 0.8 0 0
0.432870 0.476303 0.193659 0.8 0 0
0.494909 0.427964 0.178559 0.8 0 0
0.526249 0.571128 0.113942 0.8 0 0
0.090356 0.566743 0.148488 0.8 0 0
0.420850 0.455546 0.205462 0.8 0 0
0.751854 0.352065 0.163198 0.8 0 0
0.271257 0.393694 0.117795 0.8 0 0
0.437233 0.445457 0.202758 0.8 0 0
0.401245 0.516553 0.193701 0.8 0 0
0.236937 0.534407 0.156632 0.8 0 0
0.418822 0.674884 0.118684 0.8 0 0
0.336468 0.566960 0.057633 0.8 0 0
0.707785 0.427473 0.117795 0.8 0 0
0.864164 0.185098 0.134395 0.8 0 0
0.530377 0.207751 0.161246 0.8 0 0
