0.097511 0.544623 0.053623 0.8 0 0
0.296148 0.492277 0.133181 0.8 0 0
0.168349 0.077541 0.058368 0.8 0 0
0.956061 0.578723 0.110329 0.8 0 0
0.354993 0.342621 0.064420 0.8 0 0
0.281320 0.266944 0.108612 0.8 0 0
0.509770 0.599272 0.144305 0.8 0 0
0.490510 0.597494 0.120794 0.8 0 0
0.064482 0.128936 0.073292 0.8 0 0
0.179714 0.393636 0.133298 0.8 0 0
0.046157 0.084915 0.123681 0.8 0 0
0.335844 0.487292 0.123681 0.8 0 0
0.290654 0.323847 0.038355 0.8 0 0
0.911631 0.592836 0.118768 0.8 0 0
0.910085 0.597373 0.091199 0.8 0 0
0.239899 0.507749 0.133181 0.8 0 0
0.083663 0.601079 0.145965 0.8 0 0
0.227304 0.597458 0.034381 0.8 0 0
0.528387 0.565671 0.039379 0.8 0 0
0.437617 0.584337 0.101633 0.8 0 0
0.269559 0.549554 0.146719 0.8 0 0
0.503012 0.500658 0.028496 0.8 0 0
0.193004 0.195179 0.154081 0.8 0 0
0.084103 0.642022 0.063087 0.8 0 0
0.292642 0.546576 0.133181 0.8 0 0
0.136728 0.114982 0.067868 0.8 0 0
0.212677 0.224096 0.037587 0.8 0 0
0.082435 0.636909 0.045260 0.8 0 0
0.239771 0.199458 0.133181 0.8 0 0
0.100745 0.135348 0.053593 0.8 0 0
0.757833 0.552606 0.107179 0.8 0 0
0.451909 0.634874 0.061813 0.8 0 0
0.426838 0.568185 0.125632 0.8 0 0
0.205709 0.526229 0.147788 0.8 0 0
0.807511 0.556587 0.080988 0.8 0 0
0.388803 0.538119 0.111243 0.8 0 0
0.493703 0.368781 0.120577 0.8 0 0
0.394406 0.368195 0.082526 0.8 0 0
0.178229 0.250020 0.067869 0.8 0 0
0.215882 0.630418 0.041220 0.8 0 0
0.195239 0.307784 0.067869 0.8 0 0
0.408566 0.565299 0.145069 0.8 0 0
0.349587 0.475937 0.133181 0.8 0 0
0.068864 0.601505 0.153013 0.8 0 0
0.243549 0.316839 0.067869 0.8 0 0
0.136089 0.589849 0.116747 0.8 0 0
0.276583 0.287846 0.123681 0.8 0 0
0.313092 0.458507 0.036207 0.8 0 0
0.231483 0.323689 0.067869 0.8 0 0
0.514327 0.525557 0.025000 0.8 0 0
0.953382 0.634350 0.099931 0.8 0 0
0.255863 0.458982 0.123681 0.8 0 0
0.409188 0.553041 0.153013 0.8 0 0
0.576184 0.421053 0.073824 0.8 0 0
0.105531 0.579445 0.147788 0.8 0 0
0.254268 0.187800 0.055297 0.8 0 0
0.365265 0.349158 0.073734 0.8 0 0
0.464983 0.565474 0.152231 0.8 0 0
0.142665 0.146336 0.147388 0.8 0 0
0.600754 0.539756 0.038538 0.8 0 0
0.215059 0.519697 0.133181 0.8 0 0
0.374612 0.469046 0.121572 0.8 0 0
0.178557 0.469776 0.133181 0.8 0 0
0.647016 0.599687 0.070866 0.8 0 0
0.806444 0.564340 0.077720 0.8 0 0
0.321637 0.367986 0.069281 0.8 0 0
0.463980 0.558643 0.077963 0.8 0 0
0.206586 0.265235 0.154081 0.8 0 0
0.263351 0.608643 0.125571 0.8 0 0
0.233665 0.638603 0.090240 0.8 0 0
0.419350 0.480073 0.058369 0.8 0 0
0.163649 0.123246 0.058368 0.8 0 0
0.280388 0.208619 0.082874 0.8 0 0
0.667982 0.552486 0.122394 0.8 0 0
0.059885 0.142492 0.043659 0.8 0 0
0.161920 0.572871 0.043763 0.8 0 0
0.267676 0.490642 0.067869 0.8 0 0
0.145375 0.194538 0.037587 0.8 0 0
0.134288 0.063930 0.049564 0.8 0 0
0.212011 0.414463 0.150605 0.8 0 0
0.634041 0.557165 0.052456 0.8 0 0
0.175065 0.345873 0.110060 0.8 0 0
0.905444 0.555530 0.110346 0.8 0 0
0.332800 0.594852 0.090373 0.8 0 0
0.805860 0.551208 0.104487 0.8 0 0
0.483837 0.358382 0.127006 0.8 0 0
0.118985 0.544594 0.054696 0.8 0 0
0.172567 0.130811 0.067868 0.8 0 0
0.227208 0.527565 0.153013 0.8 0 0
0.215507 0.131628 0.053257 0.8 0 0
0.476855 0.361958 0.097891 0.8 0 0
0.576538 0.557047 0.044831 0.8 0 0
0.608566 0.618553 0.106561 0.8 0 0
0.485154 0.360743 0.078051 0.8 0 0
0.569668 0.461272 0.106613 0.8 0 0
0.675908 0.575610 0.123960 0.8 0 0
0.590564 0.513029 0.133181 0.8 0 0
0.099926 0.087951 0.142781 0.8 0 0
0.452946 0.373253 0.127006 0.8 0 0
0.844337 0.549457 0.101230 0.8 0 0
0.139277 0.476923 0.052802 0.8 0 0
0.125419 0.218447 0.037587 0.8 0 0
0.431189 0.645469 0.093823 0.8 0 0
0.336336 0.502296 0.146001 0.8 0 0
0.549976 0.369005 0.064544 0.8 0 0
0.078602 0.638278 0.098603 0.8 0 0
0.169713 0.605130 0.048334 0.8 0 0
0.466683 0.544115 0.140604 0.8 0 0
0.421275 0.446546 0.055357 0.8 0 0
0.210486 0.365493 0.067869 0.8 0 0
0.182612 0.608437 0.082621 0.8 0 0
0.970974 0.562779 0.061203 0.8 0 0
0.188348 0.222187 0.037587 0.8 0 0
0.177273 0.069047 0.110328 0.8 0 0
0.494751 0.566769 0.032678 0.8 0 0
0.319771 0.529937 0.038537 0.8 0 0
0.942601 0.566523 0.060186 0.8 0 0
0.441670 0.371004 0.095364 0.8 0 0
0.265075 0.264562 0.123681 0.8 0 0
0.411060 0.580227 0.146719 0.8 0 0
0.628748 0.543938 0.146277 0.8 0 0
0.455305 0.443430 0.124869 0.8 0 0
0.185800 0.581318 0.081406 0.8 0 0
0.117980 0.071801 0.049034 0.8 0 0
0.565644 0.465967 0.091048 0.8 0 0
0.547497 0.598414 0.144872 0.8 0 0
0.532363 0.364629 0.101162 0.8 0 0
0.158018 0.625232 0.038538 0.8 0 0
0.223890 0.131155 0.122174 0.8 0 0
0.147165 0.601434 0.137857 0.8 0 0
0.578261 0.496165 0.058369 0.8 0 0
0.242305 0.217916 0.042073 0.8 0 0
0.359739 0.419433 0.138499 0.8 0 0
0.184564 0.553305 0.152097 0.8 0 0
0.621852 0.611920 0.125407 0.8 0 0
0.529173 0.582068 0.034326 0.8 0 0
0.216141 0.657300 0.058972 0.8 0 0
0.115848 0.541137 0.147787 0.8 0 0
0.463100 0.360069 0.076134 0.8 0 0
0.177204 0.034738 0.076927 0.8 0 0
0.553200 0.609753 0.094427 0.8 0 0
0.549729 0.464717 0.068402 0.8 0 0
0.473488 0.569543 0.115369 0.8 0 0
0.820629 0.553558 0.083555 0.8 0 0
0.780577 0.549875 0.089095 0.8 0 0
0.224438 0.630413 0.107175 0.8 0 0
0.438926 0.561920 0.097400 0.8 0 0
0.176414 0.348519 0.113969 0.8 0 0
0.178719 0.544511 0.045315 0.8 0 0
0.519984 0.470870 0.091976 0.8 0 0
0.036055 0.116507 0.125901 0.8 0 0
0.263288 0.607975 0.127006 0.8 0 0
0.552725 0.594838 0.052201 0.8 0 0
0.290267 0.259713 0.145226 0.8 0 0
0.071513 0.240774 0.090442 0.8 0 0
0.408058 0.502220 0.046769 0.8 0 0
0.168352 0.487452 0.034625 0.8 0 0
0.186529 0.046989 0.121771 0.8 0 0
0.112210 0.522557 0.026663 0.8 0 0
0.576984 0.437428 0.081459 0.8 0 0
0.546179 0.466784 0.108487 0.8 0 0
0.269253 0.462532 0.156156 0.8 0 0
0.194379 0.175528 0.058368 0.8 0 0
0.194660 0.573833 0.122220 0.8 0 0
0.437374 0.643182 0.101183 0.8 0 0
0.751769 0.549496 0.118672 0.8 0 0
0.372469 0.502134 0.134348 0.8 0 0
0.137622 0.592391 0.083607 0.8 0 0
0.154628 0.181939 0.067868 0.8 0 0
0.148712 0.637773 0.128518 0.8 0 0
0.233498 0.638602 0.088159 0.8 0 0
0.867106 0.551290 0.104298 0.8 0 0
0.126984 0.114530 0.133181 0.8 0 0
0.144282 0.129761 0.053669 0.8 0 0
0.200745 0.396253 0.078954 0.8 0 0
0.243035 0.562266 0.153013 0.8 0 0
0.207777 0.251841 0.123681 0.8 0 0
0.946513 0.607758 0.087463 0.8 0 0
0.334161 0.497855 0.154609 0.8 0 0
0.576500 0.479338 0.052814 0.8 0 0
0.223784 0.408008 0.153912 0.8 0 0
0.355746 0.481938 0.058369 0.8 0 0
0.509911 0.565614 0.040656 0.8 0 0
0.339168 0.610913 0.065299 0.8 0 0
0.548682 0.554880 0.153013 0.8 0 0
0.131979 0.481360 0.059636 0.8 0 0
0.536127 0.551856 0.077963 0.8 0 0
0.119779 0.084901 0.135447 0.8 0 0
0.313899 0.497200 0.067869 0.8 0 0
0.238675 0.166375 0.054768 0.8 0 0
0.350178 0.362357 0.043732 0.8 0 0
0.191915 0.577132 0.150553 0.8 0 0
0.408948 0.636014 0.105462 0.8 0 0
0.396872 0.630469 0.077963 0.8 0 0
0.184897 0.575237 0.153013 0.8 0 0
0.106659 0.138567 0.133181 0.8 0 0
0.130083 0.517627 0.147787 0.8 0 0
0.115782 0.645687 0.113179 0.8 0 0
0.348985 0.471114 0.058369 0.8 0 0
0.540731 0.594211 0.039770 0.8 0 0
0.954428 0.535747 0.079286 0.8 0 0
0.833521 0.586287 0.115796 0.8 0 0
0.120168 0.184638 0.154081 0.8 0 0
0.372426 0.584910 0.086266 0.8 0 0
0.465619 0.541160 0.115369 0.8 0 0
0.277240 0.431874 0.133181 0.8 0 0
0.633041 0.589938 0.050059 0.8 0 0
0.623828 0.496421 0.058369 0.8 0 0
0.778050 0.556152 0.081242 0.8 0 0
0.147133 0.120262 0.054860 0.8 0 0
0.351201 0.487867 0.067869 0.8 0 0
0.469830 0.549963 0.133181 0.8 0 0
0.292563 0.534042 0.133181 0.8 0 0
0.214486 0.614854 0.041465 0.8 0 0
0.148181 0.159566 0.038863 0.8 0 0
0.123582 0.117981 0.043698 0.8 0 0
0.253250 0.523343 0.153013 0.8 0 0
0.237704 0.587306 0.104716 0.8 0 0
0.269425 0.636440 0.140705 0.8 0 0
0.210262 0.339049 0.123681 0.8 0 0
0.201153 0.153083 0.040232 0.8 0 0
0.380877 0.404259 0.058369 0.8 0 0
0.138072 0.227301 0.058368 0.8 0 0
0.149791 0.576855 0.146719 0.8 0 0
0.149115 0.562779 0.146719 0.8 0 0
0.391600 0.596666 0.044831 0.8 0 0
0.039169 0.094902 0.131957 0.8 0 0
0.126317 0.533275 0.147787 0.8 0 0
0.419394 0.594745 0.077963 0.8 0 0
0.310023 0.494823 0.067869 0.8 0 0
0.789608 0.596074 0.095172 0.8 0 0
0.126598 0.278299 0.146333 0.8 0 0
0.152050 0.628434 0.062525 0.8 0 0
0.539777 0.367818 0.082130 0.8 0 0
0.124072 0.233179 0.067868 0.8 0 0
0.583672 0.418558 0.102206 0.8 0 0
0.061931 0.568682 0.113295 0.8 0 0
0.081432 0.080263 0.123681 0.8 0 0
0.202152 0.509130 0.147788 0.8 0 0
0.411502 0.372964 0.061142 0.8 0 0
0.153297 0.108832 0.054834 0.8 0 0
0.215695 0.566794 0.138476 0.8 0 0
0.084566 0.168336 0.107024 0.8 0 0
0.372693 0.502138 0.039209 0.8 0 0
0.301541 0.340529 0.123681 0.8 0 0
0.077764 0.250171 0.088718 0.8 0 0
0.208359 0.645873 0.084375 0.8 0 0
0.087026 0.074162 0.123681 0.8 0 0
0.336475 0.633076 0.098906 0.8 0 0
0.225464 0.589032 0.070217 0.8 0 0
0.260667 0.610081 0.141981 0.8 0 0
0.315846 0.513394 0.038537 0.8 0 0
0.360705 0.370409 0.146564 0.8 0 0
0.423564 0.580097 0.127006 0.8 0 0
0.643849 0.523412 0.109007 0.8 0 0
0.134489 0.480114 0.138037 0.8 0 0
0.065110 0.226381 0.109455 0.8 0 0
0.415925 0.495527 0.034584 0.8 0 0
0.342194 0.422075 0.058369 0.8 0 0
0.093836 0.186522 0.112650 0.8 0 0
0.150804 0.464277 0.101340 0.8 0 0
0.194908 0.051606 0.073980 0.8 0 0
0.778729 0.594863 0.101392 0.8 0 0
0.436565 0.576743 0.115369 0.8 0 0
0.086169 0.574476 0.062525 0.8 0 0
0.353610 0.419701 0.075158 0.8 0 0
0.201963 0.220710 0.154081 0.8 0 0
0.487654 0.569262 0.129856 0.8 0 0
0.444668 0.401333 0.129204 0.8 0 0
0.161616 0.075215 0.133181 0.8 0 0
0.095045 0.192574 0.039315 0.8 0 0
0.699178 0.574546 0.079350 0.8 0 0
0.159719 0.238576 0.123681 0.8 0 0
0.736545 0.587731 0.075728 0.8 0 0
0.172963 0.412858 0.099979 0.8 0 0
0.306245 0.522598 0.058369 0.8 0 0
0.160793 0.150365 0.154081 0.8 0 0
0.427966 0.592352 0.127006 0.8 0 0
0.691354 0.562925 0.124972 0.8 0 0
0.181040 0.182900 0.037587 0.8 0 0
0.347103 0.502138 0.039656 0.8 0 0
0.304789 0.444521 0.058369 0.8 0 0
0.112559 0.645983 0.065066 0.8 0 0
0.149318 0.121623 0.136381 0.8 0 0
0.525448 0.362926 0.121906 0.8 0 0
0.456537 0.363836 0.094830 0.8 0 0
0.457775 0.581776 0.129856 0.8 0 0
0.199443 0.534102 0.147788 0.8 0 0
0.463064 0.540070 0.077963 0.8 0 0
0.048150 0.173670 0.065151 0.8 0 0
0.097284 0.047847 0.123681 0.8 0 0
0.268999 0.564865 0.051214 0.8 0 0
0.100250 0.264735 0.058895 0.8 0 0
0.126111 0.622622 0.153013 0.8 0 0
0.100677 0.278170 0.091192 0.8 0 0
0.142714 0.484371 0.147787 0.8 0 0
0.126220 0.156360 0.148619 0.8 0 0
0.515526 0.552606 0.118794 0.8 0 0
0.261573 0.555038 0.038538 0.8 0 0
0.401851 0.469880 0.043553 0.8 0 0
0.280221 0.595801 0.146719 0.8 0 0
0.194762 0.445289 0.041908 0.8 0 0
0.338053 0.444126 0.067869 0.8 0 0
0.542898 0.552606 0.091364 0.8 0 0
0.297074 0.510216 0.133181 0.8 0 0
0.551168 0.580433 0.129856 0.8 0 0
0.958472 0.594042 0.117550 0.8 0 0
0.318903 0.566476 0.146719 0.8 0 0
0.387922 0.476333 0.058369 0.8 0 0
0.249639 0.595592 0.129025 0.8 0 0
0.704275 0.596177 0.092036 0.8 0 0
0.098852 0.275939 0.088062 0.8 0 0
0.524101 0.482425 0.075919 0.8 0 0
0.315631 0.457987 0.036376 0.8 0 0
0.690489 0.559868 0.124152 0.8 0 0
0.513306 0.471572 0.124869 0.8 0 0
0.505612 0.566729 0.077963 0.8 0 0
0.249416 0.333577 0.037587 0.8 0 0
0.356974 0.538119 0.077989 0.8 0 0
0.370062 0.583128 0.115369 0.8 0 0
0.530768 0.574216 0.061813 0.8 0 0
0.085468 0.058450 0.050112 0.8 0 0
0.244695 0.350437 0.154081 0.8 0 0
0.889086 0.553793 0.071209 0.8 0 0
0.617842 0.585257 0.094841 0.8 0 0
0.219210 0.632672 0.064544 0.8 0 0
0.316596 0.601097 0.146719 0.8 0 0
0.289624 0.383534 0.133181 0.8 0 0
0.217639 0.615646 0.129025 0.8 0 0
0.808324 0.550475 0.087901 0.8 0 0
0.273386 0.421418 0.123681 0.8 0 0
0.551736 0.565744 0.050548 0.8 0 0
0.082312 0.644163 0.086838 0.8 0 0
0.212625 0.503950 0.134785 0.8 0 0
0.341566 0.442030 0.058369 0.8 0 0
0.099986 0.517347 0.032044 0.8 0 0
0.177508 0.151494 0.154081 0.8 0 0
0.417304 0.597541 0.042989 0.8 0 0
0.326940 0.295792 0.060437 0.8 0 0
0.159724 0.554575 0.043763 0.8 0 0
0.315610 0.331112 0.084122 0.8 0 0
0.411295 0.406140 0.133181 0.8 0 0
0.164120 0.497069 0.043763 0.8 0 0
0.224059 0.476510 0.034690 0.8 0 0
0.198362 0.565223 0.146719 0.8 0 0
0.147909 0.232687 0.154081 0.8 0 0
0.322530 0.310401 0.144945 0.8 0 0
0.525564 0.552606 0.116682 0.8 0 0
0.577012 0.437986 0.116321 0.8 0 0
0.203920 0.128314 0.058368 0.8 0 0
0.089284 0.544634 0.145639 0.8 0 0
0.306548 0.610913 0.125582 0.8 0 0
0.606024 0.564876 0.153013 0.8 0 0
0.398864 0.566115 0.044831 0.8 0 0
0.267602 0.382488 0.037587 0.8 0 0
0.110461 0.570727 0.146719 0.8 0 0
0.181250 0.638091 0.093517 0.8 0 0
0.076462 0.204238 0.145936 0.8 0 0
0.385684 0.463104 0.093891 0.8 0 0
0.774926 0.578798 0.081938 0.8 0 0
0.203203 0.228954 0.154081 0.8 0 0
0.037709 0.097203 0.133181 0.8 0 0
0.569534 0.439524 0.073816 0.8 0 0
0.245144 0.332599 0.123681 0.8 0 0
0.212968 0.567031 0.146719 0.8 0 0
0.606491 0.507828 0.153012 0.8 0 0
0.339822 0.411944 0.067869 0.8 0 0
0.173193 0.553540 0.043763 0.8 0 0
0.407710 0.384608 0.066749 0.8 0 0
0.593107 0.492256 0.045900 0.8 0 0
0.077250 0.514000 0.114794 0.8 0 0
0.243846 0.614063 0.064544 0.8 0 0
0.399537 0.458214 0.148083 0.8 0 0
0.166334 0.082625 0.133181 0.8 0 0
0.035039 0.094236 0.095183 0.8 0 0
0.135506 0.643688 0.050186 0.8 0 0
0.371271 0.555407 0.133181 0.8 0 0
0.567908 0.397372 0.115520 0.8 0 0
0.432833 0.606213 0.137512 0.8 0 0
0.750938 0.579056 0.109369 0.8 0 0
0.561513 0.595267 0.146719 0.8 0 0
0.740538 0.585001 0.092591 0.8 0 0
0.100496 0.026070 0.128285 0.8 0 0
0.236431 0.633740 0.091342 0.8 0 0
0.104040 0.256101 0.047959 0.8 0 0
0.206613 0.345196 0.067869 0.8 0 0
0.592197 0.527194 0.049597 0.8 0 0
0.237303 0.176719 0.094960 0.8 0 0
0.405243 0.544200 0.144136 0.8 0 0
0.070051 0.108436 0.067868 0.8 0 0
0.136462 0.068496 0.058368 0.8 0 0
0.260866 0.649172 0.034811 0.8 0 0
0.112718 0.028865 0.140557 0.8 0 0
0.333326 0.402153 0.123681 0.8 0 0
0.331732 0.476288 0.123681 0.8 0 0
0.123826 0.161848 0.123681 0.8 0 0
0.118124 0.299489 0.095838 0.8 0 0
0.207774 0.121471 0.085011 0.8 0 0
0.187395 0.579869 0.119667 0.8 0 0
0.342626 0.517530 0.067869 0.8 0 0
0.547471 0.500412 0.133181 0.8 0 0
0.472743 0.562479 0.061813 0.8 0 0
0.513895 0.565170 0.044831 0.8 0 0
0.355616 0.346516 0.133181 0.8 0 0
0.053538 0.121078 0.044025 0.8 0 0
0.361511 0.382983 0.139990 0.8 0 0
0.512420 0.527276 0.034381 0.8 0 0
0.184829 0.095662 0.117402 0.8 0 0
0.083663 0.577976 0.041726 0.8 0 0
0.068495 0.604473 0.146719 0.8 0 0
0.155932 0.350669 0.075113 0.8 0 0
0.586729 0.543938 0.142185 0.8 0 0
0.412435 0.373000 0.114427 0.8 0 0
0.296785 0.366334 0.037587 0.8 0 0
0.566475 0.520707 0.133181 0.8 0 0
0.135790 0.592178 0.146719 0.8 0 0
0.272172 0.436722 0.036409 0.8 0 0
0.355722 0.424214 0.116649 0.8 0 0
0.117829 0.643687 0.138490 0.8 0 0
0.187258 0.608721 0.095882 0.8 0 0
0.081355 0.587144 0.153013 0.8 0 0
0.164489 0.598108 0.038538 0.8 0 0
0.176381 0.457323 0.037524 0.8 0 0
0.921876 0.593380 0.118218 0.8 0 0
0.036243 0.153935 0.091423 0.8 0 0
0.074914 0.061677 0.056681 0.8 0 0
0.528169 0.586914 0.044831 0.8 0 0
0.116510 0.110523 0.051600 0.8 0 0
0.929915 0.612127 0.087463 0.8 0 0
0.216358 0.127597 0.136542 0.8 0 0
0.606871 0.548824 0.091893 0.8 0 0
0.488420 0.375981 0.080806 0.8 0 0
0.046896 0.172334 0.124149 0.8 0 0
0.583137 0.584303 0.099630 0.8 0 0
0.307257 0.251810 0.093461 0.8 0 0
0.583656 0.418452 0.074939 0.8 0 0
0.627202 0.538945 0.038538 0.8 0 0
0.408560 0.540203 0.115369 0.8 0 0
0.089020 0.257200 0.070599 0.8 0 0
0.432477 0.538119 0.100770 0.8 0 0
0.222030 0.379615 0.123681 0.8 0 0
0.646488 0.607359 0.106334 0.8 0 0
0.483826 0.380026 0.088852 0.8 0 0
0.215371 0.628808 0.152272 0.8 0 0
0.712622 0.570063 0.066491 0.8 0 0
0.204209 0.648689 0.048315 0.8 0 0
0.587803 0.543938 0.141971 0.8 0 0
0.479392 0.353690 0.115965 0.8 0 0
0.343781 0.475183 0.123681 0.8 0 0
0.509941 0.552606 0.123319 0.8 0 0
0.421106 0.454563 0.055831 0.8 0 0
0.249531 0.257368 0.067869 0.8 0 0
0.417385 0.415091 0.127475 0.8 0 0
0.256105 0.213008 0.088000 0.8 0 0
0.153655 0.584909 0.044831 0.8 0 0
0.540731 0.507529 0.048549 0.8 0 0
0.531406 0.570910 0.146719 0.8 0 0
0.530660 0.599981 0.051251 0.8 0 0
0.180120 0.068974 0.084494 0.8 0 0
0.225430 0.444678 0.069397 0.8 0 0
0.111668 0.111348 0.058368 0.8 0 0
0.049116 0.084803 0.097002 0.8 0 0
0.244290 0.485802 0.133181 0.8 0 0
0.540731 0.580099 0.049070 0.8 0 0
0.463682 0.549307 0.153013 0.8 0 0
0.085101 0.617024 0.146091 0.8 0 0
0.403476 0.565283 0.138964 0.8 0 0
0.553200 0.599714 0.097944 0.8 0 0
0.245997 0.638724 0.074899 0.8 0 0
0.310531 0.318054 0.086321 0.8 0 0
0.458645 0.544126 0.135849 0.8 0 0
0.170068 0.348901 0.049902 0.8 0 0
0.150126 0.082360 0.133181 0.8 0 0
0.424717 0.585849 0.127006 0.8 0 0
0.358987 0.505205 0.153012 0.8 0 0
0.128297 0.263713 0.042077 0.8 0 0
0.555087 0.612534 0.075564 0.8 0 0
0.924379 0.599786 0.106776 0.8 0 0
0.147492 0.105516 0.133987 0.8 0 0
0.165948 0.229482 0.154081 0.8 0 0
0.248400 0.582673 0.151221 0.8 0 0
0.174173 0.034738 0.104426 0.8 0 0
0.606287 0.584064 0.089810 0.8 0 0
0.088868 0.643687 0.146496 0.8 0 0
0.169065 0.374749 0.121901 0.8 0 0
0.261152 0.222748 0.104157 0.8 0 0
0.469947 0.598914 0.047639 0.8 0 0
0.369123 0.417241 0.129180 0.8 0 0
0.597163 0.543938 0.130276 0.8 0 0
0.434290 0.608100 0.111846 0.8 0 0
0.412979 0.442810 0.133181 0.8 0 0
0.441951 0.641489 0.076932 0.8 0 0
0.188592 0.070993 0.133181 0.8 0 0
0.369137 0.599624 0.121625 0.8 0 0
0.061931 0.563430 0.115284 0.8 0 0
0.395151 0.567834 0.065918 0.8 0 0
0.505606 0.585937 0.035447 0.8 0 0
0.237490 0.553976 0.146719 0.8 0 0
0.963098 0.536247 0.077815 0.8 0 0
0.518939 0.361322 0.101608 0.8 0 0
0.447557 0.384042 0.120450 0.8 0 0
0.379243 0.468126 0.075774 0.8 0 0
0.297877 0.562507 0.133181 0.8 0 0
0.034088 0.143491 0.091907 0.8 0 0
0.957909 0.535319 0.080892 0.8 0 0
0.178721 0.138784 0.037587 0.8 0 0
0.801416 0.552695 0.084202 0.8 0 0
0.328685 0.499217 0.058369 0.8 0 0
0.265801 0.554957 0.146719 0.8 0 0
0.632992 0.554699 0.081916 0.8 0 0
0.552624 0.610913 0.070775 0.8 0 0
0.294117 0.519058 0.123681 0.8 0 0
0.888212 0.556400 0.110895 0.8 0 0
0.259982 0.636803 0.034381 0.8 0 0
0.255212 0.595930 0.085340 0.8 0 0
0.246003 0.350094 0.037587 0.8 0 0
0.823102 0.554574 0.070279 0.8 0 0
0.510592 0.510994 0.025000 0.8 0 0
0.230728 0.363348 0.123681 0.8 0 0
0.065498 0.090357 0.123681 0.8 0 0
0.939565 0.567151 0.078100 0.8 0 0
0.364710 0.497306 0.058369 0.8 0 0
0.162207 0.479340 0.040849 0.8 0 0
0.213305 0.585610 0.042584 0.8 0 0
0.249192 0.644985 0.034381 0.8 0 0
0.494628 0.530995 0.032988 0.8 0 0
0.337275 0.445395 0.123681 0.8 0 0
0.374621 0.600740 0.077963 0.8 0 0
0.439383 0.371570 0.101747 0.8 0 0
0.417561 0.410551 0.100843 0.8 0 0
0.198038 0.264561 0.123681 0.8 0 0
0.128853 0.622089 0.039811 0.8 0 0
0.552801 0.555685 0.146719 0.8 0 0
0.264214 0.456992 0.123681 0.8 0 0
0.167367 0.357745 0.059215 0.8 0 0
0.169868 0.123644 0.058368 0.8 0 0
0.195133 0.150623 0.038814 0.8 0 0
0.180634 0.354042 0.067869 0.8 0 0
0.475436 0.601420 0.142435 0.8 0 0
0.263054 0.601670 0.034381 0.8 0 0
0.162558 0.034738 0.123325 0.8 0 0
0.581382 0.562459 0.044831 0.8 0 0
0.512110 0.485222 0.058369 0.8 0 0
0.113290 0.074537 0.123681 0.8 0 0
0.062995 0.103955 0.052297 0.8 0 0
0.189475 0.368745 0.067869 0.8 0 0
0.184664 0.187088 0.037587 0.8 0 0
0.756779 0.581579 0.084672 0.8 0 0
0.128986 0.209778 0.133181 0.8 0 0
0.332800 0.587823 0.096782 0.8 0 0
0.268949 0.633524 0.118340 0.8 0 0
0.138410 0.159882 0.150646 0.8 0 0
0.511556 0.552606 0.093802 0.8 0 0
0.235399 0.502887 0.040566 0.8 0 0
0.368924 0.394640 0.127385 0.8 0 0
0.189821 0.577664 0.071041 0.8 0 0
0.378872 0.543388 0.115369 0.8 0 0
0.287229 0.323111 0.037777 0.8 0 0
0.061931 0.618459 0.068008 0.8 0 0
0.198233 0.208650 0.067868 0.8 0 0
0.536696 0.584178 0.146719 0.8 0 0
0.874992 0.585399 0.098013 0.8 0 0
0.120533 0.127148 0.067868 0.8 0 0
0.193833 0.290021 0.067869 0.8 0 0
0.658715 0.552826 0.066425 0.8 0 0
0.058726 0.610940 0.063731 0.8 0 0
0.315109 0.326888 0.105501 0.8 0 0
0.837074 0.550283 0.102708 0.8 0 0
0.552565 0.571267 0.146719 0.8 0 0
0.642144 0.581139 0.081235 0.8 0 0
0.560770 0.558334 0.153013 0.8 0 0
0.332139 0.379774 0.074267 0.8 0 0
0.218910 0.160495 0.058368 0.8 0 0
0.166390 0.591229 0.038538 0.8 0 0
0.635792 0.617663 0.083240 0.8 0 0
0.796692 0.578673 0.069753 0.8 0 0
0.220256 0.525914 0.153013 0.8 0 0
0.552725 0.593695 0.086859 0.8 0 0
0.184687 0.290175 0.123681 0.8 0 0
0.177094 0.126161 0.123681 0.8 0 0
0.288403 0.633395 0.093715 0.8 0 0
0.233295 0.580750 0.036684 0.8 0 0
0.131168 0.093703 0.051486 0.8 0 0
0.241104 0.624339 0.107175 0.8 0 0
0.155465 0.307423 0.108780 0.8 0 0
0.626816 0.515678 0.058369 0.8 0 0
0.110148 0.272915 0.136408 0.8 0 0
0.187220 0.588333 0.044831 0.8 0 0
0.466937 0.436873 0.124869 0.8 0 0
0.418002 0.570121 0.146719 0.8 0 0
0.172963 0.419635 0.098773 0.8 0 0
0.714091 0.591067 0.078724 0.8 0 0
0.466162 0.572555 0.044831 0.8 0 0
0.393512 0.388829 0.133181 0.8 0 0
0.052508 0.076499 0.099954 0.8 0 0
0.032291 0.108097 0.070432 0.8 0 0
0.250034 0.164946 0.095572 0.8 0 0
0.448119 0.515440 0.133181 0.8 0 0
0.455276 0.573104 0.115369 0.8 0 0
0.593889 0.460747 0.075354 0.8 0 0
0.238684 0.256016 0.154081 0.8 0 0
0.186913 0.489422 0.034886 0.8 0 0
0.095249 0.544540 0.043763 0.8 0 0
0.146755 0.622225 0.129025 0.8 0 0
0.458387 0.510707 0.133181 0.8 0 0
0.231435 0.496690 0.133181 0.8 0 0
0.233481 0.660075 0.075242 0.8 0 0
0.433811 0.611522 0.097906 0.8 0 0
0.134066 0.031625 0.094811 0.8 0 0
0.438683 0.372349 0.122332 0.8 0 0
0.343841 0.546493 0.153013 0.8 0 0
0.586439 0.483632 0.058369 0.8 0 0
0.345288 0.609637 0.146719 0.8 0 0
0.082799 0.226820 0.058368 0.8 0 0
0.117674 0.569835 0.089270 0.8 0 0
0.033051 0.095270 0.089231 0.8 0 0
0.168484 0.507005 0.147787 0.8 0 0
0.062899 0.604349 0.053970 0.8 0 0
0.582582 0.563934 0.146719 0.8 0 0
0.380538 0.632783 0.118984 0.8 0 0
0.118348 0.133270 0.135154 0.8 0 0
0.259000 0.601846 0.127822 0.8 0 0
0.251989 0.438498 0.067869 0.8 0 0
0.185342 0.469188 0.154240 0.8 0 0
0.076964 0.059046 0.067868 0.8 0 0
0.639413 0.578513 0.045583 0.8 0 0
0.773091 0.560611 0.068097 0.8 0 0
0.484527 0.456993 0.090752 0.8 0 0
0.084440 0.078717 0.143073 0.8 0 0
0.151107 0.340993 0.119669 0.8 0 0
0.418180 0.615915 0.127006 0.8 0 0
0.437996 0.581630 0.124687 0.8 0 0
0.141347 0.037495 0.067868 0.8 0 0
0.209963 0.154159 0.042866 0.8 0 0
0.065092 0.632512 0.045185 0.8 0 0
0.136080 0.269394 0.069490 0.8 0 0
0.264044 0.616438 0.086753 0.8 0 0
0.352753 0.556057 0.133181 0.8 0 0
0.312091 0.502404 0.148988 0.8 0 0
0.189122 0.165240 0.123681 0.8 0 0
0.494382 0.593611 0.061813 0.8 0 0
0.213124 0.475813 0.156555 0.8 0 0
0.577309 0.425728 0.064544 0.8 0 0
0.974571 0.552384 0.083092 0.8 0 0
0.342325 0.413011 0.041084 0.8 0 0
0.280097 0.511872 0.067869 0.8 0 0
0.223268 0.143044 0.136046 0.8 0 0
0.348634 0.514355 0.067869 0.8 0 0
0.063748 0.590240 0.135102 0.8 0 0
0.573517 0.409672 0.115995 0.8 0 0
0.102520 0.566583 0.083208 0.8 0 0
0.213802 0.595389 0.034381 0.8 0 0
0.117468 0.484667 0.094866 0.8 0 0
0.144059 0.518110 0.043763 0.8 0 0
0.121618 0.629983 0.146719 0.8 0 0
0.201199 0.356688 0.151657 0.8 0 0
0.158852 0.179028 0.123681 0.8 0 0
0.468098 0.415175 0.124869 0.8 0 0
0.259800 0.443592 0.155509 0.8 0 0
0.063831 0.596959 0.137461 0.8 0 0
0.511595 0.350718 0.082943 0.8 0 0
0.578629 0.555690 0.133181 0.8 0 0
0.077245 0.133758 0.123681 0.8 0 0
0.275389 0.526258 0.058369 0.8 0 0
0.209442 0.638453 0.107175 0.8 0 0
0.127500 0.030179 0.089579 0.8 0 0
0.063831 0.630255 0.057534 0.8 0 0
0.484178 0.559345 0.146719 0.8 0 0
0.856526 0.595124 0.094335 0.8 0 0
0.447742 0.576017 0.061813 0.8 0 0
0.189848 0.364486 0.043596 0.8 0 0
0.642144 0.606164 0.083649 0.8 0 0
0.426010 0.390649 0.058369 0.8 0 0
0.874191 0.564425 0.123387 0.8 0 0
0.217794 0.131671 0.055453 0.8 0 0
0.417690 0.498652 0.146193 0.8 0 0
0.631773 0.569861 0.113559 0.8 0 0
0.125227 0.523819 0.147787 0.8 0 0
0.104155 0.645599 0.095731 0.8 0 0
0.100155 0.644162 0.131135 0.8 0 0
0.208886 0.187484 0.038120 0.8 0 0
0.061977 0.124023 0.088637 0.8 0 0
0.135940 0.229292 0.067868 0.8 0 0
0.170535 0.603054 0.140111 0.8 0 0
0.078222 0.155890 0.080534 0.8 0 0
0.223094 0.603871 0.039259 0.8 0 0
0.073978 0.530673 0.058247 0.8 0 0
0.290383 0.610081 0.141381 0.8 0 0
0.069626 0.168354 0.058368 0.8 0 0
0.458257 0.544821 0.133181 0.8 0 0
0.262166 0.309791 0.067869 0.8 0 0
0.415700 0.501941 0.042276 0.8 0 0
0.477794 0.521646 0.040147 0.8 0 0
0.774032 0.538683 0.099629 0.8 0 0
0.402233 0.370258 0.111835 0.8 0 0
0.598503 0.560323 0.153013 0.8 0 0
0.299279 0.479328 0.058369 0.8 0 0
0.974932 0.535063 0.090984 0.8 0 0
0.176000 0.034738 0.118759 0.8 0 0
0.218291 0.142211 0.139713 0.8 0 0
0.383570 0.547093 0.038538 0.8 0 0
0.208572 0.121266 0.102249 0.8 0 0
0.553200 0.540958 0.080407 0.8 0 0
0.447570 0.565420 0.150003 0.8 0 0
0.102968 0.504846 0.043763 0.8 0 0
0.161063 0.575881 0.057010 0.8 0 0
0.226535 0.634970 0.062525 0.8 0 0
0.134683 0.513514 0.147787 0.8 0 0
0.399563 0.502013 0.055160 0.8 0 0
0.133644 0.264616 0.068555 0.8 0 0
0.393213 0.380025 0.055787 0.8 0 0
0.330442 0.353671 0.150010 0.8 0 0
0.175892 0.442938 0.127269 0.8 0 0
0.327604 0.402055 0.123681 0.8 0 0
0.256964 0.506540 0.111841 0.8 0 0
0.464692 0.359156 0.090223 0.8 0 0
0.241369 0.602975 0.149413 0.8 0 0
0.214705 0.626678 0.062525 0.8 0 0
0.909176 0.578201 0.070858 0.8 0 0
0.041262 0.120400 0.055683 0.8 0 0
0.516485 0.544047 0.048057 0.8 0 0
0.571935 0.488101 0.058369 0.8 0 0
0.640600 0.488979 0.098718 0.8 0 0
0.198627 0.643569 0.140656 0.8 0 0
0.761546 0.566361 0.125139 0.8 0 0
0.408641 0.507412 0.100079 0.8 0 0
0.504848 0.563978 0.058369 0.8 0 0
0.640753 0.549915 0.109965 0.8 0 0
0.216546 0.184977 0.123681 0.8 0 0
0.176354 0.172094 0.133181 0.8 0 0
0.257480 0.543892 0.038538 0.8 0 0
0.405862 0.433906 0.145945 0.8 0 0
0.515276 0.579717 0.034381 0.8 0 0
0.735344 0.563826 0.124738 0.8 0 0
0.406910 0.427620 0.093739 0.8 0 0
0.074084 0.618045 0.153013 0.8 0 0
0.442004 0.622020 0.061813 0.8 0 0
0.159916 0.342518 0.056283 0.8 0 0
0.313812 0.271589 0.065930 0.8 0 0
0.209963 0.493078 0.133181 0.8 0 0
0.246950 0.483708 0.133181 0.8 0 0
0.462150 0.552606 0.080242 0.8 0 0
0.340928 0.502163 0.148265 0.8 0 0
0.898840 0.555467 0.110269 0.8 0 0
0.286502 0.544363 0.045394 0.8 0 0
0.476894 0.556881 0.077963 0.8 0 0
0.491103 0.560241 0.058369 0.8 0 0
0.269440 0.419359 0.154081 0.8 0 0
0.448089 0.440915 0.105287 0.8 0 0
0.142942 0.063147 0.067868 0.8 0 0
0.057475 0.103702 0.058368 0.8 0 0
0.296959 0.237830 0.113451 0.8 0 0
0.197524 0.496353 0.058369 0.8 0 0
0.324004 0.495918 0.058369 0.8 0 0
0.332330 0.502314 0.045654 0.8 0 0
0.525081 0.554018 0.061813 0.8 0 0
0.343833 0.469477 0.037298 0.8 0 0
0.417686 0.396891 0.058344 0.8 0 0
0.436883 0.589585 0.080676 0.8 0 0
0.515403 0.487210 0.133181 0.8 0 0
0.244276 0.639950 0.107175 0.8 0 0
0.519685 0.360159 0.064544 0.8 0 0
0.620614 0.473827 0.133181 0.8 0 0
0.204816 0.518052 0.133181 0.8 0 0
0.241137 0.496853 0.035380 0.8 0 0
0.083663 0.603243 0.052192 0.8 0 0
0.361261 0.545679 0.133181 0.8 0 0
0.171457 0.084698 0.042814 0.8 0 0
0.713604 0.552358 0.085135 0.8 0 0
0.291538 0.455133 0.067869 0.8 0 0
0.281562 0.405525 0.067869 0.8 0 0
0.258177 0.612780 0.084375 0.8 0 0
0.437778 0.556143 0.112757 0.8 0 0
0.272899 0.362768 0.067869 0.8 0 0
0.141095 0.080421 0.058368 0.8 0 0
0.413867 0.600709 0.143573 0.8 0 0
0.525541 0.593040 0.034381 0.8 0 0
0.228025 0.525619 0.153013 0.8 0 0
0.938390 0.579886 0.063528 0.8 0 0
0.903278 0.565786 0.068111 0.8 0 0
0.586534 0.578624 0.146719 0.8 0 0
0.615933 0.494095 0.058369 0.8 0 0
0.275273 0.633482 0.107189 0.8 0 0
0.546971 0.500021 0.133181 0.8 0 0
0.322368 0.457546 0.036902 0.8 0 0
0.549591 0.493816 0.133181 0.8 0 0
0.479903 0.597494 0.080975 0.8 0 0
0.414117 0.556458 0.077963 0.8 0 0
0.257732 0.589460 0.153195 0.8 0 0
0.446097 0.545476 0.058369 0.8 0 0
0.132307 0.075466 0.119023 0.8 0 0
0.253678 0.268111 0.153677 0.8 0 0
0.099110 0.644163 0.060026 0.8 0 0
0.258324 0.389180 0.123681 0.8 0 0
0.463804 0.465205 0.074991 0.8 0 0
0.347657 0.544279 0.052901 0.8 0 0
0.489662 0.462225 0.088339 0.8 0 0
0.429376 0.501880 0.051715 0.8 0 0
0.373041 0.481337 0.058369 0.8 0 0
0.131702 0.583679 0.117002 0.8 0 0
0.612765 0.490754 0.058369 0.8 0 0
0.408636 0.500754 0.043886 0.8 0 0
0.151119 0.308621 0.146658 0.8 0 0
0.080945 0.077815 0.135641 0.8 0 0
0.921647 0.585279 0.096933 0.8 0 0
0.894419 0.548692 0.115774 0.8 0 0
0.383980 0.381642 0.058369 0.8 0 0
0.579001 0.609625 0.130922 0.8 0 0
0.177330 0.293258 0.154081 0.8 0 0
0.105454 0.620426 0.146719 0.8 0 0
0.063838 0.516814 0.126531 0.8 0 0
0.567613 0.396725 0.095608 0.8 0 0
0.348292 0.610015 0.137434 0.8 0 0
0.529343 0.363885 0.090923 0.8 0 0
0.441328 0.561996 0.129856 0.8 0 0
0.252836 0.480610 0.123681 0.8 0 0
0.226441 0.371182 0.123681 0.8 0 0
0.263726 0.337433 0.067869 0.8 0 0
0.470473 0.355838 0.106287 0.8 0 0
0.217147 0.133737 0.058368 0.8 0 0
0.498829 0.514204 0.034381 0.8 0 0
0.745160 0.567299 0.113883 0.8 0 0
0.122703 0.641964 0.047773 0.8 0 0
0.082177 0.566898 0.115685 0.8 0 0
0.269129 0.286544 0.153025 0.8 0 0
0.219079 0.432219 0.071752 0.8 0 0
0.508621 0.552606 0.111055 0.8 0 0
0.190989 0.055239 0.057552 0.8 0 0
0.195986 0.176377 0.037587 0.8 0 0
0.373208 0.424214 0.059092 0.8 0 0
0.221281 0.439153 0.153813 0.8 0 0
0.521272 0.353074 0.104483 0.8 0 0
0.584917 0.426992 0.118633 0.8 0 0
0.442540 0.565639 0.044831 0.8 0 0
0.194320 0.610608 0.155558 0.8 0 0
0.452394 0.380383 0.096593 0.8 0 0
0.573569 0.459152 0.071845 0.8 0 0
0.628471 0.527194 0.043084 0.8 0 0
0.305369 0.620797 0.064544 0.8 0 0
0.295814 0.245224 0.060579 0.8 0 0
0.151982 0.149957 0.067868 0.8 0 0
0.071402 0.112431 0.133181 0.8 0 0
0.631851 0.615948 0.075281 0.8 0 0
0.184002 0.556687 0.153013 0.8 0 0
0.073072 0.173098 0.042529 0.8 0 0
0.157206 0.302690 0.067869 0.8 0 0
0.632289 0.540883 0.133181 0.8 0 0
0.099425 0.241068 0.044684 0.8 0 0
0.135611 0.627784 0.146719 0.8 0 0
0.970881 0.583556 0.064531 0.8 0 0
0.288470 0.441172 0.058369 0.8 0 0
0.144895 0.498354 0.147787 0.8 0 0
0.223840 0.619162 0.127006 0.8 0 0
0.888554 0.554662 0.109562 0.8 0 0
0.917190 0.585077 0.095736 0.8 0 0
0.202761 0.113245 0.084158 0.8 0 0
0.699267 0.585152 0.092797 0.8 0 0
0.125984 0.482779 0.122371 0.8 0 0
0.427759 0.596745 0.064544 0.8 0 0
0.438018 0.569407 0.069611 0.8 0 0
0.160300 0.576887 0.140347 0.8 0 0
0.639608 0.565004 0.113582 0.8 0 0
0.098187 0.148324 0.123681 0.8 0 0
0.434903 0.483666 0.138943 0.8 0 0
0.253776 0.593687 0.110518 0.8 0 0
0.475713 0.601822 0.115369 0.8 0 0
0.088878 0.120040 0.057548 0.8 0 0
0.061931 0.613023 0.061699 0.8 0 0
0.507926 0.586027 0.146719 0.8 0 0
0.358671 0.423606 0.058369 0.8 0 0
0.067477 0.131289 0.123681 0.8 0 0
0.224885 0.150380 0.052579 0.8 0 0
0.496561 0.598744 0.127493 0.8 0 0
0.377271 0.557149 0.153013 0.8 0 0
0.670721 0.579055 0.068469 0.8 0 0
0.399855 0.404730 0.047492 0.8 0 0
0.344911 0.547301 0.038538 0.8 0 0
0.341445 0.478926 0.133181 0.8 0 0
0.933686 0.576586 0.111174 0.8 0 0
0.291481 0.334178 0.154081 0.8 0 0
0.640600 0.506242 0.063738 0.8 0 0
0.374885 0.377321 0.058369 0.8 0 0
0.909928 0.564409 0.066402 0.8 0 0
0.262239 0.608067 0.062525 0.8 0 0
0.274456 0.619933 0.148898 0.8 0 0
0.210192 0.536143 0.043763 0.8 0 0
0.098748 0.275812 0.088919 0.8 0 0
0.340544 0.332274 0.052230 0.8 0 0
0.221439 0.619647 0.129025 0.8 0 0
0.420891 0.394394 0.058369 0.8 0 0
0.430030 0.522898 0.133181 0.8 0 0
0.138466 0.185616 0.133181 0.8 0 0
0.643307 0.605373 0.121794 0.8 0 0
0.213613 0.147792 0.045468 0.8 0 0
0.198451 0.450843 0.039357 0.8 0 0
0.221604 0.359699 0.067869 0.8 0 0
0.539185 0.601152 0.061813 0.8 0 0
0.177413 0.588938 0.093651 0.8 0 0
0.211386 0.568951 0.067087 0.8 0 0
0.116545 0.087444 0.070416 0.8 0 0
0.445143 0.399036 0.079865 0.8 0 0
0.339047 0.373506 0.085793 0.8 0 0
0.470695 0.414429 0.102787 0.8 0 0
0.573271 0.388178 0.116987 0.8 0 0
0.194015 0.630175 0.129025 0.8 0 0
0.415925 0.538236 0.041805 0.8 0 0
0.255504 0.386747 0.037587 0.8 0 0
0.055015 0.073231 0.111034 0.8 0 0
0.082278 0.106477 0.123681 0.8 0 0
0.914622 0.559200 0.062175 0.8 0 0
0.552725 0.592300 0.124328 0.8 0 0
0.090413 0.040558 0.147319 0.8 0 0
0.652120 0.601688 0.105574 0.8 0 0
0.294003 0.450434 0.155432 0.8 0 0
0.196111 0.322044 0.067869 0.8 0 0
0.542575 0.485794 0.133181 0.8 0 0
0.217599 0.140320 0.139188 0.8 0 0
0.170784 0.045825 0.058368 0.8 0 0
0.031139 0.097849 0.075615 0.8 0 0
0.208082 0.627000 0.034381 0.8 0 0
0.526476 0.552606 0.083654 0.8 0 0
0.574692 0.548629 0.092486 0.8 0 0
0.552725 0.548693 0.132559 0.8 0 0
0.268794 0.638389 0.051049 0.8 0 0
0.093993 0.623401 0.046423 0.8 0 0
0.443353 0.407688 0.068138 0.8 0 0
0.562719 0.523638 0.058369 0.8 0 0
0.052105 0.104655 0.097501 0.8 0 0
0.438007 0.372879 0.058369 0.8 0 0
0.574953 0.448464 0.085303 0.8 0 0
0.290457 0.349922 0.123681 0.8 0 0
0.757135 0.572372 0.113211 0.8 0 0
0.483539 0.564791 0.058369 0.8 0 0
0.203528 0.594243 0.084375 0.8 0 0
0.971782 0.566700 0.114403 0.8 0 0
0.245432 0.307014 0.154081 0.8 0 0
0.471077 0.609916 0.065372 0.8 0 0
0.210092 0.335103 0.154081 0.8 0 0
0.155560 0.512486 0.147787 0.8 0 0
0.297052 0.388003 0.154081 0.8 0 0
0.157539 0.358684 0.083887 0.8 0 0
0.445402 0.552606 0.086775 0.8 0 0
0.061931 0.611018 0.072573 0.8 0 0
0.187083 0.121917 0.058368 0.8 0 0
0.526532 0.599343 0.129856 0.8 0 0
0.316819 0.469107 0.123681 0.8 0 0
0.191428 0.621331 0.131197 0.8 0 0
0.642144 0.571240 0.093644 0.8 0 0
0.577736 0.440675 0.093022 0.8 0 0
0.619094 0.617043 0.111385 0.8 0 0
0.170101 0.088606 0.149394 0.8 0 0
0.438870 0.562383 0.069088 0.8 0 0
0.336518 0.574281 0.044831 0.8 0 0
0.096874 0.624130 0.058883 0.8 0 0
0.652523 0.549281 0.097992 0.8 0 0
0.195845 0.605920 0.140147 0.8 0 0
0.200796 0.465393 0.058369 0.8 0 0
0.707091 0.565715 0.125558 0.8 0 0
0.251578 0.590255 0.088149 0.8 0 0
0.132297 0.248203 0.153456 0.8 0 0
0.258409 0.589952 0.118146 0.8 0 0
0.969974 0.604223 0.087463 0.8 0 0
0.249478 0.200217 0.087257 0.8 0 0
0.178395 0.143505 0.037587 0.8 0 0
0.394186 0.567641 0.120818 0.8 0 0
0.161000 0.035022 0.068386 0.8 0 0
0.309992 0.317012 0.092313 0.8 0 0
0.553045 0.561021 0.044831 0.8 0 0
0.563821 0.546207 0.153013 0.8 0 0
0.254275 0.189157 0.058368 0.8 0 0
0.178010 0.638060 0.072628 0.8 0 0
0.423515 0.631227 0.115220 0.8 0 0
0.285849 0.222403 0.118358 0.8 0 0
0.628599 0.498219 0.133181 0.8 0 0
0.423244 0.464090 0.054497 0.8 0 0
0.276827 0.522377 0.133181 0.8 0 0
0.201935 0.298540 0.037587 0.8 0 0
0.301928 0.418208 0.037587 0.8 0 0
0.257207 0.642019 0.034381 0.8 0 0
0.158563 0.270480 0.037587 0.8 0 0
0.384857 0.441417 0.149495 0.8 0 0
0.057689 0.166225 0.145037 0.8 0 0
0.224184 0.453729 0.058369 0.8 0 0
0.392112 0.593125 0.146719 0.8 0 0
0.260783 0.492792 0.133181 0.8 0 0
0.045844 0.110215 0.058368 0.8 0 0
0.139643 0.597172 0.125124 0.8 0 0
0.922193 0.564465 0.113728 0.8 0 0
0.360215 0.583831 0.077963 0.8 0 0
0.073243 0.040832 0.084310 0.8 0 0
0.053775 0.092199 0.067868 0.8 0 0
0.490694 0.552606 0.093055 0.8 0 0
0.298921 0.244376 0.071788 0.8 0 0
0.403335 0.565283 0.047180 0.8 0 0
0.492234 0.606998 0.111716 0.8 0 0
0.065720 0.507451 0.125019 0.8 0 0
0.637638 0.611323 0.126915 0.8 0 0
0.236154 0.431900 0.133181 0.8 0 0
0.093158 0.266545 0.112863 0.8 0 0
0.067261 0.627495 0.111017 0.8 0 0
0.403807 0.612367 0.064544 0.8 0 0
0.173254 0.156261 0.123681 0.8 0 0
0.159491 0.090320 0.139518 0.8 0 0
0.247522 0.604553 0.157169 0.8 0 0
0.329563 0.484113 0.037058 0.8 0 0
0.402775 0.638319 0.087855 0.8 0 0
0.093519 0.152212 0.151512 0.8 0 0
0.356937 0.577699 0.044831 0.8 0 0
0.212297 0.596760 0.109635 0.8 0 0
0.193426 0.085742 0.147224 0.8 0 0
0.390624 0.404883 0.133181 0.8 0 0
0.595596 0.584783 0.136171 0.8 0 0
0.258921 0.253882 0.067869 0.8 0 0
0.416354 0.601920 0.115369 0.8 0 0
0.229569 0.396710 0.154081 0.8 0 0
0.396798 0.412810 0.046879 0.8 0 0
0.360752 0.416430 0.085187 0.8 0 0
0.516853 0.495418 0.032000 0.8 0 0
0.230547 0.147016 0.061697 0.8 0 0
0.615756 0.576519 0.146719 0.8 0 0
0.177969 0.433952 0.120058 0.8 0 0
0.234757 0.580750 0.149617 0.8 0 0
0.470425 0.468462 0.091689 0.8 0 0
0.208597 0.344859 0.154081 0.8 0 0
0.063946 0.617549 0.072717 0.8 0 0
0.586514 0.438491 0.073868 0.8 0 0
0.535322 0.544021 0.145852 0.8 0 0
0.176850 0.169246 0.037587 0.8 0 0
0.194941 0.114257 0.116861 0.8 0 0
0.126908 0.539168 0.040484 0.8 0 0
0.346515 0.502138 0.042757 0.8 0 0
0.448609 0.578171 0.034381 0.8 0 0
0.248202 0.541115 0.133181 0.8 0 0
0.061673 0.504544 0.112218 0.8 0 0
0.141201 0.600856 0.086244 0.8 0 0
0.417094 0.502138 0.045951 0.8 0 0
0.279258 0.530842 0.067869 0.8 0 0
0.079069 0.516863 0.075513 0.8 0 0
0.164996 0.244820 0.154081 0.8 0 0
0.790442 0.549159 0.117767 0.8 0 0
0.445120 0.513142 0.034381 0.8 0 0
0.253649 0.396728 0.067869 0.8 0 0
0.505585 0.468115 0.114243 0.8 0 0
0.061625 0.123330 0.082091 0.8 0 0
0.231959 0.288663 0.067869 0.8 0 0
0.618279 0.458081 0.086582 0.8 0 0
0.280439 0.600159 0.146719 0.8 0 0
0.183299 0.324698 0.123681 0.8 0 0
0.452498 0.453843 0.119307 0.8 0 0
0.322344 0.505591 0.153013 0.8 0 0
0.443648 0.393730 0.064544 0.8 0 0
0.141642 0.280306 0.099698 0.8 0 0
0.115036 0.569268 0.094370 0.8 0 0
0.567224 0.477179 0.058369 0.8 0 0
0.114163 0.195939 0.037587 0.8 0 0
0.936769 0.646263 0.091619 0.8 0 0
0.386119 0.548995 0.115369 0.8 0 0
0.540731 0.502171 0.055538 0.8 0 0
0.303624 0.556280 0.133181 0.8 0 0
0.380072 0.604615 0.052143 0.8 0 0
0.192344 0.089945 0.090337 0.8 0 0
0.570132 0.543938 0.054309 0.8 0 0
0.289549 0.260867 0.045702 0.8 0 0
0.266875 0.544390 0.136535 0.8 0 0
0.226874 0.481720 0.156442 0.8 0 0
0.172732 0.468167 0.043763 0.8 0 0
0.061931 0.628499 0.117855 0.8 0 0
0.909708 0.592941 0.088030 0.8 0 0
0.322106 0.502137 0.152484 0.8 0 0
0.438806 0.485611 0.056923 0.8 0 0
0.194423 0.389352 0.147226 0.8 0 0
0.255459 0.618661 0.044831 0.8 0 0
0.042022 0.167954 0.114964 0.8 0 0
0.193874 0.171584 0.123681 0.8 0 0
0.626398 0.608729 0.057988 0.8 0 0
0.213773 0.590389 0.157169 0.8 0 0
0.065886 0.131691 0.088807 0.8 0 0
0.496450 0.538119 0.094343 0.8 0 0
0.178337 0.170303 0.133181 0.8 0 0
0.211271 0.079969 0.101144 0.8 0 0
0.570746 0.518999 0.037231 0.8 0 0
0.567665 0.461393 0.124383 0.8 0 0
0.138883 0.471221 0.095411 0.8 0 0
0.262729 0.564240 0.133181 0.8 0 0
0.143330 0.283617 0.085300 0.8 0 0
0.497687 0.481872 0.109743 0.8 0 0
0.483346 0.380699 0.107956 0.8 0 0
0.092722 0.615568 0.146719 0.8 0 0
0.350646 0.605821 0.146719 0.8 0 0
0.079919 0.644163 0.077014 0.8 0 0
0.184374 0.440874 0.140664 0.8 0 0
0.407962 0.426435 0.061328 0.8 0 0
0.242077 0.601822 0.064544 0.8 0 0
0.136082 0.533363 0.036512 0.8 0 0
0.205403 0.602973 0.084375 0.8 0 0
0.281224 0.510948 0.067869 0.8 0 0
0.638902 0.476697 0.085903 0.8 0 0
0.139945 0.163596 0.152155 0.8 0 0
0.912642 0.570028 0.060833 0.8 0 0
0.230752 0.599252 0.064544 0.8 0 0
0.319306 0.535973 0.153013 0.8 0 0
0.076423 0.616219 0.062525 0.8 0 0
0.173577 0.080750 0.043203 0.8 0 0
0.571793 0.460278 0.068297 0.8 0 0
0.581119 0.405540 0.074927 0.8 0 0
0.169337 0.615540 0.062525 0.8 0 0
0.402637 0.640082 0.065341 0.8 0 0
0.577393 0.441923 0.127006 0.8 0 0
0.383942 0.366298 0.128794 0.8 0 0
0.559234 0.528435 0.038538 0.8 0 0
0.393808 0.509013 0.123288 0.8 0 0
0.510205 0.552606 0.086366 0.8 0 0
0.126764 0.640333 0.050669 0.8 0 0
0.126658 0.078567 0.124936 0.8 0 0
0.275671 0.422782 0.133181 0.8 0 0
0.109705 0.091197 0.068412 0.8 0 0
0.159863 0.340333 0.054856 0.8 0 0
0.168284 0.608734 0.041809 0.8 0 0
0.576296 0.482414 0.058119 0.8 0 0
0.291318 0.365700 0.037587 0.8 0 0
0.074601 0.135496 0.041183 0.8 0 0
0.251279 0.596646 0.034381 0.8 0 0
0.237853 0.582951 0.107175 0.8 0 0
0.252438 0.610081 0.051499 0.8 0 0
0.327256 0.554469 0.146719 0.8 0 0
0.426692 0.610230 0.115369 0.8 0 0
0.425212 0.380241 0.120400 0.8 0 0
0.558206 0.369894 0.068025 0.8 0 0
0.062421 0.094979 0.067868 0.8 0 0
0.673651 0.588488 0.116018 0.8 0 0
0.597518 0.543938 0.088432 0.8 0 0
0.185216 0.559620 0.153013 0.8 0 0
0.102452 0.498167 0.121100 0.8 0 0
0.593922 0.532267 0.153013 0.8 0 0
0.133117 0.476763 0.073914 0.8 0 0
0.645270 0.602286 0.069029 0.8 0 0
0.290418 0.496537 0.123681 0.8 0 0
0.100948 0.200474 0.071508 0.8 0 0
0.287106 0.614284 0.064544 0.8 0 0
0.267109 0.424027 0.058369 0.8 0 0
0.242548 0.294756 0.037587 0.8 0 0
0.138298 0.539516 0.147788 0.8 0 0
0.604356 0.527194 0.042427 0.8 0 0
0.934602 0.641568 0.099931 0.8 0 0
0.335532 0.371522 0.058369 0.8 0 0
0.516723 0.538119 0.079013 0.8 0 0
0.236133 0.399079 0.154081 0.8 0 0
0.071084 0.149957 0.058368 0.8 0 0
0.248897 0.583035 0.148110 0.8 0 0
0.252332 0.638786 0.089929 0.8 0 0
0.131390 0.583240 0.073939 0.8 0 0
0.492647 0.372680 0.120129 0.8 0 0
0.253064 0.502669 0.054728 0.8 0 0
0.179461 0.638074 0.116976 0.8 0 0
0.565749 0.375701 0.102468 0.8 0 0
0.273867 0.618122 0.143219 0.8 0 0
0.181365 0.349202 0.044083 0.8 0 0
0.215534 0.611623 0.154961 0.8 0 0
0.210569 0.626150 0.129025 0.8 0 0
0.253741 0.447252 0.035862 0.8 0 0
0.522375 0.582431 0.129856 0.8 0 0
0.262325 0.225013 0.103242 0.8 0 0
0.381713 0.576537 0.105429 0.8 0 0
0.885797 0.588153 0.078413 0.8 0 0
0.252888 0.398288 0.154081 0.8 0 0
0.593344 0.565873 0.048140 0.8 0 0
0.552725 0.571073 0.084265 0.8 0 0
0.435934 0.383316 0.127006 0.8 0 0
0.307697 0.457301 0.067869 0.8 0 0
0.329659 0.565054 0.135062 0.8 0 0
0.138184 0.188800 0.133181 0.8 0 0
0.475224 0.439634 0.112852 0.8 0 0
0.202229 0.125783 0.044206 0.8 0 0
0.260706 0.221887 0.102154 0.8 0 0
0.162804 0.368570 0.111654 0.8 0 0
0.541286 0.357949 0.104208 0.8 0 0
0.146150 0.605223 0.045811 0.8 0 0
0.075356 0.636068 0.103029 0.8 0 0
0.563040 0.469265 0.066681 0.8 0 0
0.233442 0.172400 0.107355 0.8 0 0
0.534375 0.552606 0.078778 0.8 0 0
0.334246 0.633091 0.085406 0.8 0 0
0.431495 0.422645 0.058369 0.8 0 0
0.366975 0.425731 0.056856 0.8 0 0
0.573599 0.459019 0.070684 0.8 0 0
0.400332 0.637208 0.090229 0.8 0 0
0.633448 0.498633 0.049431 0.8 0 0
0.272514 0.398168 0.154081 0.8 0 0
0.578419 0.500347 0.133181 0.8 0 0
0.409846 0.570785 0.080411 0.8 0 0
0.543133 0.575084 0.115369 0.8 0 0
0.063431 0.219543 0.113160 0.8 0 0
0.315328 0.327311 0.101850 0.8 0 0
0.262955 0.518293 0.097571 0.8 0 0
0.150734 0.178943 0.123681 0.8 0 0
0.076851 0.117543 0.142933 0.8 0 0
0.236418 0.564764 0.040801 0.8 0 0
0.114201 0.544600 0.047646 0.8 0 0
0.842991 0.578989 0.109756 0.8 0 0
0.280423 0.368853 0.123681 0.8 0 0
0.042806 0.115655 0.047704 0.8 0 0
0.081220 0.158975 0.133181 0.8 0 0
0.576194 0.459629 0.073182 0.8 0 0
0.226276 0.493602 0.133181 0.8 0 0
0.170497 0.476034 0.043763 0.8 0 0
0.362547 0.548611 0.133181 0.8 0 0
0.552725 0.572199 0.146439 0.8 0 0
0.138270 0.104644 0.133181 0.8 0 0
0.309696 0.494606 0.123681 0.8 0 0
0.396802 0.617841 0.127006 0.8 0 0
0.568879 0.565797 0.135637 0.8 0 0
0.461897 0.554232 0.153013 0.8 0 0
0.220162 0.521003 0.058369 0.8 0 0
0.416638 0.644309 0.097522 0.8 0 0
0.175078 0.246533 0.123681 0.8 0 0
0.386018 0.495469 0.058369 0.8 0 0
0.241133 0.417063 0.123681 0.8 0 0
0.959680 0.548686 0.099265 0.8 0 0
0.198277 0.075108 0.140353 0.8 0 0
0.479720 0.567512 0.061813 0.8 0 0
0.172364 0.173880 0.058368 0.8 0 0
0.556701 0.519400 0.041637 0.8 0 0
0.082090 0.065011 0.145919 0.8 0 0
0.210606 0.142287 0.045707 0.8 0 0
0.232079 0.182298 0.133181 0.8 0 0
0.224195 0.581678 0.107175 0.8 0 0
0.362516 0.547597 0.044831 0.8 0 0
0.061931 0.555629 0.084045 0.8 0 0
0.136940 0.643687 0.152984 0.8 0 0
0.425847 0.456465 0.133181 0.8 0 0
0.519371 0.561197 0.133181 0.8 0 0
0.181787 0.076216 0.043139 0.8 0 0
0.640600 0.511286 0.078585 0.8 0 0
0.540783 0.538119 0.095041 0.8 0 0
0.493706 0.538119 0.100738 0.8 0 0
0.119552 0.236970 0.106065 0.8 0 0
0.080286 0.628099 0.044831 0.8 0 0
0.352765 0.565125 0.134920 0.8 0 0
0.530079 0.592336 0.077963 0.8 0 0
0.640600 0.501658 0.116732 0.8 0 0
0.443353 0.584843 0.034381 0.8 0 0
0.222604 0.471573 0.133181 0.8 0 0
0.069266 0.080068 0.133181 0.8 0 0
0.378321 0.588855 0.064544 0.8 0 0
0.090716 0.605715 0.062525 0.8 0 0
0.237766 0.347734 0.154081 0.8 0 0
0.277434 0.522930 0.133181 0.8 0 0
0.465000 0.533991 0.133181 0.8 0 0
0.087520 0.638888 0.056570 0.8 0 0
0.094810 0.644163 0.102209 0.8 0 0
0.184522 0.128104 0.067868 0.8 0 0
0.257617 0.442562 0.133181 0.8 0 0
0.967750 0.625798 0.097524 0.8 0 0
0.187850 0.323040 0.153390 0.8 0 0
0.122654 0.565693 0.146719 0.8 0 0
0.289924 0.256621 0.143592 0.8 0 0
0.290529 0.610913 0.101031 0.8 0 0
0.641711 0.615825 0.096047 0.8 0 0
0.812197 0.562362 0.113266 0.8 0 0
0.106291 0.025511 0.098484 0.8 0 0
0.213289 0.144341 0.145114 0.8 0 0
0.083663 0.541882 0.055654 0.8 0 0
0.226044 0.155235 0.085892 0.8 0 0
0.265813 0.418000 0.123681 0.8 0 0
0.470817 0.415677 0.108910 0.8 0 0
0.164942 0.615242 0.085989 0.8 0 0
0.487794 0.558570 0.133181 0.8 0 0
0.569170 0.527194 0.053486 0.8 0 0
0.526010 0.470605 0.124162 0.8 0 0
0.405591 0.575091 0.146719 0.8 0 0
0.079776 0.223023 0.133181 0.8 0 0
0.226181 0.631689 0.064544 0.8 0 0
0.420012 0.464640 0.047125 0.8 0 0
0.279265 0.414733 0.123681 0.8 0 0
0.392420 0.491600 0.058369 0.8 0 0
0.205103 0.226723 0.154081 0.8 0 0
0.161081 0.075421 0.123681 0.8 0 0
0.231499 0.633773 0.092918 0.8 0 0
0.487933 0.541437 0.133181 0.8 0 0
0.397402 0.578842 0.044831 0.8 0 0
0.411063 0.501961 0.147544 0.8 0 0
0.129872 0.119672 0.149869 0.8 0 0
0.435943 0.548309 0.077963 0.8 0 0
0.161579 0.625506 0.146321 0.8 0 0
0.589261 0.513300 0.049341 0.8 0 0
0.092629 0.573983 0.129025 0.8 0 0
0.513411 0.351160 0.087588 0.8 0 0
0.230459 0.146825 0.061838 0.8 0 0
0.307959 0.487367 0.036885 0.8 0 0
0.131555 0.550266 0.044831 0.8 0 0
0.348940 0.451404 0.058369 0.8 0 0
0.091557 0.525082 0.026663 0.8 0 0
0.544814 0.541377 0.038538 0.8 0 0
0.943554 0.641403 0.099931 0.8 0 0
0.458188 0.510721 0.034381 0.8 0 0
0.474622 0.552606 0.108145 0.8 0 0
0.191023 0.059175 0.048231 0.8 0 0
0.342701 0.610913 0.107667 0.8 0 0
0.279192 0.284885 0.150878 0.8 0 0
0.149655 0.470796 0.056982 0.8 0 0
0.659990 0.562367 0.078449 0.8 0 0
0.501816 0.552606 0.128417 0.8 0 0
0.351077 0.426637 0.133181 0.8 0 0
0.322209 0.284159 0.123669 0.8 0 0
0.311677 0.382733 0.037587 0.8 0 0
0.144010 0.049930 0.090045 0.8 0 0
0.328369 0.451878 0.067869 0.8 0 0
0.565715 0.469485 0.072070 0.8 0 0
0.107868 0.603995 0.146719 0.8 0 0
0.473881 0.605759 0.110124 0.8 0 0
0.640600 0.480918 0.083832 0.8 0 0
0.194207 0.093539 0.090000 0.8 0 0
0.419053 0.603291 0.050810 0.8 0 0
0.469451 0.522871 0.038537 0.8 0 0
0.860849 0.582125 0.119544 0.8 0 0
0.171107 0.461820 0.133181 0.8 0 0
0.541873 0.610906 0.129856 0.8 0 0
0.400857 0.552902 0.153013 0.8 0 0
0.375622 0.593461 0.146719 0.8 0 0
0.149922 0.637785 0.080387 0.8 0 0
0.191094 0.377320 0.068485 0.8 0 0
0.331176 0.357978 0.133181 0.8 0 0
0.227958 0.357603 0.154081 0.8 0 0
0.160569 0.074867 0.123681 0.8 0 0
0.373743 0.375590 0.058369 0.8 0 0
0.339024 0.535871 0.133181 0.8 0 0
0.350848 0.447495 0.058369 0.8 0 0
0.125089 0.587469 0.147788 0.8 0 0
0.513161 0.470917 0.085990 0.8 0 0
0.405047 0.371444 0.064857 0.8 0 0
0.197812 0.641052 0.039479 0.8 0 0
0.116028 0.603371 0.147788 0.8 0 0
0.174562 0.471776 0.036081 0.8 0 0
0.385625 0.434403 0.058369 0.8 0 0
0.217638 0.207695 0.067868 0.8 0 0
0.408649 0.397765 0.049399 0.8 0 0
0.193247 0.574551 0.100034 0.8 0 0
0.179145 0.544511 0.044999 0.8 0 0
0.348800 0.551057 0.058369 0.8 0 0
0.593715 0.565874 0.145157 0.8 0 0
0.639100 0.517195 0.133181 0.8 0 0
0.595356 0.554440 0.054792 0.8 0 0
0.061113 0.122326 0.072171 0.8 0 0
0.312894 0.322614 0.105450 0.8 0 0
0.465934 0.565364 0.077963 0.8 0 0
0.499649 0.552606 0.085463 0.8 0 0
0.116416 0.572677 0.146719 0.8 0 0
0.068240 0.637547 0.111774 0.8 0 0
0.304536 0.481477 0.036922 0.8 0 0
0.581935 0.603605 0.052076 0.8 0 0
0.355837 0.434402 0.069041 0.8 0 0
0.498465 0.537941 0.133181 0.8 0 0
0.839918 0.550418 0.102928 0.8 0 0
0.140967 0.324410 0.070670 0.8 0 0
0.248655 0.632795 0.152037 0.8 0 0
0.142373 0.502177 0.147787 0.8 0 0
0.258105 0.508779 0.102700 0.8 0 0
0.549654 0.521412 0.133181 0.8 0 0
0.442543 0.579737 0.077963 0.8 0 0
0.491426 0.544081 0.135091 0.8 0 0
0.352617 0.406579 0.133181 0.8 0 0
0.065148 0.170205 0.133181 0.8 0 0
0.450819 0.557729 0.058369 0.8 0 0
0.382649 0.613268 0.080659 0.8 0 0
0.192424 0.371724 0.043485 0.8 0 0
0.138507 0.641803 0.128799 0.8 0 0
0.622233 0.580596 0.046399 0.8 0 0
0.295062 0.610913 0.105136 0.8 0 0
0.296840 0.295247 0.042808 0.8 0 0
0.411241 0.465964 0.133181 0.8 0 0
0.971903 0.613850 0.087463 0.8 0 0
