0.737864 0.437680 0.089451 0.8 0 0
0.970031 0.498230 0.025000 0.8 0 0
0.975000 0.495749 0.074468 0.8 0 0
0.178052 0.412706 0.081403 0.8 0 0
0.225292 0.306819 0.080654 0.8 0 0
0.041460 0.230329 0.025000 0.8 0 0
0.459991 0.518175 0.068235 0.8 0 0
0.583068 0.495051 0.089451 0.8 0 0
0.059219 0.205424 0.089451 0.8 0 0
0.165773 0.476782 0.066248 0.8 0 0
0.534871 0.453485 0.025000 0.8 0 0
0.841961 0.518175 0.028046 0.8 0 0
0.093020 0.215381 0.089451 0.8 0 0
0.266289 0.446615 0.066248 0.8 0 0
0.091776 0.500788 0.058514 0.8 0 0
0.254899 0.394488 0.025000 0.8 0 0
0.189174 0.484038 0.062865 0.8 0 0
0.285106 0.426305 0.025000 0.8 0 0
0.259235 0.458361 0.058514 0.8 0 0
0.547773 0.518175 0.030822 0.8 0 0
0.732152 0.427944 0.049180 0.8 0 0
0.716581 0.518175 0.056100 0.8 0 0
0.192845 0.399445 0.088455 0.8 0 0
0.541195 0.434922 0.025000 0.8 0 0
0.166845 0.528669 0.091890 0.8 0 0
0.273608 0.510865 0.097517 0.8 0 0
0.238651 0.443163 0.115231 0.8 0 0
0.465783 0.492221 0.025000 0.8 0 0
0.083951 0.441356 0.025000 0.8 0 0
0.262741 0.429900 0.058514 0.8 0 0
0.736963 0.518175 0.047616 0.8 0 0
0.342227 0.448225 0.058514 0.8 0 0
0.217001 0.518175 0.054070 0.8 0 0
0.795885 0.517537 0.089451 0.8 0 0
0.234616 0.447478 0.025000 0.8 0 0
0.717408 0.518175 0.037871 0.8 0 0
0.856476 0.477256 0.089451 0.8 0 0
0.151932 0.423699 0.058514 0.8 0 0
0.625366 0.427944 0.066468 0.8 0 0
0.183392 0.454834 0.066248 0.8 0 0
0.918438 0.427944 0.083878 0.8 0 0
0.064740 0.063194 0.089451 0.8 0 0
0.076992 0.226311 0.089451 0.8 0 0
0.164065 0.465321 0.085819 0.8 0 0
0.243259 0.423861 0.115231 0.8 0 0
0.641464 0.439654 0.089451 0.8 0 0
0.450409 0.432959 0.025000 0.8 0 0
0.730033 0.464197 0.025000 0.8 0 0
0.359333 0.419793 0.027631 0.8 0 0
0.566692 0.427944 0.086608 0.8 0 0
0.382397 0.429428 0.025000 0.8 0 0
0.162043 0.063549 0.089451 0.8 0 0
0.223950 0.359869 0.100431 0.8 0 0
0.189007 0.380554 0.058514 0.8 0 0
0.168917 0.491306 0.106919 0.8 0 0
0.229708 0.425366 0.095898 0.8 0 0
0.356749 0.446740 0.083191 0.8 0 0
0.737899 0.471321 0.089451 0.8 0 0
0.027658 0.059753 0.060379 0.8 0 0
0.099626 0.443857 0.087916 0.8 0 0
0.104696 0.319025 0.089451 0.8 0 0
0.241667 0.490708 0.066248 0.8 0 0
0.071602 0.231182 0.089451 0.8 0 0
0.149788 0.338287 0.058514 0.8 0 0
0.154061 0.294885 0.025000 0.8 0 0
0.291641 0.451853 0.082428 0.8 0 0
0.942698 0.518175 0.037187 0.8 0 0
0.734773 0.516612 0.089451 0.8 0 0
0.347480 0.472730 0.058514 0.8 0 0
0.121475 0.152222 0.025000 0.8 0 0
0.174269 0.203782 0.025000 0.8 0 0
0.318834 0.463111 0.058514 0.8 0 0
0.341601 0.486888 0.058514 0.8 0 0
0.116952 0.052511 0.089451 0.8 0 0
0.634696 0.518175 0.073739 0.8 0 0
0.201531 0.439464 0.096306 0.8 0 0
0.151979 0.342154 0.058514 0.8 0 0
0.082956 0.250315 0.089451 0.8 0 0
0.224471 0.483787 0.058514 0.8 0 0
0.233470 0.421301 0.099021 0.8 0 0
0.271724 0.490441 0.066248 0.8 0 0
0.612103 0.518175 0.029327 0.8 0 0
0.369487 0.478498 0.058514 0.8 0 0
0.954909 0.473813 0.025000 0.8 0 0
0.274335 0.454413 0.058514 0.8 0 0
0.071452 0.224023 0.025000 0.8 0 0
0.292683 0.533575 0.091080 0.8 0 0
0.264849 0.482901 0.058514 0.8 0 0
0.797374 0.432248 0.025000 0.8 0 0
0.069526 0.082347 0.089451 0.8 0 0
0.230753 0.420069 0.100445 0.8 0 0
0.226726 0.431464 0.066248 0.8 0 0
0.104894 0.441171 0.025000 0.8 0 0
0.099243 0.425780 0.058514 0.8 0 0
0.113810 0.161485 0.089451 0.8 0 0
0.259366 0.499113 0.058514 0.8 0 0
0.196183 0.416244 0.062461 0.8 0 0
0.091881 0.370239 0.025000 0.8 0 0
0.089570 0.158276 0.025000 0.8 0 0
0.397120 0.485557 0.088199 0.8 0 0
0.050345 0.408655 0.037812 0.8 0 0
0.288836 0.448597 0.081833 0.8 0 0
0.341493 0.476424 0.058514 0.8 0 0
0.103547 0.414229 0.025000 0.8 0 0
0.325909 0.498183 0.058514 0.8 0 0
0.132740 0.489262 0.058514 0.8 0 0
0.175433 0.186924 0.069706 0.8 0 0
0.490083 0.518175 0.042243 0.8 0 0
0.797371 0.427944 0.026803 0.8 0 0
0.217154 0.486112 0.089814 0.8 0 0
0.729703 0.443362 0.089451 0.8 0 0
0.936784 0.518175 0.025040 0.8 0 0
0.102397 0.154403 0.025000 0.8 0 0
0.181977 0.409403 0.025000 0.8 0 0
0.764816 0.469305 0.025000 0.8 0 0
0.295914 0.518175 0.047231 0.8 0 0
0.361574 0.479255 0.058514 0.8 0 0
0.043601 0.321245 0.049138 0.8 0 0
0.184082 0.406431 0.066248 0.8 0 0
0.069906 0.391232 0.058514 0.8 0 0
0.178812 0.431625 0.115231 0.8 0 0
0.080509 0.234209 0.089451 0.8 0 0
0.134166 0.303963 0.089451 0.8 0 0
0.900574 0.488476 0.025000 0.8 0 0
0.341288 0.482795 0.025000 0.8 0 0
0.176137 0.450911 0.080869 0.8 0 0
0.053569 0.379027 0.025000 0.8 0 0
0.092197 0.445182 0.058514 0.8 0 0
0.178041 0.220725 0.084887 0.8 0 0
0.867722 0.506601 0.025000 0.8 0 0
0.170320 0.272281 0.089451 0.8 0 0
0.955465 0.479356 0.089451 0.8 0 0
0.026576 0.100831 0.075096 0.8 0 0
0.877991 0.517128 0.089451 0.8 0 0
0.146754 0.359711 0.086704 0.8 0 0
0.166890 0.076231 0.058949 0.8 0 0
0.203835 0.428587 0.080543 0.8 0 0
0.221997 0.501869 0.058514 0.8 0 0
0.067055 0.392575 0.058514 0.8 0 0
0.586416 0.497183 0.089451 0.8 0 0
0.546693 0.427944 0.084605 0.8 0 0
0.173354 0.159991 0.052305 0.8 0 0
0.215707 0.429117 0.066248 0.8 0 0
0.109545 0.057032 0.089451 0.8 0 0
0.369680 0.518175 0.045202 0.8 0 0
0.788656 0.483685 0.025000 0.8 0 0
0.225119 0.462425 0.118330 0.8 0 0
0.898029 0.507356 0.025000 0.8 0 0
0.748420 0.466895 0.025000 0.8 0 0
0.083167 0.268466 0.089451 0.8 0 0
0.787352 0.518175 0.053419 0.8 0 0
0.615491 0.494247 0.089451 0.8 0 0
0.184767 0.459933 0.098929 0.8 0 0
0.926098 0.518175 0.083529 0.8 0 0
0.184595 0.486986 0.098498 0.8 0 0
0.126592 0.405970 0.025000 0.8 0 0
0.737117 0.505439 0.089451 0.8 0 0
0.192093 0.422804 0.080948 0.8 0 0
0.963504 0.506457 0.089451 0.8 0 0
0.321280 0.408668 0.028634 0.8 0 0
0.314230 0.442169 0.058514 0.8 0 0
0.722801 0.517085 0.025000 0.8 0 0
0.847135 0.518175 0.078442 0.8 0 0
0.321106 0.445235 0.025000 0.8 0 0
0.160736 0.452964 0.066248 0.8 0 0
0.137357 0.378285 0.090831 0.8 0 0
0.218857 0.475430 0.115231 0.8 0 0
0.622506 0.514789 0.089451 0.8 0 0
0.236056 0.391083 0.096262 0.8 0 0
0.834016 0.518175 0.027299 0.8 0 0
0.660357 0.514920 0.025000 0.8 0 0
0.252716 0.411303 0.115231 0.8 0 0
0.626898 0.518175 0.061935 0.8 0 0
0.644161 0.518175 0.060785 0.8 0 0
0.160247 0.518175 0.048005 0.8 0 0
0.679410 0.503919 0.025000 0.8 0 0
0.275689 0.395339 0.044121 0.8 0 0
0.140507 0.484800 0.025000 0.8 0 0
0.073042 0.025329 0.073678 0.8 0 0
0.139346 0.077518 0.089451 0.8 0 0
0.966997 0.498862 0.089451 0.8 0 0
0.300046 0.499744 0.025000 0.8 0 0
0.221103 0.438451 0.115231 0.8 0 0
0.935285 0.427944 0.059425 0.8 0 0
0.106730 0.032837 0.025000 0.8 0 0
0.542064 0.427944 0.070988 0.8 0 0
0.075407 0.206036 0.089451 0.8 0 0
0.146786 0.362481 0.097736 0.8 0 0
0.282396 0.419842 0.104919 0.8 0 0
0.975000 0.459025 0.077411 0.8 0 0
0.973856 0.427944 0.069899 0.8 0 0
0.208527 0.455063 0.025000 0.8 0 0
0.466576 0.500753 0.089451 0.8 0 0
0.138883 0.352170 0.095209 0.8 0 0
0.885012 0.518175 0.042526 0.8 0 0
0.493449 0.460143 0.025000 0.8 0 0
0.859835 0.441666 0.025000 0.8 0 0
0.277227 0.389403 0.089899 0.8 0 0
0.232890 0.523914 0.099438 0.8 0 0
0.201776 0.358204 0.029594 0.8 0 0
0.796354 0.427944 0.082589 0.8 0 0
0.108361 0.224830 0.025000 0.8 0 0
0.146973 0.328711 0.025000 0.8 0 0
0.141203 0.061545 0.025000 0.8 0 0
0.175239 0.184419 0.063454 0.8 0 0
0.281085 0.518175 0.055221 0.8 0 0
0.284311 0.485326 0.115231 0.8 0 0
0.204136 0.453831 0.115231 0.8 0 0
0.124729 0.157917 0.089451 0.8 0 0
0.754046 0.448458 0.089451 0.8 0 0
0.694914 0.491480 0.025000 0.8 0 0
0.360502 0.447047 0.058514 0.8 0 0
0.255802 0.511266 0.088486 0.8 0 0
0.105042 0.369789 0.058514 0.8 0 0
0.159271 0.295226 0.072509 0.8 0 0
0.301336 0.387721 0.082102 0.8 0 0
0.534075 0.518175 0.043275 0.8 0 0
0.325015 0.437483 0.025000 0.8 0 0
0.561031 0.494114 0.089451 0.8 0 0
0.443806 0.518175 0.033133 0.8 0 0
0.244132 0.430376 0.099092 0.8 0 0
0.234951 0.574761 0.083793 0.8 0 0
0.156472 0.538305 0.094181 0.8 0 0
0.042407 0.305781 0.075464 0.8 0 0
0.905291 0.450643 0.025000 0.8 0 0
0.332576 0.360532 0.084921 0.8 0 0
0.424171 0.492370 0.025000 0.8 0 0
0.907013 0.456037 0.025000 0.8 0 0
0.185732 0.340145 0.025000 0.8 0 0
0.131341 0.432690 0.058514 0.8 0 0
0.912623 0.458576 0.089451 0.8 0 0
0.848412 0.516060 0.025000 0.8 0 0
0.035515 0.045584 0.061168 0.8 0 0
0.251646 0.486561 0.058514 0.8 0 0
0.166530 0.071565 0.074734 0.8 0 0
0.122481 0.514936 0.025000 0.8 0 0
0.209408 0.372747 0.052731 0.8 0 0
0.096648 0.447687 0.099070 0.8 0 0
0.030523 0.151929 0.042844 0.8 0 0
0.288832 0.461676 0.025000 0.8 0 0
0.118655 0.054487 0.089451 0.8 0 0
0.183908 0.441685 0.115231 0.8 0 0
0.306607 0.484335 0.025000 0.8 0 0
0.176230 0.406859 0.109056 0.8 0 0
0.884347 0.436678 0.089451 0.8 0 0
0.201092 0.460187 0.115231 0.8 0 0
0.172220 0.145296 0.059421 0.8 0 0
0.646258 0.518175 0.052870 0.8 0 0
0.236705 0.547544 0.095054 0.8 0 0
0.078047 0.213889 0.089451 0.8 0 0
0.256266 0.436230 0.084384 0.8 0 0
0.084285 0.094014 0.089451 0.8 0 0
0.028249 0.122492 0.046361 0.8 0 0
0.281988 0.397180 0.033725 0.8 0 0
0.410962 0.458873 0.089451 0.8 0 0
0.285195 0.475396 0.025000 0.8 0 0
0.103547 0.060676 0.089451 0.8 0 0
0.217549 0.372641 0.087775 0.8 0 0
0.235578 0.572421 0.084562 0.8 0 0
0.197710 0.343033 0.033351 0.8 0 0
0.952541 0.508688 0.025000 0.8 0 0
0.866550 0.501504 0.089451 0.8 0 0
0.391567 0.470006 0.058514 0.8 0 0
0.365307 0.467124 0.058514 0.8 0 0
0.190906 0.432097 0.115231 0.8 0 0
0.788080 0.518175 0.030037 0.8 0 0
0.226658 0.439692 0.115231 0.8 0 0
0.158424 0.482714 0.025000 0.8 0 0
0.157145 0.513585 0.083493 0.8 0 0
0.212196 0.423257 0.058514 0.8 0 0
0.299165 0.455915 0.025000 0.8 0 0
0.965912 0.518175 0.076854 0.8 0 0
0.028738 0.128815 0.069069 0.8 0 0
0.363937 0.518175 0.055642 0.8 0 0
0.772475 0.484221 0.089451 0.8 0 0
0.221904 0.446599 0.076773 0.8 0 0
0.084290 0.505633 0.035861 0.8 0 0
0.218331 0.331733 0.095587 0.8 0 0
0.081014 0.403971 0.025000 0.8 0 0
0.237090 0.318219 0.094066 0.8 0 0
0.225345 0.387223 0.104919 0.8 0 0
0.223780 0.445464 0.060329 0.8 0 0
0.593661 0.427944 0.058810 0.8 0 0
0.196841 0.486727 0.115231 0.8 0 0
0.150532 0.151666 0.089451 0.8 0 0
0.110822 0.207865 0.025000 0.8 0 0
0.342416 0.414847 0.039165 0.8 0 0
0.274676 0.506998 0.025000 0.8 0 0
0.082740 0.069855 0.089451 0.8 0 0
0.032750 0.180757 0.077159 0.8 0 0
0.042575 0.307952 0.047949 0.8 0 0
0.245093 0.484003 0.095888 0.8 0 0
0.121272 0.066984 0.089451 0.8 0 0
0.397267 0.484779 0.059058 0.8 0 0
0.263638 0.401695 0.115231 0.8 0 0
0.295466 0.511138 0.097718 0.8 0 0
0.277511 0.433003 0.066248 0.8 0 0
0.184785 0.480232 0.115231 0.8 0 0
0.219812 0.442958 0.066248 0.8 0 0
0.375913 0.450496 0.100488 0.8 0 0
0.412620 0.443554 0.089451 0.8 0 0
0.159480 0.251449 0.089451 0.8 0 0
0.053678 0.358936 0.089451 0.8 0 0
0.890719 0.513463 0.025000 0.8 0 0
0.046735 0.147945 0.025000 0.8 0 0
0.781127 0.427944 0.075158 0.8 0 0
0.754522 0.495589 0.025000 0.8 0 0
0.128264 0.286882 0.089451 0.8 0 0
0.341741 0.353003 0.094244 0.8 0 0
0.270047 0.429649 0.058514 0.8 0 0
0.044924 0.338388 0.046280 0.8 0 0
0.177075 0.518175 0.027952 0.8 0 0
0.164362 0.053327 0.046444 0.8 0 0
0.145544 0.357325 0.090595 0.8 0 0
0.442653 0.454018 0.089451 0.8 0 0
0.151992 0.466348 0.025000 0.8 0 0
0.134170 0.507212 0.025000 0.8 0 0
0.201225 0.396762 0.058514 0.8 0 0
0.250121 0.519201 0.109074 0.8 0 0
0.691275 0.427944 0.064445 0.8 0 0
0.188455 0.426490 0.058514 0.8 0 0
0.232746 0.522762 0.081964 0.8 0 0
0.123389 0.226509 0.025000 0.8 0 0
0.535348 0.453704 0.089451 0.8 0 0
0.942495 0.457887 0.089451 0.8 0 0
0.227807 0.444744 0.070334 0.8 0 0
0.159774 0.509731 0.058514 0.8 0 0
0.446016 0.427944 0.069679 0.8 0 0
0.068681 0.442555 0.025000 0.8 0 0
0.615349 0.465943 0.025000 0.8 0 0
0.954869 0.518175 0.029431 0.8 0 0
0.067933 0.266362 0.025000 0.8 0 0
0.294894 0.516818 0.080963 0.8 0 0
0.141485 0.330090 0.025000 0.8 0 0
0.928827 0.462908 0.025000 0.8 0 0
0.662938 0.449652 0.089451 0.8 0 0
0.225521 0.384301 0.070407 0.8 0 0
0.092073 0.193510 0.089451 0.8 0 0
0.847155 0.434553 0.089451 0.8 0 0
0.854789 0.518175 0.082921 0.8 0 0
0.184238 0.298496 0.058514 0.8 0 0
0.114154 0.566545 0.093258 0.8 0 0
0.118512 0.227083 0.025000 0.8 0 0
0.925543 0.518175 0.031233 0.8 0 0
0.160753 0.470087 0.076560 0.8 0 0
0.156497 0.389848 0.058514 0.8 0 0
0.523247 0.458921 0.089451 0.8 0 0
0.142783 0.382998 0.087741 0.8 0 0
0.148338 0.300404 0.059724 0.8 0 0
0.719979 0.505838 0.025000 0.8 0 0
0.813124 0.498080 0.089451 0.8 0 0
0.665170 0.518175 0.066445 0.8 0 0
0.025169 0.082617 0.058755 0.8 0 0
0.274515 0.428242 0.058514 0.8 0 0
0.975000 0.463968 0.032984 0.8 0 0
0.281235 0.503545 0.058514 0.8 0 0
0.150577 0.357925 0.025000 0.8 0 0
0.065149 0.299658 0.089451 0.8 0 0
0.133009 0.066787 0.025000 0.8 0 0
0.089785 0.172197 0.089451 0.8 0 0
0.346288 0.444445 0.095148 0.8 0 0
0.572389 0.479463 0.025000 0.8 0 0
0.493045 0.487834 0.089451 0.8 0 0
0.197978 0.468069 0.058514 0.8 0 0
0.255231 0.416749 0.058514 0.8 0 0
0.294952 0.437883 0.069185 0.8 0 0
0.174791 0.361983 0.025000 0.8 0 0
0.263906 0.506728 0.085796 0.8 0 0
0.455927 0.427944 0.083676 0.8 0 0
0.715148 0.514463 0.025000 0.8 0 0
0.337621 0.444660 0.095549 0.8 0 0
0.202312 0.411842 0.059533 0.8 0 0
0.346526 0.346835 0.090475 0.8 0 0
0.290402 0.391326 0.080473 0.8 0 0
0.028066 0.120115 0.065011 0.8 0 0
0.210797 0.386371 0.113444 0.8 0 0
0.180473 0.252241 0.062853 0.8 0 0
0.251369 0.458583 0.116907 0.8 0 0
0.564857 0.518175 0.082718 0.8 0 0
0.217396 0.408005 0.066248 0.8 0 0
0.099014 0.231711 0.025000 0.8 0 0
0.971462 0.427944 0.076625 0.8 0 0
0.476262 0.501921 0.089451 0.8 0 0
0.731528 0.483452 0.089451 0.8 0 0
0.169262 0.414655 0.025000 0.8 0 0
0.229506 0.409851 0.066248 0.8 0 0
0.255435 0.456879 0.058514 0.8 0 0
0.082180 0.219744 0.025000 0.8 0 0
0.220517 0.434109 0.025000 0.8 0 0
0.045905 0.089413 0.025000 0.8 0 0
0.170009 0.116651 0.052797 0.8 0 0
0.280477 0.503429 0.080749 0.8 0 0
0.673039 0.518175 0.075121 0.8 0 0
0.106230 0.352884 0.025000 0.8 0 0
0.281916 0.522725 0.089880 0.8 0 0
0.208615 0.418110 0.066248 0.8 0 0
0.542067 0.518175 0.045564 0.8 0 0
0.840552 0.452565 0.025000 0.8 0 0
0.906649 0.518175 0.070550 0.8 0 0
0.145647 0.450575 0.058514 0.8 0 0
0.491487 0.511694 0.089451 0.8 0 0
0.110842 0.077332 0.089451 0.8 0 0
0.032551 0.178185 0.088054 0.8 0 0
0.283628 0.450526 0.100497 0.8 0 0
0.036623 0.139969 0.025000 0.8 0 0
0.181686 0.405805 0.100889 0.8 0 0
0.168426 0.368263 0.025000 0.8 0 0
0.554927 0.457270 0.089451 0.8 0 0
0.038803 0.106312 0.089451 0.8 0 0
0.074920 0.485976 0.058514 0.8 0 0
0.175666 0.189947 0.085208 0.8 0 0
0.039367 0.227848 0.089451 0.8 0 0
0.026912 0.105181 0.063206 0.8 0 0
0.088198 0.371199 0.058514 0.8 0 0
0.177727 0.421054 0.058514 0.8 0 0
0.229231 0.474195 0.115231 0.8 0 0
0.253218 0.421868 0.025000 0.8 0 0
0.236658 0.453763 0.066248 0.8 0 0
0.290889 0.381763 0.099121 0.8 0 0
0.070955 0.025907 0.089451 0.8 0 0
0.096709 0.468902 0.058514 0.8 0 0
0.662656 0.443213 0.025000 0.8 0 0
0.056652 0.120687 0.089451 0.8 0 0
0.923212 0.442104 0.025000 0.8 0 0
0.041662 0.083088 0.025000 0.8 0 0
0.193101 0.507816 0.058514 0.8 0 0
0.197795 0.495555 0.096297 0.8 0 0
0.229786 0.445072 0.074617 0.8 0 0
0.525243 0.509075 0.089451 0.8 0 0
0.184439 0.506817 0.076560 0.8 0 0
0.433710 0.465696 0.089451 0.8 0 0
0.209122 0.386881 0.075521 0.8 0 0
0.112280 0.072074 0.025000 0.8 0 0
0.128551 0.431080 0.025000 0.8 0 0
0.055159 0.243404 0.025000 0.8 0 0
0.150837 0.410984 0.025000 0.8 0 0
0.242939 0.521386 0.114538 0.8 0 0
0.176570 0.454123 0.101011 0.8 0 0
0.788890 0.427944 0.040870 0.8 0 0
0.055731 0.402164 0.075505 0.8 0 0
0.736465 0.427944 0.062191 0.8 0 0
0.160000 0.420085 0.025000 0.8 0 0
0.730904 0.518175 0.072999 0.8 0 0
0.683944 0.518175 0.025439 0.8 0 0
0.549496 0.518175 0.044038 0.8 0 0
0.179808 0.413645 0.066248 0.8 0 0
0.865629 0.494163 0.025000 0.8 0 0
0.193876 0.393090 0.076410 0.8 0 0
0.084615 0.365906 0.025000 0.8 0 0
0.493758 0.488879 0.089451 0.8 0 0
0.974301 0.518175 0.040952 0.8 0 0
0.740967 0.514397 0.025000 0.8 0 0
0.650793 0.518175 0.066232 0.8 0 0
0.217068 0.542540 0.090803 0.8 0 0
0.107823 0.194692 0.089451 0.8 0 0
0.135292 0.095584 0.089451 0.8 0 0
0.191616 0.403410 0.090979 0.8 0 0
0.645480 0.447283 0.089451 0.8 0 0
0.688482 0.490712 0.025000 0.8 0 0
0.034029 0.197322 0.043682 0.8 0 0
0.068537 0.143241 0.089451 0.8 0 0
0.572339 0.518175 0.032752 0.8 0 0
0.088502 0.351564 0.084825 0.8 0 0
0.246792 0.387235 0.070144 0.8 0 0
0.137892 0.414129 0.025000 0.8 0 0
0.418865 0.468027 0.089451 0.8 0 0
0.146765 0.205642 0.025000 0.8 0 0
0.235740 0.457083 0.100826 0.8 0 0
0.923579 0.427944 0.036544 0.8 0 0
0.276564 0.475397 0.066248 0.8 0 0
0.881391 0.518175 0.044367 0.8 0 0
0.652576 0.479931 0.025000 0.8 0 0
0.157751 0.295945 0.073093 0.8 0 0
0.198610 0.516190 0.025000 0.8 0 0
0.138631 0.413393 0.025000 0.8 0 0
0.138197 0.272606 0.025000 0.8 0 0
0.152409 0.245824 0.089451 0.8 0 0
0.273460 0.481654 0.058514 0.8 0 0
0.174307 0.172340 0.028110 0.8 0 0
0.165754 0.471558 0.101375 0.8 0 0
0.975000 0.445626 0.027598 0.8 0 0
0.027296 0.110149 0.067220 0.8 0 0
0.073611 0.025273 0.082967 0.8 0 0
0.219639 0.419801 0.083988 0.8 0 0
0.084391 0.216483 0.089451 0.8 0 0
0.300847 0.402694 0.028128 0.8 0 0
0.130562 0.274506 0.025000 0.8 0 0
0.043983 0.121700 0.089451 0.8 0 0
0.940095 0.503140 0.058850 0.8 0 0
0.315640 0.362026 0.100722 0.8 0 0
0.079913 0.289148 0.089451 0.8 0 0
0.520937 0.508273 0.025000 0.8 0 0
0.773336 0.460900 0.025000 0.8 0 0
0.341119 0.563002 0.100507 0.8 0 0
0.106895 0.176906 0.089451 0.8 0 0
0.710792 0.503013 0.025000 0.8 0 0
0.246764 0.432540 0.100921 0.8 0 0
0.211332 0.456841 0.058514 0.8 0 0
0.110356 0.300146 0.089451 0.8 0 0
0.323589 0.409343 0.042819 0.8 0 0
0.120562 0.343547 0.080743 0.8 0 0
0.391324 0.489324 0.025000 0.8 0 0
0.634654 0.488986 0.025000 0.8 0 0
0.139417 0.468662 0.025000 0.8 0 0
0.161192 0.531308 0.097091 0.8 0 0
0.244332 0.516999 0.115231 0.8 0 0
0.224752 0.493070 0.058514 0.8 0 0
0.536214 0.477298 0.089451 0.8 0 0
0.326132 0.366254 0.097186 0.8 0 0
0.157885 0.500131 0.058514 0.8 0 0
0.056885 0.068239 0.025000 0.8 0 0
0.295501 0.373138 0.096015 0.8 0 0
0.133088 0.511542 0.025000 0.8 0 0
0.547644 0.427944 0.084243 0.8 0 0
0.231445 0.594157 0.100211 0.8 0 0
0.267086 0.504119 0.095085 0.8 0 0
0.174182 0.350880 0.025000 0.8 0 0
0.355825 0.450866 0.025000 0.8 0 0
0.181937 0.271222 0.035705 0.8 0 0
0.123786 0.220010 0.025000 0.8 0 0
0.522731 0.427944 0.026134 0.8 0 0
0.115502 0.551714 0.087789 0.8 0 0
0.694315 0.497679 0.089451 0.8 0 0
0.278053 0.493090 0.083958 0.8 0 0
0.217560 0.364865 0.087741 0.8 0 0
0.143686 0.280458 0.089451 0.8 0 0
0.784430 0.518175 0.089355 0.8 0 0
0.256440 0.474590 0.066248 0.8 0 0
0.727777 0.498343 0.025000 0.8 0 0
0.743761 0.478530 0.089451 0.8 0 0
0.228394 0.453807 0.128121 0.8 0 0
0.397660 0.508512 0.089451 0.8 0 0
0.944794 0.458008 0.089451 0.8 0 0
0.039037 0.262212 0.031326 0.8 0 0
0.169256 0.478514 0.115231 0.8 0 0
0.224558 0.610557 0.080870 0.8 0 0
0.190202 0.472860 0.025000 0.8 0 0
0.207478 0.392729 0.087067 0.8 0 0
0.046405 0.148851 0.025000 0.8 0 0
0.083393 0.342169 0.089451 0.8 0 0
0.235222 0.459523 0.115231 0.8 0 0
0.178857 0.458379 0.064835 0.8 0 0
0.081886 0.143184 0.089451 0.8 0 0
0.964345 0.476555 0.025000 0.8 0 0
0.270380 0.508040 0.072314 0.8 0 0
0.079688 0.247884 0.089451 0.8 0 0
0.049664 0.247557 0.025000 0.8 0 0
0.095410 0.025000 0.034205 0.8 0 0
0.863698 0.518175 0.081881 0.8 0 0
0.166533 0.474130 0.085162 0.8 0 0
0.452107 0.427944 0.083422 0.8 0 0
0.114927 0.466755 0.058514 0.8 0 0
0.155427 0.143667 0.025000 0.8 0 0
0.115236 0.178047 0.089451 0.8 0 0
0.958096 0.518175 0.041430 0.8 0 0
0.115362 0.202488 0.089451 0.8 0 0
0.324811 0.345310 0.084024 0.8 0 0
0.205421 0.471876 0.098980 0.8 0 0
0.302987 0.476035 0.025000 0.8 0 0
0.406112 0.498290 0.025000 0.8 0 0
0.119774 0.338916 0.099659 0.8 0 0
0.935715 0.497731 0.025000 0.8 0 0
0.102639 0.444679 0.085894 0.8 0 0
0.691297 0.427944 0.032717 0.8 0 0
0.669519 0.469556 0.089451 0.8 0 0
0.122793 0.112599 0.025000 0.8 0 0
0.395949 0.490917 0.078847 0.8 0 0
0.083981 0.213001 0.025000 0.8 0 0
0.039191 0.264149 0.086280 0.8 0 0
0.132165 0.188622 0.089451 0.8 0 0
0.064925 0.218118 0.025000 0.8 0 0
0.947591 0.427944 0.030404 0.8 0 0
0.331317 0.463515 0.087659 0.8 0 0
0.276770 0.414499 0.025000 0.8 0 0
0.034466 0.202977 0.082297 0.8 0 0
0.975000 0.495154 0.063894 0.8 0 0
0.210625 0.512080 0.115231 0.8 0 0
0.096971 0.358696 0.058514 0.8 0 0
0.725352 0.433483 0.089451 0.8 0 0
0.124720 0.339020 0.084959 0.8 0 0
0.152556 0.401140 0.058514 0.8 0 0
0.657878 0.478175 0.025000 0.8 0 0
0.975000 0.499097 0.067553 0.8 0 0
0.706415 0.427944 0.064598 0.8 0 0
0.667195 0.448784 0.025000 0.8 0 0
0.236343 0.454284 0.073421 0.8 0 0
0.319203 0.458898 0.099621 0.8 0 0
0.175543 0.188353 0.073263 0.8 0 0
0.613776 0.518175 0.050850 0.8 0 0
0.457845 0.427944 0.032437 0.8 0 0
0.026074 0.086633 0.025000 0.8 0 0
0.834696 0.427944 0.088265 0.8 0 0
0.823187 0.440928 0.025000 0.8 0 0
0.028723 0.128628 0.074136 0.8 0 0
0.269792 0.518175 0.044268 0.8 0 0
0.116798 0.265542 0.025000 0.8 0 0
0.046259 0.310313 0.025000 0.8 0 0
0.363972 0.441148 0.025000 0.8 0 0
0.112050 0.343008 0.089791 0.8 0 0
0.635641 0.464447 0.025000 0.8 0 0
0.268207 0.463829 0.058514 0.8 0 0
0.961170 0.480315 0.089451 0.8 0 0
0.207785 0.439174 0.115330 0.8 0 0
0.125672 0.027064 0.025000 0.8 0 0
0.097451 0.164797 0.089451 0.8 0 0
0.079564 0.480170 0.058514 0.8 0 0
0.123636 0.364294 0.092588 0.8 0 0
0.083920 0.357711 0.069937 0.8 0 0
0.409176 0.468944 0.025000 0.8 0 0
0.221570 0.460577 0.060559 0.8 0 0
0.290850 0.443812 0.076836 0.8 0 0
0.232814 0.565584 0.099479 0.8 0 0
0.177651 0.465901 0.058514 0.8 0 0
0.141585 0.458398 0.099889 0.8 0 0
0.760851 0.443491 0.025000 0.8 0 0
0.975000 0.486359 0.081939 0.8 0 0
0.703667 0.518175 0.031081 0.8 0 0
0.230023 0.500624 0.066248 0.8 0 0
0.264232 0.427550 0.066248 0.8 0 0
0.705254 0.482938 0.089451 0.8 0 0
0.240547 0.486344 0.058514 0.8 0 0
0.025256 0.070883 0.044540 0.8 0 0
0.237321 0.537396 0.088176 0.8 0 0
0.228958 0.523175 0.105382 0.8 0 0
0.928507 0.451453 0.089451 0.8 0 0
0.247855 0.457766 0.115231 0.8 0 0
0.074284 0.439677 0.025000 0.8 0 0
0.170522 0.508777 0.058514 0.8 0 0
0.792190 0.452708 0.025000 0.8 0 0
0.577190 0.479945 0.025000 0.8 0 0
0.052217 0.432883 0.052483 0.8 0 0
0.153519 0.437223 0.058514 0.8 0 0
0.044555 0.136570 0.025000 0.8 0 0
0.809649 0.493410 0.089451 0.8 0 0
0.142377 0.529981 0.082530 0.8 0 0
0.395984 0.490759 0.084220 0.8 0 0
0.473018 0.436014 0.089451 0.8 0 0
0.446874 0.518175 0.038810 0.8 0 0
0.326978 0.449699 0.058514 0.8 0 0
0.975000 0.508300 0.032400 0.8 0 0
0.217023 0.444601 0.058514 0.8 0 0
0.241484 0.385338 0.033105 0.8 0 0
0.955967 0.453746 0.025000 0.8 0 0
0.265271 0.456489 0.100624 0.8 0 0
0.233176 0.385306 0.058514 0.8 0 0
0.073455 0.312252 0.025000 0.8 0 0
0.082532 0.060792 0.089451 0.8 0 0
0.226579 0.403092 0.066248 0.8 0 0
0.221821 0.518517 0.099418 0.8 0 0
0.097945 0.025000 0.047809 0.8 0 0
0.254670 0.389193 0.034680 0.8 0 0
0.163030 0.202514 0.089451 0.8 0 0
0.838167 0.516814 0.089451 0.8 0 0
0.895493 0.437493 0.089451 0.8 0 0
0.053010 0.328535 0.089451 0.8 0 0
0.300407 0.518175 0.050863 0.8 0 0
0.681492 0.437918 0.025000 0.8 0 0
0.181858 0.270189 0.030812 0.8 0 0
0.229510 0.547415 0.100809 0.8 0 0
0.199016 0.451790 0.100105 0.8 0 0
0.160491 0.471848 0.107201 0.8 0 0
0.523200 0.518175 0.034716 0.8 0 0
0.117429 0.463868 0.089035 0.8 0 0
0.280679 0.427244 0.025000 0.8 0 0
0.182235 0.449146 0.058514 0.8 0 0
0.163318 0.350954 0.025000 0.8 0 0
0.909619 0.427944 0.089253 0.8 0 0
0.975000 0.486507 0.041054 0.8 0 0
0.289015 0.435956 0.084342 0.8 0 0
0.203093 0.472028 0.058514 0.8 0 0
0.188833 0.487795 0.058514 0.8 0 0
0.146708 0.039815 0.089451 0.8 0 0
0.168195 0.093142 0.067983 0.8 0 0
0.915289 0.518175 0.083812 0.8 0 0
0.204943 0.366929 0.042297 0.8 0 0
0.025243 0.071374 0.067738 0.8 0 0
0.173109 0.156821 0.028284 0.8 0 0
0.945303 0.476986 0.089451 0.8 0 0
0.620612 0.518175 0.045083 0.8 0 0
0.231994 0.522875 0.074779 0.8 0 0
0.281566 0.435372 0.066248 0.8 0 0
0.664829 0.518175 0.035667 0.8 0 0
0.201642 0.405104 0.058514 0.8 0 0
0.172031 0.481246 0.058514 0.8 0 0
0.269684 0.508025 0.025000 0.8 0 0
0.203899 0.518175 0.048336 0.8 0 0
0.185981 0.486921 0.058514 0.8 0 0
0.121353 0.462874 0.095390 0.8 0 0
0.584887 0.461713 0.089451 0.8 0 0
0.703762 0.490814 0.089451 0.8 0 0
0.110086 0.326926 0.081850 0.8 0 0
0.121379 0.570519 0.097611 0.8 0 0
0.075294 0.443454 0.091166 0.8 0 0
0.286317 0.486936 0.058514 0.8 0 0
0.241744 0.422874 0.025000 0.8 0 0
0.753222 0.485736 0.025000 0.8 0 0
0.071136 0.081485 0.089451 0.8 0 0
0.829673 0.515109 0.089451 0.8 0 0
0.046287 0.160412 0.025000 0.8 0 0
0.817754 0.427944 0.028409 0.8 0 0
0.030082 0.146224 0.062801 0.8 0 0
0.511418 0.441779 0.025000 0.8 0 0
0.117482 0.116144 0.089451 0.8 0 0
0.169197 0.415619 0.073683 0.8 0 0
0.781328 0.427944 0.035674 0.8 0 0
0.171886 0.140967 0.034571 0.8 0 0
0.216010 0.488394 0.066248 0.8 0 0
0.581833 0.518175 0.089443 0.8 0 0
0.082131 0.504203 0.035319 0.8 0 0
0.954869 0.485155 0.089451 0.8 0 0
0.090937 0.458611 0.025000 0.8 0 0
0.103168 0.047868 0.089451 0.8 0 0
0.460017 0.472308 0.089451 0.8 0 0
0.723787 0.518175 0.072653 0.8 0 0
0.229325 0.445947 0.066248 0.8 0 0
0.585568 0.490076 0.089451 0.8 0 0
0.263595 0.438182 0.025000 0.8 0 0
0.758259 0.427944 0.071469 0.8 0 0
0.741940 0.427944 0.061672 0.8 0 0
0.236318 0.452914 0.100190 0.8 0 0
0.645123 0.449662 0.089451 0.8 0 0
0.103365 0.315176 0.089451 0.8 0 0
0.048293 0.298995 0.025000 0.8 0 0
0.240082 0.417309 0.115231 0.8 0 0
0.744602 0.427944 0.036257 0.8 0 0
0.543855 0.434348 0.089451 0.8 0 0
0.037817 0.246357 0.065881 0.8 0 0
0.275615 0.406779 0.076560 0.8 0 0
0.720815 0.427944 0.054957 0.8 0 0
0.169327 0.107809 0.081958 0.8 0 0
0.164979 0.056533 0.048668 0.8 0 0
0.229838 0.381933 0.040605 0.8 0 0
0.301363 0.421057 0.058514 0.8 0 0
0.189788 0.463362 0.066248 0.8 0 0
0.299257 0.530756 0.100366 0.8 0 0
0.925319 0.513697 0.089451 0.8 0 0
0.235815 0.456836 0.053588 0.8 0 0
0.807895 0.518175 0.087659 0.8 0 0
0.860356 0.467036 0.025000 0.8 0 0
0.277976 0.477825 0.058514 0.8 0 0
0.454380 0.518175 0.081868 0.8 0 0
0.649730 0.427944 0.069736 0.8 0 0
0.219658 0.318099 0.097513 0.8 0 0
0.223140 0.414507 0.058514 0.8 0 0
0.975000 0.480713 0.073892 0.8 0 0
0.445379 0.505459 0.089451 0.8 0 0
0.086360 0.202263 0.089451 0.8 0 0
0.231162 0.476657 0.115231 0.8 0 0
0.215997 0.441733 0.119098 0.8 0 0
0.778234 0.456098 0.025000 0.8 0 0
0.418694 0.448528 0.025000 0.8 0 0
0.183382 0.406843 0.085696 0.8 0 0
0.973539 0.427944 0.033499 0.8 0 0
0.168225 0.381791 0.025000 0.8 0 0
0.065692 0.465326 0.025000 0.8 0 0
0.940887 0.518175 0.041055 0.8 0 0
0.099507 0.156483 0.089451 0.8 0 0
0.052239 0.048614 0.089451 0.8 0 0
0.133689 0.084811 0.025000 0.8 0 0
0.690187 0.427944 0.025918 0.8 0 0
0.660058 0.511263 0.025000 0.8 0 0
0.564911 0.518175 0.082864 0.8 0 0
0.257309 0.494490 0.097584 0.8 0 0
0.397752 0.518175 0.085187 0.8 0 0
0.939139 0.496957 0.079386 0.8 0 0
0.247436 0.456545 0.115231 0.8 0 0
0.460081 0.513965 0.025000 0.8 0 0
0.612386 0.427944 0.037820 0.8 0 0
0.174766 0.178289 0.055816 0.8 0 0
0.947444 0.477742 0.089451 0.8 0 0
0.045666 0.347990 0.050247 0.8 0 0
0.335295 0.354546 0.098949 0.8 0 0
0.043608 0.321414 0.031811 0.8 0 0
0.065683 0.297080 0.025000 0.8 0 0
0.097138 0.469904 0.058514 0.8 0 0
0.233112 0.413521 0.058514 0.8 0 0
0.332131 0.411840 0.035898 0.8 0 0
0.715467 0.462021 0.025000 0.8 0 0
0.649722 0.427944 0.026261 0.8 0 0
0.218780 0.332536 0.096425 0.8 0 0
0.468680 0.458209 0.089451 0.8 0 0
0.108344 0.348678 0.093449 0.8 0 0
0.161080 0.261179 0.089451 0.8 0 0
0.167637 0.171729 0.089451 0.8 0 0
0.135014 0.025726 0.044789 0.8 0 0
0.151354 0.218845 0.025000 0.8 0 0
0.416615 0.450601 0.089451 0.8 0 0
0.072686 0.277777 0.025000 0.8 0 0
0.153769 0.349462 0.058514 0.8 0 0
0.285320 0.471598 0.058514 0.8 0 0
0.176319 0.323417 0.025000 0.8 0 0
0.295619 0.491963 0.058514 0.8 0 0
0.213229 0.387367 0.115231 0.8 0 0
0.238693 0.410884 0.058514 0.8 0 0
0.277373 0.389237 0.090038 0.8 0 0
0.199214 0.396041 0.094421 0.8 0 0
0.201139 0.507228 0.058514 0.8 0 0
0.410420 0.427944 0.061684 0.8 0 0
0.394162 0.458238 0.025000 0.8 0 0
0.063843 0.291770 0.089451 0.8 0 0
0.081073 0.372189 0.025000 0.8 0 0
0.708328 0.459138 0.025000 0.8 0 0
0.902987 0.494399 0.089451 0.8 0 0
0.178436 0.459806 0.099033 0.8 0 0
0.224594 0.445183 0.094416 0.8 0 0
0.431534 0.501962 0.089451 0.8 0 0
0.219065 0.347242 0.084692 0.8 0 0
0.471520 0.477160 0.089451 0.8 0 0
0.900758 0.474318 0.089451 0.8 0 0
0.306314 0.514281 0.058514 0.8 0 0
0.107260 0.363583 0.058514 0.8 0 0
0.080091 0.253677 0.025000 0.8 0 0
0.372416 0.478012 0.025000 0.8 0 0
0.357352 0.470259 0.058514 0.8 0 0
0.390912 0.509172 0.061260 0.8 0 0
0.167120 0.480249 0.058514 0.8 0 0
0.330807 0.468404 0.025000 0.8 0 0
0.219790 0.475987 0.025000 0.8 0 0
0.163761 0.445218 0.083342 0.8 0 0
0.801084 0.518175 0.055263 0.8 0 0
0.134943 0.197213 0.025000 0.8 0 0
0.911417 0.518175 0.082900 0.8 0 0
0.224213 0.420611 0.100508 0.8 0 0
0.276882 0.494517 0.086610 0.8 0 0
0.479906 0.518175 0.068716 0.8 0 0
0.217085 0.501307 0.090967 0.8 0 0
0.052806 0.440139 0.025000 0.8 0 0
0.046782 0.040479 0.089451 0.8 0 0
0.205715 0.368155 0.052617 0.8 0 0
0.327768 0.518175 0.050910 0.8 0 0
0.516108 0.488245 0.025000 0.8 0 0
0.096250 0.290426 0.089451 0.8 0 0
0.157592 0.259565 0.089451 0.8 0 0
0.244348 0.520957 0.113615 0.8 0 0
0.075439 0.151289 0.089451 0.8 0 0
0.136357 0.307305 0.063309 0.8 0 0
0.258589 0.478530 0.025000 0.8 0 0
0.295472 0.510856 0.025000 0.8 0 0
0.434621 0.518175 0.026249 0.8 0 0
0.044689 0.208579 0.089451 0.8 0 0
0.226459 0.408679 0.058514 0.8 0 0
0.543317 0.496776 0.089451 0.8 0 0
0.550792 0.437130 0.025000 0.8 0 0
0.245596 0.496987 0.115231 0.8 0 0
0.436089 0.481775 0.089451 0.8 0 0
0.163968 0.490373 0.025000 0.8 0 0
0.052569 0.126270 0.025000 0.8 0 0
0.201501 0.357176 0.032757 0.8 0 0
0.211747 0.454684 0.058514 0.8 0 0
0.487436 0.514197 0.089451 0.8 0 0
0.957399 0.526623 0.094808 0.8 0 0
0.818651 0.518175 0.057015 0.8 0 0
0.046118 0.052308 0.089451 0.8 0 0
0.399859 0.446429 0.077585 0.8 0 0
0.081118 0.503532 0.038795 0.8 0 0
0.709214 0.427944 0.055806 0.8 0 0
0.054833 0.360836 0.089451 0.8 0 0
0.779918 0.435554 0.089451 0.8 0 0
0.250363 0.452051 0.025000 0.8 0 0
0.140638 0.027398 0.049305 0.8 0 0
0.035727 0.045300 0.047161 0.8 0 0
0.180949 0.506775 0.025000 0.8 0 0
0.195742 0.499364 0.025000 0.8 0 0
0.195497 0.492650 0.058514 0.8 0 0
0.031946 0.170349 0.074942 0.8 0 0
0.686487 0.516300 0.089451 0.8 0 0
0.214228 0.487399 0.025000 0.8 0 0
0.247667 0.387146 0.034018 0.8 0 0
0.689585 0.518175 0.079287 0.8 0 0
0.615874 0.518175 0.075974 0.8 0 0
0.028771 0.057297 0.034186 0.8 0 0
0.232928 0.606733 0.099418 0.8 0 0
0.229592 0.527196 0.080694 0.8 0 0
0.236172 0.484289 0.058514 0.8 0 0
0.275811 0.424978 0.066248 0.8 0 0
0.040631 0.282786 0.058912 0.8 0 0
0.035547 0.217036 0.025429 0.8 0 0
0.043620 0.321522 0.041191 0.8 0 0
0.273638 0.417796 0.025000 0.8 0 0
0.236824 0.522398 0.108193 0.8 0 0
0.066868 0.429640 0.058514 0.8 0 0
0.298958 0.511910 0.058514 0.8 0 0
0.412011 0.493540 0.025000 0.8 0 0
0.117417 0.447864 0.025000 0.8 0 0
0.307611 0.528938 0.081087 0.8 0 0
0.285526 0.462976 0.086278 0.8 0 0
0.333975 0.334898 0.085160 0.8 0 0
0.045742 0.070790 0.089451 0.8 0 0
0.055784 0.127088 0.089451 0.8 0 0
0.357896 0.446708 0.098262 0.8 0 0
0.130454 0.056681 0.089451 0.8 0 0
0.721665 0.505972 0.089451 0.8 0 0
0.199960 0.467571 0.058514 0.8 0 0
0.416305 0.518175 0.086934 0.8 0 0
0.958783 0.472383 0.089451 0.8 0 0
0.508686 0.427944 0.086071 0.8 0 0
0.213751 0.428770 0.025000 0.8 0 0
0.781256 0.493997 0.025000 0.8 0 0
0.224325 0.445265 0.119551 0.8 0 0
0.029430 0.089248 0.089451 0.8 0 0
0.083789 0.025000 0.043342 0.8 0 0
0.882581 0.438001 0.025000 0.8 0 0
0.250569 0.434557 0.058514 0.8 0 0
0.229873 0.440354 0.025000 0.8 0 0
0.670729 0.427944 0.025550 0.8 0 0
0.142251 0.462335 0.085083 0.8 0 0
0.220654 0.379248 0.031359 0.8 0 0
0.361672 0.460180 0.058514 0.8 0 0
0.161118 0.526446 0.081537 0.8 0 0
0.051300 0.215109 0.089451 0.8 0 0
0.755639 0.427944 0.037481 0.8 0 0
0.956775 0.500739 0.025000 0.8 0 0
0.051012 0.398304 0.089451 0.8 0 0
0.467492 0.445748 0.089451 0.8 0 0
0.930535 0.491564 0.072476 0.8 0 0
0.813837 0.432494 0.089451 0.8 0 0
0.274317 0.518175 0.048762 0.8 0 0
0.489336 0.430610 0.089451 0.8 0 0
0.025518 0.087134 0.087950 0.8 0 0
0.230997 0.455811 0.025000 0.8 0 0
0.222179 0.451619 0.025000 0.8 0 0
0.491874 0.427944 0.079528 0.8 0 0
0.207287 0.423533 0.115231 0.8 0 0
0.284220 0.408008 0.097324 0.8 0 0
0.617936 0.431315 0.025000 0.8 0 0
0.109013 0.025000 0.055877 0.8 0 0
0.389457 0.513156 0.075446 0.8 0 0
0.124430 0.133867 0.025000 0.8 0 0
0.840592 0.490294 0.089451 0.8 0 0
0.201908 0.511610 0.025000 0.8 0 0
0.055978 0.053233 0.025000 0.8 0 0
0.131091 0.514365 0.058514 0.8 0 0
0.063418 0.389698 0.089451 0.8 0 0
0.833125 0.442941 0.025000 0.8 0 0
0.163851 0.051970 0.081380 0.8 0 0
0.093492 0.048862 0.089451 0.8 0 0
0.748510 0.483382 0.025000 0.8 0 0
0.932368 0.492663 0.089451 0.8 0 0
0.811922 0.463550 0.025000 0.8 0 0
0.154969 0.332395 0.025000 0.8 0 0
0.170040 0.493055 0.069675 0.8 0 0
0.219606 0.371630 0.084029 0.8 0 0
0.402672 0.443255 0.025000 0.8 0 0
0.035061 0.210684 0.037872 0.8 0 0
0.175369 0.499541 0.070700 0.8 0 0
0.176368 0.214685 0.025000 0.8 0 0
0.867714 0.518175 0.069732 0.8 0 0
0.410649 0.427944 0.067922 0.8 0 0
0.885703 0.446796 0.025000 0.8 0 0
0.232509 0.461126 0.105940 0.8 0 0
0.170165 0.118667 0.079864 0.8 0 0
0.458395 0.518175 0.070122 0.8 0 0
0.594131 0.510108 0.089451 0.8 0 0
0.539599 0.427944 0.064852 0.8 0 0
0.320078 0.532137 0.092727 0.8 0 0
0.278763 0.491306 0.087592 0.8 0 0
0.389439 0.462941 0.025000 0.8 0 0
0.230564 0.301290 0.080979 0.8 0 0
0.716943 0.492477 0.089451 0.8 0 0
0.946742 0.436148 0.089451 0.8 0 0
0.160766 0.044964 0.083229 0.8 0 0
0.045056 0.187416 0.025000 0.8 0 0
0.676911 0.427944 0.056361 0.8 0 0
0.604047 0.427944 0.054867 0.8 0 0
0.778718 0.482751 0.025000 0.8 0 0
0.053579 0.352696 0.089451 0.8 0 0
0.226928 0.431530 0.115231 0.8 0 0
0.294466 0.459490 0.082185 0.8 0 0
0.252299 0.513137 0.095732 0.8 0 0
0.222725 0.458162 0.025000 0.8 0 0
0.243319 0.463058 0.025000 0.8 0 0
0.277648 0.421401 0.058514 0.8 0 0
0.274696 0.409571 0.066248 0.8 0 0
0.149304 0.314314 0.058514 0.8 0 0
0.151581 0.125691 0.025000 0.8 0 0
0.933736 0.427944 0.070810 0.8 0 0
0.074292 0.374127 0.072988 0.8 0 0
0.546380 0.429577 0.025000 0.8 0 0
0.527087 0.489476 0.025000 0.8 0 0
0.210116 0.482630 0.096879 0.8 0 0
0.682736 0.469284 0.089451 0.8 0 0
0.251065 0.506538 0.025000 0.8 0 0
0.272681 0.508571 0.098486 0.8 0 0
0.697888 0.484500 0.025000 0.8 0 0
0.575111 0.476300 0.089451 0.8 0 0
0.103119 0.308099 0.025000 0.8 0 0
0.663894 0.444108 0.025000 0.8 0 0
0.764630 0.457367 0.089451 0.8 0 0
0.876699 0.427944 0.041091 0.8 0 0
0.142395 0.358282 0.025000 0.8 0 0
0.291200 0.447375 0.092320 0.8 0 0
0.166157 0.445723 0.115231 0.8 0 0
0.889565 0.430549 0.089451 0.8 0 0
0.399695 0.443125 0.083159 0.8 0 0
0.243353 0.386189 0.107298 0.8 0 0
0.091320 0.484562 0.025000 0.8 0 0
0.140698 0.498365 0.025000 0.8 0 0
0.103474 0.178009 0.025000 0.8 0 0
0.116321 0.321824 0.061085 0.8 0 0
0.560295 0.493155 0.025000 0.8 0 0
0.049410 0.396440 0.068317 0.8 0 0
0.925510 0.429336 0.089451 0.8 0 0
0.951214 0.438122 0.025000 0.8 0 0
0.084122 0.372742 0.058514 0.8 0 0
0.034395 0.116502 0.025000 0.8 0 0
0.217743 0.388154 0.087137 0.8 0 0
0.236723 0.492871 0.066248 0.8 0 0
0.197833 0.415843 0.082294 0.8 0 0
0.235413 0.501307 0.084360 0.8 0 0
0.130560 0.488388 0.025000 0.8 0 0
0.943735 0.427944 0.082933 0.8 0 0
0.164454 0.337055 0.058514 0.8 0 0
0.974121 0.459992 0.025000 0.8 0 0
0.234765 0.610725 0.083566 0.8 0 0
0.178124 0.502895 0.110781 0.8 0 0
0.205158 0.369295 0.058514 0.8 0 0
0.575454 0.448950 0.089451 0.8 0 0
0.125090 0.085485 0.089451 0.8 0 0
0.660093 0.497068 0.025000 0.8 0 0
0.218372 0.453513 0.064017 0.8 0 0
0.082112 0.449346 0.058514 0.8 0 0
0.111471 0.464021 0.090899 0.8 0 0
0.217919 0.390205 0.090002 0.8 0 0
0.046042 0.352844 0.080985 0.8 0 0
0.069063 0.371836 0.025000 0.8 0 0
0.231645 0.414886 0.058514 0.8 0 0
0.175393 0.186407 0.055610 0.8 0 0
0.731961 0.518175 0.070055 0.8 0 0
0.216646 0.492263 0.058514 0.8 0 0
0.312571 0.462843 0.095448 0.8 0 0
0.823295 0.447864 0.025000 0.8 0 0
0.738502 0.427944 0.035980 0.8 0 0
0.234995 0.342515 0.097631 0.8 0 0
0.100439 0.416312 0.025000 0.8 0 0
0.221920 0.484448 0.115231 0.8 0 0
0.175266 0.398727 0.025000 0.8 0 0
0.975000 0.496969 0.082025 0.8 0 0
0.109278 0.214282 0.025000 0.8 0 0
0.284286 0.413879 0.067377 0.8 0 0
0.101991 0.086183 0.025000 0.8 0 0
0.222181 0.613562 0.085263 0.8 0 0
0.130848 0.282030 0.025000 0.8 0 0
0.973298 0.449393 0.089451 0.8 0 0
0.338755 0.429918 0.058514 0.8 0 0
0.176552 0.288935 0.087708 0.8 0 0
0.037032 0.043550 0.034630 0.8 0 0
0.908042 0.453838 0.089451 0.8 0 0
0.514035 0.503647 0.089451 0.8 0 0
0.752081 0.458137 0.089451 0.8 0 0
0.934244 0.438766 0.025000 0.8 0 0
0.168231 0.093604 0.081492 0.8 0 0
0.226693 0.491082 0.066248 0.8 0 0
0.107712 0.175336 0.025000 0.8 0 0
0.485372 0.499888 0.025000 0.8 0 0
0.129764 0.462173 0.096617 0.8 0 0
0.205340 0.474154 0.066248 0.8 0 0
0.571776 0.518175 0.068279 0.8 0 0
0.037965 0.248272 0.076970 0.8 0 0
0.148486 0.383439 0.099030 0.8 0 0
0.171840 0.140368 0.046399 0.8 0 0
0.054007 0.456135 0.044173 0.8 0 0
0.975000 0.437455 0.026314 0.8 0 0
0.100135 0.454852 0.080543 0.8 0 0
0.182087 0.273148 0.084784 0.8 0 0
0.073958 0.427095 0.058514 0.8 0 0
0.088846 0.391642 0.025000 0.8 0 0
0.035291 0.211923 0.025000 0.8 0 0
0.237781 0.399866 0.025000 0.8 0 0
0.674258 0.455645 0.089451 0.8 0 0
0.507972 0.480514 0.089451 0.8 0 0
0.322700 0.470687 0.025000 0.8 0 0
0.142242 0.359081 0.082978 0.8 0 0
0.854077 0.435285 0.025000 0.8 0 0
0.291767 0.454319 0.103590 0.8 0 0
0.041798 0.297897 0.082739 0.8 0 0
0.671099 0.466719 0.089451 0.8 0 0
0.033045 0.081173 0.089451 0.8 0 0
0.759578 0.486317 0.025000 0.8 0 0
0.533433 0.518175 0.059880 0.8 0 0
0.463639 0.487006 0.025000 0.8 0 0
0.581244 0.509549 0.089451 0.8 0 0
0.046771 0.362360 0.038343 0.8 0 0
0.093338 0.362124 0.058514 0.8 0 0
0.358291 0.454270 0.025000 0.8 0 0
0.201159 0.518117 0.066248 0.8 0 0
0.210625 0.375288 0.058514 0.8 0 0
0.178590 0.227834 0.084002 0.8 0 0
0.142555 0.382754 0.058514 0.8 0 0
0.193763 0.420406 0.066248 0.8 0 0
0.232352 0.446205 0.062211 0.8 0 0
0.087326 0.193815 0.025000 0.8 0 0
0.208770 0.432230 0.089086 0.8 0 0
0.744669 0.427944 0.073815 0.8 0 0
0.035161 0.211984 0.037341 0.8 0 0
0.603636 0.492784 0.089451 0.8 0 0
0.278617 0.448500 0.058514 0.8 0 0
0.145520 0.375532 0.100675 0.8 0 0
0.266417 0.488391 0.080951 0.8 0 0
0.643956 0.512001 0.089451 0.8 0 0
0.614244 0.487196 0.025000 0.8 0 0
0.810971 0.432950 0.025000 0.8 0 0
0.059244 0.258591 0.025000 0.8 0 0
0.115456 0.297624 0.025000 0.8 0 0
0.244821 0.468430 0.115231 0.8 0 0
0.106532 0.362776 0.058514 0.8 0 0
0.241907 0.480592 0.058514 0.8 0 0
0.240460 0.516783 0.087511 0.8 0 0
0.117351 0.050696 0.089451 0.8 0 0
0.117962 0.162163 0.025000 0.8 0 0
0.834318 0.518175 0.077301 0.8 0 0
0.135264 0.307996 0.058836 0.8 0 0
0.908674 0.518175 0.055725 0.8 0 0
0.184877 0.431727 0.025000 0.8 0 0
0.120680 0.166223 0.089451 0.8 0 0
0.282398 0.388565 0.083341 0.8 0 0
0.157205 0.463012 0.086345 0.8 0 0
0.468583 0.445067 0.025000 0.8 0 0
0.138273 0.026695 0.070057 0.8 0 0
0.237062 0.379366 0.087322 0.8 0 0
0.241998 0.518175 0.043132 0.8 0 0
0.202674 0.471401 0.058514 0.8 0 0
0.175142 0.380332 0.025000 0.8 0 0
0.174804 0.178779 0.037281 0.8 0 0
0.182175 0.474205 0.066248 0.8 0 0
0.410363 0.437793 0.089451 0.8 0 0
0.823059 0.427944 0.078223 0.8 0 0
0.882135 0.506163 0.025000 0.8 0 0
0.732778 0.478469 0.025000 0.8 0 0
0.874114 0.448465 0.025000 0.8 0 0
0.062243 0.404557 0.058514 0.8 0 0
0.242468 0.411111 0.058514 0.8 0 0
0.601737 0.484538 0.025000 0.8 0 0
0.323863 0.511324 0.058514 0.8 0 0
0.972004 0.435930 0.025000 0.8 0 0
0.219803 0.496203 0.097692 0.8 0 0
0.212298 0.465540 0.025000 0.8 0 0
0.456533 0.516839 0.025000 0.8 0 0
0.327609 0.565661 0.084654 0.8 0 0
0.204807 0.470567 0.115231 0.8 0 0
0.247493 0.520001 0.070191 0.8 0 0
0.618909 0.508625 0.025000 0.8 0 0
0.141289 0.207026 0.089451 0.8 0 0
0.594218 0.432084 0.089451 0.8 0 0
0.298901 0.421536 0.058514 0.8 0 0
0.098915 0.025000 0.064506 0.8 0 0
0.136104 0.331803 0.058514 0.8 0 0
0.218499 0.455234 0.117046 0.8 0 0
0.436015 0.518175 0.049927 0.8 0 0
0.640181 0.518175 0.076269 0.8 0 0
0.087142 0.461634 0.058514 0.8 0 0
0.233863 0.508871 0.098697 0.8 0 0
0.271828 0.400599 0.070126 0.8 0 0
0.093682 0.344616 0.067844 0.8 0 0
0.319950 0.510948 0.058514 0.8 0 0
0.328741 0.410859 0.058514 0.8 0 0
0.818990 0.458954 0.025000 0.8 0 0
0.182451 0.308344 0.058514 0.8 0 0
0.242827 0.472097 0.066248 0.8 0 0
0.228840 0.444845 0.033431 0.8 0 0
0.374656 0.512995 0.025000 0.8 0 0
0.238915 0.384587 0.056962 0.8 0 0
0.460235 0.514511 0.089451 0.8 0 0
0.390815 0.509439 0.060642 0.8 0 0
0.258083 0.503683 0.066248 0.8 0 0
0.195600 0.428245 0.081471 0.8 0 0
0.554324 0.433254 0.089451 0.8 0 0
0.551968 0.518175 0.069808 0.8 0 0
0.476705 0.495253 0.025000 0.8 0 0
0.258778 0.435997 0.115231 0.8 0 0
0.169123 0.105166 0.077814 0.8 0 0
0.290240 0.424411 0.072323 0.8 0 0
0.137508 0.449720 0.081232 0.8 0 0
0.331302 0.357175 0.099596 0.8 0 0
0.698532 0.464132 0.089451 0.8 0 0
0.143725 0.499934 0.058514 0.8 0 0
0.081355 0.394500 0.025000 0.8 0 0
0.077402 0.314566 0.089451 0.8 0 0
0.175121 0.498537 0.081906 0.8 0 0
0.476376 0.507647 0.089451 0.8 0 0
0.513123 0.518175 0.061778 0.8 0 0
0.042260 0.303980 0.025924 0.8 0 0
0.729265 0.427944 0.066539 0.8 0 0
0.207893 0.430674 0.058514 0.8 0 0
0.975000 0.481518 0.076172 0.8 0 0
0.120290 0.025000 0.080953 0.8 0 0
0.849627 0.518175 0.052271 0.8 0 0
0.332722 0.351167 0.100848 0.8 0 0
0.328605 0.494097 0.025000 0.8 0 0
0.309631 0.518175 0.030844 0.8 0 0
0.756914 0.518175 0.040630 0.8 0 0
0.196991 0.340349 0.046152 0.8 0 0
0.276381 0.491955 0.066248 0.8 0 0
0.328000 0.364484 0.084377 0.8 0 0
0.335204 0.412739 0.027933 0.8 0 0
0.256322 0.411644 0.086352 0.8 0 0
0.106833 0.318329 0.089451 0.8 0 0
0.734986 0.494189 0.089451 0.8 0 0
0.225675 0.408899 0.066248 0.8 0 0
0.595333 0.427944 0.069532 0.8 0 0
0.120895 0.347810 0.080469 0.8 0 0
0.169393 0.409332 0.094395 0.8 0 0
0.233062 0.610516 0.099346 0.8 0 0
0.448195 0.518175 0.074600 0.8 0 0
0.490053 0.430056 0.025000 0.8 0 0
0.115133 0.352575 0.025000 0.8 0 0
0.047537 0.372195 0.054223 0.8 0 0
0.877526 0.518175 0.030493 0.8 0 0
0.669253 0.427944 0.049355 0.8 0 0
0.975000 0.493573 0.028226 0.8 0 0
0.224071 0.306787 0.100466 0.8 0 0
0.325065 0.441415 0.025000 0.8 0 0
0.190621 0.494018 0.066248 0.8 0 0
0.214980 0.480090 0.066248 0.8 0 0
0.154990 0.445555 0.096959 0.8 0 0
0.158938 0.134239 0.025000 0.8 0 0
0.415741 0.518175 0.048084 0.8 0 0
0.230583 0.434633 0.066248 0.8 0 0
0.171623 0.137559 0.078713 0.8 0 0
0.088964 0.504210 0.025000 0.8 0 0
0.838357 0.427944 0.070515 0.8 0 0
0.930472 0.518175 0.028713 0.8 0 0
0.420635 0.503784 0.025000 0.8 0 0
0.609696 0.512847 0.025000 0.8 0 0
0.569731 0.436342 0.089451 0.8 0 0
0.541799 0.427944 0.062645 0.8 0 0
0.975000 0.454179 0.064996 0.8 0 0
0.099925 0.374821 0.025000 0.8 0 0
0.046749 0.362118 0.028270 0.8 0 0
0.294194 0.451277 0.076560 0.8 0 0
0.917188 0.427944 0.063876 0.8 0 0
0.161189 0.393485 0.025000 0.8 0 0
0.927840 0.468618 0.089451 0.8 0 0
0.133923 0.241701 0.025000 0.8 0 0
0.880082 0.468394 0.089451 0.8 0 0
0.421477 0.487512 0.025000 0.8 0 0
0.100263 0.025000 0.061347 0.8 0 0
0.048543 0.265629 0.089451 0.8 0 0
0.308105 0.454828 0.100938 0.8 0 0
0.950288 0.430520 0.089451 0.8 0 0
0.238222 0.404295 0.058514 0.8 0 0
0.283091 0.495024 0.107408 0.8 0 0
0.330309 0.354292 0.080772 0.8 0 0
0.100667 0.494982 0.058514 0.8 0 0
0.035398 0.215035 0.042350 0.8 0 0
0.975000 0.487774 0.030323 0.8 0 0
0.213733 0.470136 0.058514 0.8 0 0
0.090847 0.450280 0.058514 0.8 0 0
0.084304 0.172998 0.025000 0.8 0 0
0.796781 0.518175 0.088461 0.8 0 0
0.845112 0.509727 0.025000 0.8 0 0
0.327487 0.567594 0.093984 0.8 0 0
0.319406 0.376053 0.092281 0.8 0 0
0.340530 0.414296 0.027138 0.8 0 0
0.866772 0.433711 0.089451 0.8 0 0
0.196767 0.487244 0.066248 0.8 0 0
0.580999 0.477186 0.025000 0.8 0 0
0.975000 0.494113 0.043631 0.8 0 0
0.045691 0.056984 0.025000 0.8 0 0
0.466140 0.518175 0.041262 0.8 0 0
0.201027 0.412975 0.092034 0.8 0 0
0.287877 0.458587 0.115231 0.8 0 0
0.702578 0.518175 0.025193 0.8 0 0
0.176833 0.412853 0.083069 0.8 0 0
0.234651 0.506513 0.025000 0.8 0 0
0.317570 0.457494 0.058514 0.8 0 0
0.139041 0.498334 0.025000 0.8 0 0
0.271456 0.498956 0.100968 0.8 0 0
0.045762 0.038272 0.025000 0.8 0 0
0.288268 0.399016 0.043886 0.8 0 0
0.194880 0.421040 0.080441 0.8 0 0
0.097603 0.428960 0.058514 0.8 0 0
0.104420 0.427005 0.025000 0.8 0 0
0.094949 0.503162 0.025000 0.8 0 0
0.229870 0.447084 0.025000 0.8 0 0
0.866237 0.515074 0.089451 0.8 0 0
0.352999 0.455880 0.025000 0.8 0 0
0.756539 0.481073 0.089451 0.8 0 0
0.297175 0.466520 0.058514 0.8 0 0
0.071888 0.201728 0.089451 0.8 0 0
0.228330 0.444795 0.078771 0.8 0 0
0.839660 0.427944 0.038105 0.8 0 0
0.176478 0.200474 0.073414 0.8 0 0
0.262041 0.477802 0.083685 0.8 0 0
0.043136 0.315217 0.070200 0.8 0 0
0.287435 0.430738 0.102590 0.8 0 0
0.097390 0.344689 0.058514 0.8 0 0
0.086682 0.174122 0.025000 0.8 0 0
0.939023 0.518500 0.091180 0.8 0 0
0.025303 0.084355 0.088878 0.8 0 0
0.228553 0.523215 0.067451 0.8 0 0
0.069654 0.221816 0.025000 0.8 0 0
0.139725 0.488961 0.058514 0.8 0 0
0.172766 0.236479 0.089451 0.8 0 0
0.967800 0.427944 0.087139 0.8 0 0
0.233542 0.484775 0.115231 0.8 0 0
0.734776 0.518175 0.048773 0.8 0 0
0.042270 0.158361 0.025000 0.8 0 0
0.893452 0.439661 0.025000 0.8 0 0
0.112044 0.461464 0.083993 0.8 0 0
0.905482 0.427944 0.079745 0.8 0 0
0.486394 0.439775 0.089451 0.8 0 0
0.228189 0.474285 0.066248 0.8 0 0
0.172206 0.145122 0.027594 0.8 0 0
0.975000 0.481867 0.066235 0.8 0 0
0.284649 0.397958 0.046986 0.8 0 0
0.197413 0.518175 0.034820 0.8 0 0
0.061898 0.451789 0.058514 0.8 0 0
0.256420 0.445208 0.025000 0.8 0 0
0.551816 0.474157 0.025000 0.8 0 0
0.165326 0.518175 0.042209 0.8 0 0
0.193215 0.414474 0.081100 0.8 0 0
0.335214 0.412742 0.057279 0.8 0 0
0.160750 0.442292 0.076560 0.8 0 0
0.398429 0.430164 0.069519 0.8 0 0
0.049258 0.394476 0.077726 0.8 0 0
0.050272 0.383026 0.025000 0.8 0 0
0.503931 0.427944 0.046327 0.8 0 0
0.683774 0.518175 0.028863 0.8 0 0
0.927156 0.518175 0.088870 0.8 0 0
0.151496 0.247445 0.025000 0.8 0 0
0.077669 0.443580 0.089039 0.8 0 0
0.261022 0.514279 0.070583 0.8 0 0
0.249067 0.417127 0.115231 0.8 0 0
0.236376 0.453498 0.060842 0.8 0 0
0.129295 0.237972 0.025000 0.8 0 0
0.180304 0.287688 0.074889 0.8 0 0
0.278571 0.511465 0.099913 0.8 0 0
0.127561 0.338616 0.025000 0.8 0 0
0.176495 0.406537 0.105585 0.8 0 0
0.975000 0.448462 0.068123 0.8 0 0
0.079927 0.249928 0.089451 0.8 0 0
0.219766 0.433048 0.025000 0.8 0 0
0.300022 0.411469 0.025000 0.8 0 0
0.296823 0.518175 0.050250 0.8 0 0
0.149590 0.447912 0.082224 0.8 0 0
0.975000 0.431405 0.055373 0.8 0 0
0.264883 0.419804 0.115231 0.8 0 0
0.078215 0.399705 0.025000 0.8 0 0
0.931043 0.427944 0.040270 0.8 0 0
0.438623 0.518175 0.060992 0.8 0 0
0.676887 0.427944 0.039120 0.8 0 0
0.251618 0.513018 0.066248 0.8 0 0
0.224801 0.572779 0.100680 0.8 0 0
0.180097 0.247367 0.048064 0.8 0 0
0.138999 0.038673 0.025000 0.8 0 0
0.464371 0.485516 0.025000 0.8 0 0
0.218465 0.530988 0.085640 0.8 0 0
0.671981 0.427944 0.053467 0.8 0 0
0.097492 0.403887 0.025000 0.8 0 0
0.231093 0.464934 0.115231 0.8 0 0
0.180074 0.515460 0.091772 0.8 0 0
0.736729 0.427944 0.053761 0.8 0 0
0.236417 0.517285 0.086544 0.8 0 0
0.695393 0.518175 0.068949 0.8 0 0
0.122309 0.166593 0.025000 0.8 0 0
0.788768 0.518175 0.036124 0.8 0 0
0.113394 0.289999 0.089451 0.8 0 0
0.971000 0.432083 0.025000 0.8 0 0
0.136795 0.212873 0.089451 0.8 0 0
0.480291 0.427944 0.055021 0.8 0 0
0.188097 0.307168 0.049991 0.8 0 0
0.076230 0.370730 0.089425 0.8 0 0
0.244394 0.499499 0.025000 0.8 0 0
0.094474 0.303193 0.089451 0.8 0 0
0.737424 0.452535 0.025000 0.8 0 0
0.704915 0.512780 0.025000 0.8 0 0
0.086705 0.341363 0.089451 0.8 0 0
0.139224 0.353706 0.084799 0.8 0 0
0.925686 0.518175 0.043551 0.8 0 0
0.224167 0.445313 0.049412 0.8 0 0
0.229395 0.462705 0.025000 0.8 0 0
