0.099996 0.513776 0.763495 0.8 0 0
0.089622 0.464639 0.573177 0.8 0 0
0.102883 0.521879 0.350413 0.8 0 0
0.066681 0.444688 0.733179 0.8 0 0
0.083671 0.429104 0.367125 0.8 0 0
0.070201 0.455240 0.781939 0.8 0 0
0.090839 0.409394 0.362368 0.8 0 0
0.123619 0.123443 0.070684 0.8 0 0
0.090780 0.303874 0.418476 0.8 0 0
0.069574 0.140438 0.044150 0.8 0 0
0.100999 0.477089 0.227903 0.8 0 0
0.078498 0.383289 0.433320 0.8 0 0
0.081067 0.479870 0.395927 0.8 0 0
0.035634 0.423545 0.441965 0.8 0 0
0.109735 0.458164 0.704690 0.8 0 0
0.085031 0.377398 0.436652 0.8 0 0
0.105123 0.489255 0.794290 0.8 0 0
0.081922 0.375432 0.431541 0.8 0 0
0.102187 0.331488 0.437624 0.8 0 0
0.081902 0.511375 0.363257 0.8 0 0
0.069430 0.355910 0.417532 0.8 0 0
0.063426 0.215602 0.150839 0.8 0 0
0.070710 0.399876 0.592592 0.8 0 0
0.087065 0.504747 0.669484 0.8 0 0
0.080412 0.473196 0.848366 0.8 0 0
0.090447 0.417064 0.820782 0.8 0 0
0.098383 0.377535 0.382432 0.8 0 0
0.147027 0.475487 0.370037 0.8 0 0
0.089659 0.512975 0.846262 0.8 0 0
0.105174 0.425409 0.684419 0.8 0 0
0.059438 0.295776 0.200123 0.8 0 0
0.077805 0.510073 0.634927 0.8 0 0
0.122023 0.195724 0.117317 0.8 0 0
0.121901 0.420694 0.327985 0.8 0 0
0.063190 0.460963 0.670602 0.8 0 0
0.078740 0.506665 0.918425 0.8 0 0
0.086536 0.249041 0.301090 0.8 0 0
0.085637 0.504385 0.683744 0.8 0 0
0.090264 0.200920 0.054976 0.8 0 0
0.112439 0.449643 0.545584 0.8 0 0
0.061309 0.474132 0.956084 0.8 0 0
0.122555 0.427950 0.426292 0.8 0 0
0.080188 0.500151 0.638415 0.8 0 0
0.076140 0.426421 0.842835 0.8 0 0
0.111345 0.451149 0.680281 0.8 0 0
0.121900 0.374721 0.360651 0.8 0 0
0.117696 0.132717 0.128480 0.8 0 0
0.130508 0.491489 0.432014 0.8 0 0
0.108427 0.336130 0.316841 0.8 0 0
0.106164 0.426771 0.521900 0.8 0 0
0.095079 0.505011 0.943734 0.8 0 0
0.104420 0.485670 0.729498 0.8 0 0
0.074568 0.479519 0.444430 0.8 0 0
0.136252 0.472674 0.476012 0.8 0 0
0.075259 0.478031 0.645047 0.8 0 0
0.103805 0.475244 0.622546 0.8 0 0
0.112518 0.446531 0.806658 0.8 0 0
0.101981 0.375464 0.437847 0.8 0 0
0.069424 0.461061 0.858017 0.8 0 0
0.110500 0.500815 0.591603 0.8 0 0
0.076911 0.487977 0.845324 0.8 0 0
0.107345 0.428398 0.759358 0.8 0 0
0.108814 0.148339 0.042552 0.8 0 0
0.094376 0.227470 0.305316 0.8 0 0
0.082221 0.514110 0.746883 0.8 0 0
0.094722 0.270535 0.294368 0.8 0 0
0.079827 0.473472 0.740526 0.8 0 0
0.062725 0.142604 0.125092 0.8 0 0
0.041058 0.455797 0.377573 0.8 0 0
0.069217 0.410960 0.515124 0.8 0 0
0.052003 0.390246 0.398947 0.8 0 0
0.109296 0.487922 0.345711 0.8 0 0
0.103479 0.483184 0.213024 0.8 0 0
0.068147 0.381564 0.449244 0.8 0 0
0.080483 0.383371 0.455983 0.8 0 0
0.116955 0.492534 0.454022 0.8 0 0
0.105394 0.248463 0.302082 0.8 0 0
0.085856 0.306115 0.427289 0.8 0 0
0.088172 0.386777 0.315160 0.8 0 0
0.112621 0.089381 0.109081 0.8 0 0
0.122552 0.104098 0.101197 0.8 0 0
0.088251 0.517859 0.556821 0.8 0 0
0.120431 0.255361 0.164910 0.8 0 0
0.062293 0.389802 0.386473 0.8 0 0
0.120083 0.169078 0.073424 0.8 0 0
0.071549 0.485445 0.836054 0.8 0 0
0.047566 0.394042 0.368435 0.8 0 0
0.069438 0.461068 0.829351 0.8 0 0
0.062284 0.313556 0.315384 0.8 0 0
0.061628 0.399431 0.320908 0.8 0 0
0.057413 0.477605 0.384334 0.8 0 0
0.059555 0.462719 0.704536 0.8 0 0
0.066681 0.446970 0.587564 0.8 0 0
0.103072 0.474484 0.735825 0.8 0 0
0.093065 0.468840 0.570579 0.8 0 0
0.089041 0.420501 0.769137 0.8 0 0
0.065488 0.151245 0.136299 0.8 0 0
0.083735 0.469322 0.637499 0.8 0 0
0.059438 0.368825 0.247169 0.8 0 0
0.059438 0.431189 0.333019 0.8 0 0
0.100112 0.321221 0.410694 0.8 0 0
0.067683 0.433183 0.645989 0.8 0 0
0.111811 0.429645 0.725744 0.8 0 0
0.080219 0.338805 0.434848 0.8 0 0
0.103452 0.339365 0.410786 0.8 0 0
0.084307 0.291226 0.270408 0.8 0 0
0.057301 0.425809 0.347759 0.8 0 0
0.110500 0.487846 0.531347 0.8 0 0
0.070585 0.192316 0.063180 0.8 0 0
0.093795 0.401514 0.454913 0.8 0 0
0.058099 0.470099 0.608533 0.8 0 0
0.101475 0.480893 0.737963 0.8 0 0
0.103095 0.497995 0.615735 0.8 0 0
0.077518 0.487029 0.453978 0.8 0 0
0.066681 0.436483 0.728593 0.8 0 0
0.082685 0.502990 0.859644 0.8 0 0
0.103486 0.246943 0.432072 0.8 0 0
0.059438 0.352537 0.257015 0.8 0 0
0.081564 0.140119 0.146608 0.8 0 0
0.119713 0.277241 0.138884 0.8 0 0
0.079269 0.399622 0.297128 0.8 0 0
0.084871 0.466072 0.810657 0.8 0 0
0.126036 0.458340 0.444798 0.8 0 0
0.109941 0.503111 0.629514 0.8 0 0
0.102110 0.379779 0.388731 0.8 0 0
0.077275 0.236681 0.428130 0.8 0 0
0.085860 0.256709 0.203937 0.8 0 0
0.095919 0.280613 0.296341 0.8 0 0
0.121900 0.301613 0.269854 0.8 0 0
0.074366 0.426139 0.496059 0.8 0 0
0.092418 0.234203 0.187628 0.8 0 0
0.107940 0.338941 0.399783 0.8 0 0
0.121271 0.392772 0.408497 0.8 0 0
0.112519 0.444913 0.653046 0.8 0 0
0.076494 0.488750 0.797582 0.8 0 0
0.102188 0.324324 0.354400 0.8 0 0
0.080792 0.267199 0.431968 0.8 0 0
0.036754 0.478498 0.465848 0.8 0 0
0.108730 0.464198 0.476012 0.8 0 0
0.044112 0.431697 0.398621 0.8 0 0
0.101371 0.480548 0.544753 0.8 0 0
0.088364 0.325251 0.417169 0.8 0 0
0.073682 0.243904 0.186853 0.8 0 0
0.081521 0.322142 0.420751 0.8 0 0
0.122512 0.224772 0.126759 0.8 0 0
0.070964 0.489502 0.439754 0.8 0 0
0.115403 0.375464 0.221650 0.8 0 0
0.081740 0.384285 0.461685 0.8 0 0
0.075296 0.371961 0.500748 0.8 0 0
0.107521 0.494049 0.358465 0.8 0 0
0.071549 0.491533 0.881770 0.8 0 0
0.071202 0.461918 0.878478 0.8 0 0
0.081673 0.244768 0.340684 0.8 0 0
0.144685 0.474477 0.367237 0.8 0 0
0.060175 0.462417 0.772627 0.8 0 0
0.106148 0.192814 0.056001 0.8 0 0
0.067631 0.458944 0.648200 0.8 0 0
0.079489 0.392953 0.319176 0.8 0 0
0.099354 0.479433 0.797749 0.8 0 0
0.088656 0.417642 0.566672 0.8 0 0
0.087351 0.468546 0.529741 0.8 0 0
0.043392 0.420689 0.384727 0.8 0 0
0.066890 0.500699 0.367237 0.8 0 0
0.061693 0.463563 0.644522 0.8 0 0
0.088185 0.476944 0.469059 0.8 0 0
0.088497 0.312605 0.310898 0.8 0 0
0.123606 0.407508 0.432589 0.8 0 0
0.078391 0.319438 0.136854 0.8 0 0
0.095935 0.466473 0.700955 0.8 0 0
0.070456 0.455593 0.777285 0.8 0 0
0.148364 0.461531 0.422796 0.8 0 0
0.077196 0.505586 0.869612 0.8 0 0
0.086278 0.257280 0.087556 0.8 0 0
0.074382 0.505323 0.680716 0.8 0 0
0.044479 0.465339 0.404423 0.8 0 0
0.105567 0.407686 0.825841 0.8 0 0
0.101112 0.501674 0.442400 0.8 0 0
0.081418 0.462001 0.544021 0.8 0 0
0.037326 0.419229 0.378529 0.8 0 0
0.104717 0.424780 0.592253 0.8 0 0
0.118754 0.388489 0.398539 0.8 0 0
0.146888 0.418208 0.451812 0.8 0 0
0.103501 0.423968 0.783859 0.8 0 0
0.101884 0.501016 0.459907 0.8 0 0
0.124254 0.450280 0.470413 0.8 0 0
0.073207 0.464335 0.678464 0.8 0 0
0.077929 0.438301 0.367237 0.8 0 0
0.073079 0.425712 0.612502 0.8 0 0
0.088946 0.225055 0.304946 0.8 0 0
0.119389 0.198021 0.088756 0.8 0 0
0.081524 0.407459 0.622974 0.8 0 0
0.061128 0.384099 0.436513 0.8 0 0
0.119525 0.184900 0.081199 0.8 0 0
0.059438 0.450218 0.329668 0.8 0 0
0.121900 0.364063 0.328400 0.8 0 0
0.067436 0.426139 0.534929 0.8 0 0
0.053646 0.497248 0.634273 0.8 0 0
0.151475 0.467693 0.422811 0.8 0 0
0.059438 0.299629 0.182811 0.8 0 0
0.070378 0.431806 0.367122 0.8 0 0
0.095868 0.230731 0.326372 0.8 0 0
0.122613 0.366655 0.208236 0.8 0 0
0.106274 0.479795 0.239323 0.8 0 0
0.073220 0.339574 0.402363 0.8 0 0
0.107931 0.503572 0.822616 0.8 0 0
0.121900 0.330246 0.260779 0.8 0 0
0.061910 0.431748 0.802332 0.8 0 0
0.119801 0.373625 0.332091 0.8 0 0
0.066681 0.439337 0.632153 0.8 0 0
0.081971 0.409493 0.538798 0.8 0 0
0.103760 0.484185 0.745836 0.8 0 0
0.059409 0.338906 0.335404 0.8 0 0
0.078054 0.472209 0.811355 0.8 0 0
0.087319 0.336303 0.353150 0.8 0 0
0.028370 0.423619 0.422080 0.8 0 0
0.074463 0.428730 0.792431 0.8 0 0
0.102915 0.420715 0.537368 0.8 0 0
0.137051 0.396192 0.430728 0.8 0 0
0.075652 0.307596 0.287651 0.8 0 0
0.115368 0.442031 0.733547 0.8 0 0
0.077510 0.411878 0.844990 0.8 0 0
0.079283 0.498812 0.816940 0.8 0 0
0.071178 0.428344 0.656367 0.8 0 0
0.070042 0.461358 0.625899 0.8 0 0
0.097006 0.418808 0.629039 0.8 0 0
0.068644 0.258221 0.101465 0.8 0 0
0.137571 0.442663 0.386119 0.8 0 0
0.098930 0.465507 0.830469 0.8 0 0
0.147483 0.440020 0.421931 0.8 0 0
0.029011 0.420088 0.457641 0.8 0 0
0.110500 0.500552 0.711063 0.8 0 0
0.100098 0.480719 0.968128 0.8 0 0
0.089881 0.329076 0.442216 0.8 0 0
0.121901 0.432867 0.349059 0.8 0 0
0.089986 0.470093 0.749541 0.8 0 0
0.095015 0.511361 0.924942 0.8 0 0
0.056468 0.488016 0.649582 0.8 0 0
0.059438 0.326602 0.198091 0.8 0 0
0.105394 0.227918 0.312343 0.8 0 0
0.099741 0.478729 0.546922 0.8 0 0
0.119549 0.299196 0.158245 0.8 0 0
0.101159 0.229404 0.184151 0.8 0 0
0.075866 0.306357 0.128410 0.8 0 0
0.156364 0.438589 0.399571 0.8 0 0
0.105171 0.375439 0.432846 0.8 0 0
0.064236 0.134118 0.128777 0.8 0 0
0.089346 0.415360 0.794975 0.8 0 0
0.126631 0.113552 0.085600 0.8 0 0
0.066680 0.443275 0.779951 0.8 0 0
0.085277 0.492765 0.301615 0.8 0 0
0.065335 0.459929 0.965510 0.8 0 0
0.088213 0.432132 0.367214 0.8 0 0
0.081314 0.501827 0.393063 0.8 0 0
0.116307 0.486496 0.367237 0.8 0 0
0.066388 0.362245 0.192773 0.8 0 0
0.089546 0.505137 0.506872 0.8 0 0
0.093057 0.476321 0.815999 0.8 0 0
0.058932 0.346782 0.361628 0.8 0 0
0.058598 0.148787 0.085650 0.8 0 0
0.119638 0.465682 0.444546 0.8 0 0
0.121629 0.346936 0.358707 0.8 0 0
0.060013 0.098211 0.086858 0.8 0 0
0.083202 0.518440 0.516143 0.8 0 0
0.101609 0.431352 0.325081 0.8 0 0
0.152263 0.440989 0.476042 0.8 0 0
0.112519 0.442608 0.636256 0.8 0 0
0.094308 0.477495 0.517810 0.8 0 0
0.064351 0.460403 0.920319 0.8 0 0
0.098781 0.188096 0.297310 0.8 0 0
0.103376 0.367896 0.272724 0.8 0 0
0.118424 0.415028 0.452049 0.8 0 0
0.101983 0.358378 0.280719 0.8 0 0
0.086975 0.470278 0.781787 0.8 0 0
0.069267 0.382210 0.362321 0.8 0 0
0.121760 0.320798 0.170786 0.8 0 0
0.155710 0.435079 0.368559 0.8 0 0
0.150887 0.457553 0.433031 0.8 0 0
0.071281 0.433110 0.823953 0.8 0 0
0.059746 0.230112 0.128046 0.8 0 0
0.131510 0.493316 0.425092 0.8 0 0
0.069531 0.436862 0.703357 0.8 0 0
0.069224 0.345194 0.322183 0.8 0 0
0.099366 0.479205 0.452602 0.8 0 0
0.079269 0.381692 0.275039 0.8 0 0
0.146789 0.409018 0.423222 0.8 0 0
0.042967 0.431544 0.401626 0.8 0 0
0.101031 0.386201 0.388714 0.8 0 0
0.138484 0.422580 0.371132 0.8 0 0
0.110499 0.492846 0.923043 0.8 0 0
0.076485 0.491506 0.800571 0.8 0 0
0.101892 0.423436 0.678500 0.8 0 0
0.048685 0.432310 0.413316 0.8 0 0
0.088599 0.222264 0.408942 0.8 0 0
0.090231 0.339724 0.443086 0.8 0 0
0.099762 0.471074 0.790611 0.8 0 0
0.110499 0.486708 0.947920 0.8 0 0
0.092761 0.361182 0.276400 0.8 0 0
0.153811 0.424381 0.444449 0.8 0 0
0.133632 0.487510 0.441473 0.8 0 0
0.111980 0.429878 0.555456 0.8 0 0
0.094084 0.338384 0.407848 0.8 0 0
0.092282 0.476797 0.599184 0.8 0 0
0.109994 0.432046 0.814933 0.8 0 0
0.081998 0.516694 0.551102 0.8 0 0
0.141499 0.407021 0.388731 0.8 0 0
0.079514 0.500773 0.362368 0.8 0 0
0.128637 0.467212 0.393300 0.8 0 0
0.089255 0.366148 0.268750 0.8 0 0
0.092553 0.436596 0.516121 0.8 0 0
0.153225 0.421114 0.452448 0.8 0 0
0.061499 0.403485 0.441975 0.8 0 0
0.122589 0.464762 0.433384 0.8 0 0
0.102187 0.339904 0.441654 0.8 0 0
0.099896 0.342485 0.161398 0.8 0 0
0.123450 0.128528 0.104367 0.8 0 0
0.095353 0.360421 0.277572 0.8 0 0
0.081305 0.481112 0.515535 0.8 0 0
0.082816 0.470246 0.753005 0.8 0 0
0.063544 0.129328 0.050672 0.8 0 0
0.076281 0.460388 0.362368 0.8 0 0
0.075434 0.251353 0.088684 0.8 0 0
0.108032 0.455710 0.779698 0.8 0 0
0.062883 0.301067 0.155337 0.8 0 0
0.084216 0.354683 0.286412 0.8 0 0
0.071549 0.486918 0.764859 0.8 0 0
0.098740 0.465568 0.832871 0.8 0 0
0.153611 0.455657 0.386472 0.8 0 0
0.107192 0.479063 0.656061 0.8 0 0
0.059438 0.466590 0.360989 0.8 0 0
0.102592 0.371772 0.260085 0.8 0 0
0.120949 0.279444 0.189344 0.8 0 0
0.061245 0.417777 0.831660 0.8 0 0
0.064156 0.500117 0.620799 0.8 0 0
0.130703 0.462304 0.427715 0.8 0 0
0.090463 0.464522 0.517219 0.8 0 0
0.074354 0.502623 0.479676 0.8 0 0
0.084252 0.503357 0.922920 0.8 0 0
0.098487 0.407685 0.423730 0.8 0 0
0.093550 0.395568 0.460010 0.8 0 0
0.047209 0.479369 0.383318 0.8 0 0
0.093101 0.469212 0.622266 0.8 0 0
0.065088 0.467628 0.826778 0.8 0 0
0.088624 0.476241 0.582937 0.8 0 0
0.073189 0.425560 0.801073 0.8 0 0
0.081933 0.323778 0.415317 0.8 0 0
0.088419 0.451200 0.479521 0.8 0 0
0.082187 0.480514 0.488592 0.8 0 0
0.124370 0.385529 0.445425 0.8 0 0
0.121432 0.272529 0.151595 0.8 0 0
0.094720 0.295199 0.257242 0.8 0 0
0.066681 0.449235 0.628246 0.8 0 0
0.096260 0.390592 0.288537 0.8 0 0
0.114568 0.464171 0.844300 0.8 0 0
0.065855 0.398611 0.367172 0.8 0 0
0.036118 0.477294 0.378866 0.8 0 0
0.057893 0.464868 0.434433 0.8 0 0
0.084210 0.469066 0.601907 0.8 0 0
0.088514 0.514718 0.761285 0.8 0 0
0.074068 0.479951 0.815435 0.8 0 0
0.075787 0.426907 0.816817 0.8 0 0
0.073149 0.401043 0.647890 0.8 0 0
0.059438 0.285505 0.239804 0.8 0 0
0.076402 0.509171 0.565053 0.8 0 0
0.026757 0.452288 0.434588 0.8 0 0
0.106003 0.153266 0.040640 0.8 0 0
0.083565 0.143669 0.033027 0.8 0 0
0.091591 0.507376 0.397627 0.8 0 0
0.114696 0.324715 0.368030 0.8 0 0
0.088298 0.406078 0.476012 0.8 0 0
0.102020 0.481882 0.547559 0.8 0 0
0.100171 0.368554 0.388018 0.8 0 0
0.047007 0.407646 0.374805 0.8 0 0
0.083275 0.517409 0.588315 0.8 0 0
0.081033 0.472463 0.828753 0.8 0 0
0.112705 0.138263 0.137251 0.8 0 0
0.086046 0.503959 0.856534 0.8 0 0
0.080765 0.473107 0.241123 0.8 0 0
0.080283 0.481801 0.547908 0.8 0 0
0.112724 0.382915 0.457061 0.8 0 0
0.084384 0.503279 0.589763 0.8 0 0
0.086463 0.463623 0.676673 0.8 0 0
0.079269 0.514198 0.332226 0.8 0 0
0.122508 0.451056 0.843630 0.8 0 0
0.069531 0.441855 0.503823 0.8 0 0
0.111547 0.429279 0.592839 0.8 0 0
0.071178 0.281608 0.236359 0.8 0 0
0.147962 0.431624 0.476012 0.8 0 0
0.104569 0.495790 0.739586 0.8 0 0
0.121934 0.241582 0.131345 0.8 0 0
0.046934 0.437353 0.422867 0.8 0 0
0.061245 0.411163 0.468331 0.8 0 0
0.079269 0.389074 0.305990 0.8 0 0
0.061105 0.463000 0.836577 0.8 0 0
0.106289 0.503702 0.947814 0.8 0 0
0.104066 0.495765 0.455015 0.8 0 0
0.101424 0.307218 0.272159 0.8 0 0
0.056350 0.480915 0.603269 0.8 0 0
0.107101 0.035003 0.073904 0.8 0 0
0.043958 0.425188 0.383853 0.8 0 0
0.058218 0.470249 0.865137 0.8 0 0
0.075940 0.458357 0.542861 0.8 0 0
0.150581 0.469243 0.419405 0.8 0 0
0.112066 0.383916 0.262145 0.8 0 0
0.104352 0.486318 0.610805 0.8 0 0
0.093777 0.268221 0.437572 0.8 0 0
0.074104 0.460643 0.674512 0.8 0 0
0.075310 0.427564 0.634164 0.8 0 0
0.059655 0.263575 0.153867 0.8 0 0
0.053681 0.493381 0.617240 0.8 0 0
0.112735 0.475173 0.263540 0.8 0 0
0.071549 0.485075 0.907006 0.8 0 0
0.065109 0.128666 0.128199 0.8 0 0
0.086920 0.228191 0.305427 0.8 0 0
0.106667 0.385236 0.270324 0.8 0 0
0.155702 0.434886 0.386142 0.8 0 0
0.122851 0.243721 0.139544 0.8 0 0
0.049284 0.404311 0.407624 0.8 0 0
0.099364 0.411815 0.803251 0.8 0 0
0.094333 0.477217 0.612610 0.8 0 0
0.083207 0.491335 0.388731 0.8 0 0
0.082561 0.377348 0.399598 0.8 0 0
0.085630 0.477673 0.507965 0.8 0 0
0.083499 0.512901 0.849855 0.8 0 0
0.085630 0.510096 0.942780 0.8 0 0
0.116934 0.214907 0.157357 0.8 0 0
0.115369 0.442030 0.652609 0.8 0 0
0.123838 0.428933 0.405927 0.8 0 0
0.080609 0.420366 0.597161 0.8 0 0
0.079269 0.420128 0.307013 0.8 0 0
0.029495 0.465788 0.405193 0.8 0 0
0.092827 0.477134 0.527716 0.8 0 0
0.098171 0.511690 0.908922 0.8 0 0
0.056350 0.470447 0.654124 0.8 0 0
0.114389 0.352569 0.334540 0.8 0 0
0.071550 0.502136 0.542165 0.8 0 0
0.060261 0.462375 0.786223 0.8 0 0
0.113605 0.432129 0.547308 0.8 0 0
0.080425 0.461682 0.499180 0.8 0 0
0.094774 0.375529 0.450550 0.8 0 0
0.079269 0.471932 0.323841 0.8 0 0
0.086303 0.241256 0.192739 0.8 0 0
0.077089 0.492924 0.606056 0.8 0 0
0.091942 0.505014 0.644756 0.8 0 0
0.121900 0.406564 0.348685 0.8 0 0
0.088213 0.477900 0.822983 0.8 0 0
0.061699 0.288787 0.156574 0.8 0 0
0.112232 0.375300 0.405324 0.8 0 0
0.059438 0.372494 0.248341 0.8 0 0
0.059438 0.348986 0.318379 0.8 0 0
0.100914 0.346879 0.168375 0.8 0 0
0.065579 0.420966 0.844174 0.8 0 0
0.088890 0.470325 0.790051 0.8 0 0
0.100621 0.472906 0.973893 0.8 0 0
0.051694 0.390545 0.448316 0.8 0 0
0.086191 0.304651 0.277588 0.8 0 0
0.073620 0.505603 0.570256 0.8 0 0
0.082951 0.413944 0.522928 0.8 0 0
0.107678 0.437406 0.317741 0.8 0 0
0.109272 0.325090 0.369803 0.8 0 0
0.062692 0.404787 0.396581 0.8 0 0
0.112035 0.380867 0.442830 0.8 0 0
0.109065 0.344449 0.165764 0.8 0 0
0.060717 0.187172 0.118747 0.8 0 0
0.077577 0.424216 0.519661 0.8 0 0
0.117911 0.244307 0.175612 0.8 0 0
0.124313 0.137970 0.097801 0.8 0 0
0.089792 0.281060 0.338821 0.8 0 0
0.089724 0.476352 0.556404 0.8 0 0
0.117387 0.422818 0.504624 0.8 0 0
0.069056 0.454867 0.361976 0.8 0 0
0.059805 0.380482 0.241643 0.8 0 0
0.057383 0.489922 0.613720 0.8 0 0
0.076828 0.335888 0.342934 0.8 0 0
0.087259 0.466842 0.541677 0.8 0 0
0.115368 0.437521 0.843640 0.8 0 0
0.113673 0.355813 0.384736 0.8 0 0
0.138324 0.397428 0.383986 0.8 0 0
0.064640 0.406916 0.420114 0.8 0 0
0.076197 0.224853 0.176718 0.8 0 0
0.092203 0.471220 0.946348 0.8 0 0
0.094845 0.504959 0.843336 0.8 0 0
0.100051 0.493566 0.362994 0.8 0 0
0.099299 0.323208 0.139409 0.8 0 0
0.084111 0.523093 0.359176 0.8 0 0
0.103448 0.459830 0.284673 0.8 0 0
0.096717 0.324472 0.411910 0.8 0 0
0.108218 0.480097 0.511021 0.8 0 0
0.059438 0.339585 0.272935 0.8 0 0
0.071550 0.489755 0.520977 0.8 0 0
0.062699 0.475658 0.780722 0.8 0 0
0.071894 0.462252 0.688356 0.8 0 0
0.096199 0.518266 0.528298 0.8 0 0
0.084948 0.464275 0.367237 0.8 0 0
0.094889 0.290047 0.109086 0.8 0 0
0.081011 0.423153 0.503915 0.8 0 0
0.123074 0.408862 0.367237 0.8 0 0
0.078359 0.497235 0.768076 0.8 0 0
0.118751 0.258054 0.116648 0.8 0 0
0.100986 0.501669 0.515277 0.8 0 0
0.036746 0.432776 0.476012 0.8 0 0
0.119128 0.392031 0.381618 0.8 0 0
0.105205 0.281132 0.429700 0.8 0 0
0.097586 0.405901 0.824408 0.8 0 0
0.107649 0.428816 0.559559 0.8 0 0
0.102188 0.333993 0.371448 0.8 0 0
0.090214 0.417139 0.495054 0.8 0 0
0.072388 0.307601 0.134391 0.8 0 0
0.146202 0.413136 0.425063 0.8 0 0
0.088304 0.476171 0.535878 0.8 0 0
0.059438 0.373032 0.307616 0.8 0 0
0.079032 0.478449 0.226759 0.8 0 0
0.070521 0.483831 0.233692 0.8 0 0
0.055045 0.488248 0.371037 0.8 0 0
0.114149 0.467393 0.449972 0.8 0 0
0.073756 0.466875 0.863806 0.8 0 0
0.100933 0.436702 0.325081 0.8 0 0
0.105741 0.458864 0.724043 0.8 0 0
0.082747 0.238180 0.301384 0.8 0 0
0.079031 0.310483 0.337390 0.8 0 0
0.131791 0.468863 0.398863 0.8 0 0
0.115320 0.130734 0.131237 0.8 0 0
0.081363 0.461984 0.785800 0.8 0 0
0.093418 0.284568 0.104076 0.8 0 0
0.089511 0.467570 0.710034 0.8 0 0
0.066916 0.434245 0.591656 0.8 0 0
0.061147 0.230946 0.143646 0.8 0 0
0.090857 0.320090 0.347707 0.8 0 0
0.104455 0.480464 0.283753 0.8 0 0
0.086900 0.515740 0.705092 0.8 0 0
0.084549 0.465950 0.367237 0.8 0 0
0.086067 0.477815 0.430056 0.8 0 0
0.087740 0.417938 0.653551 0.8 0 0
0.102064 0.377349 0.400825 0.8 0 0
0.066681 0.448521 0.764839 0.8 0 0
0.117777 0.215353 0.155388 0.8 0 0
0.086122 0.504669 0.593874 0.8 0 0
0.105010 0.495201 0.830381 0.8 0 0
0.075927 0.294596 0.255942 0.8 0 0
0.087971 0.505243 0.571786 0.8 0 0
0.074683 0.414564 0.802193 0.8 0 0
0.060740 0.097635 0.103263 0.8 0 0
0.081324 0.423050 0.516820 0.8 0 0
0.115624 0.385580 0.448321 0.8 0 0
0.054881 0.434222 0.835433 0.8 0 0
0.070450 0.104946 0.127890 0.8 0 0
0.088522 0.411869 0.476012 0.8 0 0
0.057428 0.418010 0.650149 0.8 0 0
0.093371 0.468525 0.526762 0.8 0 0
0.121901 0.452722 0.350938 0.8 0 0
0.096438 0.466311 0.661366 0.8 0 0
0.105785 0.463293 0.495583 0.8 0 0
0.103860 0.484184 0.253249 0.8 0 0
0.092142 0.224352 0.180490 0.8 0 0
0.068231 0.279886 0.116267 0.8 0 0
0.066681 0.435593 0.565822 0.8 0 0
0.110767 0.456736 0.516751 0.8 0 0
0.099634 0.225926 0.313333 0.8 0 0
0.091481 0.467911 0.531541 0.8 0 0
0.063169 0.371271 0.348655 0.8 0 0
0.073593 0.459934 0.523405 0.8 0 0
0.125393 0.128067 0.083076 0.8 0 0
0.090273 0.247470 0.301228 0.8 0 0
0.125014 0.122863 0.076708 0.8 0 0
0.085102 0.377565 0.387883 0.8 0 0
0.110361 0.323234 0.361043 0.8 0 0
0.134890 0.490441 0.394354 0.8 0 0
0.109171 0.374962 0.338818 0.8 0 0
0.071073 0.463487 0.850482 0.8 0 0
0.111079 0.353587 0.438610 0.8 0 0
0.122613 0.319851 0.178557 0.8 0 0
0.073473 0.459769 0.542792 0.8 0 0
0.121900 0.345177 0.306717 0.8 0 0
0.108678 0.491932 0.356337 0.8 0 0
0.102138 0.259953 0.429941 0.8 0 0
0.109101 0.459042 0.606905 0.8 0 0
0.110499 0.491105 0.696959 0.8 0 0
0.109393 0.275407 0.227973 0.8 0 0
0.064780 0.442563 0.491102 0.8 0 0
0.080755 0.380075 0.253743 0.8 0 0
0.121900 0.376167 0.296229 0.8 0 0
0.091374 0.512280 0.880148 0.8 0 0
0.079269 0.468459 0.323503 0.8 0 0
0.105957 0.421697 0.512350 0.8 0 0
0.097619 0.492035 0.226987 0.8 0 0
0.028820 0.421177 0.472848 0.8 0 0
0.079031 0.509771 0.765668 0.8 0 0
0.055812 0.492816 0.421349 0.8 0 0
0.090223 0.377429 0.371196 0.8 0 0
0.115883 0.349854 0.178162 0.8 0 0
0.105035 0.488603 0.822416 0.8 0 0
0.077834 0.406156 0.367087 0.8 0 0
0.079766 0.514637 0.348617 0.8 0 0
0.094353 0.375639 0.472291 0.8 0 0
0.082654 0.513347 0.810295 0.8 0 0
0.083900 0.514581 0.767992 0.8 0 0
0.111938 0.429820 0.540218 0.8 0 0
0.056446 0.416763 0.608559 0.8 0 0
0.121900 0.317354 0.279749 0.8 0 0
0.026059 0.436597 0.466806 0.8 0 0
0.103376 0.486923 0.312536 0.8 0 0
0.059097 0.172844 0.102370 0.8 0 0
0.062344 0.425447 0.464014 0.8 0 0
0.090109 0.467763 0.553778 0.8 0 0
0.128374 0.441013 0.451866 0.8 0 0
0.067119 0.450971 0.651747 0.8 0 0
0.085667 0.377493 0.374764 0.8 0 0
0.066681 0.437416 0.726594 0.8 0 0
0.110500 0.494074 0.723263 0.8 0 0
0.097120 0.377357 0.406090 0.8 0 0
0.080219 0.328869 0.405595 0.8 0 0
0.070496 0.455646 0.514614 0.8 0 0
0.046866 0.409535 0.388731 0.8 0 0
0.115882 0.101514 0.078030 0.8 0 0
0.070945 0.105251 0.128700 0.8 0 0
0.103376 0.464694 0.318528 0.8 0 0
0.053946 0.441439 0.397931 0.8 0 0
0.074930 0.505759 0.460391 0.8 0 0
0.064859 0.480591 0.353667 0.8 0 0
0.089563 0.505252 0.546330 0.8 0 0
0.076499 0.491250 0.795838 0.8 0 0
0.105393 0.231525 0.418914 0.8 0 0
0.077239 0.494039 0.899922 0.8 0 0
0.087611 0.226153 0.399772 0.8 0 0
0.120053 0.389696 0.435967 0.8 0 0
0.105394 0.191508 0.297816 0.8 0 0
0.115266 0.502711 0.391364 0.8 0 0
0.139598 0.431476 0.414804 0.8 0 0
0.081797 0.390519 0.372825 0.8 0 0
0.069531 0.442847 0.622465 0.8 0 0
0.102104 0.423506 0.777756 0.8 0 0
0.100505 0.320997 0.398230 0.8 0 0
0.118560 0.466018 0.458178 0.8 0 0
0.071753 0.446796 0.479459 0.8 0 0
0.047262 0.426353 0.368049 0.8 0 0
0.102796 0.461306 0.659355 0.8 0 0
0.079269 0.444921 0.308042 0.8 0 0
0.119603 0.174147 0.073334 0.8 0 0
0.079269 0.488555 0.313665 0.8 0 0
0.112518 0.440457 0.693302 0.8 0 0
0.096173 0.493396 0.368405 0.8 0 0
0.071549 0.489302 0.755509 0.8 0 0
0.081156 0.389903 0.286193 0.8 0 0
0.117405 0.396605 0.377837 0.8 0 0
0.130218 0.418870 0.380043 0.8 0 0
0.121080 0.480626 0.382921 0.8 0 0
0.088419 0.454415 0.516822 0.8 0 0
0.122613 0.347384 0.208815 0.8 0 0
0.079174 0.498625 0.397177 0.8 0 0
0.059438 0.327572 0.240778 0.8 0 0
0.092742 0.164553 0.041034 0.8 0 0
0.110500 0.493338 0.521257 0.8 0 0
0.076522 0.189727 0.054103 0.8 0 0
0.072472 0.431471 0.807669 0.8 0 0
0.087756 0.230534 0.419948 0.8 0 0
0.118174 0.185410 0.142937 0.8 0 0
0.095396 0.513108 0.839798 0.8 0 0
0.083092 0.469686 0.688203 0.8 0 0
0.120600 0.435475 0.800094 0.8 0 0
0.114229 0.432994 0.841411 0.8 0 0
0.073942 0.467730 0.808868 0.8 0 0
0.092064 0.485758 0.251518 0.8 0 0
0.059656 0.388010 0.386628 0.8 0 0
0.085096 0.470227 0.796241 0.8 0 0
0.104888 0.508317 0.722431 0.8 0 0
0.117388 0.432905 0.497958 0.8 0 0
0.094661 0.225935 0.352420 0.8 0 0
0.087993 0.413616 0.325081 0.8 0 0
0.078902 0.422533 0.519962 0.8 0 0
0.129048 0.432905 0.392559 0.8 0 0
0.089902 0.415583 0.853756 0.8 0 0
0.059438 0.374635 0.311478 0.8 0 0
0.085818 0.468928 0.582788 0.8 0 0
0.083394 0.478332 0.788738 0.8 0 0
0.081984 0.511333 0.867972 0.8 0 0
0.093221 0.507416 0.426924 0.8 0 0
0.079231 0.464250 0.501927 0.8 0 0
0.059854 0.421089 0.483051 0.8 0 0
0.075742 0.458086 0.785754 0.8 0 0
0.076738 0.459457 0.777469 0.8 0 0
0.122613 0.336319 0.226695 0.8 0 0
0.083679 0.276421 0.430466 0.8 0 0
0.097178 0.418864 0.621408 0.8 0 0
0.096858 0.406192 0.454604 0.8 0 0
0.094447 0.476563 0.839422 0.8 0 0
0.069192 0.322970 0.359798 0.8 0 0
0.025552 0.439333 0.394391 0.8 0 0
0.103376 0.459204 0.303288 0.8 0 0
0.075114 0.490428 0.220781 0.8 0 0
0.050554 0.476631 0.386821 0.8 0 0
0.105133 0.508066 0.718769 0.8 0 0
0.060135 0.442804 0.800438 0.8 0 0
0.065930 0.375065 0.373626 0.8 0 0
0.110995 0.380518 0.464763 0.8 0 0
0.058549 0.467032 0.618680 0.8 0 0
0.078963 0.420771 0.711562 0.8 0 0
0.104696 0.280308 0.435634 0.8 0 0
0.116844 0.281583 0.236167 0.8 0 0
0.076679 0.490880 0.738069 0.8 0 0
0.071549 0.497769 0.808502 0.8 0 0
0.071475 0.306868 0.284292 0.8 0 0
0.070828 0.430530 0.367151 0.8 0 0
0.109414 0.343308 0.416576 0.8 0 0
0.103545 0.480294 0.290459 0.8 0 0
0.063618 0.365857 0.324082 0.8 0 0
0.081780 0.422899 0.485470 0.8 0 0
0.061711 0.226877 0.145335 0.8 0 0
0.033448 0.472745 0.464283 0.8 0 0
0.110499 0.494947 0.876008 0.8 0 0
0.082309 0.320901 0.392871 0.8 0 0
0.075718 0.508148 0.575239 0.8 0 0
0.095637 0.463607 0.652448 0.8 0 0
0.063148 0.479559 0.360730 0.8 0 0
0.090660 0.505670 0.456655 0.8 0 0
0.079269 0.457112 0.329212 0.8 0 0
0.063170 0.418771 0.415588 0.8 0 0
0.106727 0.507348 0.626285 0.8 0 0
0.073268 0.379609 0.389859 0.8 0 0
0.141850 0.445869 0.382944 0.8 0 0
0.109885 0.436650 0.361955 0.8 0 0
0.104918 0.495317 0.860069 0.8 0 0
0.063254 0.431715 0.797168 0.8 0 0
0.145317 0.462637 0.367237 0.8 0 0
0.082595 0.396259 0.321327 0.8 0 0
0.051342 0.432666 0.441622 0.8 0 0
0.074143 0.470171 0.798588 0.8 0 0
0.139632 0.406027 0.437581 0.8 0 0
0.064662 0.435643 0.503655 0.8 0 0
0.079896 0.507427 0.435198 0.8 0 0
0.084815 0.374919 0.330336 0.8 0 0
0.092487 0.478963 0.825682 0.8 0 0
0.099261 0.507407 0.420669 0.8 0 0
0.104400 0.280958 0.235480 0.8 0 0
0.118432 0.306021 0.152735 0.8 0 0
0.059438 0.368911 0.239977 0.8 0 0
0.103376 0.400721 0.290705 0.8 0 0
0.086603 0.321107 0.404342 0.8 0 0
0.103707 0.424036 0.655792 0.8 0 0
0.063901 0.283593 0.130708 0.8 0 0
0.073704 0.506181 0.527436 0.8 0 0
0.059438 0.322365 0.265344 0.8 0 0
0.059438 0.389902 0.324146 0.8 0 0
0.105176 0.497310 0.358380 0.8 0 0
0.064663 0.450779 0.490149 0.8 0 0
0.089210 0.469949 0.724694 0.8 0 0
0.087689 0.504680 0.738661 0.8 0 0
0.080339 0.436842 0.325081 0.8 0 0
0.028814 0.421189 0.459754 0.8 0 0
0.115369 0.437264 0.651701 0.8 0 0
0.072476 0.375352 0.446664 0.8 0 0
0.074496 0.423749 0.584645 0.8 0 0
0.092317 0.420272 0.510270 0.8 0 0
0.121901 0.362756 0.272777 0.8 0 0
0.113938 0.452345 0.852143 0.8 0 0
0.089301 0.464536 0.776423 0.8 0 0
0.091573 0.224522 0.378156 0.8 0 0
0.100051 0.504930 0.366253 0.8 0 0
0.088076 0.526527 0.350019 0.8 0 0
0.089745 0.469511 0.663777 0.8 0 0
0.071812 0.147885 0.141851 0.8 0 0
0.153621 0.423263 0.404636 0.8 0 0
0.063162 0.311417 0.164054 0.8 0 0
0.061892 0.451283 0.802308 0.8 0 0
0.117480 0.371670 0.375009 0.8 0 0
0.091079 0.418378 0.479028 0.8 0 0
0.079653 0.243536 0.341031 0.8 0 0
0.126195 0.478404 0.388731 0.8 0 0
0.071550 0.501646 0.664856 0.8 0 0
0.070038 0.429923 0.651437 0.8 0 0
0.033778 0.416210 0.371037 0.8 0 0
0.069588 0.354639 0.415558 0.8 0 0
0.100505 0.516060 0.560865 0.8 0 0
0.095926 0.230923 0.316464 0.8 0 0
0.103375 0.399613 0.300459 0.8 0 0
0.106464 0.462694 0.476897 0.8 0 0
0.130766 0.468326 0.413710 0.8 0 0
0.116162 0.173099 0.143873 0.8 0 0
0.051126 0.466524 0.358225 0.8 0 0
0.074922 0.461775 0.529806 0.8 0 0
0.120456 0.473008 0.345890 0.8 0 0
0.029394 0.419252 0.408458 0.8 0 0
0.082542 0.465320 0.695508 0.8 0 0
0.113600 0.381442 0.445929 0.8 0 0
0.098341 0.465697 0.695221 0.8 0 0
0.108630 0.307783 0.133017 0.8 0 0
0.105681 0.509165 0.585759 0.8 0 0
0.121049 0.192663 0.124080 0.8 0 0
0.074880 0.423217 0.633601 0.8 0 0
0.078734 0.411249 0.453925 0.8 0 0
0.073522 0.430026 0.691038 0.8 0 0
0.106745 0.479030 0.972269 0.8 0 0
0.066681 0.445713 0.633107 0.8 0 0
0.148455 0.472984 0.373419 0.8 0 0
0.076177 0.409490 0.515061 0.8 0 0
0.107725 0.460947 0.535334 0.8 0 0
0.070745 0.107699 0.062633 0.8 0 0
0.063983 0.413037 0.322566 0.8 0 0
0.120815 0.221728 0.112707 0.8 0 0
0.101370 0.310780 0.415150 0.8 0 0
0.027799 0.426850 0.449098 0.8 0 0
0.125374 0.133807 0.091451 0.8 0 0
0.086617 0.364565 0.388018 0.8 0 0
0.060724 0.205635 0.128503 0.8 0 0
0.103590 0.475010 0.644661 0.8 0 0
0.104354 0.421181 0.806142 0.8 0 0
0.082737 0.478592 0.926258 0.8 0 0
0.084668 0.433027 0.325081 0.8 0 0
0.082204 0.410551 0.643829 0.8 0 0
0.098949 0.422463 0.504926 0.8 0 0
0.101467 0.420249 0.792684 0.8 0 0
0.089445 0.337295 0.444109 0.8 0 0
0.093836 0.391464 0.466947 0.8 0 0
0.119261 0.421274 0.426838 0.8 0 0
0.078983 0.498895 0.560894 0.8 0 0
0.084580 0.503710 0.829774 0.8 0 0
0.040240 0.484576 0.474480 0.8 0 0
0.080347 0.489979 0.209422 0.8 0 0
0.090723 0.294448 0.252043 0.8 0 0
0.056712 0.099225 0.086741 0.8 0 0
0.112519 0.445548 0.509730 0.8 0 0
0.153727 0.455502 0.380527 0.8 0 0
0.108265 0.480550 0.784043 0.8 0 0
0.084057 0.319473 0.343300 0.8 0 0
0.092323 0.086927 0.075128 0.8 0 0
0.078158 0.475827 0.914254 0.8 0 0
0.103376 0.471522 0.331091 0.8 0 0
0.066681 0.447997 0.600585 0.8 0 0
0.103376 0.438702 0.306138 0.8 0 0
0.087248 0.230747 0.071899 0.8 0 0
0.067669 0.385345 0.483178 0.8 0 0
0.111112 0.464303 0.800580 0.8 0 0
0.125799 0.115341 0.090741 0.8 0 0
0.080205 0.305109 0.268836 0.8 0 0
0.074447 0.422101 0.362368 0.8 0 0
0.067874 0.460313 0.747631 0.8 0 0
0.060868 0.473579 0.834596 0.8 0 0
0.070766 0.367214 0.380961 0.8 0 0
0.073493 0.478296 0.331453 0.8 0 0
0.079257 0.458358 0.280621 0.8 0 0
0.105704 0.477389 0.600081 0.8 0 0
0.082716 0.471617 0.974932 0.8 0 0
0.084099 0.234174 0.073922 0.8 0 0
0.103375 0.368426 0.301760 0.8 0 0
0.121901 0.430952 0.343480 0.8 0 0
0.069837 0.385279 0.371065 0.8 0 0
0.071586 0.427779 0.583094 0.8 0 0
0.119889 0.293742 0.156272 0.8 0 0
0.121900 0.349067 0.311065 0.8 0 0
0.141041 0.484437 0.378151 0.8 0 0
0.061702 0.357376 0.190418 0.8 0 0
0.111240 0.347960 0.396961 0.8 0 0
0.110499 0.485921 0.792432 0.8 0 0
0.096931 0.466151 0.610996 0.8 0 0
0.060554 0.398240 0.471990 0.8 0 0
0.079269 0.358864 0.283489 0.8 0 0
0.145494 0.410599 0.382271 0.8 0 0
0.114741 0.433701 0.601010 0.8 0 0
0.096838 0.449370 0.516623 0.8 0 0
0.061186 0.215850 0.109983 0.8 0 0
0.079269 0.377232 0.283257 0.8 0 0
0.082849 0.459513 0.362368 0.8 0 0
0.078320 0.424043 0.650965 0.8 0 0
0.111822 0.375331 0.411541 0.8 0 0
0.066234 0.459522 0.822874 0.8 0 0
0.059410 0.371148 0.362663 0.8 0 0
0.081152 0.501761 0.443781 0.8 0 0
0.106657 0.478942 0.912422 0.8 0 0
0.070916 0.476922 0.332064 0.8 0 0
0.078638 0.375378 0.420773 0.8 0 0
0.064058 0.319755 0.344631 0.8 0 0
0.077147 0.153020 0.148035 0.8 0 0
0.138259 0.473089 0.367237 0.8 0 0
0.075109 0.187645 0.158644 0.8 0 0
0.102975 0.482554 0.851028 0.8 0 0
0.090968 0.320800 0.390315 0.8 0 0
0.070510 0.473266 0.329010 0.8 0 0
0.065183 0.227424 0.162526 0.8 0 0
0.058077 0.469053 0.749083 0.8 0 0
0.083963 0.446880 0.479456 0.8 0 0
0.153713 0.424116 0.374923 0.8 0 0
0.117566 0.288832 0.130153 0.8 0 0
0.093556 0.442116 0.362368 0.8 0 0
0.073627 0.475539 0.415287 0.8 0 0
0.082581 0.465332 0.635394 0.8 0 0
0.111703 0.485243 0.361855 0.8 0 0
0.073261 0.430385 0.702449 0.8 0 0
0.074047 0.401472 0.570686 0.8 0 0
0.065347 0.465818 0.346938 0.8 0 0
0.119530 0.398769 0.367237 0.8 0 0
0.116730 0.466589 0.402990 0.8 0 0
0.071549 0.489475 0.931749 0.8 0 0
0.064662 0.412308 0.513720 0.8 0 0
0.106819 0.357777 0.384025 0.8 0 0
0.101519 0.492513 0.367237 0.8 0 0
0.153531 0.462096 0.403217 0.8 0 0
0.071548 0.400278 0.646418 0.8 0 0
0.067455 0.305606 0.279643 0.8 0 0
0.042825 0.464969 0.470665 0.8 0 0
0.080219 0.322906 0.358391 0.8 0 0
0.093809 0.511746 0.906187 0.8 0 0
0.082831 0.489524 0.377409 0.8 0 0
0.098354 0.512574 0.865799 0.8 0 0
0.075990 0.431036 0.314070 0.8 0 0
0.107823 0.493347 0.362067 0.8 0 0
0.095737 0.287223 0.283739 0.8 0 0
0.104959 0.493663 0.847007 0.8 0 0
0.118514 0.394677 0.379995 0.8 0 0
0.100386 0.465036 0.550135 0.8 0 0
0.076385 0.482352 0.229406 0.8 0 0
0.118027 0.209737 0.152092 0.8 0 0
0.063338 0.405493 0.418429 0.8 0 0
0.066680 0.445743 0.777411 0.8 0 0
0.137840 0.404654 0.465259 0.8 0 0
0.135504 0.432031 0.424201 0.8 0 0
0.103375 0.380675 0.293968 0.8 0 0
0.079308 0.473566 0.658137 0.8 0 0
0.094294 0.225701 0.353288 0.8 0 0
0.093666 0.420718 0.736615 0.8 0 0
0.059438 0.283785 0.202130 0.8 0 0
0.083676 0.462728 0.779434 0.8 0 0
0.082567 0.423448 0.479105 0.8 0 0
0.085800 0.178410 0.296698 0.8 0 0
0.071549 0.497651 0.837030 0.8 0 0
0.067019 0.324923 0.369015 0.8 0 0
0.087316 0.504050 0.921100 0.8 0 0
0.061045 0.252120 0.156624 0.8 0 0
0.066468 0.466947 0.474993 0.8 0 0
0.104091 0.185862 0.050511 0.8 0 0
0.154103 0.426048 0.471690 0.8 0 0
0.115368 0.448028 0.837227 0.8 0 0
0.075784 0.478085 0.893897 0.8 0 0
0.066680 0.435731 0.817840 0.8 0 0
0.098891 0.320336 0.410857 0.8 0 0
0.046947 0.407506 0.382818 0.8 0 0
0.122359 0.176551 0.098696 0.8 0 0
0.034629 0.462838 0.443889 0.8 0 0
0.115369 0.442816 0.478138 0.8 0 0
0.123590 0.118481 0.068535 0.8 0 0
0.073538 0.480236 0.617987 0.8 0 0
0.113845 0.366353 0.199298 0.8 0 0
0.053990 0.404899 0.462691 0.8 0 0
0.095366 0.504241 0.643057 0.8 0 0
0.082408 0.339520 0.437701 0.8 0 0
0.097476 0.404272 0.278115 0.8 0 0
0.102960 0.493575 0.341183 0.8 0 0
0.117876 0.449755 0.322515 0.8 0 0
0.045654 0.478627 0.403798 0.8 0 0
0.074395 0.428824 0.611525 0.8 0 0
0.097988 0.469071 0.602656 0.8 0 0
0.084950 0.375322 0.409675 0.8 0 0
0.103762 0.483999 0.774569 0.8 0 0
0.075165 0.402006 0.512887 0.8 0 0
0.108332 0.502765 0.855104 0.8 0 0
0.089997 0.417209 0.780560 0.8 0 0
0.071550 0.493135 0.563758 0.8 0 0
0.071573 0.503236 0.554780 0.8 0 0
0.132384 0.392244 0.406466 0.8 0 0
0.100301 0.322780 0.423927 0.8 0 0
0.102466 0.511026 0.751410 0.8 0 0
0.119693 0.104318 0.112502 0.8 0 0
0.087211 0.477344 0.411527 0.8 0 0
0.044122 0.407189 0.388731 0.8 0 0
0.109254 0.431027 0.694854 0.8 0 0
0.081797 0.252872 0.300753 0.8 0 0
0.104773 0.495977 0.906855 0.8 0 0
0.105262 0.493340 0.588170 0.8 0 0
0.090908 0.462925 0.517156 0.8 0 0
0.087690 0.451184 0.516695 0.8 0 0
0.059082 0.233128 0.139539 0.8 0 0
0.089488 0.488347 0.387676 0.8 0 0
0.110514 0.266526 0.213529 0.8 0 0
0.110609 0.427981 0.768195 0.8 0 0
0.066681 0.436190 0.505914 0.8 0 0
0.091193 0.455619 0.329190 0.8 0 0
0.091479 0.241136 0.192652 0.8 0 0
0.149779 0.441503 0.451069 0.8 0 0
0.061439 0.313013 0.312825 0.8 0 0
0.110537 0.452261 0.634003 0.8 0 0
0.093670 0.308375 0.291248 0.8 0 0
0.097743 0.407003 0.408778 0.8 0 0
0.108726 0.454755 0.496652 0.8 0 0
0.107634 0.189499 0.158775 0.8 0 0
0.030929 0.416641 0.451912 0.8 0 0
0.076924 0.224223 0.374180 0.8 0 0
0.121815 0.148413 0.112685 0.8 0 0
0.101923 0.423447 0.807808 0.8 0 0
0.078085 0.273100 0.300278 0.8 0 0
0.072640 0.431240 0.754312 0.8 0 0
0.029082 0.454256 0.416957 0.8 0 0
0.061201 0.452297 0.476012 0.8 0 0
0.104821 0.460131 0.554445 0.8 0 0
0.027221 0.454854 0.413726 0.8 0 0
0.118366 0.405870 0.449761 0.8 0 0
0.069528 0.353285 0.404530 0.8 0 0
0.062765 0.251594 0.171042 0.8 0 0
0.113933 0.403691 0.316288 0.8 0 0
0.121172 0.500568 0.390779 0.8 0 0
0.073918 0.475365 0.285328 0.8 0 0
0.121900 0.413309 0.329761 0.8 0 0
0.083069 0.385757 0.456760 0.8 0 0
0.099166 0.379743 0.478448 0.8 0 0
0.102071 0.499729 0.559407 0.8 0 0
0.071549 0.499019 0.919899 0.8 0 0
0.133098 0.469547 0.457275 0.8 0 0
0.071543 0.504508 0.443424 0.8 0 0
0.103375 0.442491 0.308301 0.8 0 0
0.069531 0.436430 0.634279 0.8 0 0
0.035667 0.439309 0.444391 0.8 0 0
0.098988 0.422477 0.768333 0.8 0 0
0.106116 0.495794 0.357518 0.8 0 0
0.075291 0.457463 0.594069 0.8 0 0
0.062603 0.445037 0.367180 0.8 0 0
0.071550 0.493152 0.691115 0.8 0 0
0.090607 0.291092 0.270979 0.8 0 0
0.077717 0.424038 0.598113 0.8 0 0
0.107620 0.456277 0.614387 0.8 0 0
0.094750 0.514412 0.372973 0.8 0 0
0.113844 0.467489 0.448068 0.8 0 0
0.091225 0.505153 0.845597 0.8 0 0
0.096832 0.237529 0.342718 0.8 0 0
0.113594 0.503370 0.430168 0.8 0 0
0.096582 0.432573 0.296807 0.8 0 0
0.122912 0.490269 0.377323 0.8 0 0
0.096179 0.255492 0.306934 0.8 0 0
0.104946 0.492478 0.851134 0.8 0 0
0.079571 0.502820 0.367237 0.8 0 0
0.121900 0.377169 0.307045 0.8 0 0
0.093860 0.095348 0.135620 0.8 0 0
0.090924 0.452680 0.362368 0.8 0 0
0.073818 0.455435 0.501972 0.8 0 0
0.107106 0.091196 0.129834 0.8 0 0
0.105664 0.421603 0.707047 0.8 0 0
0.085746 0.507370 0.392956 0.8 0 0
0.069787 0.449887 0.669686 0.8 0 0
0.060858 0.259650 0.163364 0.8 0 0
0.117091 0.502124 0.446193 0.8 0 0
0.117586 0.209317 0.080915 0.8 0 0
0.130114 0.491613 0.418362 0.8 0 0
0.120861 0.291928 0.250315 0.8 0 0
0.075732 0.335433 0.381788 0.8 0 0
0.121636 0.434304 0.846667 0.8 0 0
0.061292 0.135122 0.116808 0.8 0 0
0.105393 0.222961 0.392899 0.8 0 0
0.095241 0.470552 0.507417 0.8 0 0
0.033529 0.444033 0.374079 0.8 0 0
0.088591 0.417663 0.687820 0.8 0 0
0.127855 0.434824 0.829167 0.8 0 0
0.106636 0.506721 0.682532 0.8 0 0
0.069531 0.448848 0.636957 0.8 0 0
0.086627 0.503358 0.371660 0.8 0 0
0.117387 0.429438 0.514304 0.8 0 0
0.087611 0.504584 0.764905 0.8 0 0
0.057574 0.406372 0.403378 0.8 0 0
0.099399 0.461112 0.330414 0.8 0 0
0.128350 0.492169 0.407778 0.8 0 0
0.103014 0.498296 0.418279 0.8 0 0
0.110500 0.495327 0.795923 0.8 0 0
0.100725 0.443470 0.291359 0.8 0 0
0.059438 0.473134 0.360795 0.8 0 0
0.115368 0.436772 0.737730 0.8 0 0
0.056468 0.481615 0.632414 0.8 0 0
0.066688 0.450373 0.517222 0.8 0 0
0.069531 0.439582 0.598252 0.8 0 0
0.109267 0.458812 0.777020 0.8 0 0
0.102349 0.473738 0.747592 0.8 0 0
0.080961 0.317918 0.403787 0.8 0 0
0.079269 0.405858 0.322433 0.8 0 0
0.085310 0.358363 0.296681 0.8 0 0
0.080717 0.507378 0.398800 0.8 0 0
0.097594 0.340291 0.457969 0.8 0 0
0.076806 0.487946 0.807929 0.8 0 0
0.062410 0.424909 0.454907 0.8 0 0
0.067617 0.466413 0.346835 0.8 0 0
0.091808 0.464838 0.766505 0.8 0 0
0.061593 0.198290 0.132119 0.8 0 0
0.065619 0.466682 0.403638 0.8 0 0
0.065049 0.123278 0.043036 0.8 0 0
0.102739 0.482197 0.809613 0.8 0 0
0.082129 0.510998 0.893092 0.8 0 0
0.101350 0.285667 0.331910 0.8 0 0
0.103336 0.375135 0.372886 0.8 0 0
0.028703 0.421718 0.389755 0.8 0 0
0.056449 0.108354 0.088363 0.8 0 0
0.107626 0.428786 0.740166 0.8 0 0
0.110500 0.493170 0.638537 0.8 0 0
0.061219 0.163213 0.074942 0.8 0 0
0.085056 0.297078 0.286797 0.8 0 0
0.111248 0.374879 0.322319 0.8 0 0
0.097461 0.298442 0.333444 0.8 0 0
0.071844 0.380166 0.238841 0.8 0 0
0.125558 0.444475 0.816070 0.8 0 0
0.077307 0.392982 0.297755 0.8 0 0
0.090266 0.504674 0.933767 0.8 0 0
0.064662 0.402863 0.511550 0.8 0 0
0.050546 0.491174 0.427205 0.8 0 0
0.064909 0.088755 0.110403 0.8 0 0
0.122613 0.309410 0.214001 0.8 0 0
0.053676 0.492074 0.628223 0.8 0 0
0.069216 0.373410 0.501175 0.8 0 0
0.121053 0.410840 0.398323 0.8 0 0
0.092450 0.188052 0.162582 0.8 0 0
0.098203 0.462782 0.627510 0.8 0 0
0.058234 0.419032 0.610628 0.8 0 0
0.082224 0.328791 0.346234 0.8 0 0
0.059438 0.335557 0.191999 0.8 0 0
0.097774 0.496631 0.346219 0.8 0 0
0.089914 0.464732 0.672823 0.8 0 0
0.111621 0.374896 0.325695 0.8 0 0
0.116297 0.199976 0.073361 0.8 0 0
0.065341 0.459852 0.803851 0.8 0 0
0.058103 0.148879 0.097532 0.8 0 0
0.121544 0.329179 0.355010 0.8 0 0
0.073034 0.501322 0.880330 0.8 0 0
0.113494 0.410724 0.410548 0.8 0 0
0.105405 0.506333 0.418624 0.8 0 0
0.103256 0.302138 0.272179 0.8 0 0
0.071550 0.492555 0.634616 0.8 0 0
0.052117 0.438555 0.431855 0.8 0 0
0.070420 0.364164 0.195820 0.8 0 0
0.076101 0.477443 0.695629 0.8 0 0
0.076992 0.375659 0.222401 0.8 0 0
0.067715 0.354564 0.356776 0.8 0 0
0.092222 0.366617 0.302049 0.8 0 0
0.074010 0.468041 0.613867 0.8 0 0
0.065173 0.401826 0.519120 0.8 0 0
0.083764 0.470940 0.897528 0.8 0 0
0.035547 0.408573 0.441683 0.8 0 0
0.083071 0.212510 0.302423 0.8 0 0
0.085191 0.466175 0.627717 0.8 0 0
0.059438 0.320634 0.286262 0.8 0 0
0.081512 0.462032 0.786915 0.8 0 0
0.065450 0.438435 0.485076 0.8 0 0
0.107600 0.456305 0.598286 0.8 0 0
0.079286 0.499173 0.570694 0.8 0 0
0.128907 0.389287 0.392327 0.8 0 0
0.093008 0.470652 0.847120 0.8 0 0
0.079362 0.423699 0.756243 0.8 0 0
0.090133 0.464803 0.792075 0.8 0 0
0.112518 0.446438 0.731627 0.8 0 0
0.130409 0.491520 0.423670 0.8 0 0
0.102020 0.423478 0.562167 0.8 0 0
0.102018 0.380422 0.373750 0.8 0 0
0.066681 0.434851 0.638887 0.8 0 0
0.104579 0.475735 0.552903 0.8 0 0
0.113336 0.453179 0.499869 0.8 0 0
0.122613 0.305645 0.206461 0.8 0 0
0.077069 0.488491 0.971951 0.8 0 0
0.102188 0.328718 0.364795 0.8 0 0
0.076627 0.484799 0.335286 0.8 0 0
0.109240 0.361076 0.495132 0.8 0 0
0.112168 0.430138 0.521796 0.8 0 0
0.059438 0.370927 0.258346 0.8 0 0
0.078620 0.393350 0.478654 0.8 0 0
0.143786 0.481083 0.434105 0.8 0 0
0.063194 0.475658 0.656684 0.8 0 0
0.036992 0.422729 0.384725 0.8 0 0
0.053864 0.478562 0.616886 0.8 0 0
0.099680 0.469786 0.598730 0.8 0 0
0.075853 0.367935 0.499710 0.8 0 0
0.091852 0.470568 0.832445 0.8 0 0
0.100268 0.419862 0.771780 0.8 0 0
0.123783 0.130718 0.074388 0.8 0 0
0.115057 0.385052 0.410985 0.8 0 0
0.121401 0.221464 0.136186 0.8 0 0
0.068925 0.286413 0.242856 0.8 0 0
0.080219 0.329691 0.359485 0.8 0 0
0.100051 0.511580 0.368055 0.8 0 0
0.052798 0.461384 0.393526 0.8 0 0
0.103672 0.475406 0.779051 0.8 0 0
0.122613 0.332343 0.186974 0.8 0 0
0.101550 0.510423 0.851222 0.8 0 0
0.080788 0.395188 0.478681 0.8 0 0
0.063250 0.353161 0.374544 0.8 0 0
0.097949 0.512522 0.374801 0.8 0 0
0.115838 0.477966 0.340065 0.8 0 0
0.076759 0.383217 0.470462 0.8 0 0
0.093495 0.354114 0.293918 0.8 0 0
0.126790 0.443512 0.469525 0.8 0 0
0.089148 0.297008 0.261135 0.8 0 0
0.059902 0.221244 0.129637 0.8 0 0
0.069530 0.444366 0.840456 0.8 0 0
0.129512 0.495000 0.433265 0.8 0 0
0.072329 0.458184 0.498996 0.8 0 0
0.108528 0.430025 0.534932 0.8 0 0
0.090470 0.519838 0.367247 0.8 0 0
0.120504 0.431573 0.323406 0.8 0 0
0.090345 0.377432 0.461341 0.8 0 0
0.079308 0.516430 0.346239 0.8 0 0
0.156595 0.440538 0.385358 0.8 0 0
0.062309 0.475387 0.630080 0.8 0 0
0.100046 0.396320 0.362368 0.8 0 0
0.076344 0.426139 0.817070 0.8 0 0
0.113114 0.464728 0.845617 0.8 0 0
0.081749 0.343556 0.414095 0.8 0 0
0.085788 0.471947 0.802245 0.8 0 0
0.059438 0.311075 0.278011 0.8 0 0
0.100903 0.461914 0.513614 0.8 0 0
0.059674 0.472079 0.958257 0.8 0 0
0.099281 0.338416 0.408680 0.8 0 0
0.115054 0.442421 0.516382 0.8 0 0
0.115299 0.375334 0.412146 0.8 0 0
0.111968 0.434762 0.532943 0.8 0 0
0.067631 0.469091 0.659943 0.8 0 0
0.076888 0.493888 0.814619 0.8 0 0
0.103205 0.383308 0.438005 0.8 0 0
0.100891 0.482428 0.478019 0.8 0 0
0.083165 0.336219 0.350920 0.8 0 0
0.109109 0.155857 0.144914 0.8 0 0
0.074004 0.108003 0.133992 0.8 0 0
0.107793 0.154993 0.043761 0.8 0 0
0.083999 0.465790 0.618868 0.8 0 0
0.118749 0.417448 0.407388 0.8 0 0
0.096932 0.463190 0.481138 0.8 0 0
0.116430 0.360460 0.335189 0.8 0 0
0.080490 0.272624 0.300509 0.8 0 0
0.082936 0.469534 0.664941 0.8 0 0
0.118718 0.501460 0.392391 0.8 0 0
0.121299 0.166469 0.114021 0.8 0 0
0.088550 0.219895 0.386510 0.8 0 0
0.074947 0.401903 0.543691 0.8 0 0
0.103375 0.416308 0.314727 0.8 0 0
0.110500 0.498516 0.817268 0.8 0 0
0.080219 0.330501 0.385409 0.8 0 0
0.025511 0.439636 0.373779 0.8 0 0
0.146871 0.418078 0.409429 0.8 0 0
0.058483 0.406944 0.638143 0.8 0 0
0.119906 0.148613 0.064287 0.8 0 0
0.060459 0.400548 0.437874 0.8 0 0
0.090099 0.464792 0.617915 0.8 0 0
0.105291 0.375640 0.472566 0.8 0 0
0.059438 0.377461 0.346670 0.8 0 0
0.058161 0.468691 0.834663 0.8 0 0
0.077206 0.430547 0.853756 0.8 0 0
0.084389 0.515897 0.694113 0.8 0 0
0.070396 0.429427 0.559329 0.8 0 0
0.071550 0.485736 0.672309 0.8 0 0
0.052722 0.467574 0.433013 0.8 0 0
0.097904 0.407151 0.415504 0.8 0 0
0.133733 0.470082 0.398495 0.8 0 0
0.098020 0.470552 0.500059 0.8 0 0
0.101591 0.340416 0.456091 0.8 0 0
0.079032 0.474278 0.253018 0.8 0 0
0.062797 0.327247 0.365710 0.8 0 0
0.077983 0.503664 0.476070 0.8 0 0
0.096876 0.421778 0.639496 0.8 0 0
0.098449 0.468526 0.526929 0.8 0 0
0.058020 0.449269 0.420780 0.8 0 0
0.100951 0.403612 0.277140 0.8 0 0
0.040724 0.455988 0.371706 0.8 0 0
0.061221 0.414581 0.352730 0.8 0 0
0.080589 0.500846 0.734974 0.8 0 0
0.116833 0.368033 0.373622 0.8 0 0
0.054633 0.463814 0.359675 0.8 0 0
0.089038 0.417518 0.530473 0.8 0 0
0.110488 0.432725 0.557502 0.8 0 0
0.102905 0.357071 0.282733 0.8 0 0
0.151762 0.417723 0.438343 0.8 0 0
0.096263 0.388816 0.420627 0.8 0 0
0.056397 0.457381 0.672994 0.8 0 0
0.079269 0.402913 0.301185 0.8 0 0
0.156372 0.438692 0.375029 0.8 0 0
0.104345 0.424268 0.713149 0.8 0 0
0.107804 0.460838 0.836549 0.8 0 0
0.079455 0.421831 0.575846 0.8 0 0
0.089704 0.505216 0.710702 0.8 0 0
0.086075 0.514700 0.762151 0.8 0 0
0.135993 0.395306 0.457332 0.8 0 0
0.149325 0.413451 0.432435 0.8 0 0
0.089642 0.448932 0.516606 0.8 0 0
0.074451 0.428746 0.792684 0.8 0 0
0.106676 0.422537 0.830574 0.8 0 0
0.085130 0.487571 0.362368 0.8 0 0
0.059438 0.304352 0.269427 0.8 0 0
0.101053 0.461866 0.556283 0.8 0 0
0.059438 0.295523 0.252680 0.8 0 0
0.072842 0.462709 0.689166 0.8 0 0
0.110454 0.432678 0.790490 0.8 0 0
0.125007 0.498716 0.390585 0.8 0 0
0.085351 0.503834 0.846188 0.8 0 0
0.080290 0.257237 0.300370 0.8 0 0
0.112087 0.450127 0.606239 0.8 0 0
0.073538 0.375332 0.422088 0.8 0 0
0.153870 0.424726 0.453928 0.8 0 0
0.144919 0.444308 0.388731 0.8 0 0
0.108562 0.109272 0.058839 0.8 0 0
0.090847 0.476788 0.494736 0.8 0 0
0.074225 0.455995 0.508420 0.8 0 0
0.087358 0.300065 0.285150 0.8 0 0
0.111674 0.450697 0.573889 0.8 0 0
0.123060 0.490385 0.378250 0.8 0 0
0.056558 0.415695 0.559024 0.8 0 0
0.106837 0.506965 0.647911 0.8 0 0
0.066681 0.446333 0.665100 0.8 0 0
0.028478 0.461866 0.407940 0.8 0 0
0.097873 0.352932 0.388018 0.8 0 0
0.122674 0.457632 0.818664 0.8 0 0
0.080219 0.341358 0.443216 0.8 0 0
0.121900 0.368012 0.318270 0.8 0 0
0.085594 0.503587 0.460097 0.8 0 0
0.071115 0.433339 0.749647 0.8 0 0
0.092471 0.224647 0.379814 0.8 0 0
0.138575 0.397470 0.457449 0.8 0 0
0.070333 0.429514 0.712700 0.8 0 0
0.109206 0.348559 0.458347 0.8 0 0
0.079269 0.522923 0.342949 0.8 0 0
0.066680 0.448351 0.785455 0.8 0 0
0.078699 0.464079 0.668835 0.8 0 0
0.075815 0.484241 0.293668 0.8 0 0
0.125285 0.455345 0.367237 0.8 0 0
0.091016 0.465087 0.697163 0.8 0 0
0.103375 0.409435 0.310896 0.8 0 0
0.117388 0.463453 0.502327 0.8 0 0
0.062096 0.423936 0.505067 0.8 0 0
0.117306 0.146305 0.133588 0.8 0 0
0.095606 0.421359 0.608273 0.8 0 0
0.104705 0.494235 0.928518 0.8 0 0
0.066615 0.282032 0.236931 0.8 0 0
0.063038 0.461036 0.737661 0.8 0 0
0.079269 0.491725 0.324281 0.8 0 0
0.118495 0.106241 0.117793 0.8 0 0
0.075902 0.402360 0.635960 0.8 0 0
0.112519 0.437042 0.614490 0.8 0 0
0.083910 0.422196 0.548722 0.8 0 0
0.048649 0.393078 0.429549 0.8 0 0
0.137739 0.396769 0.453128 0.8 0 0
0.102880 0.506653 0.970139 0.8 0 0
0.130261 0.425466 0.367180 0.8 0 0
0.074129 0.479882 0.852320 0.8 0 0
0.104287 0.486306 0.592373 0.8 0 0
0.121900 0.304675 0.267176 0.8 0 0
0.059003 0.465084 0.893139 0.8 0 0
0.059356 0.325758 0.330250 0.8 0 0
0.116777 0.429109 0.491469 0.8 0 0
0.118706 0.465972 0.395847 0.8 0 0
0.087880 0.477991 0.337790 0.8 0 0
0.122613 0.318613 0.240160 0.8 0 0
0.108806 0.503965 0.479954 0.8 0 0
0.110499 0.493130 0.863733 0.8 0 0
0.088815 0.507425 0.433851 0.8 0 0
0.029513 0.449200 0.401057 0.8 0 0
0.083398 0.476029 0.478199 0.8 0 0
0.073235 0.430421 0.484597 0.8 0 0
0.082225 0.151421 0.149382 0.8 0 0
0.101062 0.343776 0.405533 0.8 0 0
0.097752 0.510572 0.963378 0.8 0 0
0.061917 0.274728 0.201727 0.8 0 0
0.053752 0.432442 0.438635 0.8 0 0
0.080540 0.471494 0.562626 0.8 0 0
0.105191 0.476812 0.633766 0.8 0 0
0.139859 0.437286 0.367237 0.8 0 0
0.056631 0.433869 0.820655 0.8 0 0
0.096330 0.512799 0.854846 0.8 0 0
0.035816 0.417928 0.388731 0.8 0 0
0.068360 0.100793 0.080033 0.8 0 0
0.099544 0.478971 0.645894 0.8 0 0
0.098545 0.340908 0.474203 0.8 0 0
0.099324 0.502998 0.598820 0.8 0 0
0.088582 0.393597 0.413476 0.8 0 0
0.053000 0.439948 0.411733 0.8 0 0
0.109246 0.158504 0.145437 0.8 0 0
0.068842 0.365931 0.447092 0.8 0 0
0.115134 0.412282 0.479823 0.8 0 0
0.028447 0.461785 0.474565 0.8 0 0
0.110499 0.495390 0.902450 0.8 0 0
0.101096 0.383544 0.441903 0.8 0 0
0.094090 0.467069 0.788489 0.8 0 0
0.092887 0.393282 0.297682 0.8 0 0
0.073825 0.460257 0.756461 0.8 0 0
0.095917 0.375620 0.468505 0.8 0 0
0.079169 0.466651 0.288301 0.8 0 0
0.110412 0.306622 0.283161 0.8 0 0
0.082031 0.472165 0.951034 0.8 0 0
