0.476830 0.447127 0.071853 0.8 0 0
0.786679 0.443575 0.125546 0.8 0 0
0.488841 0.642736 0.167954 0.8 0 0
0.469479 0.492489 0.105909 0.8 0 0
0.452703 0.575683 0.059147 0.8 0 0
0.781629 0.659991 0.121307 0.8 0 0
0.941277 0.040759 0.132488 0.8 0 0
0.506958 0.680057 0.059147 0.8 0 0
0.759124 0.136298 0.163780 0.8 0 0
0.762117 0.299428 0.110495 0.8 0 0
0.714768 0.098622 0.136645 0.8 0 0
0.520198 0.336663 0.098427 0.8 0 0
0.600876 0.502920 0.112325 0.8 0 0
0.334626 0.608308 0.175132 0.8 0 0
0.595001 0.591000 0.177119 0.8 0 0
0.912045 0.120533 0.059147 0.8 0 0
0.473876 0.542250 0.175322 0.8 0 0
0.460201 0.666538 0.060197 0.8 0 0
0.534288 0.623897 0.157465 0.8 0 0
0.928062 0.370820 0.099321 0.8 0 0
0.542630 0.455683 0.108333 0.8 0 0
0.802190 0.235336 0.056416 0.8 0 0
0.829487 0.567829 0.163780 0.8 0 0
0.810588 0.215120 0.059147 0.8 0 0
0.899242 0.413662 0.072322 0.8 0 0
0.215164 0.662959 0.118973 0.8 0 0
0.400276 0.471754 0.131533 0.8 0 0
0.791773 0.441059 0.163780 0.8 0 0
0.477308 0.662546 0.147325 0.8 0 0
0.477141 0.651820 0.110642 0.8 0 0
0.807454 0.050688 0.167416 0.8 0 0
0.755518 0.052398 0.163780 0.8 0 0
0.815374 0.523985 0.059147 0.8 0 0
0.357540 0.530426 0.093190 0.8 0 0
0.801149 0.273463 0.056416 0.8 0 0
0.202995 0.564685 0.068759 0.8 0 0
0.584342 0.449734 0.063335 0.8 0 0
0.804957 0.266633 0.163780 0.8 0 0
0.904341 0.290035 0.059147 0.8 0 0
0.476175 0.670802 0.059147 0.8 0 0
0.835086 0.310196 0.163780 0.8 0 0
0.247173 0.520917 0.098616 0.8 0 0
0.759189 0.043602 0.145388 0.8 0 0
0.673662 0.431656 0.162741 0.8 0 0
0.397304 0.511913 0.163780 0.8 0 0
0.393672 0.522708 0.096975 0.8 0 0
0.314647 0.562724 0.152792 0.8 0 0
0.690632 0.614521 0.163780 0.8 0 0
0.393376 0.654097 0.115402 0.8 0 0
0.861144 0.433726 0.163780 0.8 0 0
0.815550 0.388199 0.056416 0.8 0 0
0.486304 0.519977 0.180027 0.8 0 0
0.871241 0.453140 0.153139 0.8 0 0
0.810063 0.548034 0.163780 0.8 0 0
0.123440 0.658279 0.154419 0.8 0 0
0.036664 0.598501 0.068041 0.8 0 0
0.882136 0.582167 0.111380 0.8 0 0
0.117827 0.662959 0.130033 0.8 0 0
0.517139 0.573098 0.190354 0.8 0 0
0.813187 0.328962 0.163780 0.8 0 0
0.903876 0.240891 0.167416 0.8 0 0
0.078646 0.692016 0.087256 0.8 0 0
0.866643 0.462682 0.157234 0.8 0 0
0.155283 0.617439 0.066716 0.8 0 0
0.480909 0.502309 0.122132 0.8 0 0
0.484271 0.497437 0.092688 0.8 0 0
0.448453 0.565936 0.108123 0.8 0 0
0.106261 0.692016 0.093372 0.8 0 0
0.083833 0.688138 0.122664 0.8 0 0
0.422091 0.571201 0.059147 0.8 0 0
0.702075 0.069769 0.109114 0.8 0 0
0.218302 0.575027 0.139151 0.8 0 0
0.731363 0.143774 0.115940 0.8 0 0
0.758518 0.392815 0.167416 0.8 0 0
0.592560 0.527112 0.092699 0.8 0 0
0.881587 0.433738 0.056416 0.8 0 0
0.877315 0.226095 0.059147 0.8 0 0
0.423883 0.655620 0.121565 0.8 0 0
0.867329 0.502085 0.123492 0.8 0 0
0.558705 0.563341 0.051179 0.8 0 0
0.906341 0.107776 0.056416 0.8 0 0
0.084587 0.539021 0.093520 0.8 0 0
0.835224 0.098433 0.163780 0.8 0 0
0.587656 0.701223 0.138531 0.8 0 0
0.849540 0.446701 0.163780 0.8 0 0
0.515503 0.509029 0.094818 0.8 0 0
0.616225 0.564825 0.171551 0.8 0 0
0.146675 0.547936 0.110662 0.8 0 0
0.535984 0.708783 0.113785 0.8 0 0
0.239794 0.692016 0.092214 0.8 0 0
0.412806 0.557236 0.059147 0.8 0 0
0.500014 0.641444 0.073315 0.8 0 0
0.480676 0.552308 0.044379 0.8 0 0
0.441182 0.490590 0.152608 0.8 0 0
0.667999 0.702300 0.087840 0.8 0 0
0.677149 0.445440 0.163780 0.8 0 0
0.849645 0.120685 0.056416 0.8 0 0
0.301594 0.551946 0.089466 0.8 0 0
0.804361 0.100186 0.167416 0.8 0 0
0.851107 0.476204 0.163780 0.8 0 0
0.151399 0.597567 0.068348 0.8 0 0
0.859397 0.318166 0.163780 0.8 0 0
0.139908 0.588305 0.052701 0.8 0 0
0.462306 0.659480 0.078189 0.8 0 0
0.544939 0.335465 0.106286 0.8 0 0
0.497796 0.530064 0.053743 0.8 0 0
0.745713 0.464867 0.163780 0.8 0 0
0.746865 0.402105 0.059147 0.8 0 0
0.469507 0.535834 0.190756 0.8 0 0
0.501887 0.431392 0.126466 0.8 0 0
0.034235 0.656287 0.105334 0.8 0 0
0.129539 0.598779 0.173886 0.8 0 0
0.331805 0.549225 0.122191 0.8 0 0
0.767288 0.289507 0.161478 0.8 0 0
0.312538 0.633133 0.151746 0.8 0 0
0.870631 0.545413 0.144881 0.8 0 0
0.796659 0.176720 0.056416 0.8 0 0
0.706967 0.613737 0.131415 0.8 0 0
0.303917 0.647913 0.138646 0.8 0 0
0.511421 0.659400 0.085879 0.8 0 0
0.071671 0.643314 0.056929 0.8 0 0
0.823599 0.220962 0.167416 0.8 0 0
0.185207 0.677236 0.140483 0.8 0 0
0.733016 0.137692 0.072546 0.8 0 0
0.487627 0.608545 0.141128 0.8 0 0
0.899891 0.370878 0.167416 0.8 0 0
0.482213 0.544310 0.029823 0.8 0 0
0.605660 0.527864 0.165612 0.8 0 0
0.204997 0.656720 0.067560 0.8 0 0
0.576268 0.552320 0.180188 0.8 0 0
0.358507 0.516097 0.110255 0.8 0 0
0.514509 0.537518 0.082305 0.8 0 0
0.062168 0.550526 0.130606 0.8 0 0
0.707567 0.593834 0.059147 0.8 0 0
0.957992 0.200716 0.156974 0.8 0 0
0.467595 0.591742 0.138569 0.8 0 0
0.749133 0.421492 0.072253 0.8 0 0
0.845623 0.044742 0.059147 0.8 0 0
0.622555 0.496113 0.134563 0.8 0 0
0.206211 0.653749 0.127876 0.8 0 0
0.497844 0.364563 0.123780 0.8 0 0
0.197483 0.662865 0.074857 0.8 0 0
0.817264 0.174459 0.163780 0.8 0 0
0.909117 0.211890 0.163780 0.8 0 0
0.968095 0.133194 0.089053 0.8 0 0
0.962085 0.108982 0.153507 0.8 0 0
0.793021 0.356098 0.059147 0.8 0 0
0.652766 0.393213 0.114024 0.8 0 0
0.443757 0.544362 0.131956 0.8 0 0
0.091116 0.588768 0.052510 0.8 0 0
0.163744 0.595495 0.050291 0.8 0 0
0.545035 0.323182 0.104204 0.8 0 0
0.881037 0.054754 0.059147 0.8 0 0
0.837252 0.385273 0.167416 0.8 0 0
0.025000 0.636551 0.071735 0.8 0 0
0.521776 0.451282 0.163780 0.8 0 0
0.547799 0.586283 0.074200 0.8 0 0
0.965758 0.071276 0.141509 0.8 0 0
0.235759 0.531710 0.128829 0.8 0 0
0.874517 0.221466 0.163780 0.8 0 0
0.918592 0.236250 0.167416 0.8 0 0
0.616649 0.514650 0.162392 0.8 0 0
0.395390 0.590062 0.051976 0.8 0 0
0.608970 0.421778 0.120061 0.8 0 0
0.379935 0.636620 0.053660 0.8 0 0
0.621300 0.708131 0.115994 0.8 0 0
0.789799 0.223847 0.163780 0.8 0 0
0.144072 0.626306 0.068860 0.8 0 0
0.200232 0.595365 0.069256 0.8 0 0
0.497579 0.450434 0.061047 0.8 0 0
0.673066 0.672864 0.063699 0.8 0 0
0.704671 0.087143 0.086765 0.8 0 0
0.041337 0.721050 0.121039 0.8 0 0
0.795839 0.312496 0.163780 0.8 0 0
0.493264 0.382322 0.109674 0.8 0 0
0.607883 0.671689 0.163780 0.8 0 0
0.907491 0.087107 0.167416 0.8 0 0
0.423457 0.547790 0.163780 0.8 0 0
0.386208 0.618833 0.048641 0.8 0 0
0.741467 0.578475 0.163780 0.8 0 0
0.469042 0.599612 0.089085 0.8 0 0
0.942132 0.168453 0.056416 0.8 0 0
0.932172 0.335737 0.089069 0.8 0 0
0.069482 0.642953 0.079241 0.8 0 0
0.609307 0.606646 0.140873 0.8 0 0
0.900187 0.296915 0.167416 0.8 0 0
0.875297 0.445348 0.160768 0.8 0 0
0.423021 0.660678 0.059147 0.8 0 0
0.195828 0.641430 0.145806 0.8 0 0
0.221666 0.651633 0.132961 0.8 0 0
0.494451 0.612951 0.113724 0.8 0 0
0.476153 0.515461 0.048433 0.8 0 0
0.809741 0.219833 0.167416 0.8 0 0
0.089861 0.547942 0.106630 0.8 0 0
0.707143 0.073703 0.149872 0.8 0 0
0.720367 0.116734 0.146439 0.8 0 0
0.849256 0.037592 0.133012 0.8 0 0
0.576965 0.523079 0.132261 0.8 0 0
0.634446 0.631744 0.080273 0.8 0 0
0.513023 0.589888 0.145975 0.8 0 0
0.702236 0.488957 0.059147 0.8 0 0
0.063810 0.557357 0.145084 0.8 0 0
0.967050 0.106705 0.137289 0.8 0 0
0.748098 0.139869 0.163780 0.8 0 0
0.054953 0.718099 0.116325 0.8 0 0
0.943971 0.293943 0.145673 0.8 0 0
0.264773 0.656685 0.109493 0.8 0 0
0.601599 0.657391 0.130482 0.8 0 0
0.337295 0.600965 0.067555 0.8 0 0
0.634010 0.642096 0.051583 0.8 0 0
0.446544 0.578542 0.166094 0.8 0 0
0.061021 0.647838 0.163574 0.8 0 0
0.774807 0.445996 0.059147 0.8 0 0
0.158206 0.567720 0.065733 0.8 0 0
0.394409 0.607633 0.118458 0.8 0 0
0.476979 0.551515 0.047371 0.8 0 0
0.931721 0.057339 0.056416 0.8 0 0
0.779178 0.515152 0.163780 0.8 0 0
0.881403 0.397094 0.163780 0.8 0 0
0.477907 0.618972 0.169890 0.8 0 0
0.843140 0.366371 0.167416 0.8 0 0
0.370894 0.540086 0.061936 0.8 0 0
0.919413 0.038292 0.087852 0.8 0 0
0.534373 0.460042 0.059147 0.8 0 0
0.639136 0.500459 0.123895 0.8 0 0
0.147355 0.672690 0.095499 0.8 0 0
0.535025 0.495586 0.137869 0.8 0 0
0.539336 0.507595 0.128092 0.8 0 0
0.498656 0.702853 0.089800 0.8 0 0
0.509530 0.363178 0.104629 0.8 0 0
0.802431 0.282010 0.167416 0.8 0 0
0.042763 0.671021 0.090343 0.8 0 0
0.430997 0.515812 0.163780 0.8 0 0
0.549392 0.695615 0.066108 0.8 0 0
0.953426 0.099774 0.167416 0.8 0 0
0.956629 0.054022 0.081757 0.8 0 0
0.956663 0.118376 0.059147 0.8 0 0
0.428806 0.666301 0.059147 0.8 0 0
0.261314 0.546697 0.097834 0.8 0 0
0.032233 0.573365 0.136656 0.8 0 0
0.952416 0.270855 0.105100 0.8 0 0
0.368545 0.529249 0.160489 0.8 0 0
0.486421 0.448477 0.155484 0.8 0 0
0.925694 0.062212 0.163780 0.8 0 0
0.811179 0.431018 0.163780 0.8 0 0
0.781598 0.032902 0.094295 0.8 0 0
0.917929 0.402490 0.111228 0.8 0 0
0.963661 0.087151 0.100022 0.8 0 0
0.133182 0.588924 0.151389 0.8 0 0
0.160781 0.656324 0.067162 0.8 0 0
0.748960 0.357483 0.087725 0.8 0 0
0.439782 0.553909 0.144941 0.8 0 0
0.860709 0.352136 0.167416 0.8 0 0
0.434620 0.516943 0.061120 0.8 0 0
0.638735 0.529603 0.187127 0.8 0 0
0.484423 0.628629 0.127104 0.8 0 0
0.500219 0.524434 0.132079 0.8 0 0
0.480084 0.549185 0.142224 0.8 0 0
0.682926 0.604603 0.059147 0.8 0 0
0.528284 0.534906 0.176090 0.8 0 0
0.262985 0.584228 0.075281 0.8 0 0
0.796291 0.171683 0.163780 0.8 0 0
0.582280 0.622877 0.055668 0.8 0 0
0.441420 0.553534 0.137896 0.8 0 0
0.806694 0.139225 0.163780 0.8 0 0
0.963368 0.118036 0.149318 0.8 0 0
0.183023 0.543443 0.095398 0.8 0 0
0.541907 0.556118 0.178850 0.8 0 0
0.610472 0.601109 0.026712 0.8 0 0
0.286092 0.692016 0.100140 0.8 0 0
0.191571 0.654105 0.158580 0.8 0 0
0.520619 0.489346 0.066255 0.8 0 0
0.658053 0.407955 0.060758 0.8 0 0
0.659356 0.473703 0.059147 0.8 0 0
0.471400 0.529878 0.074798 0.8 0 0
0.448795 0.478062 0.059147 0.8 0 0
0.483456 0.511994 0.172408 0.8 0 0
0.904077 0.373960 0.163780 0.8 0 0
0.420013 0.657158 0.067999 0.8 0 0
0.568036 0.635042 0.132374 0.8 0 0
0.585969 0.508743 0.095039 0.8 0 0
0.540263 0.545405 0.180483 0.8 0 0
0.345743 0.672915 0.096643 0.8 0 0
0.809208 0.162004 0.056416 0.8 0 0
0.521470 0.639832 0.175183 0.8 0 0
0.720943 0.130084 0.091992 0.8 0 0
0.748931 0.383520 0.056416 0.8 0 0
0.766010 0.385616 0.059147 0.8 0 0
0.869364 0.476303 0.092751 0.8 0 0
0.639136 0.575524 0.093008 0.8 0 0
0.739343 0.579793 0.103755 0.8 0 0
0.575629 0.644224 0.170674 0.8 0 0
0.708554 0.082887 0.137021 0.8 0 0
0.841677 0.469741 0.133230 0.8 0 0
0.631344 0.628719 0.184590 0.8 0 0
0.285312 0.574107 0.137769 0.8 0 0
0.568730 0.522502 0.042315 0.8 0 0
0.197630 0.547925 0.117892 0.8 0 0
0.757437 0.266965 0.087849 0.8 0 0
0.847057 0.399058 0.059147 0.8 0 0
0.921284 0.361885 0.154949 0.8 0 0
0.026281 0.630360 0.051055 0.8 0 0
0.598706 0.436735 0.117123 0.8 0 0
0.561716 0.655888 0.125574 0.8 0 0
0.176931 0.522066 0.124346 0.8 0 0
0.713911 0.093009 0.149196 0.8 0 0
0.405084 0.632342 0.153501 0.8 0 0
0.525320 0.500925 0.105162 0.8 0 0
0.855509 0.156572 0.059147 0.8 0 0
0.583525 0.583295 0.162409 0.8 0 0
0.513745 0.656108 0.096634 0.8 0 0
0.219793 0.662959 0.114082 0.8 0 0
0.935109 0.200790 0.056416 0.8 0 0
0.312071 0.534546 0.129036 0.8 0 0
0.961238 0.248280 0.090891 0.8 0 0
0.764027 0.263320 0.157773 0.8 0 0
0.472943 0.505676 0.097409 0.8 0 0
0.558004 0.620622 0.172751 0.8 0 0
0.481447 0.590513 0.176742 0.8 0 0
0.878545 0.077539 0.059147 0.8 0 0
0.065492 0.554083 0.084329 0.8 0 0
0.622503 0.319150 0.105939 0.8 0 0
0.255671 0.571564 0.133952 0.8 0 0
0.477052 0.479967 0.163780 0.8 0 0
0.845927 0.311095 0.167416 0.8 0 0
0.696403 0.610081 0.060038 0.8 0 0
0.559247 0.640171 0.061958 0.8 0 0
0.485638 0.609094 0.141202 0.8 0 0
0.820396 0.194367 0.163780 0.8 0 0
0.779087 0.383339 0.163780 0.8 0 0
0.040989 0.695230 0.122668 0.8 0 0
0.605823 0.665430 0.156745 0.8 0 0
0.502562 0.544337 0.139996 0.8 0 0
0.674078 0.549010 0.059147 0.8 0 0
0.543724 0.648786 0.125452 0.8 0 0
0.629882 0.473005 0.059147 0.8 0 0
0.945207 0.069670 0.163780 0.8 0 0
0.625690 0.584049 0.061633 0.8 0 0
0.772125 0.568318 0.163780 0.8 0 0
0.383472 0.610637 0.175136 0.8 0 0
0.733297 0.650770 0.113166 0.8 0 0
0.483577 0.526623 0.109944 0.8 0 0
0.136158 0.653968 0.064800 0.8 0 0
0.614037 0.593454 0.081781 0.8 0 0
0.911653 0.039040 0.140613 0.8 0 0
0.223761 0.646097 0.058795 0.8 0 0
0.508897 0.501319 0.105369 0.8 0 0
0.815431 0.434493 0.167416 0.8 0 0
0.380375 0.569265 0.159352 0.8 0 0
0.635070 0.597409 0.144692 0.8 0 0
0.762192 0.317270 0.125331 0.8 0 0
0.717294 0.117239 0.086361 0.8 0 0
0.543400 0.529152 0.168685 0.8 0 0
0.701332 0.487011 0.163780 0.8 0 0
0.750549 0.388059 0.167416 0.8 0 0
0.312412 0.524356 0.126151 0.8 0 0
0.556867 0.332088 0.125156 0.8 0 0
0.434849 0.588577 0.163780 0.8 0 0
0.712386 0.475600 0.059147 0.8 0 0
0.877353 0.238418 0.056416 0.8 0 0
0.798812 0.041205 0.156373 0.8 0 0
0.710318 0.614939 0.121852 0.8 0 0
0.478242 0.605248 0.082610 0.8 0 0
0.559940 0.331919 0.103036 0.8 0 0
0.559448 0.448065 0.068787 0.8 0 0
0.151948 0.550714 0.103546 0.8 0 0
0.864689 0.056076 0.056416 0.8 0 0
0.872925 0.135064 0.163780 0.8 0 0
0.732627 0.044516 0.101840 0.8 0 0
0.509712 0.537084 0.082052 0.8 0 0
0.949108 0.280479 0.092072 0.8 0 0
0.583933 0.484237 0.163780 0.8 0 0
0.576526 0.685781 0.163780 0.8 0 0
0.940001 0.319422 0.108483 0.8 0 0
0.916640 0.110671 0.163780 0.8 0 0
0.071777 0.538565 0.128466 0.8 0 0
0.277438 0.653498 0.064329 0.8 0 0
0.793420 0.029761 0.121477 0.8 0 0
0.749442 0.195628 0.132086 0.8 0 0
0.530744 0.529367 0.151141 0.8 0 0
0.554464 0.473844 0.059147 0.8 0 0
0.450388 0.551485 0.090574 0.8 0 0
0.841493 0.144656 0.163780 0.8 0 0
0.498435 0.497944 0.094344 0.8 0 0
0.872866 0.182889 0.059147 0.8 0 0
0.639136 0.648076 0.097033 0.8 0 0
0.455913 0.560094 0.074350 0.8 0 0
0.505363 0.646277 0.145509 0.8 0 0
0.878111 0.257573 0.163780 0.8 0 0
0.471678 0.571704 0.097694 0.8 0 0
0.760525 0.037606 0.137049 0.8 0 0
0.579106 0.510869 0.145075 0.8 0 0
0.344515 0.660768 0.151789 0.8 0 0
0.244167 0.551427 0.132789 0.8 0 0
0.224708 0.630000 0.172605 0.8 0 0
0.502373 0.538142 0.032525 0.8 0 0
0.920623 0.071928 0.059147 0.8 0 0
0.836242 0.548202 0.060811 0.8 0 0
0.415208 0.567590 0.124610 0.8 0 0
0.833396 0.145852 0.056416 0.8 0 0
0.288155 0.553605 0.085478 0.8 0 0
0.516587 0.658952 0.135582 0.8 0 0
0.932493 0.204963 0.059147 0.8 0 0
0.795705 0.452451 0.123344 0.8 0 0
0.357260 0.620755 0.067381 0.8 0 0
0.462306 0.594236 0.062294 0.8 0 0
0.923784 0.116065 0.167416 0.8 0 0
0.833763 0.459536 0.056416 0.8 0 0
0.890506 0.316191 0.163780 0.8 0 0
0.578880 0.627017 0.131505 0.8 0 0
0.905592 0.395716 0.149926 0.8 0 0
0.895216 0.420727 0.088899 0.8 0 0
0.679682 0.680404 0.085312 0.8 0 0
0.951291 0.095342 0.056416 0.8 0 0
0.210041 0.617009 0.048402 0.8 0 0
0.898529 0.062021 0.167416 0.8 0 0
0.773713 0.343082 0.059147 0.8 0 0
0.753852 0.299156 0.117656 0.8 0 0
0.942739 0.231921 0.056416 0.8 0 0
0.398469 0.703714 0.130222 0.8 0 0
0.957443 0.164181 0.163780 0.8 0 0
0.753417 0.365504 0.062345 0.8 0 0
0.559399 0.450795 0.163057 0.8 0 0
0.626101 0.663730 0.091682 0.8 0 0
0.835032 0.140029 0.059147 0.8 0 0
0.477468 0.661160 0.085455 0.8 0 0
0.466650 0.627714 0.108753 0.8 0 0
0.486200 0.591281 0.080101 0.8 0 0
0.405682 0.650993 0.067344 0.8 0 0
0.612893 0.591354 0.195923 0.8 0 0
0.584229 0.437225 0.118726 0.8 0 0
0.511238 0.653922 0.103775 0.8 0 0
0.584778 0.613921 0.179034 0.8 0 0
0.677289 0.584355 0.059147 0.8 0 0
0.079238 0.647353 0.139482 0.8 0 0
0.281429 0.577771 0.142396 0.8 0 0
0.671854 0.560963 0.059147 0.8 0 0
0.858480 0.121056 0.055045 0.8 0 0
0.607018 0.487902 0.061537 0.8 0 0
0.708149 0.074471 0.156766 0.8 0 0
0.106655 0.690077 0.140483 0.8 0 0
0.082214 0.641559 0.055753 0.8 0 0
0.729375 0.131450 0.154759 0.8 0 0
0.727335 0.109994 0.163780 0.8 0 0
0.974855 0.081515 0.111790 0.8 0 0
0.829463 0.452536 0.059147 0.8 0 0
0.652839 0.708593 0.108415 0.8 0 0
0.636269 0.406102 0.147046 0.8 0 0
0.870631 0.205563 0.059147 0.8 0 0
0.893395 0.319378 0.059147 0.8 0 0
0.283999 0.532858 0.092907 0.8 0 0
0.639136 0.566389 0.129870 0.8 0 0
0.398770 0.595720 0.090297 0.8 0 0
0.961000 0.070251 0.065875 0.8 0 0
0.100517 0.692016 0.087115 0.8 0 0
0.749012 0.366605 0.150729 0.8 0 0
0.910411 0.353259 0.167416 0.8 0 0
0.626652 0.414052 0.115662 0.8 0 0
0.085804 0.672944 0.096787 0.8 0 0
0.535258 0.542262 0.140281 0.8 0 0
0.211031 0.692016 0.133666 0.8 0 0
0.859072 0.497110 0.148911 0.8 0 0
0.141353 0.692016 0.086221 0.8 0 0
0.488458 0.649639 0.082842 0.8 0 0
0.911884 0.050044 0.059147 0.8 0 0
0.677719 0.462401 0.059147 0.8 0 0
0.776299 0.541806 0.163780 0.8 0 0
0.714680 0.606411 0.137110 0.8 0 0
0.732630 0.398289 0.060581 0.8 0 0
0.816211 0.505100 0.059147 0.8 0 0
0.870445 0.272382 0.163780 0.8 0 0
0.765567 0.292293 0.078356 0.8 0 0
0.363279 0.572498 0.088167 0.8 0 0
0.897453 0.105178 0.163780 0.8 0 0
0.350241 0.662959 0.109571 0.8 0 0
0.865402 0.321633 0.163780 0.8 0 0
0.777705 0.589004 0.117623 0.8 0 0
0.807718 0.432496 0.163780 0.8 0 0
0.553794 0.598464 0.044583 0.8 0 0
0.469479 0.529653 0.172453 0.8 0 0
0.685086 0.630496 0.070917 0.8 0 0
0.932575 0.332217 0.082019 0.8 0 0
0.040989 0.708268 0.120518 0.8 0 0
0.594688 0.563503 0.031034 0.8 0 0
0.372328 0.595138 0.154185 0.8 0 0
0.496390 0.643339 0.053040 0.8 0 0
0.469479 0.507105 0.137875 0.8 0 0
0.267037 0.692016 0.086203 0.8 0 0
0.303783 0.650501 0.134786 0.8 0 0
0.770351 0.069673 0.163780 0.8 0 0
0.880719 0.390447 0.056416 0.8 0 0
0.209908 0.607591 0.066384 0.8 0 0
0.629284 0.406235 0.124227 0.8 0 0
0.904515 0.354843 0.167416 0.8 0 0
0.609060 0.440752 0.092677 0.8 0 0
0.767656 0.441685 0.163780 0.8 0 0
0.681110 0.367994 0.126008 0.8 0 0
0.713978 0.086156 0.163780 0.8 0 0
0.281162 0.553061 0.136751 0.8 0 0
0.198991 0.605432 0.156866 0.8 0 0
0.804746 0.289576 0.163780 0.8 0 0
0.618975 0.465611 0.163780 0.8 0 0
0.400058 0.690755 0.137329 0.8 0 0
0.538593 0.651215 0.122252 0.8 0 0
0.676110 0.373458 0.098427 0.8 0 0
0.557210 0.493583 0.080098 0.8 0 0
0.169947 0.692016 0.102061 0.8 0 0
0.615944 0.496480 0.133366 0.8 0 0
0.480152 0.536751 0.049666 0.8 0 0
0.814896 0.310566 0.059147 0.8 0 0
0.898821 0.048296 0.059147 0.8 0 0
0.516635 0.674006 0.059147 0.8 0 0
0.913381 0.262346 0.167416 0.8 0 0
0.778018 0.544460 0.059147 0.8 0 0
0.312938 0.569634 0.159723 0.8 0 0
0.482597 0.515267 0.159184 0.8 0 0
0.961875 0.145485 0.140312 0.8 0 0
0.471250 0.597524 0.044980 0.8 0 0
0.924839 0.358194 0.074326 0.8 0 0
0.808993 0.655619 0.110841 0.8 0 0
0.396325 0.692016 0.095300 0.8 0 0
0.442883 0.576378 0.059147 0.8 0 0
0.889928 0.431193 0.095442 0.8 0 0
0.491582 0.643293 0.169021 0.8 0 0
0.244996 0.536207 0.128872 0.8 0 0
0.260089 0.603416 0.156462 0.8 0 0
0.870090 0.513007 0.104585 0.8 0 0
0.406572 0.623337 0.158299 0.8 0 0
0.939686 0.325691 0.139684 0.8 0 0
0.924196 0.355458 0.153851 0.8 0 0
0.823045 0.037286 0.150606 0.8 0 0
0.889769 0.440399 0.089534 0.8 0 0
0.848183 0.133603 0.166244 0.8 0 0
0.852294 0.584188 0.100410 0.8 0 0
0.756456 0.213338 0.159879 0.8 0 0
0.578673 0.665317 0.124258 0.8 0 0
0.230621 0.600993 0.067549 0.8 0 0
0.628026 0.495612 0.136201 0.8 0 0
0.826983 0.306279 0.163780 0.8 0 0
0.649113 0.466724 0.059147 0.8 0 0
0.673256 0.369226 0.118765 0.8 0 0
0.831583 0.157586 0.056416 0.8 0 0
0.583797 0.528339 0.057630 0.8 0 0
0.757754 0.423734 0.164482 0.8 0 0
0.724307 0.112873 0.163248 0.8 0 0
0.701468 0.507656 0.163780 0.8 0 0
0.804450 0.075832 0.163780 0.8 0 0
0.864723 0.485037 0.089315 0.8 0 0
0.481470 0.508255 0.079276 0.8 0 0
0.471808 0.562145 0.160015 0.8 0 0
0.938125 0.101952 0.167416 0.8 0 0
0.362999 0.580742 0.055981 0.8 0 0
0.401597 0.616328 0.080928 0.8 0 0
0.582969 0.440516 0.093448 0.8 0 0
0.462306 0.600563 0.165520 0.8 0 0
0.413454 0.550486 0.059147 0.8 0 0
0.509691 0.441585 0.108843 0.8 0 0
0.844973 0.234008 0.163780 0.8 0 0
0.630862 0.583833 0.155827 0.8 0 0
0.763171 0.360656 0.163780 0.8 0 0
0.510041 0.440146 0.128268 0.8 0 0
0.497019 0.362836 0.112727 0.8 0 0
0.534624 0.537938 0.082483 0.8 0 0
0.625693 0.410962 0.110411 0.8 0 0
0.483736 0.571341 0.190853 0.8 0 0
0.576847 0.656921 0.093979 0.8 0 0
0.543677 0.697299 0.071615 0.8 0 0
0.235252 0.558926 0.147440 0.8 0 0
0.812118 0.582007 0.092771 0.8 0 0
0.468117 0.687424 0.163780 0.8 0 0
0.469227 0.578064 0.133240 0.8 0 0
0.864633 0.223303 0.167416 0.8 0 0
0.287140 0.662959 0.130871 0.8 0 0
0.778107 0.044099 0.056416 0.8 0 0
0.763368 0.171832 0.167416 0.8 0 0
0.757182 0.052230 0.167416 0.8 0 0
0.839910 0.232160 0.059147 0.8 0 0
0.803928 0.427303 0.163780 0.8 0 0
0.611532 0.657120 0.129598 0.8 0 0
0.854314 0.556515 0.059147 0.8 0 0
0.423496 0.703543 0.130803 0.8 0 0
0.818028 0.578788 0.140592 0.8 0 0
0.332131 0.662959 0.109047 0.8 0 0
0.823306 0.462501 0.066807 0.8 0 0
0.545042 0.520611 0.043932 0.8 0 0
0.025000 0.619567 0.164902 0.8 0 0
0.542872 0.558897 0.142913 0.8 0 0
0.472275 0.666053 0.108279 0.8 0 0
0.358214 0.678562 0.140483 0.8 0 0
0.759447 0.042984 0.154084 0.8 0 0
0.055709 0.633234 0.052251 0.8 0 0
0.835305 0.192196 0.167416 0.8 0 0
0.178478 0.645157 0.142089 0.8 0 0
0.692799 0.617753 0.121711 0.8 0 0
0.514983 0.447248 0.151472 0.8 0 0
0.494648 0.500058 0.108689 0.8 0 0
0.911238 0.044479 0.152247 0.8 0 0
0.730581 0.402564 0.095561 0.8 0 0
0.819812 0.453015 0.059147 0.8 0 0
0.511265 0.648165 0.144046 0.8 0 0
0.214125 0.597267 0.173583 0.8 0 0
0.483577 0.530445 0.109175 0.8 0 0
0.803862 0.407605 0.059147 0.8 0 0
0.619577 0.529379 0.186980 0.8 0 0
0.701261 0.629660 0.121711 0.8 0 0
0.409630 0.656679 0.113317 0.8 0 0
0.029818 0.674674 0.113626 0.8 0 0
0.441830 0.619772 0.163780 0.8 0 0
0.758137 0.355321 0.155051 0.8 0 0
0.629708 0.412943 0.125640 0.8 0 0
0.937842 0.036909 0.121926 0.8 0 0
0.137373 0.655136 0.123976 0.8 0 0
0.584177 0.502216 0.114626 0.8 0 0
0.465823 0.636989 0.112095 0.8 0 0
0.111228 0.672637 0.128233 0.8 0 0
0.437311 0.492257 0.069913 0.8 0 0
0.867190 0.464267 0.137997 0.8 0 0
0.429695 0.516272 0.163780 0.8 0 0
0.290771 0.552044 0.089229 0.8 0 0
0.170471 0.583292 0.168747 0.8 0 0
0.042537 0.614382 0.157145 0.8 0 0
0.639309 0.566976 0.158538 0.8 0 0
0.475503 0.618840 0.153567 0.8 0 0
0.551666 0.665707 0.121046 0.8 0 0
0.233330 0.565926 0.115051 0.8 0 0
0.879980 0.038808 0.072415 0.8 0 0
0.200779 0.673459 0.099396 0.8 0 0
0.785408 0.366885 0.056416 0.8 0 0
0.927955 0.215484 0.167416 0.8 0 0
0.460838 0.607049 0.175130 0.8 0 0
0.366602 0.581223 0.167887 0.8 0 0
0.668483 0.341206 0.107097 0.8 0 0
0.442492 0.515486 0.136090 0.8 0 0
0.370044 0.549870 0.129023 0.8 0 0
0.639136 0.520055 0.161398 0.8 0 0
0.802923 0.457364 0.097709 0.8 0 0
0.788607 0.506300 0.059147 0.8 0 0
0.329367 0.628286 0.069683 0.8 0 0
0.639136 0.627574 0.078077 0.8 0 0
0.749988 0.609188 0.101764 0.8 0 0
0.678568 0.377080 0.098427 0.8 0 0
0.883317 0.438976 0.086757 0.8 0 0
0.532512 0.593280 0.198309 0.8 0 0
0.469479 0.554217 0.084404 0.8 0 0
0.881709 0.146925 0.163780 0.8 0 0
0.589062 0.621239 0.150281 0.8 0 0
0.573565 0.440883 0.092251 0.8 0 0
0.455553 0.554104 0.084280 0.8 0 0
0.560023 0.611154 0.044995 0.8 0 0
0.622006 0.583853 0.155679 0.8 0 0
0.971086 0.211774 0.114492 0.8 0 0
0.295682 0.653402 0.128710 0.8 0 0
0.589629 0.656443 0.095542 0.8 0 0
0.765393 0.443434 0.059147 0.8 0 0
0.113524 0.554117 0.084248 0.8 0 0
0.660648 0.556379 0.059147 0.8 0 0
0.425635 0.671839 0.059147 0.8 0 0
0.629990 0.601874 0.084624 0.8 0 0
0.627917 0.398197 0.119724 0.8 0 0
0.188434 0.644754 0.081047 0.8 0 0
0.578319 0.645220 0.095285 0.8 0 0
0.727386 0.099399 0.059147 0.8 0 0
0.499082 0.642581 0.151003 0.8 0 0
0.437910 0.591337 0.070917 0.8 0 0
0.795971 0.235271 0.056416 0.8 0 0
0.899007 0.405321 0.166152 0.8 0 0
0.224682 0.653027 0.093916 0.8 0 0
0.739551 0.160134 0.152230 0.8 0 0
0.639418 0.467250 0.163780 0.8 0 0
0.779241 0.379247 0.059147 0.8 0 0
0.518089 0.620797 0.189594 0.8 0 0
0.623411 0.697746 0.073004 0.8 0 0
0.163179 0.692016 0.129687 0.8 0 0
0.585863 0.554442 0.179558 0.8 0 0
0.153122 0.675935 0.082896 0.8 0 0
0.393041 0.552905 0.136372 0.8 0 0
0.560365 0.544293 0.194685 0.8 0 0
0.928767 0.375923 0.107965 0.8 0 0
0.639136 0.524728 0.139599 0.8 0 0
0.474343 0.437759 0.102457 0.8 0 0
0.264186 0.669780 0.087334 0.8 0 0
0.088233 0.614863 0.048399 0.8 0 0
0.673977 0.398196 0.092696 0.8 0 0
0.838649 0.037085 0.150763 0.8 0 0
0.494955 0.419772 0.098427 0.8 0 0
0.764903 0.429180 0.094038 0.8 0 0
0.743241 0.482674 0.163780 0.8 0 0
0.678339 0.692862 0.080925 0.8 0 0
0.814646 0.569049 0.059147 0.8 0 0
0.494843 0.652321 0.113920 0.8 0 0
0.695197 0.380410 0.139522 0.8 0 0
0.474750 0.527600 0.068405 0.8 0 0
0.470023 0.596130 0.142126 0.8 0 0
0.761322 0.338371 0.146079 0.8 0 0
0.856034 0.364294 0.167416 0.8 0 0
0.529431 0.653769 0.110390 0.8 0 0
0.958383 0.069932 0.056416 0.8 0 0
0.842574 0.362110 0.059147 0.8 0 0
0.898285 0.413842 0.153151 0.8 0 0
0.467853 0.502968 0.112167 0.8 0 0
0.908444 0.161200 0.059147 0.8 0 0
0.193532 0.599811 0.174093 0.8 0 0
0.092239 0.688546 0.082896 0.8 0 0
0.517551 0.562194 0.079044 0.8 0 0
0.104919 0.533086 0.092884 0.8 0 0
0.335853 0.665472 0.078771 0.8 0 0
0.069295 0.555709 0.142609 0.8 0 0
0.908205 0.040750 0.102319 0.8 0 0
0.546380 0.504912 0.125630 0.8 0 0
0.635607 0.623241 0.072111 0.8 0 0
0.372945 0.531286 0.093062 0.8 0 0
0.429386 0.650184 0.059147 0.8 0 0
0.921371 0.209697 0.167416 0.8 0 0
0.675659 0.398913 0.112104 0.8 0 0
0.902285 0.200199 0.056416 0.8 0 0
0.811339 0.130442 0.056416 0.8 0 0
0.907614 0.302056 0.059147 0.8 0 0
0.597367 0.640343 0.174658 0.8 0 0
0.079243 0.662959 0.108354 0.8 0 0
0.639956 0.435489 0.063708 0.8 0 0
0.706148 0.462364 0.163780 0.8 0 0
0.834344 0.107680 0.163780 0.8 0 0
0.762910 0.306555 0.124004 0.8 0 0
0.922519 0.344466 0.163780 0.8 0 0
0.763181 0.044833 0.161017 0.8 0 0
0.589818 0.457797 0.059147 0.8 0 0
0.400398 0.705462 0.098412 0.8 0 0
0.512902 0.667229 0.162622 0.8 0 0
0.583036 0.616116 0.123131 0.8 0 0
0.446171 0.707686 0.105639 0.8 0 0
0.845737 0.549329 0.058346 0.8 0 0
0.908931 0.355515 0.059147 0.8 0 0
0.757195 0.126551 0.167416 0.8 0 0
0.502365 0.486746 0.163780 0.8 0 0
0.673882 0.428377 0.060356 0.8 0 0
0.688100 0.472151 0.059147 0.8 0 0
0.772772 0.367215 0.163780 0.8 0 0
0.088060 0.555526 0.081165 0.8 0 0
0.717192 0.128534 0.101246 0.8 0 0
0.639136 0.527962 0.176297 0.8 0 0
0.959659 0.213661 0.131837 0.8 0 0
0.779254 0.260531 0.056416 0.8 0 0
0.398993 0.594394 0.173007 0.8 0 0
0.612450 0.605118 0.181566 0.8 0 0
0.500675 0.670221 0.059147 0.8 0 0
0.795554 0.154424 0.056416 0.8 0 0
0.870979 0.296941 0.056416 0.8 0 0
0.570899 0.538530 0.032320 0.8 0 0
0.964768 0.142117 0.113593 0.8 0 0
0.070550 0.643417 0.166519 0.8 0 0
0.832080 0.193517 0.056416 0.8 0 0
0.471934 0.489438 0.066557 0.8 0 0
0.607371 0.513036 0.071424 0.8 0 0
0.467234 0.460610 0.059147 0.8 0 0
0.754918 0.205100 0.161716 0.8 0 0
0.631245 0.592754 0.143760 0.8 0 0
0.937037 0.261652 0.163780 0.8 0 0
0.331956 0.588640 0.151199 0.8 0 0
0.861201 0.129184 0.168262 0.8 0 0
0.400287 0.566331 0.118231 0.8 0 0
0.320319 0.670038 0.135573 0.8 0 0
0.915449 0.041680 0.121811 0.8 0 0
0.864659 0.103721 0.059147 0.8 0 0
0.627924 0.624812 0.063262 0.8 0 0
0.629759 0.488467 0.115587 0.8 0 0
0.829426 0.282392 0.056416 0.8 0 0
0.761300 0.340352 0.065380 0.8 0 0
0.547641 0.664709 0.068536 0.8 0 0
0.167948 0.567065 0.101601 0.8 0 0
0.366086 0.664749 0.082896 0.8 0 0
0.832142 0.103830 0.059147 0.8 0 0
0.521980 0.490630 0.092376 0.8 0 0
0.370660 0.589263 0.171231 0.8 0 0
0.740155 0.103063 0.167416 0.8 0 0
0.370850 0.685077 0.082896 0.8 0 0
0.462306 0.592486 0.051708 0.8 0 0
0.477718 0.647361 0.121987 0.8 0 0
0.807029 0.098045 0.163780 0.8 0 0
0.869133 0.404526 0.163780 0.8 0 0
0.658597 0.523143 0.059147 0.8 0 0
0.436543 0.446100 0.147721 0.8 0 0
0.713559 0.121778 0.119497 0.8 0 0
0.136612 0.572720 0.162191 0.8 0 0
0.365441 0.598331 0.155442 0.8 0 0
0.500371 0.492132 0.136760 0.8 0 0
0.479969 0.610029 0.143830 0.8 0 0
0.874182 0.388657 0.056416 0.8 0 0
0.030659 0.557138 0.078760 0.8 0 0
0.920275 0.076946 0.059147 0.8 0 0
0.804725 0.176346 0.163780 0.8 0 0
0.274425 0.692016 0.138701 0.8 0 0
0.923115 0.343676 0.059147 0.8 0 0
0.809627 0.574004 0.156335 0.8 0 0
0.963338 0.105454 0.126801 0.8 0 0
0.680409 0.691304 0.135237 0.8 0 0
0.837444 0.037843 0.137870 0.8 0 0
0.789496 0.470075 0.163780 0.8 0 0
0.724552 0.045754 0.121913 0.8 0 0
0.954975 0.263004 0.079673 0.8 0 0
0.447492 0.655267 0.123325 0.8 0 0
0.586008 0.663250 0.134774 0.8 0 0
0.895233 0.190527 0.056416 0.8 0 0
0.734195 0.043791 0.146077 0.8 0 0
0.395817 0.654232 0.158454 0.8 0 0
0.686608 0.474819 0.059147 0.8 0 0
0.249975 0.692016 0.122576 0.8 0 0
0.577469 0.708322 0.115330 0.8 0 0
0.383552 0.622571 0.155792 0.8 0 0
0.182962 0.547931 0.113973 0.8 0 0
0.407164 0.566627 0.159878 0.8 0 0
0.681814 0.644559 0.078003 0.8 0 0
0.489519 0.568145 0.162049 0.8 0 0
0.580292 0.695911 0.067048 0.8 0 0
0.520699 0.622155 0.152095 0.8 0 0
0.545471 0.473055 0.163780 0.8 0 0
0.570428 0.594167 0.199272 0.8 0 0
0.948087 0.230654 0.163780 0.8 0 0
0.880714 0.457035 0.125799 0.8 0 0
0.724005 0.122297 0.150178 0.8 0 0
0.763812 0.254792 0.063796 0.8 0 0
0.794478 0.411742 0.167416 0.8 0 0
0.606400 0.665790 0.120010 0.8 0 0
0.124062 0.531865 0.093005 0.8 0 0
0.353924 0.586699 0.073635 0.8 0 0
0.646390 0.652881 0.163780 0.8 0 0
0.856519 0.039099 0.078462 0.8 0 0
0.220333 0.662959 0.113994 0.8 0 0
0.445504 0.479760 0.059147 0.8 0 0
0.182989 0.571039 0.161064 0.8 0 0
0.859014 0.331536 0.167416 0.8 0 0
0.039308 0.685774 0.105437 0.8 0 0
0.473405 0.535639 0.110112 0.8 0 0
0.602612 0.527127 0.063892 0.8 0 0
0.755123 0.245684 0.137980 0.8 0 0
0.741100 0.183326 0.134654 0.8 0 0
0.505883 0.616060 0.047533 0.8 0 0
0.319812 0.605786 0.156937 0.8 0 0
0.335039 0.664496 0.146228 0.8 0 0
0.143338 0.521200 0.123577 0.8 0 0
0.399518 0.575391 0.087978 0.8 0 0
0.595586 0.544536 0.139969 0.8 0 0
0.753749 0.313403 0.102538 0.8 0 0
0.821596 0.516566 0.059147 0.8 0 0
0.932746 0.110983 0.167416 0.8 0 0
0.602654 0.568092 0.034267 0.8 0 0
0.629850 0.521799 0.095289 0.8 0 0
0.469279 0.603419 0.148701 0.8 0 0
0.873259 0.476065 0.103921 0.8 0 0
0.788797 0.057377 0.056416 0.8 0 0
0.904227 0.383837 0.056416 0.8 0 0
0.349480 0.626255 0.050129 0.8 0 0
0.197483 0.662959 0.097372 0.8 0 0
0.709835 0.116902 0.114616 0.8 0 0
0.663897 0.424103 0.162741 0.8 0 0
0.967004 0.160421 0.085711 0.8 0 0
0.252815 0.569336 0.129012 0.8 0 0
0.585003 0.502390 0.139096 0.8 0 0
0.169123 0.565212 0.155287 0.8 0 0
0.092197 0.573330 0.060917 0.8 0 0
0.874140 0.479296 0.111891 0.8 0 0
0.898724 0.408780 0.069450 0.8 0 0
0.910164 0.164733 0.059147 0.8 0 0
0.867080 0.472860 0.081196 0.8 0 0
0.816596 0.572508 0.061802 0.8 0 0
0.525012 0.489152 0.123032 0.8 0 0
0.870045 0.243652 0.163780 0.8 0 0
0.959832 0.119694 0.159189 0.8 0 0
0.221078 0.581603 0.055465 0.8 0 0
0.756290 0.215654 0.069841 0.8 0 0
0.942713 0.172471 0.167416 0.8 0 0
0.456140 0.664481 0.146250 0.8 0 0
0.502313 0.599713 0.141027 0.8 0 0
0.867973 0.429719 0.056416 0.8 0 0
0.928747 0.361919 0.132246 0.8 0 0
0.474388 0.501226 0.117859 0.8 0 0
0.577071 0.597482 0.141555 0.8 0 0
0.917356 0.172702 0.163780 0.8 0 0
0.038146 0.553601 0.138059 0.8 0 0
0.039308 0.663484 0.107574 0.8 0 0
0.731828 0.406515 0.163780 0.8 0 0
0.966684 0.180124 0.086835 0.8 0 0
0.861333 0.469934 0.064470 0.8 0 0
0.182749 0.581126 0.077780 0.8 0 0
0.826673 0.335721 0.163780 0.8 0 0
0.289970 0.673297 0.098575 0.8 0 0
0.765416 0.268690 0.157799 0.8 0 0
0.509585 0.613081 0.114690 0.8 0 0
0.643700 0.600455 0.059147 0.8 0 0
0.461391 0.556502 0.138844 0.8 0 0
0.483458 0.608456 0.067401 0.8 0 0
0.599775 0.623680 0.130096 0.8 0 0
0.701884 0.521389 0.163780 0.8 0 0
0.072018 0.653698 0.095543 0.8 0 0
0.319104 0.592742 0.172675 0.8 0 0
0.129659 0.575209 0.084122 0.8 0 0
0.743216 0.422105 0.110470 0.8 0 0
0.904779 0.298620 0.059147 0.8 0 0
0.879329 0.190700 0.163780 0.8 0 0
0.495383 0.559090 0.025218 0.8 0 0
0.507123 0.612720 0.111931 0.8 0 0
0.889051 0.037489 0.079417 0.8 0 0
0.786577 0.040044 0.085859 0.8 0 0
0.678317 0.384875 0.126466 0.8 0 0
0.906182 0.082396 0.163780 0.8 0 0
0.458970 0.586846 0.170226 0.8 0 0
0.835632 0.577716 0.143851 0.8 0 0
0.712697 0.386530 0.063410 0.8 0 0
0.803611 0.150007 0.163780 0.8 0 0
0.506041 0.608420 0.044238 0.8 0 0
0.623877 0.568006 0.062017 0.8 0 0
0.502427 0.666892 0.161522 0.8 0 0
0.882440 0.441916 0.096525 0.8 0 0
0.648567 0.631861 0.163780 0.8 0 0
0.352416 0.569837 0.159926 0.8 0 0
0.780586 0.576882 0.155596 0.8 0 0
0.437469 0.664623 0.077496 0.8 0 0
0.443541 0.653104 0.163780 0.8 0 0
0.317756 0.566890 0.102474 0.8 0 0
0.031219 0.628463 0.153771 0.8 0 0
0.067227 0.591727 0.070756 0.8 0 0
0.449953 0.461508 0.060318 0.8 0 0
0.857706 0.228012 0.163780 0.8 0 0
0.644333 0.590713 0.059147 0.8 0 0
0.853709 0.528273 0.059147 0.8 0 0
0.898034 0.138767 0.059147 0.8 0 0
0.040986 0.692016 0.120539 0.8 0 0
0.496618 0.612900 0.110594 0.8 0 0
0.933681 0.330111 0.085366 0.8 0 0
0.778647 0.430291 0.059147 0.8 0 0
0.573278 0.438027 0.101580 0.8 0 0
0.639136 0.589933 0.111519 0.8 0 0
0.671745 0.619902 0.101764 0.8 0 0
0.565343 0.624846 0.063517 0.8 0 0
0.333358 0.658196 0.154501 0.8 0 0
0.883401 0.449738 0.091183 0.8 0 0
0.473105 0.701077 0.084020 0.8 0 0
0.442901 0.561648 0.151526 0.8 0 0
0.947272 0.165244 0.163780 0.8 0 0
0.866820 0.462736 0.147329 0.8 0 0
0.218623 0.578406 0.080492 0.8 0 0
0.796425 0.111976 0.056416 0.8 0 0
0.773563 0.369148 0.167416 0.8 0 0
0.638339 0.617849 0.098564 0.8 0 0
0.946943 0.276247 0.158847 0.8 0 0
0.916224 0.219420 0.167416 0.8 0 0
0.501454 0.622546 0.169214 0.8 0 0
0.045671 0.692016 0.105525 0.8 0 0
0.172200 0.674762 0.140483 0.8 0 0
0.893071 0.435667 0.089451 0.8 0 0
0.667201 0.509148 0.059147 0.8 0 0
0.104582 0.650736 0.134436 0.8 0 0
0.939253 0.272768 0.059147 0.8 0 0
0.853401 0.549251 0.163673 0.8 0 0
0.343621 0.567013 0.121688 0.8 0 0
0.221839 0.598605 0.068021 0.8 0 0
0.604148 0.593804 0.082051 0.8 0 0
0.652816 0.610136 0.163780 0.8 0 0
0.853911 0.029131 0.099302 0.8 0 0
0.729880 0.133860 0.137824 0.8 0 0
0.477823 0.529998 0.074955 0.8 0 0
0.040028 0.647717 0.163655 0.8 0 0
0.663174 0.394413 0.105017 0.8 0 0
0.606646 0.509887 0.143805 0.8 0 0
0.234571 0.549004 0.123378 0.8 0 0
0.768535 0.301435 0.056416 0.8 0 0
0.400226 0.531641 0.093027 0.8 0 0
0.455036 0.583222 0.059147 0.8 0 0
0.286780 0.549948 0.095432 0.8 0 0
0.806390 0.194567 0.056416 0.8 0 0
0.728693 0.653503 0.115730 0.8 0 0
0.903913 0.151676 0.163780 0.8 0 0
0.951761 0.049382 0.136198 0.8 0 0
0.847018 0.335838 0.163780 0.8 0 0
0.962075 0.151978 0.138840 0.8 0 0
0.625897 0.683237 0.059147 0.8 0 0
0.970298 0.202125 0.103288 0.8 0 0
0.636849 0.546491 0.072423 0.8 0 0
0.745896 0.180425 0.135195 0.8 0 0
0.816590 0.561359 0.163780 0.8 0 0
0.864155 0.111330 0.167416 0.8 0 0
0.553375 0.597467 0.025789 0.8 0 0
0.761643 0.042192 0.135122 0.8 0 0
0.325630 0.656678 0.113731 0.8 0 0
0.111081 0.586969 0.073455 0.8 0 0
0.924869 0.345784 0.166508 0.8 0 0
0.398779 0.596781 0.090262 0.8 0 0
0.502151 0.422305 0.126466 0.8 0 0
0.638790 0.582250 0.066084 0.8 0 0
0.575202 0.570732 0.191026 0.8 0 0
0.894759 0.167106 0.163780 0.8 0 0
0.428019 0.668556 0.059147 0.8 0 0
0.599436 0.506519 0.127260 0.8 0 0
0.793887 0.471514 0.059147 0.8 0 0
0.925825 0.369432 0.090857 0.8 0 0
0.859039 0.050902 0.167416 0.8 0 0
0.867568 0.572279 0.064277 0.8 0 0
0.408330 0.666393 0.120780 0.8 0 0
0.285659 0.552733 0.087573 0.8 0 0
0.924082 0.352822 0.074536 0.8 0 0
0.812141 0.411256 0.056416 0.8 0 0
0.565864 0.663881 0.092328 0.8 0 0
0.436487 0.691960 0.163780 0.8 0 0
0.418685 0.555002 0.163780 0.8 0 0
0.461136 0.580146 0.159673 0.8 0 0
0.565792 0.698167 0.074431 0.8 0 0
0.755011 0.200909 0.163780 0.8 0 0
0.400886 0.664258 0.082896 0.8 0 0
0.512050 0.556846 0.141793 0.8 0 0
0.883444 0.360579 0.059147 0.8 0 0
0.964405 0.135117 0.106894 0.8 0 0
0.520448 0.558711 0.047049 0.8 0 0
0.469479 0.551919 0.095142 0.8 0 0
0.611679 0.596241 0.142079 0.8 0 0
0.400920 0.678909 0.140483 0.8 0 0
0.483577 0.559863 0.170738 0.8 0 0
0.079985 0.551132 0.132075 0.8 0 0
0.816258 0.160220 0.056416 0.8 0 0
0.142631 0.553552 0.137940 0.8 0 0
0.610839 0.328674 0.102790 0.8 0 0
0.370966 0.659324 0.153377 0.8 0 0
0.769772 0.427190 0.155932 0.8 0 0
0.598899 0.489740 0.067543 0.8 0 0
0.589083 0.566781 0.193071 0.8 0 0
0.895880 0.058025 0.059147 0.8 0 0
0.352589 0.612827 0.048396 0.8 0 0
0.298338 0.630082 0.050940 0.8 0 0
0.851588 0.061539 0.059147 0.8 0 0
0.577684 0.324088 0.126466 0.8 0 0
0.184058 0.690511 0.082896 0.8 0 0
0.753492 0.237244 0.085716 0.8 0 0
0.554284 0.580692 0.190126 0.8 0 0
0.600561 0.329331 0.107132 0.8 0 0
0.325484 0.547994 0.118260 0.8 0 0
0.821888 0.134377 0.059147 0.8 0 0
0.489434 0.537154 0.046678 0.8 0 0
0.917945 0.104958 0.056416 0.8 0 0
0.647948 0.457723 0.059147 0.8 0 0
0.858632 0.110291 0.059147 0.8 0 0
0.667829 0.539491 0.163780 0.8 0 0
0.931200 0.237231 0.059147 0.8 0 0
0.133756 0.565931 0.111611 0.8 0 0
0.492017 0.579628 0.036173 0.8 0 0
0.957750 0.229660 0.131864 0.8 0 0
0.522839 0.452741 0.163780 0.8 0 0
0.342571 0.662959 0.136887 0.8 0 0
0.529390 0.552953 0.044466 0.8 0 0
0.725881 0.078547 0.167416 0.8 0 0
0.413540 0.613336 0.066392 0.8 0 0
0.753994 0.504560 0.059147 0.8 0 0
0.224726 0.662959 0.138648 0.8 0 0
0.673476 0.415206 0.119341 0.8 0 0
0.837032 0.107880 0.167416 0.8 0 0
0.161862 0.589047 0.151471 0.8 0 0
0.460411 0.657039 0.067880 0.8 0 0
0.767675 0.656310 0.102148 0.8 0 0
0.871509 0.092690 0.163780 0.8 0 0
0.469479 0.537328 0.138497 0.8 0 0
0.599810 0.324414 0.126466 0.8 0 0
0.397525 0.578329 0.080568 0.8 0 0
0.812163 0.057718 0.059147 0.8 0 0
0.772278 0.392688 0.059147 0.8 0 0
0.912156 0.041304 0.147753 0.8 0 0
0.697073 0.453504 0.059147 0.8 0 0
0.640051 0.621727 0.160965 0.8 0 0
0.551708 0.587683 0.148454 0.8 0 0
0.638424 0.528552 0.093307 0.8 0 0
0.718725 0.400170 0.059147 0.8 0 0
0.413980 0.647735 0.059893 0.8 0 0
0.340965 0.598381 0.068065 0.8 0 0
0.797651 0.461001 0.163780 0.8 0 0
0.515623 0.662007 0.077364 0.8 0 0
0.622394 0.319148 0.119101 0.8 0 0
0.786651 0.093469 0.163780 0.8 0 0
0.843664 0.227010 0.056416 0.8 0 0
0.593716 0.363957 0.111442 0.8 0 0
0.728683 0.394934 0.081680 0.8 0 0
0.247490 0.548242 0.103943 0.8 0 0
0.221879 0.547935 0.111247 0.8 0 0
0.743892 0.556878 0.163780 0.8 0 0
0.237376 0.536331 0.092989 0.8 0 0
0.483577 0.532669 0.107039 0.8 0 0
0.041963 0.653693 0.158991 0.8 0 0
0.573538 0.434871 0.107402 0.8 0 0
0.963509 0.068460 0.148508 0.8 0 0
0.097482 0.640990 0.146244 0.8 0 0
0.430676 0.580656 0.056037 0.8 0 0
0.557188 0.621230 0.128462 0.8 0 0
0.613997 0.694518 0.160462 0.8 0 0
0.560150 0.622594 0.188575 0.8 0 0
0.530855 0.488705 0.104749 0.8 0 0
0.970344 0.053258 0.115084 0.8 0 0
0.517090 0.513727 0.067229 0.8 0 0
0.492976 0.449334 0.126466 0.8 0 0
0.608752 0.423045 0.108841 0.8 0 0
0.611319 0.509992 0.054249 0.8 0 0
0.509000 0.665075 0.155586 0.8 0 0
0.755949 0.242161 0.142516 0.8 0 0
0.801549 0.253354 0.056416 0.8 0 0
0.062555 0.601683 0.174468 0.8 0 0
0.594524 0.461693 0.059147 0.8 0 0
0.640547 0.473350 0.163780 0.8 0 0
0.707587 0.072721 0.156391 0.8 0 0
0.453677 0.666794 0.163780 0.8 0 0
0.411120 0.506783 0.163780 0.8 0 0
0.349413 0.548731 0.121996 0.8 0 0
0.394106 0.485578 0.094750 0.8 0 0
0.582259 0.502483 0.139135 0.8 0 0
0.859434 0.405654 0.167416 0.8 0 0
0.329030 0.553081 0.104392 0.8 0 0
0.918433 0.204912 0.167416 0.8 0 0
0.245315 0.578834 0.080065 0.8 0 0
0.560815 0.495798 0.085732 0.8 0 0
0.519174 0.514282 0.163454 0.8 0 0
0.565970 0.598174 0.141263 0.8 0 0
0.398631 0.585888 0.132117 0.8 0 0
0.804952 0.256909 0.059147 0.8 0 0
0.304352 0.517401 0.104020 0.8 0 0
0.503180 0.499698 0.100074 0.8 0 0
0.813836 0.288496 0.163780 0.8 0 0
0.790208 0.323079 0.056416 0.8 0 0
0.522796 0.570688 0.191038 0.8 0 0
0.719812 0.045853 0.115991 0.8 0 0
0.578803 0.568455 0.192092 0.8 0 0
0.532188 0.529643 0.169847 0.8 0 0
0.653613 0.668249 0.059147 0.8 0 0
0.283878 0.549187 0.100743 0.8 0 0
0.845700 0.345217 0.056416 0.8 0 0
0.634390 0.621752 0.080458 0.8 0 0
0.458208 0.446815 0.072871 0.8 0 0
0.536366 0.662561 0.075552 0.8 0 0
0.045507 0.711739 0.099004 0.8 0 0
0.385213 0.546109 0.141312 0.8 0 0
0.129485 0.622712 0.067773 0.8 0 0
0.129618 0.662959 0.122110 0.8 0 0
0.085493 0.692016 0.122086 0.8 0 0
0.555488 0.615589 0.047169 0.8 0 0
0.121445 0.519414 0.100447 0.8 0 0
0.760369 0.335348 0.091891 0.8 0 0
0.870613 0.453405 0.062749 0.8 0 0
0.278946 0.604503 0.066856 0.8 0 0
0.514596 0.658026 0.132558 0.8 0 0
0.255818 0.549940 0.095471 0.8 0 0
0.529576 0.527531 0.038742 0.8 0 0
0.762361 0.296771 0.115697 0.8 0 0
0.848642 0.035785 0.077168 0.8 0 0
0.930613 0.048753 0.059251 0.8 0 0
0.818308 0.323696 0.163780 0.8 0 0
0.482496 0.651741 0.121008 0.8 0 0
0.478105 0.533983 0.034732 0.8 0 0
0.572515 0.490249 0.069205 0.8 0 0
0.279578 0.526496 0.127296 0.8 0 0
0.666992 0.607575 0.163780 0.8 0 0
0.857695 0.337641 0.167416 0.8 0 0
0.544177 0.508506 0.128796 0.8 0 0
0.409599 0.435637 0.113539 0.8 0 0
0.622857 0.662623 0.147577 0.8 0 0
0.247063 0.603340 0.156447 0.8 0 0
0.341138 0.606588 0.157098 0.8 0 0
0.094132 0.674686 0.105857 0.8 0 0
0.964277 0.061390 0.142677 0.8 0 0
0.583897 0.666009 0.064288 0.8 0 0
0.879889 0.365923 0.056416 0.8 0 0
0.769442 0.039283 0.116376 0.8 0 0
0.240312 0.692016 0.111998 0.8 0 0
0.632265 0.615769 0.177691 0.8 0 0
0.154444 0.547960 0.122599 0.8 0 0
0.842141 0.048506 0.059147 0.8 0 0
0.925502 0.044515 0.088577 0.8 0 0
0.631789 0.330762 0.120313 0.8 0 0
0.942804 0.320908 0.135130 0.8 0 0
0.855809 0.295941 0.167416 0.8 0 0
0.452545 0.635213 0.059147 0.8 0 0
0.768969 0.163879 0.163780 0.8 0 0
0.615093 0.497589 0.138083 0.8 0 0
0.654049 0.427898 0.059147 0.8 0 0
0.882696 0.398594 0.167416 0.8 0 0
0.494513 0.584322 0.167695 0.8 0 0
0.901367 0.102447 0.167416 0.8 0 0
0.625701 0.704722 0.127136 0.8 0 0
0.871051 0.420741 0.163780 0.8 0 0
0.776804 0.265128 0.167416 0.8 0 0
0.150065 0.611686 0.157141 0.8 0 0
0.502340 0.482988 0.163780 0.8 0 0
0.296149 0.575785 0.083263 0.8 0 0
0.776137 0.474395 0.059147 0.8 0 0
0.563508 0.602092 0.043987 0.8 0 0
0.035250 0.639192 0.147710 0.8 0 0
0.054557 0.676911 0.140483 0.8 0 0
0.844225 0.121249 0.059147 0.8 0 0
0.974177 0.122689 0.114005 0.8 0 0
0.028550 0.624894 0.068273 0.8 0 0
0.409806 0.456749 0.154753 0.8 0 0
0.483458 0.597031 0.055189 0.8 0 0
0.729238 0.059324 0.163780 0.8 0 0
0.759529 0.224608 0.163780 0.8 0 0
0.060604 0.692016 0.109499 0.8 0 0
0.764452 0.289260 0.088537 0.8 0 0
0.218441 0.551332 0.116592 0.8 0 0
0.931434 0.331126 0.068779 0.8 0 0
0.567678 0.624359 0.068736 0.8 0 0
0.737666 0.156638 0.094463 0.8 0 0
0.702766 0.078506 0.139404 0.8 0 0
0.415905 0.443965 0.082183 0.8 0 0
0.512073 0.533619 0.127531 0.8 0 0
0.121745 0.552019 0.089290 0.8 0 0
0.933926 0.299854 0.167416 0.8 0 0
0.317829 0.692016 0.099808 0.8 0 0
0.402847 0.675984 0.146441 0.8 0 0
0.402365 0.603892 0.144426 0.8 0 0
0.618573 0.589815 0.078968 0.8 0 0
0.232329 0.636583 0.149448 0.8 0 0
0.366480 0.683827 0.082896 0.8 0 0
0.512477 0.568258 0.064897 0.8 0 0
0.493998 0.585112 0.169565 0.8 0 0
0.486221 0.439030 0.124621 0.8 0 0
0.650470 0.637944 0.163780 0.8 0 0
0.639136 0.547628 0.192339 0.8 0 0
0.490203 0.453133 0.109787 0.8 0 0
0.684672 0.376064 0.113705 0.8 0 0
0.723930 0.118477 0.081572 0.8 0 0
0.453882 0.591677 0.059147 0.8 0 0
0.785628 0.432527 0.056416 0.8 0 0
0.806478 0.241232 0.163780 0.8 0 0
0.758740 0.190413 0.167416 0.8 0 0
0.837360 0.259564 0.059147 0.8 0 0
0.828089 0.248151 0.163780 0.8 0 0
0.625147 0.533628 0.110654 0.8 0 0
0.590748 0.695904 0.155912 0.8 0 0
0.638773 0.666211 0.063630 0.8 0 0
0.584180 0.505147 0.125934 0.8 0 0
0.786405 0.064209 0.056416 0.8 0 0
0.694763 0.562919 0.059147 0.8 0 0
0.511224 0.568236 0.161374 0.8 0 0
0.120437 0.606345 0.157049 0.8 0 0
0.485178 0.535287 0.176384 0.8 0 0
0.764905 0.278583 0.143187 0.8 0 0
0.796458 0.048261 0.056416 0.8 0 0
0.968514 0.186507 0.093733 0.8 0 0
0.756415 0.226948 0.088142 0.8 0 0
0.039308 0.683281 0.108411 0.8 0 0
0.444115 0.569475 0.129350 0.8 0 0
0.396616 0.580254 0.125496 0.8 0 0
0.098084 0.695515 0.099004 0.8 0 0
0.190253 0.692016 0.092395 0.8 0 0
0.626411 0.698499 0.147466 0.8 0 0
0.807304 0.135729 0.163780 0.8 0 0
0.550706 0.590700 0.030071 0.8 0 0
0.367753 0.678038 0.082896 0.8 0 0
0.767074 0.622551 0.111433 0.8 0 0
0.870340 0.355428 0.056416 0.8 0 0
0.515345 0.591150 0.080000 0.8 0 0
0.744902 0.164469 0.056416 0.8 0 0
0.762116 0.268180 0.095829 0.8 0 0
0.827906 0.277401 0.056416 0.8 0 0
0.522832 0.639400 0.175626 0.8 0 0
0.604303 0.636565 0.046072 0.8 0 0
0.097521 0.662959 0.134850 0.8 0 0
0.352723 0.579723 0.166886 0.8 0 0
0.047835 0.632219 0.152223 0.8 0 0
0.412419 0.590711 0.152343 0.8 0 0
0.749330 0.586775 0.076730 0.8 0 0
0.059781 0.688138 0.103156 0.8 0 0
0.162103 0.547936 0.110415 0.8 0 0
0.908949 0.246607 0.167416 0.8 0 0
0.877162 0.294587 0.059147 0.8 0 0
0.792194 0.086344 0.163780 0.8 0 0
0.653163 0.632377 0.059147 0.8 0 0
0.545035 0.445688 0.146373 0.8 0 0
0.526392 0.488529 0.117058 0.8 0 0
0.560601 0.584112 0.067470 0.8 0 0
0.180774 0.630010 0.070401 0.8 0 0
0.956343 0.166318 0.163780 0.8 0 0
0.905552 0.340181 0.059147 0.8 0 0
0.957538 0.214275 0.072930 0.8 0 0
0.953687 0.277974 0.084879 0.8 0 0
0.825841 0.305783 0.059147 0.8 0 0
0.495724 0.594332 0.179348 0.8 0 0
0.292879 0.587229 0.150253 0.8 0 0
0.635315 0.640785 0.161797 0.8 0 0
0.559102 0.612985 0.113980 0.8 0 0
0.735541 0.070778 0.056416 0.8 0 0
0.719899 0.087755 0.059147 0.8 0 0
0.652937 0.699292 0.078027 0.8 0 0
0.424444 0.566128 0.106277 0.8 0 0
0.256421 0.518422 0.119756 0.8 0 0
0.407539 0.569111 0.061812 0.8 0 0
0.278960 0.668383 0.139550 0.8 0 0
0.477398 0.647938 0.144222 0.8 0 0
0.447158 0.613503 0.175140 0.8 0 0
0.445805 0.567030 0.163780 0.8 0 0
0.600337 0.591576 0.177564 0.8 0 0
0.815725 0.037899 0.089534 0.8 0 0
0.135131 0.557058 0.078879 0.8 0 0
0.631509 0.641717 0.153048 0.8 0 0
0.339384 0.551968 0.100756 0.8 0 0
0.625661 0.444843 0.110514 0.8 0 0
0.863209 0.226689 0.167416 0.8 0 0
0.277745 0.587125 0.150183 0.8 0 0
0.616993 0.501836 0.107058 0.8 0 0
0.827446 0.463570 0.064705 0.8 0 0
0.909504 0.349684 0.059147 0.8 0 0
0.639136 0.583012 0.143626 0.8 0 0
0.480528 0.491928 0.136044 0.8 0 0
0.945691 0.323783 0.123158 0.8 0 0
0.174568 0.625606 0.154950 0.8 0 0
0.582295 0.530788 0.075977 0.8 0 0
0.431471 0.443449 0.083867 0.8 0 0
0.552541 0.701872 0.136380 0.8 0 0
0.884371 0.242343 0.059147 0.8 0 0
0.693472 0.066694 0.104982 0.8 0 0
0.751628 0.071239 0.059147 0.8 0 0
0.153014 0.572429 0.088269 0.8 0 0
0.158299 0.566758 0.156838 0.8 0 0
0.032701 0.608092 0.048389 0.8 0 0
0.216394 0.569027 0.064430 0.8 0 0
0.495882 0.619523 0.190234 0.8 0 0
0.462306 0.642347 0.158709 0.8 0 0
0.625128 0.536204 0.190944 0.8 0 0
0.962523 0.112227 0.134328 0.8 0 0
0.781094 0.165752 0.059147 0.8 0 0
0.711459 0.093120 0.096111 0.8 0 0
0.371727 0.567412 0.099869 0.8 0 0
0.936895 0.045631 0.093842 0.8 0 0
0.594497 0.695100 0.064385 0.8 0 0
0.164131 0.651626 0.132979 0.8 0 0
0.522312 0.617310 0.191345 0.8 0 0
0.928822 0.079327 0.167416 0.8 0 0
0.924666 0.220806 0.167416 0.8 0 0
0.805171 0.297890 0.167416 0.8 0 0
0.573724 0.695466 0.157326 0.8 0 0
0.943185 0.306658 0.102300 0.8 0 0
0.749228 0.244808 0.119445 0.8 0 0
0.702069 0.061149 0.112900 0.8 0 0
0.756377 0.227019 0.070532 0.8 0 0
0.816287 0.288498 0.056416 0.8 0 0
0.216688 0.666326 0.143499 0.8 0 0
0.719579 0.594392 0.059468 0.8 0 0
0.488608 0.649977 0.100026 0.8 0 0
0.590220 0.531166 0.094591 0.8 0 0
0.363106 0.648330 0.085499 0.8 0 0
0.755407 0.059628 0.167416 0.8 0 0
0.925983 0.147944 0.059147 0.8 0 0
0.249785 0.621451 0.174357 0.8 0 0
0.913913 0.261454 0.163780 0.8 0 0
0.442848 0.640359 0.055215 0.8 0 0
0.762888 0.033438 0.124434 0.8 0 0
0.542960 0.649421 0.143076 0.8 0 0
0.747584 0.203183 0.083379 0.8 0 0
0.422402 0.610254 0.175135 0.8 0 0
0.552487 0.663726 0.091664 0.8 0 0
0.883929 0.061381 0.167416 0.8 0 0
0.472377 0.464986 0.059147 0.8 0 0
0.498197 0.478900 0.163780 0.8 0 0
0.630564 0.540349 0.092955 0.8 0 0
0.804493 0.417131 0.059147 0.8 0 0
0.573584 0.618305 0.190846 0.8 0 0
0.104301 0.692016 0.103126 0.8 0 0
0.670828 0.698383 0.147884 0.8 0 0
0.536309 0.641632 0.173335 0.8 0 0
0.103394 0.667657 0.141297 0.8 0 0
0.487712 0.511832 0.059156 0.8 0 0
0.115259 0.579970 0.078932 0.8 0 0
0.616269 0.652779 0.118548 0.8 0 0
0.075915 0.547944 0.105472 0.8 0 0
0.687214 0.643733 0.112402 0.8 0 0
0.965795 0.112639 0.141389 0.8 0 0
0.204236 0.580588 0.167466 0.8 0 0
0.681165 0.681215 0.132767 0.8 0 0
0.666411 0.354835 0.113599 0.8 0 0
0.813847 0.457331 0.059147 0.8 0 0
0.766188 0.267899 0.058149 0.8 0 0
