0.204770 0.839810 0.304400 0.8 0 0
0.774815 0.295584 0.182471 0.8 0 0
0.566974 0.777810 0.769689 0.8 0 0
0.140085 0.482799 0.632914 0.8 0 0
0.427346 0.459084 0.882961 0.8 0 0
0.140359 0.724264 0.619084 0.8 0 0
0.745434 0.360029 0.548234 0.8 0 0
0.524740 0.206002 0.841281 0.8 0 0
0.628408 0.448880 0.054844 0.8 0 0
0.459255 0.077181 0.814569 0.8 0 0
0.640135 0.947197 0.620269 0.8 0 0
0.651324 0.595360 0.774301 0.8 0 0
0.855285 0.461863 0.409971 0.8 0 0
0.737527 0.197277 0.218363 0.8 0 0
0.596645 0.956205 0.621493 0.8 0 0
0.426956 0.329578 0.076672 0.8 0 0
0.468742 0.767985 0.101243 0.8 0 0
0.118525 0.686671 0.310775 0.8 0 0
0.650228 0.172048 0.249901 0.8 0 0
0.591488 0.340460 0.086235 0.8 0 0
0.178925 0.354807 0.152975 0.8 0 0
0.632227 0.540792 0.108295 0.8 0 0
0.199251 0.304780 0.659896 0.8 0 0
0.807615 0.682527 0.299449 0.8 0 0
0.509418 0.513666 0.034102 0.8 0 0
0.758017 0.775567 0.323114 0.8 0 0
0.414018 0.646817 0.044838 0.8 0 0
0.087996 0.611264 0.558370 0.8 0 0
0.447049 0.207372 0.085719 0.8 0 0
0.175999 0.751997 0.661035 0.8 0 0
0.768587 0.224869 0.281095 0.8 0 0
0.266402 0.478977 0.820319 0.8 0 0
0.343691 0.871032 0.217251 0.8 0 0
0.770824 0.324320 0.161781 0.8 0 0
0.325835 0.151708 0.222334 0.8 0 0
0.566213 0.596994 0.055910 0.8 0 0
0.695946 0.425687 0.716037 0.8 0 0
0.119776 0.409798 0.177233 0.8 0 0
0.272178 0.937040 0.511068 0.8 0 0
0.276075 0.501021 0.832017 0.8 0 0
0.598705 0.146757 0.721700 0.8 0 0
0.103700 0.391810 0.275707 0.8 0 0
0.186035 0.750697 0.611875 0.8 0 0
0.785749 0.456613 0.154970 0.8 0 0
0.230837 0.218990 0.290064 0.8 0 0
0.349699 0.314577 0.873049 0.8 0 0
0.760061 0.839357 0.551005 0.8 0 0
0.318444 0.062314 0.583390 0.8 0 0
0.242173 0.931797 0.665023 0.8 0 0
0.383235 0.237979 0.886206 0.8 0 0
0.373248 0.949050 0.721734 0.8 0 0
0.256288 0.926621 0.682252 0.8 0 0
0.394424 0.450892 0.888509 0.8 0 0
0.613385 0.365919 0.072890 0.8 0 0
0.175861 0.855235 0.534118 0.8 0 0
0.482947 0.082372 0.166209 0.8 0 0
0.162710 0.414462 0.425821 0.8 0 0
0.719613 0.604829 0.702365 0.8 0 0
0.519476 0.791818 0.882587 0.8 0 0
0.210563 0.218660 0.615366 0.8 0 0
0.416103 0.959692 0.422427 0.8 0 0
0.796166 0.424606 0.464134 0.8 0 0
0.503941 0.415036 0.072602 0.8 0 0
0.321412 0.129030 0.842171 0.8 0 0
0.252934 0.897355 0.359663 0.8 0 0
0.578344 0.452015 0.063011 0.8 0 0
0.849889 0.667807 0.456976 0.8 0 0
0.266978 0.140953 0.726327 0.8 0 0
0.774077 0.799984 0.625324 0.8 0 0
0.554766 0.538249 0.881385 0.8 0 0
0.469649 0.679412 0.869969 0.8 0 0
0.379782 0.850458 0.176348 0.8 0 0
0.290886 0.693064 0.824409 0.8 0 0
0.123515 0.771912 0.552398 0.8 0 0
0.095688 0.475873 0.487343 0.8 0 0
0.239185 0.084269 0.260779 0.8 0 0
0.499911 0.969580 0.563206 0.8 0 0
0.281131 0.165173 0.329555 0.8 0 0
0.888718 0.524049 0.539675 0.8 0 0
0.670989 0.745642 0.172589 0.8 0 0
0.320873 0.555859 0.881672 0.8 0 0
0.395676 0.633726 0.045788 0.8 0 0
0.287118 0.891947 0.797969 0.8 0 0
0.654169 0.834420 0.271667 0.8 0 0
0.718901 0.855490 0.513544 0.8 0 0
0.154424 0.862406 0.431298 0.8 0 0
0.349382 0.069320 0.805492 0.8 0 0
0.690350 0.446532 0.082737 0.8 0 0
0.840917 0.676386 0.366311 0.8 0 0
0.469230 0.404975 0.077691 0.8 0 0
0.822967 0.367540 0.423002 0.8 0 0
0.679022 0.149949 0.491285 0.8 0 0
0.631683 0.677915 0.122079 0.8 0 0
0.128662 0.389297 0.174990 0.8 0 0
0.347789 0.935802 0.745398 0.8 0 0
0.817909 0.318590 0.263667 0.8 0 0
0.780947 0.785319 0.368661 0.8 0 0
0.520121 0.690519 0.045396 0.8 0 0
0.708781 0.813571 0.742296 0.8 0 0
0.106899 0.476342 0.244668 0.8 0 0
0.530210 0.952195 0.420747 0.8 0 0
0.456291 0.835563 0.148509 0.8 0 0
0.403213 0.963024 0.474577 0.8 0 0
0.225689 0.249382 0.192974 0.8 0 0
0.131873 0.719741 0.322652 0.8 0 0
0.841595 0.500632 0.329717 0.8 0 0
0.256401 0.101841 0.275172 0.8 0 0
0.380699 0.947215 0.743571 0.8 0 0
0.211381 0.271457 0.229712 0.8 0 0
0.381836 0.815767 0.142400 0.8 0 0
0.121930 0.462403 0.513840 0.8 0 0
0.842796 0.468424 0.225315 0.8 0 0
0.679989 0.272890 0.681273 0.8 0 0
0.109109 0.381269 0.281918 0.8 0 0
0.275006 0.162344 0.773362 0.8 0 0
0.500926 0.760265 0.872453 0.8 0 0
0.310122 0.958579 0.608438 0.8 0 0
0.361561 0.246388 0.068603 0.8 0 0
0.191370 0.374431 0.643298 0.8 0 0
0.272080 0.200934 0.281186 0.8 0 0
0.717130 0.434132 0.117141 0.8 0 0
0.861666 0.609989 0.430108 0.8 0 0
0.149084 0.788290 0.668052 0.8 0 0
0.716666 0.079389 0.279838 0.8 0 0
0.622051 0.416785 0.059110 0.8 0 0
0.446223 0.066248 0.164835 0.8 0 0
0.299787 0.576624 0.060291 0.8 0 0
0.750418 0.763967 0.294642 0.8 0 0
0.076724 0.666876 0.526584 0.8 0 0
0.677727 0.151008 0.499489 0.8 0 0
0.807051 0.709779 0.325499 0.8 0 0
0.678949 0.259642 0.113946 0.8 0 0
0.197173 0.404478 0.098943 0.8 0 0
0.243677 0.836385 0.822711 0.8 0 0
0.647431 0.624862 0.775629 0.8 0 0
0.686965 0.329643 0.100547 0.8 0 0
0.555332 0.034699 0.615598 0.8 0 0
0.426975 0.147270 0.874247 0.8 0 0
0.611423 0.075390 0.581006 0.8 0 0
0.261428 0.089819 0.500159 0.8 0 0
0.741920 0.469831 0.631500 0.8 0 0
0.698476 0.168560 0.251657 0.8 0 0
0.628668 0.685832 0.777792 0.8 0 0
0.661563 0.255512 0.730299 0.8 0 0
0.226638 0.915879 0.405179 0.8 0 0
0.252014 0.209349 0.206652 0.8 0 0
0.235171 0.318843 0.097041 0.8 0 0
0.411688 0.307310 0.900855 0.8 0 0
0.204965 0.264298 0.676635 0.8 0 0
0.851558 0.483049 0.279606 0.8 0 0
0.220875 0.196082 0.643284 0.8 0 0
0.684040 0.280362 0.614221 0.8 0 0
0.747347 0.256350 0.454384 0.8 0 0
0.797102 0.769264 0.597025 0.8 0 0
0.195834 0.302384 0.621974 0.8 0 0
0.689792 0.102699 0.267375 0.8 0 0
0.195988 0.064804 0.279913 0.8 0 0
0.606358 0.360445 0.073373 0.8 0 0
0.527132 0.170806 0.828164 0.8 0 0
0.318493 0.091923 0.667825 0.8 0 0
0.518204 0.159162 0.097916 0.8 0 0
0.779935 0.274954 0.414276 0.8 0 0
0.665118 0.209587 0.622589 0.8 0 0
0.126703 0.656067 0.606791 0.8 0 0
0.336429 0.928577 0.755488 0.8 0 0
0.572348 0.574935 0.064938 0.8 0 0
0.270119 0.574521 0.078032 0.8 0 0
0.159686 0.580645 0.612798 0.8 0 0
0.187148 0.856538 0.663292 0.8 0 0
0.442381 0.784563 0.093435 0.8 0 0
0.456730 0.515105 0.036740 0.8 0 0
0.775431 0.717583 0.264589 0.8 0 0
0.386735 0.783895 0.107870 0.8 0 0
0.330195 0.269866 0.856275 0.8 0 0
0.721915 0.891773 0.593751 0.8 0 0
0.267000 0.699424 0.802390 0.8 0 0
0.405008 0.695269 0.865232 0.8 0 0
0.789982 0.284897 0.403554 0.8 0 0
0.401381 0.054762 0.769867 0.8 0 0
0.337819 0.250601 0.057984 0.8 0 0
0.175094 0.444493 0.158551 0.8 0 0
0.400545 0.052786 0.749603 0.8 0 0
0.433422 0.047778 0.726957 0.8 0 0
0.244128 0.213886 0.513808 0.8 0 0
0.335459 0.809992 0.883569 0.8 0 0
0.209768 0.742994 0.716625 0.8 0 0
0.817929 0.311553 0.314143 0.8 0 0
0.198842 0.885454 0.520469 0.8 0 0
0.576064 0.180610 0.139527 0.8 0 0
0.118075 0.420169 0.200978 0.8 0 0
0.223967 0.257956 0.279897 0.8 0 0
0.726934 0.177053 0.248343 0.8 0 0
0.259981 0.136062 0.294773 0.8 0 0
0.268181 0.481358 0.820692 0.8 0 0
0.856979 0.378235 0.346044 0.8 0 0
0.193870 0.423678 0.489358 0.8 0 0
0.577713 0.612027 0.851303 0.8 0 0
0.117607 0.369269 0.282806 0.8 0 0
0.406354 0.346691 0.913039 0.8 0 0
0.752418 0.278438 0.193455 0.8 0 0
0.354027 0.608949 0.047748 0.8 0 0
0.762362 0.706359 0.210204 0.8 0 0
0.208410 0.586649 0.733779 0.8 0 0
0.650880 0.188978 0.578380 0.8 0 0
0.334020 0.076432 0.786564 0.8 0 0
0.243379 0.664763 0.133048 0.8 0 0
0.249851 0.915862 0.530679 0.8 0 0
0.398241 0.784840 0.101373 0.8 0 0
0.668050 0.148100 0.520836 0.8 0 0
0.559122 0.749126 0.138355 0.8 0 0
0.759355 0.365391 0.522919 0.8 0 0
0.509686 0.544839 0.893061 0.8 0 0
0.609396 0.166165 0.738718 0.8 0 0
0.251995 0.216847 0.411886 0.8 0 0
0.394282 0.578564 0.889075 0.8 0 0
0.262984 0.187702 0.400016 0.8 0 0
0.251934 0.164506 0.427570 0.8 0 0
0.237131 0.112149 0.445228 0.8 0 0
0.258869 0.140647 0.313644 0.8 0 0
0.660993 0.306917 0.751702 0.8 0 0
0.143307 0.345253 0.414431 0.8 0 0
0.432786 0.958667 0.379471 0.8 0 0
0.464110 0.457259 0.056629 0.8 0 0
0.225969 0.277524 0.741943 0.8 0 0
0.662639 0.476664 0.079124 0.8 0 0
0.362509 0.518449 0.058242 0.8 0 0
0.463409 0.688908 0.053830 0.8 0 0
0.655869 0.663453 0.752873 0.8 0 0
0.702041 0.367383 0.632540 0.8 0 0
0.354256 0.429032 0.104248 0.8 0 0
0.318143 0.224841 0.839582 0.8 0 0
0.627152 0.284681 0.793850 0.8 0 0
0.048414 0.541812 0.458560 0.8 0 0
0.373844 0.192052 0.883312 0.8 0 0
0.090057 0.544486 0.557935 0.8 0 0
0.276551 0.135295 0.609621 0.8 0 0
0.316664 0.933914 0.695938 0.8 0 0
0.321097 0.085315 0.644611 0.8 0 0
0.851078 0.664404 0.423550 0.8 0 0
0.685147 0.868614 0.417950 0.8 0 0
0.273136 0.163594 0.291289 0.8 0 0
0.303996 0.674281 0.841511 0.8 0 0
0.131400 0.822900 0.523502 0.8 0 0
0.296339 0.436641 0.825392 0.8 0 0
0.287166 0.890448 0.287935 0.8 0 0
0.640824 0.828478 0.823981 0.8 0 0
0.741803 0.477939 0.121423 0.8 0 0
0.137385 0.519713 0.626135 0.8 0 0
0.459042 0.954615 0.296214 0.8 0 0
0.418121 0.878867 0.807958 0.8 0 0
0.526466 0.528969 0.054853 0.8 0 0
0.358868 0.409710 0.908698 0.8 0 0
0.246270 0.242782 0.763908 0.8 0 0
0.230611 0.528247 0.804287 0.8 0 0
0.818536 0.492959 0.204110 0.8 0 0
0.532452 0.894719 0.828529 0.8 0 0
0.685308 0.517817 0.729529 0.8 0 0
0.669422 0.929131 0.631347 0.8 0 0
0.139481 0.454751 0.594669 0.8 0 0
0.238429 0.642838 0.786199 0.8 0 0
0.201284 0.268499 0.582730 0.8 0 0
0.872817 0.510199 0.552596 0.8 0 0
0.179470 0.395784 0.459906 0.8 0 0
0.171426 0.041899 0.395094 0.8 0 0
0.683969 0.341586 0.700107 0.8 0 0
0.568920 0.956355 0.419458 0.8 0 0
0.334579 0.758328 0.865263 0.8 0 0
0.426963 0.079428 0.850994 0.8 0 0
0.363050 0.953215 0.416907 0.8 0 0
0.051750 0.637275 0.397420 0.8 0 0
0.137131 0.835137 0.511301 0.8 0 0
0.785129 0.484425 0.656663 0.8 0 0
0.740621 0.211826 0.220481 0.8 0 0
0.786366 0.703104 0.664331 0.8 0 0
0.718848 0.167946 0.262314 0.8 0 0
0.186050 0.383926 0.575693 0.8 0 0
0.645964 0.864633 0.759911 0.8 0 0
0.648497 0.368069 0.792917 0.8 0 0
0.696947 0.123213 0.298051 0.8 0 0
0.254995 0.788017 0.180172 0.8 0 0
0.460492 0.550181 0.050204 0.8 0 0
0.108973 0.779600 0.535831 0.8 0 0
0.232266 0.088158 0.347480 0.8 0 0
0.397935 0.943799 0.794463 0.8 0 0
0.186944 0.342176 0.508953 0.8 0 0
0.155356 0.479574 0.643152 0.8 0 0
0.281763 0.905217 0.353178 0.8 0 0
0.654502 0.205172 0.590705 0.8 0 0
0.224935 0.590133 0.776341 0.8 0 0
0.069446 0.534933 0.534354 0.8 0 0
0.428439 0.588736 0.036594 0.8 0 0
0.683319 0.050372 0.526849 0.8 0 0
0.697428 0.476414 0.739720 0.8 0 0
0.865455 0.513207 0.415404 0.8 0 0
0.444091 0.072377 0.166921 0.8 0 0
0.693666 0.484659 0.097393 0.8 0 0
0.604782 0.954871 0.584176 0.8 0 0
0.051885 0.507644 0.422149 0.8 0 0
0.836781 0.578279 0.354622 0.8 0 0
0.780372 0.284223 0.217516 0.8 0 0
0.115605 0.564301 0.219656 0.8 0 0
0.478872 0.957766 0.325513 0.8 0 0
0.813023 0.683350 0.583242 0.8 0 0
0.119032 0.414576 0.189495 0.8 0 0
0.186392 0.061875 0.298686 0.8 0 0
0.273507 0.028446 0.170991 0.8 0 0
0.139302 0.774888 0.347982 0.8 0 0
0.771456 0.824165 0.411803 0.8 0 0
0.302455 0.933428 0.558543 0.8 0 0
0.214107 0.853909 0.781998 0.8 0 0
0.120433 0.443917 0.390988 0.8 0 0
0.650237 0.934561 0.616737 0.8 0 0
0.153578 0.547994 0.180001 0.8 0 0
0.617095 0.853160 0.800056 0.8 0 0
0.682313 0.255626 0.648421 0.8 0 0
0.522818 0.784943 0.874124 0.8 0 0
0.281809 0.194565 0.351031 0.8 0 0
0.178070 0.886013 0.492400 0.8 0 0
0.104134 0.717790 0.393012 0.8 0 0
0.499112 0.407930 0.864323 0.8 0 0
0.237341 0.788951 0.816015 0.8 0 0
0.658089 0.181260 0.548851 0.8 0 0
0.406765 0.745307 0.852784 0.8 0 0
0.843304 0.677321 0.528923 0.8 0 0
0.206893 0.380708 0.094392 0.8 0 0
0.104710 0.419094 0.231085 0.8 0 0
0.300660 0.211114 0.824999 0.8 0 0
0.606446 0.930256 0.695455 0.8 0 0
0.649152 0.564585 0.099028 0.8 0 0
0.206573 0.363647 0.726408 0.8 0 0
0.330891 0.227188 0.850395 0.8 0 0
0.141424 0.444586 0.446258 0.8 0 0
0.507658 0.215149 0.851131 0.8 0 0
0.135503 0.737796 0.580817 0.8 0 0
0.652563 0.321620 0.772412 0.8 0 0
0.277546 0.377695 0.822865 0.8 0 0
0.272548 0.717300 0.129330 0.8 0 0
0.832130 0.349128 0.365191 0.8 0 0
0.362761 0.550499 0.884583 0.8 0 0
0.634184 0.439798 0.798897 0.8 0 0
0.362030 0.635047 0.052497 0.8 0 0
0.756092 0.764471 0.718905 0.8 0 0
0.836328 0.703005 0.431923 0.8 0 0
0.685286 0.651692 0.748035 0.8 0 0
0.445591 0.636891 0.883270 0.8 0 0
0.251693 0.136897 0.415965 0.8 0 0
0.815535 0.487315 0.504009 0.8 0 0
0.369883 0.792983 0.913825 0.8 0 0
0.753553 0.217967 0.330957 0.8 0 0
0.315202 0.844264 0.204756 0.8 0 0
0.457790 0.145593 0.117317 0.8 0 0
0.518479 0.868491 0.873508 0.8 0 0
0.810712 0.326584 0.397382 0.8 0 0
0.332510 0.833117 0.845958 0.8 0 0
0.377754 0.779720 0.904941 0.8 0 0
0.834298 0.386705 0.442606 0.8 0 0
0.789521 0.266654 0.290738 0.8 0 0
0.130266 0.511163 0.232492 0.8 0 0
0.352787 0.164738 0.182911 0.8 0 0
0.822560 0.558813 0.300846 0.8 0 0
0.763890 0.247623 0.223647 0.8 0 0
0.505422 0.792127 0.151506 0.8 0 0
0.525400 0.964642 0.519048 0.8 0 0
0.754947 0.499456 0.699121 0.8 0 0
0.858155 0.613523 0.409828 0.8 0 0
0.271900 0.176262 0.245821 0.8 0 0
0.252726 0.139151 0.498185 0.8 0 0
0.158262 0.040680 0.385881 0.8 0 0
0.796653 0.305380 0.393524 0.8 0 0
0.591619 0.864213 0.266908 0.8 0 0
0.712318 0.638664 0.136119 0.8 0 0
0.650152 0.661205 0.760738 0.8 0 0
0.342762 0.636561 0.056559 0.8 0 0
0.223917 0.036861 0.512655 0.8 0 0
0.812394 0.448877 0.451842 0.8 0 0
0.127722 0.716207 0.329990 0.8 0 0
0.420620 0.426762 0.076071 0.8 0 0
0.812564 0.676801 0.585944 0.8 0 0
0.771163 0.556620 0.166821 0.8 0 0
0.145204 0.828449 0.531037 0.8 0 0
0.488284 0.873524 0.834349 0.8 0 0
0.631632 0.172108 0.241931 0.8 0 0
0.407114 0.299433 0.053599 0.8 0 0
0.753077 0.804370 0.369336 0.8 0 0
0.464359 0.386617 0.911930 0.8 0 0
0.220234 0.550555 0.103751 0.8 0 0
0.670680 0.261439 0.116070 0.8 0 0
0.124118 0.403834 0.157691 0.8 0 0
0.139975 0.374363 0.410414 0.8 0 0
0.195711 0.779348 0.754583 0.8 0 0
0.275064 0.200006 0.285338 0.8 0 0
0.329250 0.640008 0.861697 0.8 0 0
0.685928 0.170922 0.251793 0.8 0 0
0.805299 0.710655 0.599719 0.8 0 0
0.206010 0.897497 0.636157 0.8 0 0
0.309466 0.415841 0.106067 0.8 0 0
0.680484 0.183662 0.379702 0.8 0 0
0.865002 0.634936 0.496954 0.8 0 0
0.809570 0.394811 0.482965 0.8 0 0
0.851727 0.659961 0.394059 0.8 0 0
0.273176 0.137935 0.578950 0.8 0 0
0.259311 0.150886 0.709874 0.8 0 0
0.440690 0.434959 0.066400 0.8 0 0
0.672979 0.246336 0.545180 0.8 0 0
0.408655 0.476387 0.039960 0.8 0 0
0.468490 0.371884 0.912422 0.8 0 0
0.074860 0.672333 0.494073 0.8 0 0
0.168052 0.446671 0.535283 0.8 0 0
0.620976 0.933228 0.672208 0.8 0 0
0.671660 0.394577 0.767549 0.8 0 0
0.792595 0.262391 0.394778 0.8 0 0
0.269854 0.423535 0.109201 0.8 0 0
0.463530 0.279272 0.063933 0.8 0 0
0.219938 0.290563 0.404055 0.8 0 0
0.845556 0.679597 0.381926 0.8 0 0
0.739060 0.747425 0.236512 0.8 0 0
0.817594 0.412396 0.451499 0.8 0 0
0.514503 0.956768 0.341910 0.8 0 0
0.793479 0.589529 0.210887 0.8 0 0
0.290112 0.311278 0.831125 0.8 0 0
0.136813 0.455480 0.583774 0.8 0 0
0.691607 0.872120 0.482761 0.8 0 0
0.436034 0.512269 0.860830 0.8 0 0
0.274692 0.074935 0.519608 0.8 0 0
0.277834 0.835811 0.830117 0.8 0 0
0.743186 0.231670 0.210549 0.8 0 0
0.472338 0.959273 0.347044 0.8 0 0
0.737773 0.656909 0.717469 0.8 0 0
0.179214 0.297184 0.292823 0.8 0 0
0.655083 0.903318 0.404235 0.8 0 0
0.793152 0.749784 0.570932 0.8 0 0
0.233046 0.550255 0.093722 0.8 0 0
0.642312 0.032069 0.544441 0.8 0 0
0.710834 0.053614 0.242095 0.8 0 0
0.462988 0.684087 0.869564 0.8 0 0
0.590308 0.548893 0.091659 0.8 0 0
0.112436 0.662150 0.301655 0.8 0 0
0.390014 0.867418 0.186930 0.8 0 0
0.195846 0.487259 0.125313 0.8 0 0
0.152914 0.768404 0.579717 0.8 0 0
0.215376 0.065338 0.461726 0.8 0 0
0.086011 0.482958 0.477557 0.8 0 0
0.284633 0.954030 0.629157 0.8 0 0
0.587283 0.511134 0.055362 0.8 0 0
0.295872 0.113013 0.654561 0.8 0 0
0.802701 0.319473 0.195561 0.8 0 0
0.211227 0.268429 0.556041 0.8 0 0
0.517794 0.636246 0.056751 0.8 0 0
0.414035 0.583674 0.891098 0.8 0 0
0.191446 0.814620 0.271913 0.8 0 0
0.752236 0.479272 0.684574 0.8 0 0
0.211043 0.263246 0.246094 0.8 0 0
0.315157 0.925515 0.742329 0.8 0 0
0.564676 0.034321 0.605526 0.8 0 0
0.692822 0.074411 0.246122 0.8 0 0
0.304910 0.679545 0.841051 0.8 0 0
0.593084 0.431955 0.054023 0.8 0 0
0.602807 0.939579 0.521866 0.8 0 0
0.681630 0.142476 0.489800 0.8 0 0
0.491505 0.965853 0.641000 0.8 0 0
0.713195 0.328680 0.575706 0.8 0 0
0.400041 0.083792 0.862833 0.8 0 0
0.685643 0.289728 0.619503 0.8 0 0
0.676623 0.240825 0.676414 0.8 0 0
0.513233 0.958276 0.364027 0.8 0 0
0.550649 0.837182 0.214648 0.8 0 0
0.279977 0.448895 0.820044 0.8 0 0
0.389062 0.959813 0.647614 0.8 0 0
0.228297 0.320672 0.459535 0.8 0 0
0.818008 0.502667 0.230126 0.8 0 0
0.854580 0.375098 0.328916 0.8 0 0
0.207966 0.891205 0.522874 0.8 0 0
0.682906 0.290456 0.569942 0.8 0 0
0.836845 0.478435 0.239817 0.8 0 0
0.676701 0.177743 0.472823 0.8 0 0
0.132859 0.730691 0.322388 0.8 0 0
0.187119 0.675776 0.632623 0.8 0 0
0.513809 0.957117 0.346465 0.8 0 0
0.306828 0.098363 0.786784 0.8 0 0
0.579503 0.662308 0.084176 0.8 0 0
0.659057 0.167936 0.543516 0.8 0 0
0.678405 0.201098 0.493797 0.8 0 0
0.738034 0.499540 0.127591 0.8 0 0
0.725640 0.744159 0.216051 0.8 0 0
0.563357 0.768681 0.866309 0.8 0 0
0.547163 0.950102 0.685425 0.8 0 0
0.604392 0.559125 0.841296 0.8 0 0
0.771404 0.821363 0.405527 0.8 0 0
0.800569 0.429917 0.458657 0.8 0 0
0.320666 0.421936 0.835577 0.8 0 0
0.865910 0.469327 0.290108 0.8 0 0
0.192308 0.305618 0.363928 0.8 0 0
0.827994 0.586296 0.336499 0.8 0 0
0.542156 0.681062 0.058454 0.8 0 0
0.689839 0.868871 0.465731 0.8 0 0
0.535607 0.281304 0.858878 0.8 0 0
0.222919 0.554461 0.097386 0.8 0 0
0.385850 0.959052 0.453140 0.8 0 0
0.758480 0.373858 0.134424 0.8 0 0
0.205684 0.535377 0.729830 0.8 0 0
0.213873 0.879989 0.371869 0.8 0 0
0.187473 0.043582 0.404625 0.8 0 0
0.457091 0.427519 0.894639 0.8 0 0
0.577989 0.957959 0.452300 0.8 0 0
0.671306 0.118939 0.251951 0.8 0 0
0.234199 0.187128 0.590142 0.8 0 0
0.162884 0.450392 0.521362 0.8 0 0
0.085558 0.644915 0.343127 0.8 0 0
0.520309 0.507424 0.029142 0.8 0 0
0.122263 0.448134 0.230465 0.8 0 0
0.799086 0.721329 0.639341 0.8 0 0
0.127943 0.583035 0.200718 0.8 0 0
0.217583 0.689636 0.706360 0.8 0 0
0.499774 0.814634 0.876884 0.8 0 0
0.136258 0.788634 0.553072 0.8 0 0
0.391353 0.813438 0.881880 0.8 0 0
0.450080 0.665211 0.045548 0.8 0 0
0.706854 0.325014 0.582231 0.8 0 0
0.830190 0.698054 0.541312 0.8 0 0
0.762653 0.809167 0.384180 0.8 0 0
0.262035 0.895122 0.346403 0.8 0 0
0.684068 0.189380 0.216260 0.8 0 0
0.670941 0.620237 0.740806 0.8 0 0
0.710923 0.694518 0.137687 0.8 0 0
0.211103 0.234836 0.682677 0.8 0 0
0.434085 0.843673 0.142768 0.8 0 0
0.661409 0.775556 0.199907 0.8 0 0
0.429212 0.463095 0.879560 0.8 0 0
0.486622 0.131917 0.160552 0.8 0 0
0.710702 0.536979 0.709993 0.8 0 0
0.173621 0.400302 0.445010 0.8 0 0
0.310019 0.298635 0.055506 0.8 0 0
0.751493 0.823465 0.451496 0.8 0 0
0.863359 0.542751 0.432466 0.8 0 0
0.034336 0.586229 0.419646 0.8 0 0
0.241024 0.090523 0.462098 0.8 0 0
0.558015 0.517526 0.865399 0.8 0 0
0.621471 0.819405 0.816745 0.8 0 0
0.488845 0.083064 0.791798 0.8 0 0
0.246963 0.270521 0.777378 0.8 0 0
0.596248 0.289869 0.075817 0.8 0 0
0.204505 0.323550 0.509220 0.8 0 0
0.194597 0.855926 0.550686 0.8 0 0
0.660069 0.214261 0.713072 0.8 0 0
0.283603 0.331479 0.827721 0.8 0 0
0.189091 0.873569 0.407840 0.8 0 0
0.545134 0.347207 0.086896 0.8 0 0
0.832833 0.601174 0.324344 0.8 0 0
0.636879 0.184262 0.726416 0.8 0 0
0.135576 0.341142 0.305747 0.8 0 0
0.204787 0.731306 0.218099 0.8 0 0
0.322926 0.235391 0.839263 0.8 0 0
0.468806 0.468596 0.868923 0.8 0 0
0.684381 0.162682 0.334903 0.8 0 0
0.702627 0.289631 0.141670 0.8 0 0
0.324765 0.930183 0.368671 0.8 0 0
0.733352 0.719617 0.734809 0.8 0 0
0.654865 0.929428 0.647475 0.8 0 0
0.882560 0.571273 0.479758 0.8 0 0
0.849182 0.670319 0.384846 0.8 0 0
0.598205 0.728537 0.815024 0.8 0 0
0.651343 0.426015 0.787481 0.8 0 0
0.239094 0.780475 0.191047 0.8 0 0
0.638237 0.370356 0.077773 0.8 0 0
0.547356 0.499663 0.036977 0.8 0 0
0.578567 0.180093 0.789479 0.8 0 0
0.677483 0.238206 0.662450 0.8 0 0
0.160710 0.027576 0.431161 0.8 0 0
0.502347 0.101113 0.818428 0.8 0 0
0.125130 0.637122 0.611120 0.8 0 0
0.046332 0.511905 0.416368 0.8 0 0
0.208868 0.874418 0.545639 0.8 0 0
0.121462 0.441437 0.385854 0.8 0 0
0.390371 0.682066 0.867752 0.8 0 0
0.077336 0.504079 0.572917 0.8 0 0
0.677919 0.780470 0.220558 0.8 0 0
0.693931 0.883336 0.535826 0.8 0 0
0.182416 0.693933 0.679124 0.8 0 0
0.430188 0.631274 0.041265 0.8 0 0
0.760292 0.809549 0.527854 0.8 0 0
0.722845 0.321375 0.560254 0.8 0 0
0.693231 0.185967 0.354861 0.8 0 0
0.076846 0.537387 0.562434 0.8 0 0
0.297458 0.108347 0.630056 0.8 0 0
0.395771 0.455017 0.052950 0.8 0 0
0.574898 0.903624 0.321639 0.8 0 0
0.481745 0.902037 0.789882 0.8 0 0
0.467383 0.968070 0.608726 0.8 0 0
0.414934 0.931133 0.771961 0.8 0 0
0.244930 0.215015 0.533433 0.8 0 0
0.461328 0.151026 0.863893 0.8 0 0
0.249872 0.157497 0.496193 0.8 0 0
0.877892 0.498007 0.408160 0.8 0 0
0.588526 0.512597 0.058843 0.8 0 0
0.237788 0.908557 0.694065 0.8 0 0
0.198060 0.813989 0.769123 0.8 0 0
0.077998 0.528171 0.574098 0.8 0 0
0.550253 0.305070 0.080157 0.8 0 0
0.271001 0.515092 0.074717 0.8 0 0
0.199230 0.910851 0.453682 0.8 0 0
0.580564 0.544888 0.872427 0.8 0 0
0.244277 0.211853 0.193783 0.8 0 0
0.438386 0.255629 0.898673 0.8 0 0
0.663895 0.525142 0.767509 0.8 0 0
0.256966 0.443892 0.805117 0.8 0 0
0.227796 0.642169 0.770098 0.8 0 0
0.096621 0.473525 0.593250 0.8 0 0
0.122846 0.428394 0.204186 0.8 0 0
0.120207 0.039020 0.343151 0.8 0 0
0.102054 0.508616 0.607359 0.8 0 0
0.651092 0.277927 0.113979 0.8 0 0
0.228498 0.871850 0.586808 0.8 0 0
0.485649 0.468300 0.059782 0.8 0 0
0.609180 0.294943 0.817087 0.8 0 0
0.399238 0.142864 0.876391 0.8 0 0
0.887040 0.554496 0.564973 0.8 0 0
0.621598 0.657393 0.087544 0.8 0 0
0.600679 0.097095 0.606048 0.8 0 0
0.679682 0.589147 0.733887 0.8 0 0
0.843166 0.418547 0.241769 0.8 0 0
0.131822 0.440290 0.214692 0.8 0 0
0.803644 0.527518 0.696202 0.8 0 0
0.257857 0.157513 0.600949 0.8 0 0
0.361082 0.351892 0.910731 0.8 0 0
0.217869 0.327826 0.752501 0.8 0 0
0.480635 0.694569 0.864091 0.8 0 0
0.373047 0.625789 0.047829 0.8 0 0
0.266612 0.666945 0.114985 0.8 0 0
0.681931 0.877260 0.405226 0.8 0 0
0.604857 0.144401 0.706002 0.8 0 0
0.854402 0.550352 0.626835 0.8 0 0
0.294100 0.110400 0.603555 0.8 0 0
0.192504 0.432303 0.705117 0.8 0 0
0.080039 0.654519 0.542246 0.8 0 0
0.396926 0.046617 0.701477 0.8 0 0
0.517134 0.281260 0.059481 0.8 0 0
0.292321 0.479646 0.830550 0.8 0 0
0.657677 0.289468 0.110278 0.8 0 0
0.858178 0.421904 0.331670 0.8 0 0
0.297208 0.956871 0.443071 0.8 0 0
0.647882 0.855868 0.772733 0.8 0 0
0.197453 0.274448 0.639434 0.8 0 0
0.146739 0.767910 0.574806 0.8 0 0
0.757317 0.052933 0.426521 0.8 0 0
0.872797 0.619436 0.454510 0.8 0 0
0.764596 0.783266 0.342358 0.8 0 0
0.721973 0.697714 0.734740 0.8 0 0
0.114132 0.590034 0.561560 0.8 0 0
0.402229 0.828464 0.852965 0.8 0 0
0.194746 0.312348 0.595774 0.8 0 0
0.467910 0.054382 0.744290 0.8 0 0
0.884794 0.593790 0.489849 0.8 0 0
0.182038 0.749778 0.672613 0.8 0 0
0.803856 0.281920 0.307816 0.8 0 0
0.672055 0.556582 0.111297 0.8 0 0
0.215316 0.803515 0.787853 0.8 0 0
0.115111 0.448977 0.397360 0.8 0 0
0.578780 0.505306 0.050557 0.8 0 0
0.195113 0.591068 0.693095 0.8 0 0
0.651790 0.121208 0.548948 0.8 0 0
0.533752 0.564338 0.073735 0.8 0 0
0.506165 0.071644 0.722024 0.8 0 0
0.187279 0.329761 0.421667 0.8 0 0
0.427647 0.739015 0.064623 0.8 0 0
0.714396 0.798407 0.748175 0.8 0 0
0.207000 0.280120 0.257272 0.8 0 0
0.603329 0.516308 0.839976 0.8 0 0
0.082922 0.486731 0.574524 0.8 0 0
0.665091 0.159986 0.402635 0.8 0 0
0.136994 0.374713 0.398300 0.8 0 0
0.856830 0.431719 0.254054 0.8 0 0
0.263348 0.588115 0.834712 0.8 0 0
0.820337 0.632222 0.316848 0.8 0 0
0.426736 0.741844 0.846537 0.8 0 0
0.307712 0.769645 0.141308 0.8 0 0
0.133451 0.539970 0.211415 0.8 0 0
0.578321 0.957480 0.568003 0.8 0 0
0.134545 0.478988 0.448552 0.8 0 0
0.298049 0.306384 0.836375 0.8 0 0
0.535619 0.843088 0.862535 0.8 0 0
0.680510 0.127370 0.364252 0.8 0 0
0.287404 0.252526 0.079391 0.8 0 0
0.774123 0.783812 0.504169 0.8 0 0
0.217827 0.568025 0.109424 0.8 0 0
0.207655 0.247132 0.577395 0.8 0 0
0.303449 0.912677 0.325472 0.8 0 0
0.850085 0.403287 0.291976 0.8 0 0
0.823634 0.539095 0.359564 0.8 0 0
0.432340 0.969861 0.517162 0.8 0 0
0.785838 0.759856 0.480784 0.8 0 0
0.670196 0.895799 0.408755 0.8 0 0
0.552754 0.485320 0.043286 0.8 0 0
0.671399 0.928281 0.628726 0.8 0 0
0.130554 0.349340 0.274658 0.8 0 0
0.090343 0.610247 0.559262 0.8 0 0
0.494116 0.098426 0.821757 0.8 0 0
0.430844 0.337453 0.089924 0.8 0 0
0.748936 0.830281 0.529072 0.8 0 0
0.494435 0.868010 0.849536 0.8 0 0
0.377342 0.499886 0.852529 0.8 0 0
0.244588 0.244951 0.761838 0.8 0 0
0.428950 0.263753 0.075934 0.8 0 0
0.126641 0.857210 0.453515 0.8 0 0
0.789542 0.312322 0.410123 0.8 0 0
0.520484 0.268824 0.863420 0.8 0 0
0.732266 0.865470 0.621801 0.8 0 0
0.147288 0.693725 0.625220 0.8 0 0
0.509584 0.959573 0.457240 0.8 0 0
0.503986 0.626642 0.049247 0.8 0 0
0.699619 0.712025 0.145301 0.8 0 0
0.122959 0.473090 0.482485 0.8 0 0
0.359265 0.064516 0.788590 0.8 0 0
0.345015 0.081202 0.184278 0.8 0 0
0.609346 0.192396 0.131514 0.8 0 0
0.230134 0.483074 0.086814 0.8 0 0
0.492540 0.350075 0.081816 0.8 0 0
0.710250 0.689175 0.734974 0.8 0 0
0.310601 0.561987 0.877941 0.8 0 0
0.270390 0.160852 0.381199 0.8 0 0
0.740187 0.589929 0.142778 0.8 0 0
0.791225 0.603056 0.217442 0.8 0 0
0.128316 0.351024 0.317554 0.8 0 0
0.248922 0.211541 0.175988 0.8 0 0
0.836066 0.409664 0.419244 0.8 0 0
0.225572 0.894196 0.701235 0.8 0 0
0.060560 0.028319 0.290814 0.8 0 0
0.189004 0.061829 0.312671 0.8 0 0
0.531965 0.957732 0.649960 0.8 0 0
0.276386 0.415979 0.100722 0.8 0 0
0.570103 0.818287 0.220226 0.8 0 0
0.247010 0.244485 0.402995 0.8 0 0
0.426879 0.071684 0.834436 0.8 0 0
0.814788 0.529142 0.688234 0.8 0 0
0.332708 0.751603 0.112139 0.8 0 0
0.659533 0.109487 0.531337 0.8 0 0
0.593807 0.949281 0.541333 0.8 0 0
0.562481 0.191544 0.817205 0.8 0 0
0.584555 0.036711 0.589728 0.8 0 0
0.194160 0.371537 0.664059 0.8 0 0
0.353378 0.248161 0.869628 0.8 0 0
0.084162 0.730865 0.448352 0.8 0 0
0.046441 0.553869 0.352685 0.8 0 0
0.210853 0.908015 0.495670 0.8 0 0
0.562190 0.327554 0.856422 0.8 0 0
0.160271 0.546245 0.624993 0.8 0 0
0.607204 0.109808 0.608060 0.8 0 0
0.460764 0.649889 0.878262 0.8 0 0
0.200384 0.406040 0.724000 0.8 0 0
0.400339 0.732437 0.849667 0.8 0 0
0.723417 0.045143 0.241352 0.8 0 0
0.703692 0.369290 0.088553 0.8 0 0
0.447141 0.856385 0.784721 0.8 0 0
0.313103 0.035261 0.157226 0.8 0 0
0.458799 0.887986 0.768567 0.8 0 0
0.128236 0.452646 0.224725 0.8 0 0
0.428443 0.873297 0.173132 0.8 0 0
0.603385 0.552466 0.098501 0.8 0 0
0.800508 0.718026 0.621132 0.8 0 0
0.874181 0.617697 0.543479 0.8 0 0
0.676293 0.262212 0.557913 0.8 0 0
0.397029 0.297308 0.899821 0.8 0 0
0.669068 0.359126 0.759266 0.8 0 0
0.662806 0.216388 0.605204 0.8 0 0
0.365679 0.543549 0.881461 0.8 0 0
0.388644 0.944555 0.777983 0.8 0 0
0.734115 0.201163 0.310552 0.8 0 0
0.226153 0.352231 0.775203 0.8 0 0
0.518325 0.456085 0.854194 0.8 0 0
0.595622 0.893270 0.779167 0.8 0 0
0.346140 0.429611 0.104938 0.8 0 0
0.741687 0.469764 0.625651 0.8 0 0
0.196311 0.035678 0.437801 0.8 0 0
0.674145 0.225093 0.636750 0.8 0 0
0.581106 0.272446 0.077590 0.8 0 0
0.072053 0.611280 0.518237 0.8 0 0
0.378025 0.259721 0.063421 0.8 0 0
0.829752 0.694553 0.549239 0.8 0 0
0.345668 0.474172 0.049879 0.8 0 0
0.077997 0.705816 0.456927 0.8 0 0
0.365184 0.955001 0.673523 0.8 0 0
0.430563 0.914522 0.756460 0.8 0 0
0.780187 0.778031 0.457294 0.8 0 0
0.584762 0.955755 0.561423 0.8 0 0
0.229575 0.281260 0.124598 0.8 0 0
0.420030 0.412779 0.916557 0.8 0 0
0.709635 0.290469 0.493946 0.8 0 0
0.189859 0.373523 0.119318 0.8 0 0
0.572614 0.933809 0.382753 0.8 0 0
0.818908 0.715805 0.486506 0.8 0 0
0.377444 0.609656 0.044295 0.8 0 0
0.811312 0.414585 0.458564 0.8 0 0
0.688095 0.893041 0.553000 0.8 0 0
0.784048 0.785016 0.435920 0.8 0 0
0.262819 0.151538 0.537021 0.8 0 0
0.112552 0.729766 0.386347 0.8 0 0
0.608384 0.893213 0.765579 0.8 0 0
0.396210 0.961398 0.465028 0.8 0 0
0.775634 0.779586 0.355206 0.8 0 0
0.389726 0.962959 0.559829 0.8 0 0
0.667681 0.429099 0.064519 0.8 0 0
0.070853 0.643919 0.512748 0.8 0 0
0.081942 0.705345 0.430742 0.8 0 0
0.381497 0.375806 0.065366 0.8 0 0
0.713520 0.029174 0.187370 0.8 0 0
0.831107 0.496855 0.525106 0.8 0 0
0.280958 0.126082 0.263162 0.8 0 0
0.755882 0.617735 0.164881 0.8 0 0
0.664930 0.225069 0.601711 0.8 0 0
0.191550 0.037519 0.428194 0.8 0 0
0.567819 0.863627 0.855149 0.8 0 0
0.732057 0.832111 0.476887 0.8 0 0
0.305524 0.743221 0.863487 0.8 0 0
0.763997 0.457599 0.509610 0.8 0 0
0.468427 0.645966 0.050481 0.8 0 0
0.647007 0.458841 0.064657 0.8 0 0
0.799950 0.363884 0.456250 0.8 0 0
0.843673 0.365819 0.335867 0.8 0 0
0.804879 0.457659 0.478300 0.8 0 0
0.191474 0.337216 0.582970 0.8 0 0
0.282811 0.174964 0.789672 0.8 0 0
0.473603 0.889814 0.791985 0.8 0 0
0.391583 0.468782 0.049294 0.8 0 0
0.637212 0.158906 0.669226 0.8 0 0
0.202503 0.404752 0.467673 0.8 0 0
0.374495 0.915611 0.822512 0.8 0 0
0.386608 0.959736 0.644944 0.8 0 0
0.416836 0.758645 0.875693 0.8 0 0
0.163415 0.823155 0.365843 0.8 0 0
0.367499 0.398129 0.932372 0.8 0 0
0.458208 0.747110 0.080798 0.8 0 0
0.238080 0.234247 0.497101 0.8 0 0
0.165477 0.741694 0.262926 0.8 0 0
0.272828 0.125359 0.543803 0.8 0 0
0.638874 0.350683 0.802576 0.8 0 0
0.264508 0.700272 0.797813 0.8 0 0
0.406348 0.399765 0.080839 0.8 0 0
0.463870 0.405076 0.900871 0.8 0 0
0.212693 0.066683 0.320177 0.8 0 0
0.180745 0.874945 0.513965 0.8 0 0
0.690367 0.860426 0.384371 0.8 0 0
0.667616 0.466648 0.078119 0.8 0 0
0.661100 0.592225 0.762069 0.8 0 0
0.725380 0.550564 0.708364 0.8 0 0
0.871562 0.535033 0.595944 0.8 0 0
0.881164 0.569880 0.569932 0.8 0 0
0.569752 0.960254 0.581847 0.8 0 0
0.655299 0.480596 0.772871 0.8 0 0
0.320995 0.141504 0.228556 0.8 0 0
0.639465 0.699753 0.752365 0.8 0 0
0.145391 0.353634 0.204825 0.8 0 0
0.173315 0.436267 0.662579 0.8 0 0
0.724431 0.654027 0.165709 0.8 0 0
0.618583 0.140084 0.659185 0.8 0 0
0.862682 0.412416 0.371237 0.8 0 0
0.421208 0.958768 0.706098 0.8 0 0
0.272675 0.538547 0.846415 0.8 0 0
0.226306 0.523111 0.088738 0.8 0 0
0.322004 0.959372 0.607267 0.8 0 0
0.247904 0.213885 0.339724 0.8 0 0
0.802070 0.725768 0.631967 0.8 0 0
0.752074 0.075340 0.412767 0.8 0 0
0.885318 0.512030 0.505441 0.8 0 0
0.659066 0.543839 0.765186 0.8 0 0
0.157588 0.439947 0.470502 0.8 0 0
0.151628 0.439656 0.442080 0.8 0 0
0.142260 0.339683 0.319960 0.8 0 0
0.450522 0.115520 0.171374 0.8 0 0
0.533615 0.404920 0.852176 0.8 0 0
0.512802 0.881570 0.856992 0.8 0 0
0.783584 0.639112 0.269867 0.8 0 0
0.495444 0.379719 0.879973 0.8 0 0
0.305139 0.357352 0.839077 0.8 0 0
0.706791 0.233963 0.463399 0.8 0 0
0.199211 0.614052 0.707836 0.8 0 0
0.833491 0.595838 0.383069 0.8 0 0
0.569182 0.957710 0.619868 0.8 0 0
0.271516 0.699039 0.806187 0.8 0 0
0.213393 0.273435 0.548511 0.8 0 0
0.520348 0.941390 0.759015 0.8 0 0
0.205097 0.030159 0.485065 0.8 0 0
0.489149 0.509727 0.859286 0.8 0 0
0.654882 0.210083 0.719399 0.8 0 0
0.477783 0.659849 0.052664 0.8 0 0
0.624698 0.726237 0.750352 0.8 0 0
0.822045 0.515359 0.289277 0.8 0 0
0.745579 0.477121 0.682800 0.8 0 0
0.108234 0.665573 0.320157 0.8 0 0
0.338564 0.584345 0.045975 0.8 0 0
0.337271 0.203978 0.108274 0.8 0 0
0.093859 0.479901 0.259100 0.8 0 0
0.224947 0.086194 0.388554 0.8 0 0
0.332111 0.664951 0.857091 0.8 0 0
0.851647 0.669098 0.408446 0.8 0 0
0.692006 0.520553 0.718859 0.8 0 0
0.453258 0.049635 0.732092 0.8 0 0
0.690503 0.259039 0.527214 0.8 0 0
0.757790 0.846411 0.567119 0.8 0 0
0.404209 0.627635 0.043246 0.8 0 0
0.265840 0.150806 0.332941 0.8 0 0
0.096889 0.473825 0.493763 0.8 0 0
0.838577 0.479643 0.245427 0.8 0 0
0.157680 0.571041 0.582593 0.8 0 0
0.097038 0.782017 0.447265 0.8 0 0
0.440878 0.960795 0.388870 0.8 0 0
0.728899 0.874157 0.626076 0.8 0 0
0.619102 0.629598 0.073941 0.8 0 0
0.082220 0.578485 0.263657 0.8 0 0
0.626158 0.923578 0.380284 0.8 0 0
0.257771 0.885486 0.768336 0.8 0 0
0.535450 0.964388 0.590734 0.8 0 0
0.246742 0.170713 0.592808 0.8 0 0
0.116868 0.631452 0.244124 0.8 0 0
0.216841 0.280998 0.187574 0.8 0 0
0.383980 0.384785 0.944755 0.8 0 0
0.138939 0.847705 0.489727 0.8 0 0
0.452332 0.965869 0.437240 0.8 0 0
0.111543 0.459562 0.387857 0.8 0 0
0.439024 0.249111 0.892424 0.8 0 0
0.148504 0.632354 0.623109 0.8 0 0
0.269958 0.890388 0.777705 0.8 0 0
0.733250 0.233569 0.188471 0.8 0 0
0.551971 0.180344 0.102503 0.8 0 0
0.827115 0.710311 0.353319 0.8 0 0
0.220755 0.268988 0.275910 0.8 0 0
0.662774 0.201915 0.624031 0.8 0 0
0.656378 0.176999 0.553674 0.8 0 0
0.722488 0.175577 0.250434 0.8 0 0
0.483068 0.970200 0.574453 0.8 0 0
0.038927 0.562554 0.378485 0.8 0 0
0.593250 0.189725 0.119851 0.8 0 0
0.506489 0.134059 0.839082 0.8 0 0
0.152121 0.044891 0.340314 0.8 0 0
0.826500 0.591438 0.312673 0.8 0 0
0.431209 0.292190 0.060427 0.8 0 0
0.477663 0.929578 0.248706 0.8 0 0
0.810179 0.661462 0.292992 0.8 0 0
0.692875 0.834632 0.745049 0.8 0 0
0.035329 0.579492 0.420908 0.8 0 0
0.095774 0.787811 0.507853 0.8 0 0
0.591485 0.143245 0.198958 0.8 0 0
0.559144 0.786201 0.780514 0.8 0 0
0.536510 0.267948 0.060791 0.8 0 0
0.286436 0.147649 0.248660 0.8 0 0
0.117272 0.654046 0.277582 0.8 0 0
0.615210 0.535252 0.107190 0.8 0 0
0.486962 0.958507 0.330795 0.8 0 0
0.273144 0.496040 0.826389 0.8 0 0
0.682161 0.303938 0.687353 0.8 0 0
0.744176 0.626797 0.716251 0.8 0 0
0.231636 0.290980 0.760565 0.8 0 0
0.269452 0.155633 0.377950 0.8 0 0
0.377162 0.393236 0.936515 0.8 0 0
0.753379 0.534660 0.147297 0.8 0 0
0.249063 0.451280 0.794209 0.8 0 0
0.233803 0.549905 0.809089 0.8 0 0
0.289448 0.174040 0.799014 0.8 0 0
0.221681 0.072695 0.312503 0.8 0 0
0.334815 0.961653 0.499329 0.8 0 0
0.150165 0.808834 0.388205 0.8 0 0
0.736859 0.855137 0.529820 0.8 0 0
0.213112 0.498094 0.740861 0.8 0 0
0.544630 0.831139 0.849198 0.8 0 0
0.499240 0.320880 0.090338 0.8 0 0
0.197677 0.707763 0.678171 0.8 0 0
0.200874 0.611848 0.712586 0.8 0 0
0.730935 0.452302 0.599712 0.8 0 0
0.652181 0.122512 0.235858 0.8 0 0
0.499020 0.551033 0.899659 0.8 0 0
0.417696 0.473624 0.869846 0.8 0 0
0.428921 0.283066 0.065182 0.8 0 0
0.445145 0.921233 0.719402 0.8 0 0
0.464741 0.246614 0.880973 0.8 0 0
0.190817 0.623259 0.673241 0.8 0 0
0.670245 0.216619 0.631660 0.8 0 0
0.733808 0.412889 0.109499 0.8 0 0
0.370089 0.961280 0.608696 0.8 0 0
0.306292 0.869839 0.842001 0.8 0 0
0.132524 0.848578 0.476150 0.8 0 0
0.682397 0.762710 0.196865 0.8 0 0
0.285456 0.726938 0.127032 0.8 0 0
0.191419 0.045630 0.392857 0.8 0 0
0.733583 0.276019 0.171662 0.8 0 0
0.784111 0.692053 0.672427 0.8 0 0
0.839702 0.355664 0.298426 0.8 0 0
0.387214 0.206558 0.891425 0.8 0 0
0.235651 0.944873 0.458588 0.8 0 0
0.671067 0.364619 0.756149 0.8 0 0
0.348051 0.226045 0.081401 0.8 0 0
0.275814 0.133284 0.667690 0.8 0 0
0.386517 0.175693 0.131194 0.8 0 0
0.441600 0.609709 0.038223 0.8 0 0
0.117543 0.601535 0.594570 0.8 0 0
0.634190 0.400774 0.812293 0.8 0 0
0.227619 0.454266 0.760871 0.8 0 0
0.531145 0.781365 0.874759 0.8 0 0
0.570434 0.393453 0.078590 0.8 0 0
0.521864 0.768587 0.131388 0.8 0 0
0.512883 0.957679 0.715021 0.8 0 0
0.517320 0.967625 0.571532 0.8 0 0
0.284119 0.233403 0.813402 0.8 0 0
0.218827 0.255638 0.218097 0.8 0 0
0.700335 0.854374 0.485161 0.8 0 0
0.574631 0.938532 0.702729 0.8 0 0
0.472678 0.048644 0.715124 0.8 0 0
0.665964 0.551189 0.754983 0.8 0 0
0.723685 0.437432 0.615102 0.8 0 0
0.235011 0.200856 0.564898 0.8 0 0
0.105234 0.796930 0.521084 0.8 0 0
0.243742 0.260733 0.335778 0.8 0 0
0.227170 0.080491 0.460013 0.8 0 0
0.190851 0.350509 0.597662 0.8 0 0
0.320223 0.340532 0.045170 0.8 0 0
0.418969 0.064853 0.823423 0.8 0 0
0.837531 0.624579 0.589504 0.8 0 0
0.553254 0.956064 0.649052 0.8 0 0
0.331071 0.407356 0.859493 0.8 0 0
0.466758 0.957964 0.333629 0.8 0 0
0.417805 0.209451 0.090214 0.8 0 0
0.199168 0.320983 0.558677 0.8 0 0
0.705204 0.197064 0.354784 0.8 0 0
0.600597 0.474439 0.061683 0.8 0 0
0.514761 0.721379 0.069207 0.8 0 0
0.219363 0.696903 0.185001 0.8 0 0
0.206977 0.846361 0.571391 0.8 0 0
0.173734 0.688458 0.675848 0.8 0 0
0.752089 0.195950 0.248876 0.8 0 0
0.459693 0.471885 0.868403 0.8 0 0
0.098861 0.627723 0.287520 0.8 0 0
0.285757 0.256707 0.817993 0.8 0 0
0.250155 0.666303 0.128385 0.8 0 0
0.265461 0.426647 0.110727 0.8 0 0
0.328368 0.841267 0.848834 0.8 0 0
0.126661 0.477280 0.620775 0.8 0 0
0.376243 0.740493 0.083656 0.8 0 0
0.491756 0.946882 0.737355 0.8 0 0
0.673214 0.164849 0.438343 0.8 0 0
0.846574 0.679634 0.508069 0.8 0 0
0.238596 0.267195 0.344398 0.8 0 0
0.865686 0.449794 0.380130 0.8 0 0
0.114429 0.513019 0.241924 0.8 0 0
0.476775 0.068338 0.757111 0.8 0 0
0.644628 0.173118 0.692788 0.8 0 0
0.676503 0.657865 0.746943 0.8 0 0
0.207639 0.872788 0.705981 0.8 0 0
0.676012 0.275983 0.704314 0.8 0 0
0.286564 0.070587 0.188431 0.8 0 0
0.398118 0.058701 0.797673 0.8 0 0
0.193062 0.328576 0.384852 0.8 0 0
0.855978 0.418929 0.338311 0.8 0 0
0.312720 0.085524 0.208403 0.8 0 0
0.418944 0.863748 0.814655 0.8 0 0
0.834783 0.597514 0.382431 0.8 0 0
0.505760 0.235097 0.076901 0.8 0 0
0.588322 0.545287 0.864345 0.8 0 0
0.257112 0.289867 0.795873 0.8 0 0
0.159584 0.795410 0.291298 0.8 0 0
0.272520 0.806559 0.180786 0.8 0 0
0.419019 0.028056 0.127595 0.8 0 0
0.205212 0.398358 0.736473 0.8 0 0
0.389707 0.756363 0.886769 0.8 0 0
0.248957 0.472022 0.094102 0.8 0 0
0.341677 0.909361 0.257785 0.8 0 0
0.217315 0.898498 0.622405 0.8 0 0
0.149290 0.724800 0.284188 0.8 0 0
0.607650 0.726091 0.155011 0.8 0 0
0.256533 0.613434 0.103341 0.8 0 0
0.500362 0.854961 0.861407 0.8 0 0
0.203267 0.837493 0.588733 0.8 0 0
0.488660 0.135300 0.849561 0.8 0 0
0.815853 0.615278 0.634080 0.8 0 0
0.203125 0.571923 0.713110 0.8 0 0
0.761105 0.298085 0.437098 0.8 0 0
0.655956 0.387050 0.088024 0.8 0 0
0.350276 0.156481 0.201246 0.8 0 0
0.657413 0.212007 0.152985 0.8 0 0
0.545249 0.095189 0.174882 0.8 0 0
0.109777 0.625505 0.229306 0.8 0 0
0.337160 0.111281 0.854600 0.8 0 0
0.152280 0.693689 0.662593 0.8 0 0
0.169023 0.756134 0.597707 0.8 0 0
0.301963 0.883729 0.247860 0.8 0 0
0.590347 0.203000 0.794488 0.8 0 0
0.455571 0.521097 0.872634 0.8 0 0
0.635082 0.080778 0.205762 0.8 0 0
0.356564 0.070939 0.161597 0.8 0 0
0.365719 0.103721 0.873268 0.8 0 0
0.179709 0.385942 0.498446 0.8 0 0
0.451962 0.951961 0.286633 0.8 0 0
0.248523 0.195944 0.435118 0.8 0 0
0.423140 0.146625 0.124493 0.8 0 0
0.810268 0.615318 0.286401 0.8 0 0
0.049106 0.538921 0.382951 0.8 0 0
0.885186 0.598125 0.513939 0.8 0 0
0.857455 0.569998 0.416036 0.8 0 0
0.428736 0.904370 0.769175 0.8 0 0
0.716108 0.862964 0.668254 0.8 0 0
0.791694 0.712721 0.645842 0.8 0 0
0.487808 0.846781 0.178571 0.8 0 0
0.715959 0.526204 0.115604 0.8 0 0
0.218999 0.321101 0.498158 0.8 0 0
0.036375 0.576198 0.410266 0.8 0 0
0.287449 0.122736 0.252138 0.8 0 0
0.496022 0.230201 0.077106 0.8 0 0
0.348746 0.067720 0.797857 0.8 0 0
0.605616 0.938313 0.521502 0.8 0 0
0.323725 0.334660 0.046399 0.8 0 0
0.422702 0.026896 0.687886 0.8 0 0
0.735220 0.866440 0.548821 0.8 0 0
0.138102 0.706216 0.281322 0.8 0 0
0.696985 0.061175 0.507373 0.8 0 0
0.116342 0.583761 0.216459 0.8 0 0
0.765691 0.819827 0.429035 0.8 0 0
0.154688 0.478600 0.203259 0.8 0 0
0.619015 0.206462 0.765802 0.8 0 0
0.734705 0.188979 0.229604 0.8 0 0
0.172693 0.451235 0.668195 0.8 0 0
0.283452 0.592817 0.074496 0.8 0 0
0.727392 0.858164 0.649836 0.8 0 0
0.567600 0.878869 0.263221 0.8 0 0
0.416816 0.863596 0.817578 0.8 0 0
0.366535 0.327119 0.062711 0.8 0 0
0.688150 0.293046 0.527942 0.8 0 0
0.752790 0.743562 0.255826 0.8 0 0
0.489155 0.454044 0.061796 0.8 0 0
0.713736 0.593426 0.705807 0.8 0 0
0.596633 0.914837 0.750592 0.8 0 0
0.098906 0.543898 0.565747 0.8 0 0
0.555445 0.063283 0.639599 0.8 0 0
0.119416 0.748722 0.560057 0.8 0 0
0.855236 0.407841 0.323256 0.8 0 0
0.102066 0.532024 0.603646 0.8 0 0
0.760523 0.256586 0.438876 0.8 0 0
0.812925 0.656801 0.590273 0.8 0 0
0.796510 0.730358 0.665695 0.8 0 0
0.174333 0.396769 0.121170 0.8 0 0
0.244382 0.228413 0.446306 0.8 0 0
0.178406 0.434182 0.682077 0.8 0 0
0.728071 0.203224 0.332651 0.8 0 0
0.671908 0.812983 0.270358 0.8 0 0
0.721411 0.087281 0.428034 0.8 0 0
0.157592 0.648034 0.162836 0.8 0 0
0.375314 0.668043 0.062337 0.8 0 0
0.456493 0.167984 0.870809 0.8 0 0
0.478289 0.862231 0.186950 0.8 0 0
0.302546 0.961325 0.465552 0.8 0 0
0.390574 0.223313 0.089110 0.8 0 0
0.111082 0.481700 0.383448 0.8 0 0
0.299897 0.955813 0.622765 0.8 0 0
0.840783 0.563476 0.637436 0.8 0 0
0.796136 0.646580 0.644576 0.8 0 0
0.294407 0.052828 0.549195 0.8 0 0
0.664404 0.449589 0.070201 0.8 0 0
0.511851 0.960031 0.404377 0.8 0 0
0.832335 0.398033 0.249143 0.8 0 0
0.541102 0.429209 0.847444 0.8 0 0
0.223664 0.255059 0.724418 0.8 0 0
0.584821 0.267704 0.829163 0.8 0 0
0.431369 0.792000 0.857034 0.8 0 0
0.129206 0.360281 0.353049 0.8 0 0
0.334376 0.962355 0.589488 0.8 0 0
0.486270 0.745535 0.845094 0.8 0 0
0.041692 0.599842 0.361797 0.8 0 0
0.663205 0.528622 0.763139 0.8 0 0
0.300251 0.212130 0.107841 0.8 0 0
0.276103 0.085739 0.228319 0.8 0 0
0.575607 0.727114 0.131061 0.8 0 0
0.405622 0.770643 0.087828 0.8 0 0
0.790469 0.703858 0.621489 0.8 0 0
0.319789 0.160031 0.207764 0.8 0 0
0.499774 0.963957 0.619504 0.8 0 0
0.668869 0.257804 0.109615 0.8 0 0
0.126613 0.706332 0.614655 0.8 0 0
0.492265 0.722349 0.068311 0.8 0 0
0.499849 0.059208 0.151548 0.8 0 0
0.790267 0.658374 0.613674 0.8 0 0
0.131380 0.051068 0.270725 0.8 0 0
0.331188 0.412786 0.857668 0.8 0 0
0.646926 0.514305 0.798433 0.8 0 0
0.617034 0.750688 0.737302 0.8 0 0
0.180960 0.343455 0.499975 0.8 0 0
0.691258 0.226887 0.466667 0.8 0 0
0.191250 0.738176 0.230941 0.8 0 0
0.475371 0.965110 0.418732 0.8 0 0
0.148662 0.431216 0.158689 0.8 0 0
0.056062 0.551127 0.325089 0.8 0 0
0.531919 0.954184 0.371981 0.8 0 0
0.145351 0.777605 0.567767 0.8 0 0
0.255227 0.202502 0.185120 0.8 0 0
0.881949 0.547416 0.573203 0.8 0 0
0.676114 0.875202 0.708547 0.8 0 0
0.200669 0.555051 0.709087 0.8 0 0
0.782994 0.027884 0.420032 0.8 0 0
0.523830 0.587707 0.054246 0.8 0 0
0.391142 0.206334 0.102395 0.8 0 0
0.693244 0.135671 0.439598 0.8 0 0
0.534160 0.045468 0.646278 0.8 0 0
0.232372 0.091398 0.358510 0.8 0 0
0.630846 0.855949 0.280653 0.8 0 0
0.844258 0.434410 0.397846 0.8 0 0
0.561684 0.341017 0.088995 0.8 0 0
0.156638 0.316896 0.281108 0.8 0 0
0.235068 0.183406 0.598347 0.8 0 0
0.429932 0.897923 0.774405 0.8 0 0
0.689623 0.346664 0.675425 0.8 0 0
0.119656 0.482460 0.438278 0.8 0 0
0.223051 0.898696 0.693839 0.8 0 0
0.743623 0.078142 0.362042 0.8 0 0
0.776247 0.291647 0.190686 0.8 0 0
0.482578 0.960800 0.360948 0.8 0 0
0.554535 0.937828 0.392657 0.8 0 0
0.214487 0.277783 0.203084 0.8 0 0
0.330130 0.838933 0.848496 0.8 0 0
0.728407 0.059054 0.452649 0.8 0 0
0.059219 0.502159 0.491074 0.8 0 0
0.160119 0.447365 0.613403 0.8 0 0
0.620385 0.814289 0.808473 0.8 0 0
0.159698 0.587678 0.163427 0.8 0 0
0.258424 0.784114 0.835781 0.8 0 0
0.874170 0.620236 0.478226 0.8 0 0
0.468544 0.954047 0.284800 0.8 0 0
0.748585 0.855421 0.588311 0.8 0 0
0.542943 0.116432 0.766926 0.8 0 0
0.753363 0.821092 0.529746 0.8 0 0
0.291107 0.097434 0.563025 0.8 0 0
0.205741 0.886758 0.670185 0.8 0 0
0.674248 0.657421 0.748101 0.8 0 0
0.225815 0.081249 0.270397 0.8 0 0
0.745334 0.217557 0.353712 0.8 0 0
0.450780 0.724580 0.067746 0.8 0 0
0.697326 0.895863 0.568509 0.8 0 0
0.588394 0.448419 0.060386 0.8 0 0
0.838945 0.661287 0.349917 0.8 0 0
0.625201 0.092809 0.202170 0.8 0 0
0.743111 0.795922 0.343888 0.8 0 0
0.752511 0.726407 0.217844 0.8 0 0
0.331359 0.171220 0.171991 0.8 0 0
0.708149 0.228397 0.445477 0.8 0 0
0.387801 0.897584 0.841042 0.8 0 0
0.452689 0.028826 0.696610 0.8 0 0
0.333693 0.331800 0.856437 0.8 0 0
0.357782 0.264629 0.054470 0.8 0 0
0.146066 0.459272 0.633995 0.8 0 0
0.402288 0.963006 0.480822 0.8 0 0
0.432909 0.399042 0.927136 0.8 0 0
0.572841 0.865456 0.853550 0.8 0 0
0.243923 0.418768 0.785754 0.8 0 0
0.219614 0.613342 0.763548 0.8 0 0
0.139179 0.697462 0.663167 0.8 0 0
0.571929 0.842906 0.234051 0.8 0 0
0.649090 0.497508 0.783098 0.8 0 0
0.657850 0.220814 0.721520 0.8 0 0
0.431007 0.721463 0.062484 0.8 0 0
0.586056 0.952719 0.542112 0.8 0 0
0.126927 0.038470 0.357977 0.8 0 0
0.650543 0.856011 0.297243 0.8 0 0
0.255570 0.365590 0.094067 0.8 0 0
0.232326 0.303435 0.479156 0.8 0 0
0.299094 0.109247 0.710453 0.8 0 0
0.204296 0.851589 0.329442 0.8 0 0
0.099721 0.661067 0.341425 0.8 0 0
0.103046 0.719717 0.551531 0.8 0 0
0.426639 0.227816 0.089706 0.8 0 0
0.397023 0.910692 0.235977 0.8 0 0
0.647799 0.450792 0.783601 0.8 0 0
0.414476 0.872875 0.814259 0.8 0 0
0.750454 0.028178 0.208858 0.8 0 0
0.327188 0.759027 0.862665 0.8 0 0
0.319902 0.105333 0.215826 0.8 0 0
0.632862 0.195975 0.149162 0.8 0 0
0.710663 0.668963 0.141134 0.8 0 0
0.196763 0.586837 0.697745 0.8 0 0
0.682448 0.198376 0.401736 0.8 0 0
0.582188 0.764228 0.776933 0.8 0 0
0.118626 0.391540 0.199991 0.8 0 0
0.210670 0.238188 0.576389 0.8 0 0
0.665128 0.776324 0.201089 0.8 0 0
0.514874 0.957919 0.714749 0.8 0 0
0.149125 0.693767 0.647622 0.8 0 0
0.480761 0.563770 0.046739 0.8 0 0
0.387266 0.931961 0.303676 0.8 0 0
0.739547 0.194352 0.268855 0.8 0 0
0.454970 0.445243 0.885542 0.8 0 0
0.466700 0.417340 0.076082 0.8 0 0
0.253403 0.597329 0.096867 0.8 0 0
0.246266 0.795007 0.821425 0.8 0 0
0.622804 0.928011 0.514677 0.8 0 0
0.125940 0.649547 0.259624 0.8 0 0
0.853034 0.436969 0.386845 0.8 0 0
0.169528 0.744846 0.257852 0.8 0 0
0.479799 0.312484 0.882984 0.8 0 0
0.586651 0.139480 0.722984 0.8 0 0
0.461812 0.770354 0.862305 0.8 0 0
0.125045 0.371633 0.236923 0.8 0 0
0.825753 0.326085 0.304881 0.8 0 0
0.174588 0.332631 0.395174 0.8 0 0
0.045018 0.587816 0.456060 0.8 0 0
0.117723 0.504489 0.237129 0.8 0 0
0.737733 0.223442 0.209300 0.8 0 0
0.709198 0.776762 0.253149 0.8 0 0
0.352450 0.953541 0.432622 0.8 0 0
0.516105 0.456818 0.854639 0.8 0 0
0.259734 0.843437 0.829850 0.8 0 0
0.475423 0.693119 0.865117 0.8 0 0
0.147796 0.559222 0.648730 0.8 0 0
0.610107 0.940879 0.537947 0.8 0 0
0.467565 0.248320 0.881297 0.8 0 0
0.214838 0.648452 0.738194 0.8 0 0
0.402429 0.494761 0.854610 0.8 0 0
0.660895 0.334738 0.765952 0.8 0 0
0.263613 0.188854 0.398488 0.8 0 0
0.622760 0.659164 0.799323 0.8 0 0
0.361606 0.515283 0.059577 0.8 0 0
0.466007 0.339909 0.092407 0.8 0 0
0.153692 0.044470 0.234137 0.8 0 0
0.268966 0.187395 0.241870 0.8 0 0
0.192146 0.371645 0.646222 0.8 0 0
0.864664 0.490542 0.363159 0.8 0 0
0.832511 0.598832 0.343190 0.8 0 0
0.727638 0.487788 0.713307 0.8 0 0
0.658209 0.249115 0.735048 0.8 0 0
0.673871 0.067586 0.502307 0.8 0 0
0.430150 0.131500 0.144870 0.8 0 0
0.094785 0.578791 0.536038 0.8 0 0
0.435961 0.050659 0.746509 0.8 0 0
0.258572 0.825310 0.216214 0.8 0 0
0.180554 0.420763 0.574813 0.8 0 0
0.126842 0.827974 0.437172 0.8 0 0
0.205951 0.558350 0.724643 0.8 0 0
0.412255 0.942298 0.302580 0.8 0 0
0.172075 0.417238 0.438552 0.8 0 0
0.513545 0.574738 0.056281 0.8 0 0
0.229607 0.503551 0.077497 0.8 0 0
0.465952 0.567012 0.043235 0.8 0 0
0.297418 0.292356 0.832702 0.8 0 0
0.574104 0.845598 0.236188 0.8 0 0
0.236079 0.210632 0.305490 0.8 0 0
0.461192 0.889394 0.771201 0.8 0 0
0.160931 0.576942 0.600727 0.8 0 0
0.406290 0.963547 0.625563 0.8 0 0
0.549412 0.811406 0.202208 0.8 0 0
0.561681 0.636853 0.065411 0.8 0 0
0.363930 0.950833 0.699755 0.8 0 0
0.262229 0.812077 0.829555 0.8 0 0
0.394125 0.185607 0.119184 0.8 0 0
0.601177 0.343177 0.836234 0.8 0 0
0.450801 0.974563 0.548195 0.8 0 0
0.304458 0.291441 0.838192 0.8 0 0
0.455006 0.538870 0.044961 0.8 0 0
0.351346 0.215001 0.875094 0.8 0 0
0.151369 0.451534 0.526399 0.8 0 0
0.283717 0.420087 0.105726 0.8 0 0
0.436610 0.965150 0.640971 0.8 0 0
0.354110 0.118955 0.866672 0.8 0 0
0.714250 0.214279 0.393344 0.8 0 0
0.326544 0.711713 0.841645 0.8 0 0
0.615627 0.125453 0.215825 0.8 0 0
0.047760 0.535240 0.452052 0.8 0 0
0.201237 0.826540 0.279575 0.8 0 0
0.856230 0.377509 0.335826 0.8 0 0
0.328305 0.600081 0.049555 0.8 0 0
0.112626 0.461281 0.523732 0.8 0 0
0.215525 0.053138 0.404292 0.8 0 0
0.735834 0.634868 0.192039 0.8 0 0
0.398873 0.424809 0.908533 0.8 0 0
0.374344 0.616784 0.046447 0.8 0 0
0.274364 0.767495 0.849903 0.8 0 0
0.183178 0.321499 0.356008 0.8 0 0
0.700143 0.385893 0.089407 0.8 0 0
0.588436 0.510647 0.054881 0.8 0 0
0.235400 0.700595 0.748772 0.8 0 0
0.862738 0.638831 0.499744 0.8 0 0
