0.564396 0.618389 0.383744 0.8 0 0
0.406969 0.943696 0.251881 0.8 0 0
0.182141 0.565621 0.062126 0.8 0 0
0.550145 0.474110 0.404587 0.8 0 0
0.498037 0.552472 0.117910 0.8 0 0
0.337171 0.937656 0.189608 0.8 0 0
0.064847 0.484737 0.348567 0.8 0 0
0.434405 0.682811 0.559124 0.8 0 0
0.448951 0.074828 0.183506 0.8 0 0
0.551960 0.576871 0.486339 0.8 0 0
0.448213 0.672218 0.593838 0.8 0 0
0.278817 0.860014 0.093983 0.8 0 0
0.401423 0.638111 0.631944 0.8 0 0
0.272524 0.673289 0.660383 0.8 0 0
0.314285 0.126400 0.490614 0.8 0 0
0.506095 0.424997 0.586172 0.8 0 0
0.194958 0.708733 0.053575 0.8 0 0
0.392820 0.336806 0.121845 0.8 0 0
0.138321 0.783251 0.117801 0.8 0 0
0.101724 0.570423 0.594496 0.8 0 0
0.299935 0.313466 0.702544 0.8 0 0
0.334169 0.935625 0.515911 0.8 0 0
0.264636 0.236838 0.117115 0.8 0 0
0.436392 0.554009 0.525315 0.8 0 0
0.510200 0.741339 0.136640 0.8 0 0
0.343548 0.921368 0.160194 0.8 0 0
0.344244 0.255652 0.112387 0.8 0 0
0.506494 0.423972 0.230159 0.8 0 0
0.396869 0.441899 0.090605 0.8 0 0
0.446482 0.899925 0.190723 0.8 0 0
0.169776 0.583077 0.508387 0.8 0 0
0.533806 0.547460 0.567762 0.8 0 0
0.131805 0.245947 0.320718 0.8 0 0
0.328274 0.538236 0.042159 0.8 0 0
0.563103 0.644805 0.377561 0.8 0 0
0.533771 0.826308 0.298044 0.8 0 0
0.395407 0.546032 0.544937 0.8 0 0
0.110337 0.800415 0.183046 0.8 0 0
0.118817 0.501099 0.152855 0.8 0 0
0.524473 0.812315 0.228248 0.8 0 0
0.212387 0.532682 0.059606 0.8 0 0
0.150551 0.288487 0.456065 0.8 0 0
0.190766 0.780415 0.617313 0.8 0 0
0.396333 0.077040 0.468426 0.8 0 0
0.196364 0.907691 0.182059 0.8 0 0
0.546025 0.804142 0.394838 0.8 0 0
0.139519 0.529684 0.108049 0.8 0 0
0.280017 0.224924 0.571970 0.8 0 0
0.469004 0.278535 0.210288 0.8 0 0
0.435147 0.598459 0.635756 0.8 0 0
0.226746 0.645744 0.504929 0.8 0 0
0.102562 0.362843 0.361748 0.8 0 0
0.246210 0.219019 0.124733 0.8 0 0
0.535476 0.534464 0.559387 0.8 0 0
0.238856 0.282452 0.124098 0.8 0 0
0.232369 0.672226 0.652443 0.8 0 0
0.342266 0.597794 0.030731 0.8 0 0
0.303541 0.967946 0.424027 0.8 0 0
0.097357 0.459985 0.249120 0.8 0 0
0.546104 0.755769 0.474603 0.8 0 0
0.070617 0.486460 0.422695 0.8 0 0
0.376332 0.463973 0.075171 0.8 0 0
0.116861 0.478411 0.610174 0.8 0 0
0.368604 0.211077 0.502861 0.8 0 0
0.492783 0.909851 0.356254 0.8 0 0
0.348287 0.527817 0.047764 0.8 0 0
0.210222 0.660711 0.641006 0.8 0 0
0.166028 0.321967 0.175005 0.8 0 0
0.216427 0.586958 0.640697 0.8 0 0
0.418346 0.354117 0.134012 0.8 0 0
0.168004 0.573804 0.515200 0.8 0 0
0.168317 0.053441 0.189487 0.8 0 0
0.335472 0.321336 0.104182 0.8 0 0
0.397318 0.963022 0.342257 0.8 0 0
0.422695 0.772838 0.621793 0.8 0 0
0.522761 0.593835 0.583898 0.8 0 0
0.145545 0.685586 0.624314 0.8 0 0
0.286043 0.400251 0.088560 0.8 0 0
0.278957 0.880033 0.587614 0.8 0 0
0.096530 0.385875 0.312912 0.8 0 0
0.107561 0.360814 0.495512 0.8 0 0
0.348612 0.557245 0.040169 0.8 0 0
0.179493 0.575069 0.636886 0.8 0 0
0.335644 0.918236 0.547465 0.8 0 0
0.370423 0.655032 0.600117 0.8 0 0
0.255887 0.500380 0.674384 0.8 0 0
0.250949 0.877620 0.117483 0.8 0 0
0.381383 0.120563 0.475438 0.8 0 0
0.182955 0.894809 0.175285 0.8 0 0
0.410240 0.392679 0.671122 0.8 0 0
0.535826 0.446585 0.489455 0.8 0 0
0.195393 0.166898 0.447018 0.8 0 0
0.314673 0.222663 0.633313 0.8 0 0
0.578340 0.610027 0.336984 0.8 0 0
0.047044 0.524715 0.328544 0.8 0 0
0.549322 0.788750 0.404385 0.8 0 0
0.439465 0.560517 0.613559 0.8 0 0
0.058457 0.628363 0.359134 0.8 0 0
0.528267 0.464752 0.550249 0.8 0 0
0.329624 0.105728 0.489709 0.8 0 0
0.155066 0.765733 0.604916 0.8 0 0
0.382154 0.227156 0.127148 0.8 0 0
0.113099 0.340084 0.393639 0.8 0 0
0.559895 0.731555 0.346679 0.8 0 0
0.350495 0.824794 0.616707 0.8 0 0
0.411830 0.305429 0.661752 0.8 0 0
0.237499 0.397989 0.682150 0.8 0 0
0.282924 0.648314 0.668605 0.8 0 0
0.163182 0.279278 0.539198 0.8 0 0
0.163165 0.552011 0.561792 0.8 0 0
0.185218 0.199880 0.439064 0.8 0 0
0.135235 0.681070 0.600053 0.8 0 0
0.552116 0.664714 0.246167 0.8 0 0
0.411719 0.894298 0.152196 0.8 0 0
0.422058 0.233838 0.469547 0.8 0 0
0.107523 0.398208 0.552875 0.8 0 0
0.109272 0.841215 0.239515 0.8 0 0
0.552301 0.587517 0.268632 0.8 0 0
0.086618 0.429853 0.460583 0.8 0 0
0.552791 0.646525 0.250774 0.8 0 0
0.552379 0.621488 0.255146 0.8 0 0
0.480407 0.206128 0.243848 0.8 0 0
0.042595 0.487775 0.332583 0.8 0 0
0.254421 0.269203 0.688619 0.8 0 0
0.482380 0.069212 0.286938 0.8 0 0
0.358215 0.674856 0.648404 0.8 0 0
0.429219 0.854037 0.576484 0.8 0 0
0.232536 0.249508 0.663570 0.8 0 0
0.510698 0.753550 0.144826 0.8 0 0
0.323693 0.759930 0.640944 0.8 0 0
0.409778 0.940211 0.243279 0.8 0 0
0.201266 0.352449 0.136804 0.8 0 0
0.289333 0.418779 0.706149 0.8 0 0
0.393918 0.831520 0.605209 0.8 0 0
0.113200 0.351911 0.297089 0.8 0 0
0.120669 0.853433 0.226926 0.8 0 0
0.273291 0.111675 0.487036 0.8 0 0
0.289791 0.404686 0.086828 0.8 0 0
0.139882 0.063524 0.324993 0.8 0 0
0.243946 0.047451 0.131046 0.8 0 0
0.089080 0.765227 0.205697 0.8 0 0
0.317706 0.399942 0.710699 0.8 0 0
0.356788 0.919940 0.161925 0.8 0 0
0.539730 0.559170 0.225957 0.8 0 0
0.449432 0.588177 0.504689 0.8 0 0
0.099123 0.377744 0.317768 0.8 0 0
0.137640 0.175817 0.263826 0.8 0 0
0.302376 0.468679 0.738515 0.8 0 0
0.280949 0.363131 0.706632 0.8 0 0
0.110962 0.698965 0.124076 0.8 0 0
0.484279 0.395318 0.199833 0.8 0 0
0.159916 0.134437 0.201448 0.8 0 0
0.366870 0.966511 0.314300 0.8 0 0
0.077946 0.476215 0.476750 0.8 0 0
0.429015 0.734215 0.633850 0.8 0 0
0.293297 0.691568 0.027974 0.8 0 0
0.149813 0.828042 0.139451 0.8 0 0
0.070005 0.696556 0.265823 0.8 0 0
0.518494 0.483437 0.586589 0.8 0 0
0.083965 0.811348 0.448036 0.8 0 0
0.151426 0.642846 0.068907 0.8 0 0
0.228371 0.795805 0.620896 0.8 0 0
0.138832 0.351627 0.216691 0.8 0 0
0.078866 0.720945 0.217718 0.8 0 0
0.099149 0.498871 0.211087 0.8 0 0
0.295227 0.950798 0.218265 0.8 0 0
0.485089 0.138168 0.294949 0.8 0 0
0.066655 0.584373 0.320131 0.8 0 0
0.195195 0.674281 0.048993 0.8 0 0
0.461208 0.693929 0.629869 0.8 0 0
0.229938 0.824157 0.082756 0.8 0 0
0.166913 0.259956 0.437941 0.8 0 0
0.302278 0.392089 0.713033 0.8 0 0
0.472618 0.196585 0.369154 0.8 0 0
0.178989 0.037229 0.423923 0.8 0 0
0.201300 0.954126 0.321040 0.8 0 0
0.555864 0.725451 0.293278 0.8 0 0
0.198544 0.940745 0.455135 0.8 0 0
0.541594 0.789162 0.455963 0.8 0 0
0.146392 0.083022 0.356929 0.8 0 0
0.125353 0.605907 0.101971 0.8 0 0
0.158756 0.370067 0.170959 0.8 0 0
0.494336 0.352979 0.244569 0.8 0 0
0.390367 0.605270 0.623914 0.8 0 0
0.416317 0.712921 0.642875 0.8 0 0
0.139631 0.117592 0.263515 0.8 0 0
0.035035 0.625701 0.325910 0.8 0 0
0.089575 0.468012 0.542735 0.8 0 0
0.356698 0.071957 0.487245 0.8 0 0
0.153287 0.145789 0.216423 0.8 0 0
0.071877 0.545515 0.297751 0.8 0 0
0.212310 0.711263 0.645370 0.8 0 0
0.072665 0.700384 0.247762 0.8 0 0
0.140446 0.082756 0.334382 0.8 0 0
0.382824 0.390504 0.685572 0.8 0 0
0.303599 0.659774 0.670518 0.8 0 0
0.150557 0.610924 0.070931 0.8 0 0
0.314289 0.859854 0.089565 0.8 0 0
0.482641 0.892525 0.244797 0.8 0 0
0.506675 0.771606 0.146896 0.8 0 0
0.239276 0.740151 0.640792 0.8 0 0
0.486308 0.239710 0.339477 0.8 0 0
0.562882 0.602485 0.406195 0.8 0 0
0.478092 0.309049 0.556754 0.8 0 0
0.582511 0.490304 0.337805 0.8 0 0
0.368060 0.969006 0.351667 0.8 0 0
0.297817 0.957800 0.461645 0.8 0 0
0.579903 0.549472 0.318228 0.8 0 0
0.063266 0.552501 0.442746 0.8 0 0
0.275388 0.631560 0.566922 0.8 0 0
0.462790 0.057296 0.213150 0.8 0 0
0.517294 0.360393 0.425476 0.8 0 0
0.148076 0.081000 0.235518 0.8 0 0
0.109160 0.762449 0.155945 0.8 0 0
0.481885 0.083393 0.323603 0.8 0 0
0.236640 0.729023 0.644053 0.8 0 0
0.566202 0.548790 0.420387 0.8 0 0
0.124782 0.639291 0.098443 0.8 0 0
0.208427 0.689783 0.045652 0.8 0 0
0.074704 0.754765 0.480029 0.8 0 0
0.031825 0.561267 0.317006 0.8 0 0
0.199052 0.155247 0.450263 0.8 0 0
0.464686 0.256923 0.403194 0.8 0 0
0.171977 0.299405 0.615686 0.8 0 0
0.129673 0.791946 0.137242 0.8 0 0
0.251060 0.660388 0.653432 0.8 0 0
0.068811 0.556646 0.490559 0.8 0 0
0.547487 0.457710 0.372766 0.8 0 0
0.397102 0.594313 0.633977 0.8 0 0
0.576176 0.608651 0.341056 0.8 0 0
0.097679 0.406442 0.287672 0.8 0 0
0.228696 0.532857 0.054257 0.8 0 0
0.522346 0.794960 0.201899 0.8 0 0
0.234058 0.242575 0.642568 0.8 0 0
0.289905 0.488409 0.058996 0.8 0 0
0.480521 0.036448 0.318788 0.8 0 0
0.129230 0.447098 0.620945 0.8 0 0
0.142372 0.075845 0.257192 0.8 0 0
0.112711 0.885540 0.332440 0.8 0 0
0.271053 0.464578 0.707091 0.8 0 0
0.146334 0.651689 0.585638 0.8 0 0
0.542268 0.504172 0.513406 0.8 0 0
0.265930 0.738421 0.038711 0.8 0 0
0.144804 0.411344 0.169978 0.8 0 0
0.338522 0.703370 0.655659 0.8 0 0
0.161588 0.929283 0.433141 0.8 0 0
0.373587 0.881371 0.121309 0.8 0 0
0.188226 0.371182 0.140078 0.8 0 0
0.124872 0.373815 0.579737 0.8 0 0
0.558540 0.561835 0.316237 0.8 0 0
0.560356 0.640490 0.315166 0.8 0 0
0.066556 0.512170 0.445917 0.8 0 0
0.547496 0.489304 0.312959 0.8 0 0
0.132114 0.622906 0.562078 0.8 0 0
0.453603 0.937012 0.314104 0.8 0 0
0.070387 0.781410 0.417073 0.8 0 0
0.313223 0.761987 0.038361 0.8 0 0
0.212783 0.892387 0.149269 0.8 0 0
0.079325 0.594516 0.557145 0.8 0 0
0.339434 0.742749 0.036351 0.8 0 0
0.506239 0.371554 0.547820 0.8 0 0
0.583250 0.629197 0.342552 0.8 0 0
0.267550 0.628080 0.532061 0.8 0 0
0.561528 0.585420 0.425357 0.8 0 0
0.503189 0.345387 0.526027 0.8 0 0
0.329065 0.937340 0.186649 0.8 0 0
0.472599 0.294236 0.497219 0.8 0 0
0.141781 0.914936 0.311472 0.8 0 0
0.361662 0.804826 0.062423 0.8 0 0
0.447271 0.654504 0.514553 0.8 0 0
0.390326 0.145180 0.471366 0.8 0 0
0.069417 0.615942 0.273728 0.8 0 0
0.545515 0.483479 0.469282 0.8 0 0
0.489810 0.474589 0.151902 0.8 0 0
0.413316 0.248401 0.554011 0.8 0 0
0.136528 0.554898 0.099900 0.8 0 0
0.336565 0.712867 0.652986 0.8 0 0
0.413147 0.197505 0.462789 0.8 0 0
0.358233 0.691863 0.032181 0.8 0 0
0.449292 0.066974 0.184097 0.8 0 0
0.415316 0.832639 0.597702 0.8 0 0
0.292323 0.958155 0.459349 0.8 0 0
0.522655 0.513950 0.195223 0.8 0 0
0.125201 0.309553 0.292618 0.8 0 0
0.145121 0.505499 0.645188 0.8 0 0
0.520415 0.861553 0.425483 0.8 0 0
0.359693 0.920098 0.539802 0.8 0 0
0.561105 0.663313 0.411720 0.8 0 0
0.062598 0.632215 0.439221 0.8 0 0
0.365023 0.598473 0.614608 0.8 0 0
0.536522 0.810225 0.278951 0.8 0 0
0.566936 0.511156 0.329282 0.8 0 0
0.487934 0.211953 0.289092 0.8 0 0
0.430231 0.417055 0.667144 0.8 0 0
0.437173 0.606689 0.636573 0.8 0 0
0.247929 0.722075 0.039866 0.8 0 0
0.544947 0.792596 0.431415 0.8 0 0
0.248779 0.966327 0.397151 0.8 0 0
0.317138 0.297671 0.104037 0.8 0 0
0.214162 0.666082 0.518351 0.8 0 0
0.499249 0.339530 0.272756 0.8 0 0
0.504748 0.335424 0.335288 0.8 0 0
0.434812 0.263288 0.559557 0.8 0 0
0.375134 0.788858 0.058013 0.8 0 0
0.144924 0.115882 0.241428 0.8 0 0
0.380684 0.234912 0.586775 0.8 0 0
0.448885 0.833496 0.581798 0.8 0 0
0.546960 0.667916 0.220893 0.8 0 0
0.367536 0.764254 0.634585 0.8 0 0
0.068034 0.677981 0.491724 0.8 0 0
0.223700 0.143519 0.469693 0.8 0 0
0.148857 0.098356 0.364594 0.8 0 0
0.212573 0.576023 0.048150 0.8 0 0
0.250303 0.231566 0.629999 0.8 0 0
0.545214 0.469909 0.448893 0.8 0 0
0.214026 0.684248 0.563724 0.8 0 0
0.450842 0.927911 0.450125 0.8 0 0
0.358676 0.155836 0.120771 0.8 0 0
0.371569 0.862432 0.102817 0.8 0 0
0.398282 0.237846 0.527822 0.8 0 0
0.363270 0.727302 0.038295 0.8 0 0
0.455412 0.855072 0.144429 0.8 0 0
0.443470 0.408585 0.659621 0.8 0 0
0.080178 0.465737 0.311054 0.8 0 0
0.145756 0.218752 0.366397 0.8 0 0
0.448637 0.255224 0.435354 0.8 0 0
0.097300 0.379798 0.434594 0.8 0 0
0.398939 0.042890 0.466587 0.8 0 0
0.152015 0.622110 0.620092 0.8 0 0
0.539273 0.795657 0.267623 0.8 0 0
0.382624 0.946259 0.235168 0.8 0 0
0.140583 0.872638 0.516117 0.8 0 0
0.069504 0.541809 0.348595 0.8 0 0
0.537624 0.661874 0.547493 0.8 0 0
0.300298 0.968776 0.418484 0.8 0 0
0.169323 0.583348 0.623472 0.8 0 0
0.310901 0.760255 0.641277 0.8 0 0
0.528247 0.764157 0.525115 0.8 0 0
0.142164 0.352971 0.600419 0.8 0 0
0.440983 0.680746 0.055498 0.8 0 0
0.442318 0.043080 0.175245 0.8 0 0
0.482535 0.679530 0.625304 0.8 0 0
0.375512 0.554281 0.577390 0.8 0 0
0.138393 0.168761 0.260714 0.8 0 0
0.482207 0.279104 0.237089 0.8 0 0
0.294936 0.152585 0.490734 0.8 0 0
0.270899 0.341451 0.705545 0.8 0 0
0.465254 0.660346 0.065620 0.8 0 0
0.368267 0.230398 0.569199 0.8 0 0
0.490389 0.353094 0.573792 0.8 0 0
0.170973 0.204936 0.415772 0.8 0 0
0.418841 0.930532 0.222566 0.8 0 0
0.105904 0.355184 0.450170 0.8 0 0
0.564704 0.496824 0.363485 0.8 0 0
0.147951 0.876905 0.200279 0.8 0 0
0.413015 0.643670 0.631279 0.8 0 0
0.198885 0.591952 0.639960 0.8 0 0
0.211771 0.531904 0.060033 0.8 0 0
0.555413 0.748277 0.425989 0.8 0 0
0.121170 0.322309 0.328770 0.8 0 0
0.412617 0.568579 0.050840 0.8 0 0
0.403148 0.481445 0.668351 0.8 0 0
0.324829 0.512026 0.050502 0.8 0 0
0.090135 0.841107 0.325933 0.8 0 0
0.246855 0.967852 0.375313 0.8 0 0
0.238794 0.911771 0.161320 0.8 0 0
0.270646 0.443913 0.691841 0.8 0 0
0.214860 0.695129 0.044256 0.8 0 0
0.454741 0.859333 0.147627 0.8 0 0
0.472491 0.769700 0.097402 0.8 0 0
0.063612 0.601388 0.324915 0.8 0 0
0.174768 0.532506 0.650152 0.8 0 0
0.480214 0.028357 0.280204 0.8 0 0
0.493013 0.408982 0.602904 0.8 0 0
0.531487 0.482551 0.548813 0.8 0 0
0.181248 0.193473 0.430547 0.8 0 0
0.245599 0.952102 0.252658 0.8 0 0
0.503170 0.410408 0.583932 0.8 0 0
0.316382 0.591542 0.030143 0.8 0 0
0.448548 0.140029 0.182423 0.8 0 0
0.177358 0.113128 0.175255 0.8 0 0
0.494454 0.871866 0.231520 0.8 0 0
0.171153 0.278209 0.581314 0.8 0 0
0.466828 0.547359 0.082642 0.8 0 0
0.548111 0.651349 0.226905 0.8 0 0
0.330493 0.370038 0.095041 0.8 0 0
0.475274 0.401634 0.179453 0.8 0 0
0.397898 0.236968 0.520995 0.8 0 0
0.068207 0.719613 0.477960 0.8 0 0
0.134578 0.598900 0.090171 0.8 0 0
0.119105 0.720964 0.586378 0.8 0 0
0.556093 0.717283 0.451895 0.8 0 0
0.334975 0.657599 0.027052 0.8 0 0
0.297362 0.514991 0.725150 0.8 0 0
0.551191 0.512767 0.465621 0.8 0 0
0.359820 0.255456 0.117142 0.8 0 0
0.555796 0.624983 0.469876 0.8 0 0
0.436913 0.527954 0.071488 0.8 0 0
0.449111 0.259795 0.442678 0.8 0 0
0.119320 0.635753 0.603180 0.8 0 0
0.167562 0.550773 0.548279 0.8 0 0
0.062102 0.506673 0.332876 0.8 0 0
0.540508 0.627677 0.194842 0.8 0 0
0.243050 0.219675 0.513352 0.8 0 0
0.463707 0.243107 0.204730 0.8 0 0
0.068660 0.596499 0.294992 0.8 0 0
0.177449 0.304651 0.626962 0.8 0 0
0.541721 0.704422 0.522952 0.8 0 0
0.548723 0.777588 0.432186 0.8 0 0
0.134595 0.327676 0.236423 0.8 0 0
0.316299 0.126784 0.490553 0.8 0 0
0.439550 0.279827 0.165037 0.8 0 0
0.411185 0.792988 0.617318 0.8 0 0
0.564608 0.593588 0.400985 0.8 0 0
0.202511 0.932099 0.483706 0.8 0 0
0.587079 0.503545 0.328305 0.8 0 0
0.203921 0.244602 0.518539 0.8 0 0
0.111117 0.515358 0.608440 0.8 0 0
0.133439 0.210183 0.286001 0.8 0 0
0.075264 0.541800 0.526771 0.8 0 0
0.427260 0.931774 0.238290 0.8 0 0
0.243512 0.967142 0.359009 0.8 0 0
0.538250 0.420557 0.341209 0.8 0 0
0.560477 0.686193 0.417227 0.8 0 0
0.073355 0.541537 0.291366 0.8 0 0
0.534215 0.793962 0.480069 0.8 0 0
0.181879 0.745600 0.068041 0.8 0 0
0.402815 0.285581 0.664613 0.8 0 0
0.245033 0.102845 0.128723 0.8 0 0
0.335867 0.930304 0.172069 0.8 0 0
0.460334 0.372223 0.171871 0.8 0 0
0.087276 0.411833 0.398257 0.8 0 0
0.481261 0.909919 0.290290 0.8 0 0
0.154974 0.888187 0.206917 0.8 0 0
0.488894 0.227619 0.295723 0.8 0 0
0.239076 0.596817 0.503194 0.8 0 0
0.509854 0.344599 0.445265 0.8 0 0
0.321855 0.901660 0.129659 0.8 0 0
0.470428 0.063300 0.366506 0.8 0 0
0.478018 0.108142 0.248985 0.8 0 0
0.083648 0.740889 0.521130 0.8 0 0
0.086180 0.821398 0.440337 0.8 0 0
0.058490 0.606170 0.386526 0.8 0 0
0.162498 0.830445 0.127668 0.8 0 0
0.397755 0.651368 0.038661 0.8 0 0
0.365165 0.128247 0.482453 0.8 0 0
0.129654 0.281190 0.274004 0.8 0 0
0.289985 0.224458 0.591902 0.8 0 0
0.083038 0.477911 0.285157 0.8 0 0
0.461611 0.250620 0.200437 0.8 0 0
0.382148 0.484329 0.069110 0.8 0 0
0.558033 0.615116 0.449340 0.8 0 0
0.296162 0.223548 0.629405 0.8 0 0
0.381110 0.349291 0.115156 0.8 0 0
0.417237 0.586329 0.632899 0.8 0 0
0.293683 0.540792 0.041515 0.8 0 0
0.154853 0.357801 0.624801 0.8 0 0
0.519469 0.382367 0.300635 0.8 0 0
0.521215 0.867841 0.362538 0.8 0 0
0.320633 0.344163 0.715164 0.8 0 0
0.153988 0.908386 0.473951 0.8 0 0
0.178578 0.717686 0.634147 0.8 0 0
0.502033 0.335268 0.298185 0.8 0 0
0.373049 0.808407 0.067574 0.8 0 0
0.130790 0.806957 0.564314 0.8 0 0
0.182546 0.381471 0.141193 0.8 0 0
0.443543 0.605383 0.632469 0.8 0 0
0.510951 0.851444 0.244949 0.8 0 0
0.471245 0.682300 0.071385 0.8 0 0
0.083830 0.573433 0.208754 0.8 0 0
0.211805 0.688128 0.044252 0.8 0 0
0.475178 0.160450 0.235706 0.8 0 0
0.111149 0.427471 0.581508 0.8 0 0
0.171950 0.186904 0.180240 0.8 0 0
0.480116 0.155511 0.345986 0.8 0 0
0.130076 0.306283 0.257717 0.8 0 0
0.493967 0.288695 0.313627 0.8 0 0
0.109385 0.350170 0.476839 0.8 0 0
0.137544 0.270012 0.364180 0.8 0 0
0.405653 0.637804 0.644856 0.8 0 0
0.341997 0.603539 0.644786 0.8 0 0
0.306230 0.163962 0.111319 0.8 0 0
0.422573 0.909055 0.180207 0.8 0 0
0.354109 0.587848 0.641375 0.8 0 0
0.240912 0.966807 0.373146 0.8 0 0
0.523917 0.405358 0.291067 0.8 0 0
0.140162 0.065935 0.328073 0.8 0 0
0.224394 0.296527 0.129481 0.8 0 0
0.388753 0.749531 0.636727 0.8 0 0
0.470373 0.489397 0.115278 0.8 0 0
0.178703 0.407103 0.660773 0.8 0 0
0.156832 0.344420 0.183683 0.8 0 0
0.091404 0.451208 0.535854 0.8 0 0
0.161806 0.149878 0.393674 0.8 0 0
0.060387 0.695237 0.411456 0.8 0 0
0.389463 0.046071 0.473474 0.8 0 0
0.379518 0.619586 0.035377 0.8 0 0
0.469331 0.636893 0.068195 0.8 0 0
0.192253 0.354274 0.657213 0.8 0 0
0.392611 0.468608 0.671433 0.8 0 0
0.130857 0.280216 0.342307 0.8 0 0
0.429497 0.664017 0.049557 0.8 0 0
0.189366 0.682582 0.556390 0.8 0 0
0.432652 0.077360 0.430340 0.8 0 0
0.150931 0.711498 0.618970 0.8 0 0
0.430455 0.552116 0.526510 0.8 0 0
0.126034 0.322127 0.517436 0.8 0 0
0.128072 0.480375 0.151463 0.8 0 0
0.280357 0.525655 0.681719 0.8 0 0
0.075313 0.733077 0.244804 0.8 0 0
0.156495 0.048145 0.215244 0.8 0 0
0.585165 0.586182 0.316914 0.8 0 0
0.068516 0.627826 0.281337 0.8 0 0
0.145542 0.330735 0.209919 0.8 0 0
0.533513 0.789251 0.230643 0.8 0 0
0.213902 0.116938 0.143765 0.8 0 0
0.419274 0.849184 0.584760 0.8 0 0
0.089326 0.650321 0.164198 0.8 0 0
0.155286 0.283590 0.459023 0.8 0 0
0.292195 0.893861 0.578825 0.8 0 0
0.445794 0.520926 0.078021 0.8 0 0
0.208917 0.716621 0.643195 0.8 0 0
0.166547 0.631936 0.060708 0.8 0 0
0.466642 0.352310 0.619540 0.8 0 0
0.576886 0.618446 0.348070 0.8 0 0
0.136225 0.919160 0.376890 0.8 0 0
0.140764 0.229817 0.239999 0.8 0 0
0.266582 0.439766 0.079164 0.8 0 0
0.251329 0.227789 0.539668 0.8 0 0
0.139880 0.380761 0.612194 0.8 0 0
0.345335 0.786134 0.631458 0.8 0 0
0.156738 0.564762 0.536955 0.8 0 0
0.531851 0.532609 0.213479 0.8 0 0
0.090443 0.848995 0.370977 0.8 0 0
0.208096 0.957633 0.327487 0.8 0 0
0.149473 0.032202 0.236855 0.8 0 0
0.217700 0.302553 0.669825 0.8 0 0
0.130839 0.258613 0.325388 0.8 0 0
0.223885 0.527408 0.656570 0.8 0 0
0.447500 0.919753 0.476465 0.8 0 0
0.065517 0.639393 0.314377 0.8 0 0
0.526816 0.856317 0.362732 0.8 0 0
0.551746 0.531159 0.469720 0.8 0 0
0.466181 0.039709 0.223342 0.8 0 0
0.116494 0.616936 0.113711 0.8 0 0
0.253134 0.259007 0.120032 0.8 0 0
0.138379 0.162747 0.261865 0.8 0 0
0.362023 0.497989 0.676626 0.8 0 0
0.354305 0.799207 0.057404 0.8 0 0
0.558702 0.736734 0.408370 0.8 0 0
0.178789 0.457478 0.107703 0.8 0 0
0.135839 0.142246 0.299962 0.8 0 0
0.082919 0.518094 0.549128 0.8 0 0
0.090046 0.481098 0.256417 0.8 0 0
0.073989 0.615015 0.535191 0.8 0 0
0.512309 0.358386 0.312546 0.8 0 0
0.334558 0.148047 0.114260 0.8 0 0
0.539318 0.458298 0.481360 0.8 0 0
0.521476 0.793864 0.198026 0.8 0 0
0.123271 0.730746 0.112351 0.8 0 0
0.484980 0.171998 0.322107 0.8 0 0
0.464641 0.685038 0.067736 0.8 0 0
0.285994 0.258034 0.110295 0.8 0 0
0.273143 0.610998 0.638034 0.8 0 0
0.435414 0.379894 0.137738 0.8 0 0
0.095797 0.508290 0.581922 0.8 0 0
0.487024 0.205271 0.280125 0.8 0 0
0.402609 0.952793 0.277907 0.8 0 0
0.174516 0.562100 0.066467 0.8 0 0
0.057006 0.581745 0.395979 0.8 0 0
0.146759 0.704702 0.617466 0.8 0 0
0.136352 0.206596 0.337949 0.8 0 0
0.536233 0.424884 0.420150 0.8 0 0
0.488853 0.231364 0.288438 0.8 0 0
0.464971 0.379483 0.634052 0.8 0 0
0.064042 0.711619 0.320551 0.8 0 0
0.555102 0.636069 0.475347 0.8 0 0
0.099705 0.407453 0.530762 0.8 0 0
0.143664 0.615880 0.525427 0.8 0 0
0.596854 0.546199 0.313842 0.8 0 0
0.299167 0.820032 0.621300 0.8 0 0
0.479343 0.097833 0.342026 0.8 0 0
0.077990 0.482621 0.313208 0.8 0 0
0.086613 0.804210 0.470659 0.8 0 0
0.507121 0.392078 0.255012 0.8 0 0
0.234080 0.575960 0.621833 0.8 0 0
0.355328 0.518932 0.672994 0.8 0 0
0.363000 0.646495 0.532823 0.8 0 0
0.151219 0.185048 0.374892 0.8 0 0
0.370430 0.351383 0.694558 0.8 0 0
0.547560 0.568307 0.511187 0.8 0 0
0.551221 0.609623 0.500003 0.8 0 0
0.053767 0.503135 0.328074 0.8 0 0
0.396543 0.604964 0.642484 0.8 0 0
0.548820 0.581922 0.253311 0.8 0 0
0.479298 0.688874 0.078193 0.8 0 0
0.221193 0.839321 0.600986 0.8 0 0
0.048767 0.586948 0.346318 0.8 0 0
0.133434 0.208397 0.311762 0.8 0 0
0.060042 0.654895 0.403327 0.8 0 0
0.447936 0.912042 0.491088 0.8 0 0
0.326547 0.577761 0.690249 0.8 0 0
0.142895 0.564447 0.632299 0.8 0 0
0.290724 0.674769 0.027488 0.8 0 0
0.145256 0.832231 0.149204 0.8 0 0
0.479281 0.915468 0.431122 0.8 0 0
0.198436 0.076462 0.448599 0.8 0 0
0.363095 0.511080 0.055658 0.8 0 0
0.122856 0.627887 0.606707 0.8 0 0
0.202662 0.842082 0.591885 0.8 0 0
0.175459 0.243880 0.173035 0.8 0 0
0.473504 0.526426 0.098835 0.8 0 0
0.436342 0.912667 0.203690 0.8 0 0
0.497859 0.613460 0.102748 0.8 0 0
0.294629 0.035181 0.493413 0.8 0 0
0.177435 0.578231 0.635609 0.8 0 0
0.273124 0.613404 0.541049 0.8 0 0
0.515845 0.853983 0.465075 0.8 0 0
0.187436 0.586316 0.499855 0.8 0 0
0.483758 0.851088 0.541909 0.8 0 0
0.175913 0.449490 0.114017 0.8 0 0
0.252377 0.671332 0.033495 0.8 0 0
0.063663 0.512860 0.415489 0.8 0 0
0.410795 0.368349 0.669552 0.8 0 0
0.443197 0.437732 0.663424 0.8 0 0
0.384400 0.144572 0.131022 0.8 0 0
0.433474 0.549522 0.601021 0.8 0 0
0.376356 0.717883 0.039651 0.8 0 0
0.191753 0.329224 0.651358 0.8 0 0
0.090756 0.528308 0.214340 0.8 0 0
0.060657 0.566633 0.429308 0.8 0 0
0.309794 0.296869 0.701849 0.8 0 0
0.222789 0.682226 0.557123 0.8 0 0
0.438851 0.861057 0.136055 0.8 0 0
0.349880 0.092300 0.119685 0.8 0 0
0.235825 0.899564 0.145923 0.8 0 0
0.220879 0.950979 0.270859 0.8 0 0
0.151514 0.561695 0.573052 0.8 0 0
0.319245 0.546267 0.711979 0.8 0 0
0.409390 0.483437 0.667384 0.8 0 0
0.079412 0.588354 0.219624 0.8 0 0
0.179866 0.826556 0.591106 0.8 0 0
0.260781 0.225470 0.119004 0.8 0 0
0.284761 0.361472 0.098550 0.8 0 0
0.205666 0.053641 0.455625 0.8 0 0
0.475750 0.107920 0.355442 0.8 0 0
0.179830 0.160457 0.425823 0.8 0 0
0.075973 0.658199 0.533572 0.8 0 0
0.162864 0.081178 0.198041 0.8 0 0
0.204074 0.734578 0.637371 0.8 0 0
0.125726 0.390466 0.591544 0.8 0 0
0.212038 0.331416 0.667961 0.8 0 0
0.099204 0.395786 0.509532 0.8 0 0
0.510437 0.702437 0.580520 0.8 0 0
0.516607 0.852069 0.270063 0.8 0 0
0.084362 0.445786 0.479762 0.8 0 0
0.276624 0.621597 0.572128 0.8 0 0
0.140270 0.560278 0.632351 0.8 0 0
0.563886 0.576278 0.420423 0.8 0 0
0.459274 0.683190 0.636364 0.8 0 0
0.439333 0.720155 0.060270 0.8 0 0
0.198578 0.933616 0.475367 0.8 0 0
0.493347 0.300847 0.338454 0.8 0 0
0.254436 0.948774 0.233011 0.8 0 0
0.101369 0.366097 0.352086 0.8 0 0
0.267382 0.240325 0.683177 0.8 0 0
0.234617 0.640735 0.636152 0.8 0 0
0.259736 0.738457 0.039957 0.8 0 0
0.260934 0.840119 0.083832 0.8 0 0
0.532923 0.459945 0.278425 0.8 0 0
0.256688 0.488110 0.679801 0.8 0 0
0.072187 0.701884 0.505770 0.8 0 0
0.101452 0.872094 0.386013 0.8 0 0
0.375602 0.790543 0.625553 0.8 0 0
0.194989 0.907037 0.182149 0.8 0 0
0.472616 0.141686 0.230874 0.8 0 0
0.252896 0.632905 0.635264 0.8 0 0
0.434478 0.694513 0.054580 0.8 0 0
0.137013 0.165201 0.328624 0.8 0 0
0.348059 0.966986 0.415336 0.8 0 0
0.241749 0.961480 0.418669 0.8 0 0
0.395368 0.724701 0.643660 0.8 0 0
0.224794 0.206301 0.485217 0.8 0 0
0.189980 0.507958 0.660219 0.8 0 0
0.097402 0.429783 0.544792 0.8 0 0
0.508983 0.342704 0.395743 0.8 0 0
0.297166 0.863027 0.600242 0.8 0 0
0.416988 0.589244 0.635495 0.8 0 0
0.121997 0.324089 0.425909 0.8 0 0
0.368059 0.570479 0.040267 0.8 0 0
0.390590 0.605509 0.632753 0.8 0 0
0.501494 0.748304 0.577472 0.8 0 0
0.412525 0.632373 0.639800 0.8 0 0
0.352495 0.811691 0.621231 0.8 0 0
0.364222 0.721939 0.037661 0.8 0 0
0.296404 0.835344 0.615714 0.8 0 0
0.521199 0.369778 0.382277 0.8 0 0
0.152562 0.093504 0.373663 0.8 0 0
0.448026 0.047906 0.406468 0.8 0 0
0.134300 0.723996 0.093606 0.8 0 0
0.374218 0.384289 0.694131 0.8 0 0
0.558786 0.729731 0.412993 0.8 0 0
0.220162 0.307602 0.130438 0.8 0 0
0.511841 0.716843 0.130819 0.8 0 0
0.231406 0.085813 0.474527 0.8 0 0
0.466828 0.227799 0.387187 0.8 0 0
0.367494 0.675557 0.658525 0.8 0 0
0.511885 0.678583 0.585792 0.8 0 0
0.564279 0.609090 0.334946 0.8 0 0
0.448797 0.609205 0.632186 0.8 0 0
0.422543 0.277982 0.636491 0.8 0 0
0.202433 0.667421 0.642343 0.8 0 0
0.481524 0.301764 0.231004 0.8 0 0
0.070957 0.770060 0.440960 0.8 0 0
0.512342 0.349421 0.425598 0.8 0 0
0.080428 0.440477 0.354897 0.8 0 0
0.315631 0.522777 0.727048 0.8 0 0
0.411675 0.921440 0.196711 0.8 0 0
0.524809 0.739038 0.168588 0.8 0 0
0.312950 0.712678 0.029087 0.8 0 0
0.526716 0.443754 0.539715 0.8 0 0
0.338353 0.499233 0.712666 0.8 0 0
0.089129 0.481445 0.259294 0.8 0 0
0.106419 0.400468 0.269825 0.8 0 0
0.139405 0.514929 0.639684 0.8 0 0
0.393078 0.704091 0.649314 0.8 0 0
0.203405 0.552249 0.057520 0.8 0 0
0.486444 0.177610 0.294357 0.8 0 0
0.308339 0.846176 0.079103 0.8 0 0
0.174594 0.535207 0.649263 0.8 0 0
0.072664 0.574874 0.527223 0.8 0 0
0.461907 0.148037 0.206381 0.8 0 0
0.111533 0.341987 0.420656 0.8 0 0
0.439384 0.949467 0.352345 0.8 0 0
0.378866 0.202491 0.492033 0.8 0 0
0.555625 0.529142 0.355397 0.8 0 0
0.156886 0.104280 0.383799 0.8 0 0
0.120466 0.900351 0.359993 0.8 0 0
0.083633 0.654775 0.180975 0.8 0 0
0.356624 0.664998 0.661880 0.8 0 0
0.066999 0.681518 0.483861 0.8 0 0
0.073120 0.478413 0.415311 0.8 0 0
0.199204 0.134121 0.448604 0.8 0 0
0.541677 0.566766 0.230043 0.8 0 0
0.526806 0.727846 0.167960 0.8 0 0
0.157899 0.513657 0.094355 0.8 0 0
0.161874 0.934322 0.322544 0.8 0 0
0.261670 0.908219 0.554807 0.8 0 0
0.300342 0.907782 0.562284 0.8 0 0
0.226329 0.849874 0.595504 0.8 0 0
0.164936 0.420629 0.140313 0.8 0 0
0.260781 0.580762 0.531728 0.8 0 0
0.148931 0.558485 0.084255 0.8 0 0
0.056330 0.516762 0.345988 0.8 0 0
0.273388 0.147520 0.117741 0.8 0 0
0.415527 0.248627 0.540242 0.8 0 0
0.213630 0.496791 0.072886 0.8 0 0
0.312306 0.667334 0.025787 0.8 0 0
0.067844 0.562521 0.485299 0.8 0 0
0.062603 0.667866 0.331208 0.8 0 0
0.168741 0.670926 0.590709 0.8 0 0
0.286766 0.327665 0.705080 0.8 0 0
0.050077 0.583913 0.394294 0.8 0 0
0.203565 0.907403 0.531191 0.8 0 0
0.497835 0.327060 0.511328 0.8 0 0
0.561816 0.700305 0.344064 0.8 0 0
0.138833 0.477031 0.138320 0.8 0 0
0.323636 0.054548 0.493438 0.8 0 0
0.481897 0.070373 0.318220 0.8 0 0
0.379535 0.343969 0.115180 0.8 0 0
0.494857 0.906179 0.336584 0.8 0 0
0.078833 0.683757 0.533790 0.8 0 0
0.075514 0.794316 0.429635 0.8 0 0
0.452162 0.576607 0.634407 0.8 0 0
0.070675 0.679176 0.506417 0.8 0 0
0.264124 0.476614 0.699788 0.8 0 0
0.337236 0.505039 0.053948 0.8 0 0
0.369942 0.463498 0.679592 0.8 0 0
0.330920 0.906428 0.135726 0.8 0 0
0.163752 0.803735 0.593613 0.8 0 0
0.119315 0.329367 0.317756 0.8 0 0
0.168955 0.210696 0.414175 0.8 0 0
0.138907 0.364149 0.210094 0.8 0 0
0.414790 0.152209 0.452921 0.8 0 0
0.157445 0.372793 0.634467 0.8 0 0
0.287800 0.223817 0.570037 0.8 0 0
0.438404 0.923972 0.230955 0.8 0 0
0.096995 0.653630 0.146616 0.8 0 0
0.546311 0.591578 0.524408 0.8 0 0
0.142119 0.876687 0.212829 0.8 0 0
0.440956 0.055453 0.173401 0.8 0 0
0.330407 0.711763 0.653819 0.8 0 0
0.248544 0.612064 0.507692 0.8 0 0
0.407822 0.322461 0.132016 0.8 0 0
0.557027 0.683502 0.275627 0.8 0 0
0.243787 0.661454 0.034792 0.8 0 0
0.387068 0.797227 0.066090 0.8 0 0
0.161059 0.647257 0.063435 0.8 0 0
0.068014 0.599935 0.498642 0.8 0 0
0.548187 0.730094 0.245994 0.8 0 0
0.271879 0.821683 0.617883 0.8 0 0
0.346971 0.752179 0.640828 0.8 0 0
0.025247 0.582233 0.310172 0.8 0 0
0.309387 0.161547 0.492428 0.8 0 0
0.506719 0.440263 0.592171 0.8 0 0
0.136114 0.154511 0.316624 0.8 0 0
0.211561 0.129640 0.459953 0.8 0 0
0.390602 0.688585 0.662315 0.8 0 0
0.206520 0.823919 0.603123 0.8 0 0
0.416266 0.462434 0.090100 0.8 0 0
0.424420 0.060334 0.156151 0.8 0 0
0.547602 0.712060 0.501693 0.8 0 0
0.096988 0.793939 0.210187 0.8 0 0
0.183551 0.743296 0.627488 0.8 0 0
0.138725 0.278484 0.237124 0.8 0 0
0.566053 0.508151 0.396925 0.8 0 0
0.401738 0.567712 0.621404 0.8 0 0
0.109199 0.347074 0.426778 0.8 0 0
0.175551 0.053149 0.419218 0.8 0 0
0.431080 0.947876 0.415708 0.8 0 0
0.486663 0.207696 0.323348 0.8 0 0
0.128973 0.319652 0.526882 0.8 0 0
0.170814 0.217871 0.179920 0.8 0 0
0.102619 0.809888 0.212620 0.8 0 0
0.546896 0.762284 0.269504 0.8 0 0
0.324828 0.233326 0.688612 0.8 0 0
0.554619 0.695956 0.472822 0.8 0 0
0.048535 0.514268 0.330036 0.8 0 0
0.218382 0.717629 0.644631 0.8 0 0
0.257866 0.651061 0.651030 0.8 0 0
0.525954 0.782051 0.518428 0.8 0 0
0.227470 0.472968 0.077400 0.8 0 0
0.474788 0.121576 0.358359 0.8 0 0
0.343003 0.225727 0.581131 0.8 0 0
0.130096 0.418281 0.612592 0.8 0 0
0.071851 0.640167 0.244793 0.8 0 0
0.555662 0.600168 0.468993 0.8 0 0
0.442601 0.938207 0.435089 0.8 0 0
0.361551 0.959535 0.267130 0.8 0 0
0.461978 0.566588 0.635874 0.8 0 0
0.261451 0.382739 0.098759 0.8 0 0
0.468903 0.092448 0.371827 0.8 0 0
0.214324 0.213643 0.480398 0.8 0 0
0.517728 0.827080 0.497807 0.8 0 0
0.101976 0.822103 0.499194 0.8 0 0
0.432130 0.717780 0.056816 0.8 0 0
0.455305 0.569386 0.613083 0.8 0 0
0.439041 0.260064 0.166213 0.8 0 0
0.534536 0.763028 0.209031 0.8 0 0
0.350939 0.971677 0.344259 0.8 0 0
0.061231 0.651369 0.343123 0.8 0 0
0.216516 0.646000 0.040681 0.8 0 0
0.174615 0.945752 0.360973 0.8 0 0
0.132568 0.842077 0.181114 0.8 0 0
0.051055 0.593700 0.398964 0.8 0 0
0.106148 0.353898 0.427211 0.8 0 0
0.490292 0.449926 0.170567 0.8 0 0
0.282652 0.586565 0.653914 0.8 0 0
0.073344 0.652795 0.233898 0.8 0 0
0.104729 0.402835 0.272348 0.8 0 0
0.073745 0.473511 0.373712 0.8 0 0
0.419931 0.117863 0.446010 0.8 0 0
0.446298 0.090505 0.409948 0.8 0 0
0.329401 0.588569 0.680473 0.8 0 0
0.213709 0.247902 0.611804 0.8 0 0
0.082943 0.791026 0.473863 0.8 0 0
0.462088 0.909325 0.479865 0.8 0 0
0.305370 0.298657 0.103986 0.8 0 0
0.370397 0.467959 0.681216 0.8 0 0
0.278093 0.934425 0.185281 0.8 0 0
0.550720 0.763789 0.439845 0.8 0 0
0.129475 0.328374 0.546034 0.8 0 0
0.085055 0.420793 0.395732 0.8 0 0
0.449300 0.935100 0.433463 0.8 0 0
0.095530 0.446939 0.551776 0.8 0 0
0.063713 0.711408 0.446059 0.8 0 0
0.296950 0.098894 0.114062 0.8 0 0
0.222112 0.649602 0.639032 0.8 0 0
0.532652 0.591805 0.173810 0.8 0 0
0.223590 0.467056 0.671303 0.8 0 0
0.277982 0.541996 0.668918 0.8 0 0
0.192042 0.133462 0.440165 0.8 0 0
0.392522 0.243054 0.623871 0.8 0 0
0.145450 0.625479 0.606963 0.8 0 0
0.069185 0.553971 0.312382 0.8 0 0
0.538970 0.805279 0.284121 0.8 0 0
0.207706 0.954416 0.414717 0.8 0 0
0.528577 0.436140 0.523728 0.8 0 0
0.141462 0.299549 0.481059 0.8 0 0
0.423072 0.102886 0.442707 0.8 0 0
0.255526 0.229347 0.575398 0.8 0 0
0.339875 0.961031 0.446949 0.8 0 0
0.367285 0.231019 0.588610 0.8 0 0
0.319145 0.973313 0.392696 0.8 0 0
0.352229 0.439881 0.690440 0.8 0 0
0.163727 0.217113 0.190120 0.8 0 0
0.172896 0.358146 0.159321 0.8 0 0
0.283067 0.581721 0.656937 0.8 0 0
0.080830 0.772893 0.486808 0.8 0 0
0.378996 0.436576 0.086528 0.8 0 0
0.418349 0.856840 0.118498 0.8 0 0
0.126836 0.426381 0.194982 0.8 0 0
0.247647 0.750191 0.638240 0.8 0 0
0.119193 0.340038 0.287250 0.8 0 0
0.404045 0.682279 0.578476 0.8 0 0
0.505292 0.336318 0.464792 0.8 0 0
0.136052 0.617138 0.085982 0.8 0 0
0.067547 0.588161 0.493795 0.8 0 0
0.158186 0.575520 0.070721 0.8 0 0
0.180258 0.929895 0.256229 0.8 0 0
0.160166 0.194225 0.394538 0.8 0 0
0.133387 0.202944 0.292920 0.8 0 0
0.044819 0.534453 0.326714 0.8 0 0
0.476733 0.073468 0.249442 0.8 0 0
0.108096 0.457333 0.220131 0.8 0 0
0.222422 0.683433 0.566018 0.8 0 0
0.275225 0.913546 0.150493 0.8 0 0
0.291027 0.933077 0.521777 0.8 0 0
0.220384 0.469332 0.081387 0.8 0 0
0.297052 0.694957 0.027901 0.8 0 0
0.377855 0.960335 0.287106 0.8 0 0
0.323570 0.927148 0.535192 0.8 0 0
0.153334 0.245828 0.395590 0.8 0 0
0.515863 0.407925 0.268265 0.8 0 0
0.423143 0.561090 0.056411 0.8 0 0
0.415205 0.957288 0.329155 0.8 0 0
0.219443 0.623189 0.612205 0.8 0 0
0.126963 0.308768 0.275096 0.8 0 0
0.307193 0.063063 0.114355 0.8 0 0
0.550546 0.474734 0.342423 0.8 0 0
0.164281 0.350819 0.632581 0.8 0 0
0.434920 0.092762 0.165572 0.8 0 0
0.092107 0.409592 0.301022 0.8 0 0
0.153725 0.577322 0.525958 0.8 0 0
0.185747 0.618212 0.636485 0.8 0 0
0.217946 0.893342 0.147104 0.8 0 0
0.156854 0.060944 0.213321 0.8 0 0
0.263574 0.662404 0.654293 0.8 0 0
0.080816 0.823278 0.395205 0.8 0 0
0.534369 0.424870 0.449974 0.8 0 0
0.535294 0.409008 0.346732 0.8 0 0
0.050760 0.608104 0.353335 0.8 0 0
0.391141 0.682708 0.038316 0.8 0 0
0.581796 0.628637 0.355700 0.8 0 0
0.070377 0.612409 0.516287 0.8 0 0
0.300242 0.223494 0.596333 0.8 0 0
0.190601 0.367715 0.139459 0.8 0 0
0.189189 0.298784 0.639042 0.8 0 0
0.277826 0.234937 0.679771 0.8 0 0
0.269419 0.578140 0.567070 0.8 0 0
0.259196 0.886000 0.122920 0.8 0 0
0.370685 0.222732 0.122681 0.8 0 0
0.538569 0.581253 0.553466 0.8 0 0
0.262456 0.655129 0.576203 0.8 0 0
0.079769 0.465928 0.472095 0.8 0 0
0.330894 0.908396 0.138570 0.8 0 0
0.456182 0.932747 0.425523 0.8 0 0
0.165242 0.722739 0.625587 0.8 0 0
0.136653 0.845604 0.177686 0.8 0 0
0.557597 0.541261 0.384099 0.8 0 0
0.133254 0.592634 0.566439 0.8 0 0
0.436344 0.950123 0.392561 0.8 0 0
0.221143 0.351044 0.675473 0.8 0 0
0.068172 0.553400 0.482587 0.8 0 0
0.188597 0.548205 0.534347 0.8 0 0
0.485971 0.622809 0.540336 0.8 0 0
0.210226 0.288482 0.139290 0.8 0 0
0.553458 0.542425 0.356106 0.8 0 0
0.481718 0.647141 0.078290 0.8 0 0
0.174241 0.668368 0.530756 0.8 0 0
0.160811 0.506900 0.653610 0.8 0 0
0.203536 0.231578 0.147874 0.8 0 0
0.059387 0.679572 0.389856 0.8 0 0
0.228279 0.963879 0.344029 0.8 0 0
0.247483 0.467718 0.674957 0.8 0 0
0.358398 0.594039 0.033607 0.8 0 0
0.516929 0.824955 0.220457 0.8 0 0
0.259194 0.601537 0.518678 0.8 0 0
0.496189 0.855107 0.519425 0.8 0 0
0.361040 0.266186 0.689440 0.8 0 0
0.569250 0.513860 0.390711 0.8 0 0
0.307222 0.437322 0.074681 0.8 0 0
0.310170 0.162958 0.111157 0.8 0 0
0.179572 0.340270 0.157496 0.8 0 0
0.482495 0.582461 0.586763 0.8 0 0
0.079629 0.632045 0.200406 0.8 0 0
0.116208 0.342280 0.515148 0.8 0 0
0.522366 0.803917 0.508363 0.8 0 0
0.420543 0.932502 0.478250 0.8 0 0
0.305665 0.393589 0.087845 0.8 0 0
0.342193 0.149903 0.488421 0.8 0 0
0.351253 0.970866 0.327381 0.8 0 0
0.557292 0.559691 0.310260 0.8 0 0
0.394411 0.915986 0.530544 0.8 0 0
0.451505 0.459976 0.660653 0.8 0 0
0.482500 0.218797 0.348496 0.8 0 0
0.498704 0.318184 0.318763 0.8 0 0
0.344096 0.849396 0.085848 0.8 0 0
0.082943 0.478804 0.518500 0.8 0 0
0.175624 0.902313 0.512665 0.8 0 0
0.203212 0.939551 0.463316 0.8 0 0
0.344999 0.947758 0.215780 0.8 0 0
0.529423 0.766467 0.197481 0.8 0 0
0.364745 0.041801 0.485636 0.8 0 0
0.468728 0.033511 0.368437 0.8 0 0
0.451767 0.631602 0.628008 0.8 0 0
0.457894 0.932968 0.418700 0.8 0 0
0.249758 0.480193 0.674480 0.8 0 0
0.404032 0.479835 0.668631 0.8 0 0
0.363513 0.927756 0.522922 0.8 0 0
0.270976 0.901562 0.135037 0.8 0 0
0.271014 0.782415 0.632052 0.8 0 0
0.576585 0.604950 0.373646 0.8 0 0
0.312600 0.577552 0.702459 0.8 0 0
0.587338 0.524184 0.324592 0.8 0 0
0.513926 0.353089 0.431198 0.8 0 0
0.555960 0.470739 0.374303 0.8 0 0
0.108674 0.867345 0.294785 0.8 0 0
0.529471 0.792462 0.498196 0.8 0 0
0.272652 0.206610 0.116165 0.8 0 0
0.179774 0.610137 0.497240 0.8 0 0
0.205969 0.857446 0.582774 0.8 0 0
0.477499 0.457966 0.145319 0.8 0 0
0.079663 0.460502 0.456717 0.8 0 0
0.368332 0.945408 0.482977 0.8 0 0
0.543729 0.712954 0.215579 0.8 0 0
0.518464 0.587523 0.590473 0.8 0 0
0.429832 0.843735 0.583553 0.8 0 0
0.175575 0.931648 0.270166 0.8 0 0
0.128435 0.670587 0.093506 0.8 0 0
0.139496 0.043669 0.309667 0.8 0 0
0.293421 0.250785 0.698623 0.8 0 0
0.135878 0.150755 0.287591 0.8 0 0
0.539652 0.590770 0.550159 0.8 0 0
0.154824 0.200593 0.208978 0.8 0 0
0.337317 0.373905 0.095293 0.8 0 0
0.269776 0.958183 0.451135 0.8 0 0
0.211612 0.896992 0.548731 0.8 0 0
0.390025 0.544930 0.563775 0.8 0 0
0.491546 0.308853 0.257728 0.8 0 0
0.269600 0.107169 0.119814 0.8 0 0
0.532236 0.455667 0.279376 0.8 0 0
0.495078 0.663339 0.606571 0.8 0 0
0.530128 0.396801 0.398010 0.8 0 0
0.184651 0.590852 0.623751 0.8 0 0
0.355686 0.758970 0.637852 0.8 0 0
0.060620 0.695202 0.416680 0.8 0 0
0.347410 0.969261 0.311859 0.8 0 0
0.478551 0.329917 0.219313 0.8 0 0
0.335159 0.966570 0.425859 0.8 0 0
0.480705 0.085258 0.332944 0.8 0 0
0.246162 0.329844 0.688561 0.8 0 0
0.223674 0.927081 0.198931 0.8 0 0
0.198684 0.920430 0.502989 0.8 0 0
0.170605 0.108872 0.410503 0.8 0 0
0.527596 0.716982 0.165115 0.8 0 0
0.467074 0.530424 0.089854 0.8 0 0
0.451667 0.321579 0.623337 0.8 0 0
0.106605 0.706788 0.575999 0.8 0 0
0.239634 0.247285 0.669389 0.8 0 0
0.087255 0.595090 0.180613 0.8 0 0
0.067240 0.519852 0.455726 0.8 0 0
0.380826 0.181234 0.128593 0.8 0 0
0.215261 0.305424 0.133774 0.8 0 0
0.100434 0.565495 0.593336 0.8 0 0
0.475421 0.193337 0.362766 0.8 0 0
0.126161 0.491856 0.146827 0.8 0 0
0.250921 0.654310 0.529100 0.8 0 0
0.468269 0.650480 0.528211 0.8 0 0
0.411935 0.822692 0.090210 0.8 0 0
0.132537 0.680394 0.604008 0.8 0 0
0.211759 0.932372 0.490238 0.8 0 0
0.261560 0.634545 0.526362 0.8 0 0
0.085715 0.837355 0.364397 0.8 0 0
0.534784 0.825502 0.302105 0.8 0 0
0.189142 0.050647 0.164495 0.8 0 0
0.413655 0.955592 0.315557 0.8 0 0
0.462143 0.899084 0.215302 0.8 0 0
0.276224 0.963537 0.437091 0.8 0 0
0.063966 0.536087 0.434894 0.8 0 0
0.296886 0.681749 0.027308 0.8 0 0
0.122785 0.488144 0.154650 0.8 0 0
0.100718 0.613049 0.141769 0.8 0 0
0.355879 0.074978 0.487237 0.8 0 0
0.334775 0.511103 0.051685 0.8 0 0
0.556514 0.510454 0.394593 0.8 0 0
0.444034 0.854999 0.134530 0.8 0 0
0.396187 0.674223 0.534839 0.8 0 0
0.419801 0.267903 0.146628 0.8 0 0
0.478984 0.532643 0.102209 0.8 0 0
0.139265 0.155816 0.258530 0.8 0 0
0.433602 0.637274 0.632547 0.8 0 0
0.272646 0.900884 0.566588 0.8 0 0
0.258201 0.366652 0.104176 0.8 0 0
0.221208 0.246176 0.624240 0.8 0 0
0.417781 0.525089 0.655457 0.8 0 0
0.338568 0.458642 0.711012 0.8 0 0
0.320906 0.933882 0.521697 0.8 0 0
0.530245 0.400206 0.413090 0.8 0 0
0.098293 0.818044 0.237210 0.8 0 0
0.053049 0.610633 0.378235 0.8 0 0
0.441866 0.668170 0.636902 0.8 0 0
0.360249 0.682114 0.032121 0.8 0 0
0.435427 0.609321 0.052589 0.8 0 0
0.071444 0.499879 0.376492 0.8 0 0
0.134015 0.327282 0.238047 0.8 0 0
0.083908 0.471950 0.517484 0.8 0 0
0.188276 0.649865 0.051249 0.8 0 0
0.488035 0.245159 0.331765 0.8 0 0
0.188904 0.339246 0.651001 0.8 0 0
0.527941 0.387606 0.380144 0.8 0 0
0.557866 0.747291 0.350679 0.8 0 0
0.381747 0.966416 0.350269 0.8 0 0
0.503787 0.785173 0.561122 0.8 0 0
0.405646 0.631167 0.635416 0.8 0 0
0.216630 0.893402 0.148067 0.8 0 0
0.365438 0.561282 0.651023 0.8 0 0
0.284543 0.052312 0.491729 0.8 0 0
0.129332 0.352254 0.238129 0.8 0 0
0.124586 0.855553 0.512378 0.8 0 0
0.350622 0.595287 0.587416 0.8 0 0
0.081861 0.430052 0.374464 0.8 0 0
0.495390 0.306546 0.330642 0.8 0 0
0.346890 0.972243 0.358928 0.8 0 0
0.271384 0.806412 0.623440 0.8 0 0
0.128827 0.445863 0.173928 0.8 0 0
0.347834 0.594065 0.639675 0.8 0 0
0.160623 0.137895 0.391284 0.8 0 0
0.322114 0.302248 0.103969 0.8 0 0
0.196789 0.363709 0.136054 0.8 0 0
0.053831 0.469662 0.351567 0.8 0 0
0.527596 0.400715 0.459411 0.8 0 0
0.412905 0.951877 0.292176 0.8 0 0
0.283603 0.849978 0.607142 0.8 0 0
0.397614 0.436709 0.093016 0.8 0 0
0.544508 0.637496 0.532325 0.8 0 0
0.530165 0.813884 0.469852 0.8 0 0
0.508188 0.547251 0.609785 0.8 0 0
0.387608 0.219117 0.498894 0.8 0 0
0.253705 0.627034 0.618064 0.8 0 0
0.334157 0.483707 0.060660 0.8 0 0
0.084733 0.445390 0.482305 0.8 0 0
0.068657 0.591220 0.503495 0.8 0 0
0.266002 0.554327 0.042045 0.8 0 0
0.363271 0.955371 0.454663 0.8 0 0
0.127992 0.356583 0.239485 0.8 0 0
0.065656 0.496427 0.341868 0.8 0 0
0.138447 0.292445 0.393019 0.8 0 0
0.066854 0.755452 0.433048 0.8 0 0
0.296383 0.543075 0.708104 0.8 0 0
0.073304 0.675013 0.236372 0.8 0 0
0.310551 0.105797 0.112661 0.8 0 0
0.451270 0.417942 0.136410 0.8 0 0
0.165706 0.435043 0.131402 0.8 0 0
0.287637 0.224747 0.607129 0.8 0 0
0.431289 0.943502 0.281964 0.8 0 0
0.391461 0.479542 0.669784 0.8 0 0
0.067511 0.603602 0.308242 0.8 0 0
0.466443 0.686654 0.627385 0.8 0 0
0.206899 0.551787 0.607046 0.8 0 0
0.488337 0.264457 0.261800 0.8 0 0
0.355937 0.466154 0.702454 0.8 0 0
0.563508 0.564027 0.396144 0.8 0 0
0.438947 0.039247 0.171298 0.8 0 0
0.140657 0.061249 0.271154 0.8 0 0
0.345458 0.953342 0.469521 0.8 0 0
0.358008 0.657480 0.653454 0.8 0 0
0.153971 0.428766 0.148079 0.8 0 0
0.077962 0.484230 0.490568 0.8 0 0
0.506353 0.680760 0.592071 0.8 0 0
0.230319 0.821276 0.080546 0.8 0 0
0.261383 0.618635 0.610934 0.8 0 0
0.515299 0.872276 0.421506 0.8 0 0
0.410118 0.246747 0.557559 0.8 0 0
0.285309 0.241445 0.111220 0.8 0 0
0.517925 0.363369 0.438653 0.8 0 0
0.097146 0.812275 0.497381 0.8 0 0
0.574508 0.494895 0.331591 0.8 0 0
0.155009 0.154735 0.379960 0.8 0 0
0.465116 0.392374 0.170109 0.8 0 0
0.134273 0.432923 0.172966 0.8 0 0
0.173029 0.243507 0.175688 0.8 0 0
0.400593 0.709546 0.646481 0.8 0 0
0.481856 0.648061 0.576118 0.8 0 0
0.549537 0.471047 0.341818 0.8 0 0
0.164138 0.310204 0.611424 0.8 0 0
0.387420 0.677665 0.652927 0.8 0 0
0.169431 0.665369 0.530093 0.8 0 0
0.125674 0.756634 0.120150 0.8 0 0
0.405387 0.579505 0.640391 0.8 0 0
0.573930 0.579297 0.395263 0.8 0 0
0.362743 0.686379 0.032775 0.8 0 0
0.557494 0.564175 0.354160 0.8 0 0
0.064158 0.617836 0.462326 0.8 0 0
0.094261 0.852887 0.337158 0.8 0 0
0.087420 0.544346 0.572460 0.8 0 0
0.069159 0.540294 0.396144 0.8 0 0
0.540489 0.479148 0.500382 0.8 0 0
0.374064 0.278944 0.120860 0.8 0 0
0.257314 0.104099 0.484206 0.8 0 0
0.592594 0.620085 0.322018 0.8 0 0
0.551187 0.736868 0.270777 0.8 0 0
0.414737 0.259510 0.622714 0.8 0 0
0.085208 0.516568 0.246410 0.8 0 0
0.078303 0.718551 0.518279 0.8 0 0
0.159267 0.624829 0.624792 0.8 0 0
0.137947 0.380070 0.608640 0.8 0 0
0.159016 0.270993 0.193854 0.8 0 0
0.415345 0.487027 0.666056 0.8 0 0
0.065555 0.706893 0.464404 0.8 0 0
0.215682 0.223658 0.490557 0.8 0 0
0.080927 0.446639 0.423941 0.8 0 0
0.113160 0.884164 0.325489 0.8 0 0
0.552842 0.647788 0.250739 0.8 0 0
0.125225 0.506208 0.139664 0.8 0 0
0.314494 0.788790 0.632829 0.8 0 0
0.440694 0.908821 0.503953 0.8 0 0
0.052935 0.530463 0.323655 0.8 0 0
0.452494 0.676430 0.560889 0.8 0 0
0.264154 0.225861 0.117815 0.8 0 0
0.558273 0.559361 0.443529 0.8 0 0
0.557587 0.625849 0.453764 0.8 0 0
0.148130 0.894264 0.232335 0.8 0 0
0.283592 0.221401 0.540071 0.8 0 0
0.368974 0.541911 0.657328 0.8 0 0
0.420018 0.929473 0.486173 0.8 0 0
0.136937 0.114991 0.309882 0.8 0 0
0.307874 0.911365 0.141243 0.8 0 0
0.391226 0.621578 0.624253 0.8 0 0
0.141665 0.082894 0.340405 0.8 0 0
0.446289 0.145965 0.409226 0.8 0 0
0.220372 0.251447 0.639864 0.8 0 0
0.479137 0.687010 0.607597 0.8 0 0
0.484006 0.119299 0.312782 0.8 0 0
0.329573 0.462833 0.716712 0.8 0 0
0.188124 0.677773 0.539065 0.8 0 0
0.351752 0.395137 0.704540 0.8 0 0
0.076299 0.485704 0.326638 0.8 0 0
0.449841 0.405668 0.142143 0.8 0 0
0.043382 0.614872 0.370439 0.8 0 0
0.139359 0.558653 0.632115 0.8 0 0
0.169498 0.040136 0.188169 0.8 0 0
0.197509 0.517007 0.657830 0.8 0 0
0.434781 0.863569 0.135319 0.8 0 0
0.452533 0.481759 0.101665 0.8 0 0
0.225079 0.490514 0.667126 0.8 0 0
0.234937 0.622833 0.630278 0.8 0 0
0.320797 0.955246 0.470349 0.8 0 0
0.169596 0.634468 0.632677 0.8 0 0
0.411231 0.128321 0.454819 0.8 0 0
0.077837 0.472826 0.331316 0.8 0 0
0.411127 0.692604 0.650522 0.8 0 0
0.284430 0.514370 0.051019 0.8 0 0
0.142047 0.094186 0.343842 0.8 0 0
0.195373 0.684185 0.569388 0.8 0 0
0.068204 0.569684 0.492824 0.8 0 0
0.310811 0.439741 0.073710 0.8 0 0
0.521786 0.381459 0.464994 0.8 0 0
0.196232 0.785873 0.076708 0.8 0 0
0.513043 0.818683 0.520175 0.8 0 0
0.271225 0.079010 0.488966 0.8 0 0
0.583917 0.552567 0.331016 0.8 0 0
0.531191 0.485202 0.551831 0.8 0 0
0.354286 0.838827 0.610980 0.8 0 0
0.148112 0.112252 0.363208 0.8 0 0
0.559363 0.645807 0.301543 0.8 0 0
0.417809 0.248994 0.529300 0.8 0 0
0.119458 0.327417 0.450694 0.8 0 0
0.337256 0.751085 0.642192 0.8 0 0
0.081982 0.432555 0.343781 0.8 0 0
0.367559 0.069611 0.126349 0.8 0 0
0.500879 0.901463 0.381683 0.8 0 0
0.456230 0.753013 0.078047 0.8 0 0
0.078816 0.760485 0.242587 0.8 0 0
0.528683 0.389838 0.339244 0.8 0 0
0.444593 0.221474 0.425182 0.8 0 0
0.245756 0.615801 0.626007 0.8 0 0
0.505515 0.702684 0.586469 0.8 0 0
0.217302 0.598213 0.643346 0.8 0 0
0.125495 0.312975 0.352777 0.8 0 0
0.274220 0.618722 0.642805 0.8 0 0
0.073218 0.486505 0.452974 0.8 0 0
0.158611 0.532590 0.085829 0.8 0 0
0.134808 0.208470 0.272366 0.8 0 0
0.437014 0.418375 0.664718 0.8 0 0
0.070292 0.514665 0.474041 0.8 0 0
0.407583 0.385535 0.116978 0.8 0 0
0.416977 0.249243 0.536642 0.8 0 0
0.505308 0.336555 0.381367 0.8 0 0
0.144693 0.326714 0.585618 0.8 0 0
0.077450 0.464084 0.364622 0.8 0 0
0.561438 0.715774 0.376892 0.8 0 0
0.160745 0.627446 0.509330 0.8 0 0
0.185681 0.246829 0.471979 0.8 0 0
0.400425 0.547377 0.594841 0.8 0 0
0.418897 0.668793 0.642916 0.8 0 0
0.431773 0.868269 0.565327 0.8 0 0
0.447470 0.257546 0.443440 0.8 0 0
0.510077 0.393143 0.263188 0.8 0 0
0.485931 0.195132 0.324439 0.8 0 0
0.448072 0.413165 0.135800 0.8 0 0
0.089711 0.730053 0.183244 0.8 0 0
0.241813 0.945798 0.233307 0.8 0 0
0.538667 0.728745 0.520408 0.8 0 0
0.457758 0.927182 0.279181 0.8 0 0
0.207275 0.336096 0.664506 0.8 0 0
0.426636 0.247985 0.484980 0.8 0 0
0.151410 0.271151 0.209256 0.8 0 0
0.346926 0.073090 0.489368 0.8 0 0
0.252496 0.933280 0.194140 0.8 0 0
0.320110 0.027075 0.494403 0.8 0 0
0.162414 0.604100 0.629267 0.8 0 0
0.171748 0.262319 0.458513 0.8 0 0
0.212039 0.081965 0.145697 0.8 0 0
0.176530 0.677429 0.057441 0.8 0 0
0.221629 0.928401 0.203235 0.8 0 0
0.135892 0.636200 0.574610 0.8 0 0
0.381872 0.963326 0.312927 0.8 0 0
0.069927 0.611038 0.512917 0.8 0 0
0.524986 0.420191 0.524266 0.8 0 0
0.568211 0.599527 0.390302 0.8 0 0
0.542844 0.638097 0.539132 0.8 0 0
0.561530 0.589289 0.424020 0.8 0 0
0.442420 0.721022 0.633324 0.8 0 0
0.074802 0.759174 0.271135 0.8 0 0
0.189365 0.052188 0.164224 0.8 0 0
0.486829 0.242738 0.262824 0.8 0 0
0.074043 0.713659 0.507984 0.8 0 0
0.434317 0.173459 0.164017 0.8 0 0
0.471384 0.654907 0.621693 0.8 0 0
0.193185 0.299539 0.150684 0.8 0 0
0.380315 0.130029 0.476225 0.8 0 0
0.226369 0.240752 0.618235 0.8 0 0
0.156753 0.932303 0.331044 0.8 0 0
0.191299 0.807970 0.090917 0.8 0 0
0.496058 0.380081 0.581134 0.8 0 0
0.097845 0.483755 0.577329 0.8 0 0
0.355924 0.748625 0.040425 0.8 0 0
0.467716 0.666325 0.566632 0.8 0 0
0.414101 0.132675 0.452196 0.8 0 0
0.550763 0.477508 0.404844 0.8 0 0
0.157152 0.289996 0.193572 0.8 0 0
0.135818 0.222854 0.339232 0.8 0 0
0.061595 0.738088 0.400259 0.8 0 0
0.528042 0.454953 0.267523 0.8 0 0
0.463283 0.566412 0.600586 0.8 0 0
0.167186 0.554660 0.641310 0.8 0 0
0.070245 0.786945 0.364900 0.8 0 0
0.107959 0.384559 0.541506 0.8 0 0
0.563195 0.649737 0.371171 0.8 0 0
0.127556 0.906058 0.410889 0.8 0 0
0.433684 0.349915 0.652053 0.8 0 0
0.222335 0.696128 0.635777 0.8 0 0
0.343407 0.938915 0.506988 0.8 0 0
0.311749 0.288146 0.104755 0.8 0 0
0.505260 0.360343 0.538687 0.8 0 0
0.398516 0.681428 0.577675 0.8 0 0
0.167081 0.432856 0.131256 0.8 0 0
0.401941 0.346953 0.672860 0.8 0 0
0.193516 0.455399 0.099666 0.8 0 0
0.421486 0.678163 0.646832 0.8 0 0
0.301820 0.128723 0.490301 0.8 0 0
0.079833 0.528469 0.367776 0.8 0 0
0.092081 0.818066 0.471547 0.8 0 0
0.097137 0.842261 0.450432 0.8 0 0
0.341147 0.664147 0.028219 0.8 0 0
0.089725 0.477674 0.260260 0.8 0 0
0.299639 0.196832 0.505839 0.8 0 0
0.163732 0.388663 0.645603 0.8 0 0
0.451099 0.356994 0.639434 0.8 0 0
0.498976 0.326938 0.495493 0.8 0 0
