0.593627 0.620871 0.841977 0.8 0 0
0.868420 0.375669 0.568378 0.8 0 0
0.781771 0.433320 0.143712 0.8 0 0
0.333226 0.607731 0.744690 0.8 0 0
0.610034 0.891416 0.611405 0.8 0 0
0.861867 0.379487 0.503605 0.8 0 0
0.797483 0.740626 0.589913 0.8 0 0
0.756860 0.823132 0.356739 0.8 0 0
0.196108 0.328735 0.230907 0.8 0 0
0.079238 0.475380 0.445642 0.8 0 0
0.195571 0.696698 0.612584 0.8 0 0
0.546991 0.268361 0.877025 0.8 0 0
0.195285 0.233781 0.634214 0.8 0 0
0.276393 0.595586 0.781758 0.8 0 0
0.171583 0.330062 0.260244 0.8 0 0
0.291246 0.099624 0.623381 0.8 0 0
0.748711 0.750341 0.715013 0.8 0 0
0.148342 0.351249 0.579108 0.8 0 0
0.194308 0.437234 0.669640 0.8 0 0
0.536866 0.355698 0.807787 0.8 0 0
0.215980 0.769959 0.606674 0.8 0 0
0.133863 0.500581 0.517913 0.8 0 0
0.408703 0.600866 0.726299 0.8 0 0
0.141402 0.388131 0.271829 0.8 0 0
0.365786 0.218503 0.689327 0.8 0 0
0.514051 0.631391 0.832208 0.8 0 0
0.771874 0.484788 0.125346 0.8 0 0
0.482234 0.846274 0.199943 0.8 0 0
0.445507 0.026658 0.797515 0.8 0 0
0.145074 0.319153 0.463893 0.8 0 0
0.745962 0.680167 0.767793 0.8 0 0
0.662877 0.643510 0.821162 0.8 0 0
0.499465 0.941694 0.533460 0.8 0 0
0.275722 0.552376 0.715910 0.8 0 0
0.555552 0.854693 0.223392 0.8 0 0
0.339812 0.318538 0.821683 0.8 0 0
0.490187 0.300307 0.871302 0.8 0 0
0.790148 0.349496 0.191333 0.8 0 0
0.538211 0.235257 0.853020 0.8 0 0
0.865315 0.399963 0.566188 0.8 0 0
0.163432 0.235454 0.575649 0.8 0 0
0.790343 0.595366 0.661856 0.8 0 0
0.603262 0.788103 0.748730 0.8 0 0
0.609709 0.885891 0.302881 0.8 0 0
0.627780 0.200716 0.777084 0.8 0 0
0.593940 0.560939 0.051917 0.8 0 0
0.642971 0.674052 0.089056 0.8 0 0
0.302581 0.554011 0.087463 0.8 0 0
0.871393 0.466886 0.276405 0.8 0 0
0.210918 0.146546 0.584020 0.8 0 0
0.150706 0.305469 0.534098 0.8 0 0
0.848831 0.665745 0.307104 0.8 0 0
0.855889 0.323467 0.382845 0.8 0 0
0.213054 0.574030 0.665087 0.8 0 0
0.168087 0.498071 0.189332 0.8 0 0
0.944496 0.477704 0.449810 0.8 0 0
0.909909 0.382953 0.513315 0.8 0 0
0.130180 0.465178 0.498692 0.8 0 0
0.875927 0.492353 0.527232 0.8 0 0
0.888082 0.559118 0.528875 0.8 0 0
0.810171 0.757601 0.332215 0.8 0 0
0.198880 0.254946 0.655244 0.8 0 0
0.496693 0.755841 0.785940 0.8 0 0
0.846958 0.452929 0.225986 0.8 0 0
0.502980 0.911665 0.615110 0.8 0 0
0.697653 0.404462 0.098821 0.8 0 0
0.491842 0.926421 0.360555 0.8 0 0
0.839933 0.259106 0.559172 0.8 0 0
0.512400 0.328010 0.891989 0.8 0 0
0.153994 0.263399 0.453164 0.8 0 0
0.216352 0.508085 0.689853 0.8 0 0
0.146148 0.584289 0.498406 0.8 0 0
0.857752 0.334852 0.449366 0.8 0 0
0.633449 0.574631 0.061477 0.8 0 0
0.430941 0.148094 0.686221 0.8 0 0
0.618902 0.564930 0.623407 0.8 0 0
0.840597 0.308860 0.300733 0.8 0 0
0.364778 0.543180 0.781093 0.8 0 0
0.430319 0.568972 0.672374 0.8 0 0
0.811162 0.646040 0.640117 0.8 0 0
0.460957 0.152417 0.751273 0.8 0 0
0.776872 0.622620 0.705692 0.8 0 0
0.207077 0.166529 0.534659 0.8 0 0
0.109519 0.401715 0.520202 0.8 0 0
0.093512 0.411050 0.532640 0.8 0 0
0.392921 0.107573 0.855051 0.8 0 0
0.476791 0.473904 0.866964 0.8 0 0
0.626559 0.909089 0.367577 0.8 0 0
0.618000 0.631656 0.832865 0.8 0 0
0.297805 0.336915 0.128161 0.8 0 0
0.488502 0.238651 0.830603 0.8 0 0
0.886215 0.313784 0.571102 0.8 0 0
0.327135 0.067660 0.732929 0.8 0 0
0.302260 0.449551 0.790713 0.8 0 0
0.538663 0.354583 0.057990 0.8 0 0
0.639111 0.280763 0.123348 0.8 0 0
0.574548 0.166801 0.838672 0.8 0 0
0.558203 0.583419 0.821478 0.8 0 0
0.804160 0.763836 0.498544 0.8 0 0
0.808246 0.359628 0.679939 0.8 0 0
0.900720 0.390931 0.473682 0.8 0 0
0.426749 0.750438 0.779329 0.8 0 0
0.337396 0.075588 0.675876 0.8 0 0
0.776639 0.824537 0.503535 0.8 0 0
0.414995 0.524429 0.753892 0.8 0 0
0.664936 0.548993 0.780255 0.8 0 0
0.563555 0.442256 0.047785 0.8 0 0
0.167976 0.704597 0.287237 0.8 0 0
0.118048 0.374194 0.526140 0.8 0 0
0.289936 0.584160 0.670569 0.8 0 0
0.565453 0.261185 0.712136 0.8 0 0
0.710647 0.270100 0.181410 0.8 0 0
0.818764 0.730806 0.378360 0.8 0 0
0.205856 0.795296 0.362436 0.8 0 0
0.869216 0.524049 0.462611 0.8 0 0
0.670401 0.603197 0.815100 0.8 0 0
0.601466 0.917993 0.379531 0.8 0 0
0.836955 0.475501 0.614634 0.8 0 0
0.654176 0.066646 0.766171 0.8 0 0
0.676371 0.877238 0.593483 0.8 0 0
0.854370 0.589630 0.487966 0.8 0 0
0.590019 0.595562 0.728325 0.8 0 0
0.189713 0.177520 0.602756 0.8 0 0
0.167154 0.686118 0.401416 0.8 0 0
0.284900 0.587773 0.105285 0.8 0 0
0.679090 0.085157 0.735497 0.8 0 0
0.498237 0.482551 0.029265 0.8 0 0
0.614563 0.151188 0.688512 0.8 0 0
0.869527 0.433292 0.557197 0.8 0 0
0.390189 0.165009 0.771571 0.8 0 0
0.285863 0.179960 0.754583 0.8 0 0
0.791519 0.388727 0.170104 0.8 0 0
0.425738 0.252982 0.873432 0.8 0 0
0.859116 0.353759 0.416160 0.8 0 0
0.848526 0.467389 0.594987 0.8 0 0
0.691922 0.436489 0.803192 0.8 0 0
0.152603 0.613186 0.508022 0.8 0 0
0.863881 0.416947 0.426230 0.8 0 0
0.889215 0.494994 0.504584 0.8 0 0
0.371920 0.335633 0.085611 0.8 0 0
0.122908 0.281043 0.524434 0.8 0 0
0.455895 0.620212 0.840383 0.8 0 0
0.795597 0.326931 0.221735 0.8 0 0
0.582873 0.438270 0.830626 0.8 0 0
0.810083 0.155883 0.587453 0.8 0 0
0.301677 0.583902 0.745612 0.8 0 0
0.866611 0.452331 0.302296 0.8 0 0
0.912331 0.574570 0.506697 0.8 0 0
0.656643 0.057089 0.731951 0.8 0 0
0.536838 0.484337 0.846628 0.8 0 0
0.859251 0.536573 0.234394 0.8 0 0
0.696639 0.515020 0.772592 0.8 0 0
0.313122 0.894709 0.533168 0.8 0 0
0.650486 0.171568 0.803977 0.8 0 0
0.172188 0.309744 0.637645 0.8 0 0
0.855901 0.583350 0.244703 0.8 0 0
0.940950 0.570769 0.454423 0.8 0 0
0.448772 0.518280 0.798388 0.8 0 0
0.858140 0.349532 0.400004 0.8 0 0
0.262849 0.437845 0.115133 0.8 0 0
0.410829 0.840438 0.699850 0.8 0 0
0.854532 0.556962 0.533230 0.8 0 0
0.253304 0.788877 0.258171 0.8 0 0
0.265819 0.832072 0.605965 0.8 0 0
0.740716 0.121424 0.677080 0.8 0 0
0.606539 0.918894 0.397099 0.8 0 0
0.839585 0.675091 0.368410 0.8 0 0
0.795699 0.686913 0.661181 0.8 0 0
0.832012 0.189320 0.557880 0.8 0 0
0.449190 0.732820 0.792318 0.8 0 0
0.869900 0.492668 0.477384 0.8 0 0
0.407179 0.846243 0.223853 0.8 0 0
0.407587 0.574283 0.755776 0.8 0 0
0.570744 0.925365 0.411951 0.8 0 0
0.725144 0.562953 0.105829 0.8 0 0
0.311570 0.603418 0.732974 0.8 0 0
0.592672 0.512119 0.785618 0.8 0 0
0.397593 0.566807 0.766531 0.8 0 0
0.120999 0.506262 0.265300 0.8 0 0
0.719221 0.751144 0.721045 0.8 0 0
0.478612 0.608959 0.046834 0.8 0 0
0.404169 0.434602 0.055039 0.8 0 0
0.932252 0.433052 0.477597 0.8 0 0
0.422026 0.339508 0.880547 0.8 0 0
0.222566 0.493977 0.712444 0.8 0 0
0.391930 0.613166 0.724133 0.8 0 0
0.347275 0.912272 0.419934 0.8 0 0
0.779014 0.598412 0.147221 0.8 0 0
0.563601 0.689013 0.819157 0.8 0 0
0.751060 0.700602 0.743080 0.8 0 0
0.128808 0.285260 0.517740 0.8 0 0
0.636121 0.913610 0.386345 0.8 0 0
0.347382 0.685852 0.103615 0.8 0 0
0.674203 0.483217 0.648032 0.8 0 0
0.860267 0.428484 0.564680 0.8 0 0
0.426684 0.845190 0.701403 0.8 0 0
0.667967 0.562624 0.781309 0.8 0 0
0.495042 0.660982 0.823691 0.8 0 0
0.708731 0.087499 0.695847 0.8 0 0
0.286794 0.323318 0.145324 0.8 0 0
0.598486 0.199493 0.689609 0.8 0 0
0.442704 0.116203 0.872916 0.8 0 0
0.230602 0.242779 0.262367 0.8 0 0
0.865469 0.589319 0.323112 0.8 0 0
0.689496 0.177506 0.778435 0.8 0 0
0.401578 0.502559 0.790867 0.8 0 0
0.302650 0.881421 0.408143 0.8 0 0
0.887917 0.496181 0.505029 0.8 0 0
0.706393 0.538119 0.641711 0.8 0 0
0.455877 0.674563 0.066743 0.8 0 0
0.132109 0.495929 0.414809 0.8 0 0
0.392297 0.590210 0.640816 0.8 0 0
0.445756 0.320241 0.864894 0.8 0 0
0.473727 0.243710 0.785152 0.8 0 0
0.561137 0.314338 0.083242 0.8 0 0
0.356975 0.222854 0.784253 0.8 0 0
0.712736 0.302923 0.159881 0.8 0 0
0.141522 0.595297 0.425082 0.8 0 0
0.842528 0.627280 0.525183 0.8 0 0
0.264868 0.500457 0.100179 0.8 0 0
0.436032 0.782551 0.760253 0.8 0 0
0.243217 0.497687 0.730289 0.8 0 0
0.836725 0.244769 0.497031 0.8 0 0
0.537783 0.745230 0.785404 0.8 0 0
0.874715 0.531886 0.358217 0.8 0 0
0.194338 0.749482 0.296678 0.8 0 0
0.413481 0.906536 0.344877 0.8 0 0
0.150092 0.640076 0.392641 0.8 0 0
0.552441 0.146348 0.725331 0.8 0 0
0.661262 0.620954 0.722186 0.8 0 0
0.921615 0.408734 0.448189 0.8 0 0
0.280582 0.576496 0.700695 0.8 0 0
0.838741 0.596866 0.570370 0.8 0 0
0.619212 0.526845 0.621966 0.8 0 0
0.616289 0.893751 0.605317 0.8 0 0
0.847228 0.265534 0.391361 0.8 0 0
0.251906 0.323643 0.759453 0.8 0 0
0.209981 0.512641 0.676874 0.8 0 0
0.546406 0.415283 0.049125 0.8 0 0
0.448197 0.928739 0.418602 0.8 0 0
0.282879 0.811046 0.654296 0.8 0 0
0.183358 0.691563 0.249775 0.8 0 0
0.461171 0.273289 0.876603 0.8 0 0
0.815201 0.240104 0.336055 0.8 0 0
0.222473 0.703320 0.691157 0.8 0 0
0.910859 0.544695 0.489841 0.8 0 0
0.674544 0.517902 0.777449 0.8 0 0
0.821913 0.568177 0.191835 0.8 0 0
0.139079 0.371399 0.423995 0.8 0 0
0.533456 0.707926 0.084677 0.8 0 0
0.470702 0.245392 0.772915 0.8 0 0
0.803183 0.294516 0.676574 0.8 0 0
0.734806 0.682853 0.785313 0.8 0 0
0.076304 0.396351 0.493085 0.8 0 0
0.716140 0.514355 0.732786 0.8 0 0
0.228582 0.518033 0.711999 0.8 0 0
0.678958 0.372296 0.817884 0.8 0 0
0.199909 0.190888 0.627418 0.8 0 0
0.317374 0.765594 0.180101 0.8 0 0
0.794098 0.758166 0.584744 0.8 0 0
0.278503 0.518483 0.684168 0.8 0 0
0.035473 0.519587 0.470447 0.8 0 0
0.354077 0.716752 0.793245 0.8 0 0
0.528562 0.174603 0.785064 0.8 0 0
0.742553 0.850944 0.507869 0.8 0 0
0.483270 0.261285 0.716188 0.8 0 0
0.375555 0.250661 0.717802 0.8 0 0
0.776267 0.566480 0.137853 0.8 0 0
0.326135 0.438615 0.077289 0.8 0 0
0.670936 0.499157 0.782675 0.8 0 0
0.117831 0.440872 0.546524 0.8 0 0
0.801088 0.155441 0.608030 0.8 0 0
0.801243 0.457829 0.670545 0.8 0 0
0.279828 0.839808 0.612732 0.8 0 0
0.675854 0.286743 0.145434 0.8 0 0
0.632059 0.662739 0.824061 0.8 0 0
0.468198 0.797073 0.754410 0.8 0 0
0.380972 0.223725 0.691434 0.8 0 0
0.856989 0.383149 0.307808 0.8 0 0
0.286755 0.742372 0.184880 0.8 0 0
0.336954 0.478730 0.649672 0.8 0 0
0.651504 0.552059 0.615938 0.8 0 0
0.164819 0.659438 0.496816 0.8 0 0
0.201205 0.192429 0.630125 0.8 0 0
0.586792 0.242913 0.787304 0.8 0 0
0.376340 0.908368 0.364596 0.8 0 0
0.411940 0.369707 0.064946 0.8 0 0
0.141892 0.354606 0.505069 0.8 0 0
0.732480 0.163525 0.719212 0.8 0 0
0.814425 0.723737 0.468219 0.8 0 0
0.930389 0.412797 0.486273 0.8 0 0
0.460205 0.545251 0.812884 0.8 0 0
0.674876 0.712247 0.791277 0.8 0 0
0.808780 0.383100 0.195959 0.8 0 0
0.173291 0.689912 0.465089 0.8 0 0
0.150042 0.291013 0.479103 0.8 0 0
0.390955 0.597430 0.750773 0.8 0 0
0.381880 0.849746 0.236986 0.8 0 0
0.652783 0.627294 0.834307 0.8 0 0
0.677577 0.865275 0.608965 0.8 0 0
0.292716 0.664185 0.124980 0.8 0 0
0.667154 0.733504 0.146125 0.8 0 0
0.857308 0.558686 0.505559 0.8 0 0
0.154677 0.265603 0.475728 0.8 0 0
0.526482 0.121950 0.873079 0.8 0 0
0.648575 0.781217 0.167122 0.8 0 0
0.212929 0.537717 0.137596 0.8 0 0
0.285206 0.575947 0.724300 0.8 0 0
0.421791 0.888564 0.627318 0.8 0 0
0.454848 0.044450 0.862818 0.8 0 0
0.312788 0.612903 0.094186 0.8 0 0
0.525907 0.384669 0.050392 0.8 0 0
0.770843 0.745889 0.241846 0.8 0 0
0.285444 0.182777 0.755378 0.8 0 0
0.613747 0.185775 0.784053 0.8 0 0
0.204307 0.790217 0.405436 0.8 0 0
0.288481 0.497641 0.684696 0.8 0 0
0.438431 0.862628 0.676425 0.8 0 0
0.141072 0.471530 0.568389 0.8 0 0
0.205426 0.694531 0.655589 0.8 0 0
0.469587 0.845715 0.203214 0.8 0 0
0.144727 0.339350 0.337265 0.8 0 0
0.401368 0.878276 0.275845 0.8 0 0
0.837608 0.319236 0.617683 0.8 0 0
0.278455 0.449493 0.103180 0.8 0 0
0.929243 0.376758 0.506369 0.8 0 0
0.867305 0.501750 0.560186 0.8 0 0
0.529285 0.936086 0.510141 0.8 0 0
0.692768 0.556121 0.630992 0.8 0 0
0.851574 0.580697 0.519385 0.8 0 0
0.558632 0.244454 0.779743 0.8 0 0
0.856774 0.460097 0.573924 0.8 0 0
0.288823 0.147325 0.742364 0.8 0 0
0.785052 0.623390 0.691298 0.8 0 0
0.503512 0.729614 0.803160 0.8 0 0
0.843044 0.661688 0.382075 0.8 0 0
0.248633 0.839610 0.388749 0.8 0 0
0.437707 0.252644 0.749652 0.8 0 0
0.411782 0.212141 0.812713 0.8 0 0
0.287422 0.587142 0.684160 0.8 0 0
0.347319 0.769102 0.159872 0.8 0 0
0.580387 0.325388 0.870413 0.8 0 0
0.416560 0.905285 0.340502 0.8 0 0
0.831682 0.420509 0.627046 0.8 0 0
0.568788 0.805727 0.745370 0.8 0 0
0.818859 0.331407 0.247917 0.8 0 0
0.601000 0.445966 0.819719 0.8 0 0
0.601164 0.513898 0.782458 0.8 0 0
0.690035 0.321991 0.131030 0.8 0 0
0.615924 0.543155 0.621477 0.8 0 0
0.701295 0.524777 0.757968 0.8 0 0
0.448744 0.261650 0.713177 0.8 0 0
0.899093 0.358693 0.515742 0.8 0 0
0.168363 0.385792 0.226593 0.8 0 0
0.660825 0.887660 0.590566 0.8 0 0
0.865458 0.434901 0.431457 0.8 0 0
0.287046 0.780369 0.225029 0.8 0 0
0.224993 0.802520 0.324743 0.8 0 0
0.786053 0.798005 0.339299 0.8 0 0
0.196527 0.772205 0.384180 0.8 0 0
0.437106 0.027895 0.830666 0.8 0 0
0.601901 0.204942 0.842361 0.8 0 0
0.640517 0.367992 0.075222 0.8 0 0
0.258137 0.852570 0.539389 0.8 0 0
0.382703 0.042177 0.801217 0.8 0 0
0.778013 0.786500 0.610969 0.8 0 0
0.382199 0.612254 0.661749 0.8 0 0
0.529762 0.517916 0.833452 0.8 0 0
0.193491 0.770850 0.350025 0.8 0 0
0.848774 0.504407 0.593160 0.8 0 0
0.377941 0.574819 0.624980 0.8 0 0
0.649338 0.174392 0.805462 0.8 0 0
0.710198 0.866556 0.373851 0.8 0 0
0.290387 0.724265 0.170072 0.8 0 0
0.664643 0.330951 0.821850 0.8 0 0
0.429736 0.403568 0.055810 0.8 0 0
0.681358 0.567804 0.778328 0.8 0 0
0.881202 0.552349 0.499058 0.8 0 0
0.225614 0.248305 0.697979 0.8 0 0
0.138583 0.547747 0.498507 0.8 0 0
0.571367 0.224172 0.844216 0.8 0 0
0.159760 0.624531 0.546290 0.8 0 0
0.745290 0.426589 0.779247 0.8 0 0
0.673731 0.686456 0.119033 0.8 0 0
0.610454 0.172197 0.688790 0.8 0 0
0.205600 0.334115 0.212771 0.8 0 0
0.471631 0.895075 0.282982 0.8 0 0
0.531072 0.387034 0.822448 0.8 0 0
0.355900 0.259614 0.825969 0.8 0 0
0.651219 0.781660 0.170156 0.8 0 0
0.130535 0.463387 0.455691 0.8 0 0
0.845190 0.621208 0.510753 0.8 0 0
0.332341 0.732081 0.145522 0.8 0 0
0.883726 0.557125 0.529948 0.8 0 0
0.858265 0.381663 0.346429 0.8 0 0
0.902697 0.545837 0.487245 0.8 0 0
0.305395 0.132673 0.755238 0.8 0 0
0.562808 0.407171 0.851608 0.8 0 0
0.371996 0.235437 0.765145 0.8 0 0
0.723458 0.515918 0.684553 0.8 0 0
0.147921 0.328078 0.551412 0.8 0 0
0.522755 0.244440 0.778791 0.8 0 0
0.718870 0.695744 0.788981 0.8 0 0
0.867466 0.582264 0.283643 0.8 0 0
0.168709 0.643262 0.564698 0.8 0 0
0.200729 0.733112 0.591027 0.8 0 0
0.433324 0.467872 0.828539 0.8 0 0
0.466827 0.238005 0.862729 0.8 0 0
0.227084 0.646050 0.154987 0.8 0 0
0.389413 0.537236 0.774643 0.8 0 0
0.572473 0.310758 0.088023 0.8 0 0
0.929781 0.479465 0.441794 0.8 0 0
0.624099 0.148767 0.694736 0.8 0 0
0.560082 0.466525 0.042673 0.8 0 0
0.534069 0.774106 0.125107 0.8 0 0
0.861685 0.422962 0.369470 0.8 0 0
0.684161 0.508180 0.763968 0.8 0 0
0.568569 0.891100 0.626466 0.8 0 0
0.324261 0.476160 0.661006 0.8 0 0
0.629095 0.263279 0.839068 0.8 0 0
0.294211 0.543731 0.643943 0.8 0 0
0.604647 0.903102 0.343714 0.8 0 0
0.237268 0.831303 0.395794 0.8 0 0
0.563768 0.163501 0.688210 0.8 0 0
0.197997 0.272165 0.666919 0.8 0 0
0.847189 0.618610 0.493841 0.8 0 0
0.638523 0.855894 0.648582 0.8 0 0
0.050458 0.454020 0.479372 0.8 0 0
0.105417 0.467056 0.466359 0.8 0 0
0.626704 0.832856 0.687581 0.8 0 0
0.657746 0.820133 0.223344 0.8 0 0
0.653622 0.552431 0.781927 0.8 0 0
0.245842 0.734657 0.712076 0.8 0 0
0.499686 0.664467 0.052163 0.8 0 0
0.589501 0.903582 0.338729 0.8 0 0
0.424325 0.569863 0.659355 0.8 0 0
0.500000 0.938496 0.451455 0.8 0 0
0.631782 0.251441 0.139792 0.8 0 0
0.786072 0.420801 0.722558 0.8 0 0
0.903452 0.550664 0.530588 0.8 0 0
0.646624 0.914335 0.445808 0.8 0 0
0.180496 0.726183 0.389030 0.8 0 0
0.673954 0.900685 0.442742 0.8 0 0
0.426211 0.856468 0.231755 0.8 0 0
0.661750 0.751357 0.154337 0.8 0 0
0.618799 0.376684 0.831572 0.8 0 0
0.155764 0.591283 0.559129 0.8 0 0
0.705411 0.485162 0.707012 0.8 0 0
0.647023 0.460388 0.059268 0.8 0 0
0.539778 0.336822 0.920081 0.8 0 0
0.306100 0.876871 0.369508 0.8 0 0
0.867443 0.365357 0.529358 0.8 0 0
0.627374 0.464151 0.715471 0.8 0 0
0.686061 0.791027 0.214432 0.8 0 0
0.733873 0.359224 0.790133 0.8 0 0
0.378206 0.828557 0.696499 0.8 0 0
0.098306 0.438225 0.483442 0.8 0 0
0.651461 0.719625 0.787586 0.8 0 0
0.263063 0.573854 0.115394 0.8 0 0
0.604085 0.746099 0.124925 0.8 0 0
0.656069 0.809581 0.208862 0.8 0 0
0.447010 0.917664 0.358933 0.8 0 0
0.633828 0.880216 0.617817 0.8 0 0
0.879579 0.277828 0.512166 0.8 0 0
0.345035 0.442791 0.809430 0.8 0 0
0.922100 0.495733 0.490326 0.8 0 0
0.481613 0.258303 0.701666 0.8 0 0
0.679393 0.249236 0.173275 0.8 0 0
0.828745 0.420833 0.210139 0.8 0 0
0.864584 0.473122 0.521069 0.8 0 0
0.084244 0.380700 0.466992 0.8 0 0
0.217605 0.806251 0.353263 0.8 0 0
0.473627 0.281580 0.095453 0.8 0 0
0.133814 0.465349 0.419706 0.8 0 0
0.722743 0.812340 0.265973 0.8 0 0
0.462631 0.661136 0.058730 0.8 0 0
0.832909 0.236699 0.511175 0.8 0 0
0.778727 0.801536 0.329241 0.8 0 0
0.774778 0.631774 0.714530 0.8 0 0
0.364331 0.537587 0.616183 0.8 0 0
0.342306 0.586107 0.629326 0.8 0 0
0.269969 0.298209 0.174708 0.8 0 0
0.208358 0.780204 0.317813 0.8 0 0
0.576336 0.897242 0.613496 0.8 0 0
0.336293 0.907250 0.415391 0.8 0 0
0.723677 0.829397 0.308461 0.8 0 0
0.426154 0.286100 0.864157 0.8 0 0
0.156366 0.377194 0.246229 0.8 0 0
0.065343 0.574732 0.452171 0.8 0 0
0.808173 0.366583 0.200991 0.8 0 0
0.388196 0.697696 0.096340 0.8 0 0
0.846994 0.574773 0.559918 0.8 0 0
0.782796 0.551694 0.138321 0.8 0 0
0.398526 0.590810 0.819954 0.8 0 0
0.730543 0.564707 0.109407 0.8 0 0
0.698469 0.774993 0.206518 0.8 0 0
0.784693 0.804511 0.352143 0.8 0 0
0.856403 0.595159 0.249209 0.8 0 0
0.258924 0.163019 0.706624 0.8 0 0
0.239372 0.320382 0.743791 0.8 0 0
0.769565 0.136219 0.586869 0.8 0 0
0.421803 0.533263 0.748332 0.8 0 0
0.875211 0.431694 0.553590 0.8 0 0
0.141728 0.578649 0.473543 0.8 0 0
0.630555 0.230461 0.690878 0.8 0 0
0.202888 0.669503 0.678669 0.8 0 0
0.202895 0.737506 0.594022 0.8 0 0
0.415916 0.500351 0.659978 0.8 0 0
0.180491 0.486886 0.636311 0.8 0 0
0.795832 0.755746 0.581332 0.8 0 0
0.514694 0.805435 0.751214 0.8 0 0
0.251285 0.228908 0.728243 0.8 0 0
0.701891 0.611908 0.808288 0.8 0 0
0.427133 0.903889 0.332708 0.8 0 0
0.818593 0.659798 0.604182 0.8 0 0
0.560395 0.590818 0.051176 0.8 0 0
0.854584 0.356471 0.287401 0.8 0 0
0.430421 0.378833 0.868300 0.8 0 0
0.672041 0.901065 0.418457 0.8 0 0
0.170179 0.658336 0.234477 0.8 0 0
0.162584 0.400389 0.617041 0.8 0 0
0.252204 0.369029 0.138232 0.8 0 0
0.536183 0.035335 0.857892 0.8 0 0
0.547757 0.561973 0.043798 0.8 0 0
0.587940 0.156940 0.686378 0.8 0 0
0.850632 0.614907 0.462327 0.8 0 0
0.537295 0.230296 0.129422 0.8 0 0
0.943000 0.393398 0.482659 0.8 0 0
0.128985 0.563776 0.265830 0.8 0 0
0.618197 0.033948 0.764349 0.8 0 0
0.160417 0.348221 0.613370 0.8 0 0
0.162840 0.440144 0.612644 0.8 0 0
0.869881 0.319241 0.560333 0.8 0 0
0.196354 0.672960 0.647456 0.8 0 0
0.465398 0.369121 0.844243 0.8 0 0
0.323236 0.854739 0.294785 0.8 0 0
0.583132 0.563996 0.747320 0.8 0 0
0.677324 0.528162 0.623022 0.8 0 0
0.852454 0.659422 0.292921 0.8 0 0
0.159498 0.688980 0.307577 0.8 0 0
0.572550 0.027727 0.805778 0.8 0 0
0.465486 0.254013 0.743074 0.8 0 0
0.260610 0.818305 0.303578 0.8 0 0
0.392108 0.232049 0.828265 0.8 0 0
0.379588 0.531296 0.619644 0.8 0 0
0.725714 0.549345 0.103215 0.8 0 0
0.746039 0.180561 0.708132 0.8 0 0
0.254518 0.628055 0.769618 0.8 0 0
0.159717 0.262944 0.514632 0.8 0 0
0.470616 0.396405 0.049084 0.8 0 0
0.797026 0.792615 0.517722 0.8 0 0
0.668668 0.534456 0.066187 0.8 0 0
0.239961 0.272870 0.731976 0.8 0 0
0.242725 0.743450 0.225656 0.8 0 0
0.161362 0.666580 0.416972 0.8 0 0
0.821774 0.586349 0.598943 0.8 0 0
0.702331 0.269757 0.175729 0.8 0 0
0.405664 0.322053 0.842124 0.8 0 0
0.247941 0.209808 0.714507 0.8 0 0
0.421934 0.923653 0.399477 0.8 0 0
0.455888 0.930296 0.425865 0.8 0 0
0.122541 0.342242 0.498780 0.8 0 0
0.388834 0.587693 0.806803 0.8 0 0
0.954309 0.437072 0.474111 0.8 0 0
0.747641 0.668266 0.767002 0.8 0 0
0.535566 0.113743 0.876675 0.8 0 0
0.633843 0.615647 0.661457 0.8 0 0
0.862754 0.442110 0.325987 0.8 0 0
0.141304 0.624489 0.327799 0.8 0 0
0.623205 0.918800 0.561073 0.8 0 0
0.548159 0.253606 0.745392 0.8 0 0
0.563709 0.863406 0.238007 0.8 0 0
0.462518 0.757093 0.778192 0.8 0 0
0.570228 0.557565 0.786586 0.8 0 0
0.866662 0.504660 0.508417 0.8 0 0
0.329681 0.530249 0.066253 0.8 0 0
0.775007 0.789362 0.618116 0.8 0 0
0.931914 0.572718 0.490327 0.8 0 0
0.521285 0.494150 0.853592 0.8 0 0
0.602487 0.319557 0.089514 0.8 0 0
0.687570 0.447818 0.796986 0.8 0 0
0.394753 0.777713 0.145354 0.8 0 0
0.390216 0.409300 0.062178 0.8 0 0
0.607648 0.577265 0.786169 0.8 0 0
0.129158 0.479852 0.306538 0.8 0 0
0.151611 0.614129 0.492727 0.8 0 0
0.370722 0.816309 0.197117 0.8 0 0
0.885502 0.477651 0.541993 0.8 0 0
0.845227 0.664474 0.349161 0.8 0 0
0.143723 0.323891 0.393039 0.8 0 0
0.639828 0.491923 0.763286 0.8 0 0
0.576639 0.925502 0.438769 0.8 0 0
0.194742 0.571284 0.628538 0.8 0 0
0.351622 0.810152 0.704210 0.8 0 0
0.459971 0.333125 0.910325 0.8 0 0
0.713204 0.715695 0.780715 0.8 0 0
0.459755 0.538799 0.038472 0.8 0 0
0.350514 0.409921 0.069067 0.8 0 0
0.656696 0.600522 0.639614 0.8 0 0
0.842363 0.246105 0.448976 0.8 0 0
0.136942 0.603104 0.324368 0.8 0 0
0.573255 0.240504 0.804018 0.8 0 0
0.841436 0.666860 0.379636 0.8 0 0
0.756832 0.121507 0.624795 0.8 0 0
0.319146 0.593315 0.794276 0.8 0 0
0.200792 0.166915 0.548012 0.8 0 0
0.815938 0.727096 0.432170 0.8 0 0
0.130530 0.507740 0.471532 0.8 0 0
0.734871 0.589343 0.769027 0.8 0 0
0.589777 0.600504 0.681543 0.8 0 0
0.450100 0.524894 0.037599 0.8 0 0
0.341496 0.377014 0.823081 0.8 0 0
0.833665 0.695690 0.272270 0.8 0 0
0.137747 0.444624 0.347030 0.8 0 0
0.308895 0.503023 0.753471 0.8 0 0
0.573021 0.444076 0.049131 0.8 0 0
0.545546 0.305946 0.084802 0.8 0 0
0.475752 0.385624 0.930557 0.8 0 0
0.204022 0.792233 0.388976 0.8 0 0
0.772517 0.246745 0.262784 0.8 0 0
0.578476 0.822413 0.187249 0.8 0 0
0.646927 0.812230 0.203489 0.8 0 0
0.779586 0.191219 0.658536 0.8 0 0
0.870252 0.470192 0.489661 0.8 0 0
0.699202 0.687662 0.798961 0.8 0 0
0.312615 0.497687 0.072489 0.8 0 0
0.787076 0.514844 0.681832 0.8 0 0
0.720522 0.808362 0.655487 0.8 0 0
0.347967 0.405106 0.071620 0.8 0 0
0.331265 0.350054 0.821206 0.8 0 0
0.402879 0.722435 0.108375 0.8 0 0
0.870497 0.542808 0.432949 0.8 0 0
0.860409 0.416580 0.344843 0.8 0 0
0.768012 0.294527 0.723826 0.8 0 0
0.912421 0.339847 0.474960 0.8 0 0
0.542191 0.278256 0.100952 0.8 0 0
0.375532 0.920470 0.506810 0.8 0 0
0.614737 0.285312 0.114059 0.8 0 0
0.769654 0.214666 0.687656 0.8 0 0
0.796290 0.290736 0.686254 0.8 0 0
0.211876 0.202365 0.651076 0.8 0 0
0.697964 0.080269 0.701424 0.8 0 0
0.655613 0.528809 0.617388 0.8 0 0
0.308726 0.796352 0.225855 0.8 0 0
0.422005 0.372356 0.861956 0.8 0 0
0.133598 0.530531 0.242548 0.8 0 0
0.674856 0.617451 0.676207 0.8 0 0
0.386397 0.724537 0.113766 0.8 0 0
0.344065 0.550054 0.062025 0.8 0 0
0.669103 0.686291 0.115631 0.8 0 0
0.321941 0.492158 0.754288 0.8 0 0
0.761480 0.785184 0.656589 0.8 0 0
0.553677 0.589278 0.832160 0.8 0 0
0.722630 0.406825 0.113642 0.8 0 0
0.749415 0.230027 0.727803 0.8 0 0
0.835171 0.216480 0.433054 0.8 0 0
0.705845 0.164209 0.758636 0.8 0 0
0.555331 0.548355 0.042723 0.8 0 0
0.818261 0.569159 0.187116 0.8 0 0
0.586998 0.596536 0.720110 0.8 0 0
0.409650 0.485011 0.724257 0.8 0 0
0.143134 0.327393 0.403412 0.8 0 0
0.359878 0.913586 0.401699 0.8 0 0
0.393550 0.161367 0.766006 0.8 0 0
0.158158 0.609674 0.233317 0.8 0 0
0.350769 0.596744 0.635543 0.8 0 0
0.624892 0.516637 0.781706 0.8 0 0
0.695103 0.847128 0.621003 0.8 0 0
0.467449 0.642339 0.054625 0.8 0 0
0.915202 0.473778 0.497838 0.8 0 0
0.416865 0.503194 0.797106 0.8 0 0
0.780056 0.552140 0.136740 0.8 0 0
0.809838 0.736574 0.281544 0.8 0 0
0.156000 0.252017 0.576895 0.8 0 0
0.359313 0.779481 0.158352 0.8 0 0
0.848836 0.425184 0.591848 0.8 0 0
0.614842 0.247954 0.738919 0.8 0 0
0.391036 0.137158 0.840961 0.8 0 0
0.729328 0.830449 0.618597 0.8 0 0
0.752459 0.343806 0.156242 0.8 0 0
0.400939 0.858552 0.668824 0.8 0 0
0.835405 0.702617 0.294906 0.8 0 0
0.826286 0.368357 0.225392 0.8 0 0
0.811994 0.301315 0.663748 0.8 0 0
0.719665 0.751578 0.197858 0.8 0 0
0.437053 0.244464 0.866742 0.8 0 0
0.497780 0.812474 0.148780 0.8 0 0
0.247758 0.759010 0.231947 0.8 0 0
0.338497 0.242696 0.810895 0.8 0 0
0.269120 0.851453 0.568043 0.8 0 0
0.713868 0.371985 0.116618 0.8 0 0
0.494483 0.937113 0.439319 0.8 0 0
0.194501 0.701307 0.602078 0.8 0 0
0.864239 0.464506 0.351106 0.8 0 0
0.537688 0.145017 0.718256 0.8 0 0
0.127153 0.294947 0.532583 0.8 0 0
0.797289 0.788445 0.357786 0.8 0 0
0.363301 0.181637 0.816690 0.8 0 0
0.616784 0.873980 0.274199 0.8 0 0
0.644688 0.459135 0.800607 0.8 0 0
0.397813 0.859438 0.665706 0.8 0 0
0.358089 0.369586 0.828970 0.8 0 0
0.609803 0.181068 0.783656 0.8 0 0
0.849738 0.375171 0.585381 0.8 0 0
0.843775 0.241182 0.406538 0.8 0 0
0.714306 0.632917 0.115647 0.8 0 0
0.474584 0.535054 0.833215 0.8 0 0
0.142186 0.353533 0.383709 0.8 0 0
0.766998 0.673652 0.173496 0.8 0 0
0.167315 0.234261 0.538359 0.8 0 0
0.499351 0.732364 0.092311 0.8 0 0
0.706235 0.875035 0.416105 0.8 0 0
0.439483 0.613166 0.843607 0.8 0 0
0.516579 0.925163 0.587747 0.8 0 0
0.391430 0.905883 0.352246 0.8 0 0
0.380386 0.463912 0.700739 0.8 0 0
0.121838 0.361635 0.509898 0.8 0 0
0.123179 0.534947 0.547024 0.8 0 0
0.615463 0.512702 0.046810 0.8 0 0
0.182718 0.250027 0.328281 0.8 0 0
0.804239 0.606208 0.628896 0.8 0 0
0.603962 0.555464 0.782302 0.8 0 0
0.526106 0.934806 0.465275 0.8 0 0
0.781477 0.259997 0.693563 0.8 0 0
0.408283 0.861095 0.243801 0.8 0 0
0.502561 0.251308 0.748932 0.8 0 0
0.385425 0.233324 0.805666 0.8 0 0
0.130311 0.467793 0.254092 0.8 0 0
0.575333 0.521599 0.041324 0.8 0 0
0.748658 0.367695 0.778748 0.8 0 0
0.709605 0.451199 0.783627 0.8 0 0
0.639377 0.300545 0.825398 0.8 0 0
0.411772 0.728226 0.109848 0.8 0 0
0.544624 0.219890 0.827847 0.8 0 0
0.255958 0.317784 0.762419 0.8 0 0
0.636552 0.165140 0.685605 0.8 0 0
0.227256 0.692354 0.708278 0.8 0 0
0.828652 0.205092 0.568593 0.8 0 0
0.299133 0.817811 0.656898 0.8 0 0
0.429983 0.216091 0.820922 0.8 0 0
0.797652 0.789452 0.506541 0.8 0 0
0.793848 0.423149 0.161088 0.8 0 0
0.408241 0.802188 0.741471 0.8 0 0
0.528067 0.375992 0.935983 0.8 0 0
0.564295 0.931237 0.531181 0.8 0 0
0.422600 0.927811 0.498842 0.8 0 0
0.257352 0.428286 0.120818 0.8 0 0
0.084303 0.572837 0.516351 0.8 0 0
0.339969 0.467175 0.788722 0.8 0 0
0.762130 0.391470 0.141670 0.8 0 0
0.248681 0.730877 0.720222 0.8 0 0
0.485467 0.937512 0.485868 0.8 0 0
0.709987 0.421244 0.102458 0.8 0 0
0.609016 0.325193 0.835454 0.8 0 0
0.927270 0.441358 0.446128 0.8 0 0
0.151244 0.617185 0.478682 0.8 0 0
0.140255 0.539340 0.534933 0.8 0 0
0.887724 0.314135 0.497794 0.8 0 0
0.845474 0.610145 0.526521 0.8 0 0
0.616613 0.544171 0.621217 0.8 0 0
0.361585 0.698758 0.103569 0.8 0 0
0.591764 0.565999 0.052468 0.8 0 0
0.318290 0.896868 0.555576 0.8 0 0
0.680961 0.580616 0.083481 0.8 0 0
0.382406 0.888285 0.312065 0.8 0 0
0.817809 0.499296 0.168464 0.8 0 0
0.352271 0.496778 0.629527 0.8 0 0
0.658019 0.872765 0.302895 0.8 0 0
0.191070 0.328198 0.673087 0.8 0 0
0.387975 0.467758 0.712668 0.8 0 0
0.490132 0.655582 0.825426 0.8 0 0
0.550937 0.875060 0.250003 0.8 0 0
0.894902 0.350647 0.534606 0.8 0 0
0.830673 0.227500 0.504819 0.8 0 0
0.278404 0.457694 0.101432 0.8 0 0
0.643370 0.216629 0.819346 0.8 0 0
0.762660 0.571476 0.729166 0.8 0 0
0.638841 0.607873 0.647574 0.8 0 0
0.729648 0.851943 0.374138 0.8 0 0
0.422903 0.375229 0.061893 0.8 0 0
0.597370 0.609467 0.691327 0.8 0 0
0.390575 0.328983 0.085401 0.8 0 0
0.108580 0.568670 0.488579 0.8 0 0
0.731122 0.761627 0.218106 0.8 0 0
0.694915 0.480416 0.773696 0.8 0 0
0.847383 0.370545 0.590798 0.8 0 0
0.800660 0.772887 0.432341 0.8 0 0
0.547554 0.236945 0.857520 0.8 0 0
0.762267 0.610470 0.723789 0.8 0 0
0.564480 0.138898 0.693142 0.8 0 0
0.147881 0.307296 0.519928 0.8 0 0
0.288537 0.861450 0.365032 0.8 0 0
0.442368 0.928918 0.567087 0.8 0 0
0.172965 0.230773 0.588288 0.8 0 0
0.592071 0.261594 0.700402 0.8 0 0
0.552229 0.712402 0.805024 0.8 0 0
0.489534 0.203398 0.812098 0.8 0 0
0.431799 0.732214 0.791154 0.8 0 0
0.360928 0.218407 0.705683 0.8 0 0
0.266981 0.840993 0.356283 0.8 0 0
0.204484 0.386512 0.709393 0.8 0 0
0.893448 0.392079 0.491060 0.8 0 0
0.886798 0.279423 0.533700 0.8 0 0
0.835141 0.244004 0.523349 0.8 0 0
0.219683 0.762384 0.625727 0.8 0 0
0.552402 0.137490 0.685934 0.8 0 0
0.481374 0.864793 0.225530 0.8 0 0
0.780403 0.769229 0.619130 0.8 0 0
0.194434 0.491274 0.653054 0.8 0 0
0.143701 0.333366 0.376803 0.8 0 0
0.190147 0.292537 0.664271 0.8 0 0
0.842362 0.647825 0.456331 0.8 0 0
0.092715 0.541540 0.466932 0.8 0 0
0.602492 0.582139 0.640386 0.8 0 0
0.648153 0.747594 0.142129 0.8 0 0
0.875719 0.529594 0.327368 0.8 0 0
0.192985 0.314598 0.247766 0.8 0 0
0.387121 0.727863 0.789534 0.8 0 0
0.133250 0.526385 0.529040 0.8 0 0
0.957080 0.545750 0.472095 0.8 0 0
0.208692 0.540145 0.673469 0.8 0 0
0.621892 0.141034 0.833552 0.8 0 0
0.178417 0.234530 0.601048 0.8 0 0
0.644396 0.781804 0.733129 0.8 0 0
0.090124 0.310981 0.490964 0.8 0 0
0.870719 0.459767 0.471289 0.8 0 0
0.280246 0.092891 0.675019 0.8 0 0
0.785566 0.456140 0.711221 0.8 0 0
0.174825 0.185097 0.550068 0.8 0 0
0.174573 0.713466 0.373354 0.8 0 0
0.467047 0.759876 0.776998 0.8 0 0
0.147678 0.663489 0.279256 0.8 0 0
0.272631 0.833244 0.329544 0.8 0 0
0.295963 0.770015 0.205677 0.8 0 0
0.608880 0.476321 0.730703 0.8 0 0
0.612327 0.839415 0.687230 0.8 0 0
0.474495 0.429780 0.893860 0.8 0 0
0.503452 0.240602 0.816764 0.8 0 0
0.337556 0.691885 0.810143 0.8 0 0
0.406401 0.719274 0.105507 0.8 0 0
0.584157 0.565943 0.748016 0.8 0 0
0.602219 0.498595 0.044226 0.8 0 0
0.348638 0.575433 0.622717 0.8 0 0
0.388732 0.409749 0.825487 0.8 0 0
0.272969 0.771537 0.225707 0.8 0 0
0.385645 0.553098 0.621465 0.8 0 0
0.844757 0.405511 0.601485 0.8 0 0
0.646695 0.604517 0.826243 0.8 0 0
0.287832 0.508548 0.666808 0.8 0 0
0.140880 0.439953 0.247896 0.8 0 0
0.190284 0.623103 0.624455 0.8 0 0
0.708227 0.414525 0.102917 0.8 0 0
0.573825 0.506642 0.713901 0.8 0 0
0.216648 0.346936 0.184931 0.8 0 0
0.574472 0.174333 0.846550 0.8 0 0
0.586916 0.363304 0.857792 0.8 0 0
0.132482 0.491578 0.507538 0.8 0 0
0.386754 0.415752 0.823657 0.8 0 0
0.676376 0.512433 0.065978 0.8 0 0
0.158739 0.437784 0.222693 0.8 0 0
0.151400 0.481632 0.218946 0.8 0 0
0.311745 0.855144 0.314182 0.8 0 0
0.675054 0.514066 0.781922 0.8 0 0
0.798817 0.661428 0.681959 0.8 0 0
0.696148 0.767552 0.195233 0.8 0 0
0.848092 0.279737 0.475368 0.8 0 0
0.553252 0.573921 0.814858 0.8 0 0
0.632698 0.920586 0.542899 0.8 0 0
0.066159 0.398889 0.495607 0.8 0 0
0.791244 0.559895 0.660033 0.8 0 0
0.338794 0.501811 0.056084 0.8 0 0
0.429818 0.255728 0.875827 0.8 0 0
0.797946 0.785287 0.395725 0.8 0 0
0.517183 0.143238 0.713044 0.8 0 0
0.371610 0.891187 0.323703 0.8 0 0
0.205720 0.469039 0.145374 0.8 0 0
0.479925 0.423472 0.899529 0.8 0 0
0.279437 0.799388 0.667730 0.8 0 0
0.368126 0.235304 0.690866 0.8 0 0
0.760052 0.527549 0.723200 0.8 0 0
0.806093 0.746479 0.556472 0.8 0 0
0.518206 0.141837 0.706106 0.8 0 0
0.575100 0.435086 0.051165 0.8 0 0
0.131697 0.486285 0.513298 0.8 0 0
0.455748 0.040836 0.860039 0.8 0 0
0.536406 0.277556 0.875280 0.8 0 0
0.138552 0.420211 0.299819 0.8 0 0
0.861343 0.424425 0.357243 0.8 0 0
0.833761 0.301449 0.624462 0.8 0 0
0.838964 0.636321 0.540727 0.8 0 0
0.797646 0.357338 0.193248 0.8 0 0
0.242576 0.602907 0.135000 0.8 0 0
0.518457 0.026374 0.810785 0.8 0 0
0.684397 0.317883 0.130312 0.8 0 0
0.474847 0.378291 0.051304 0.8 0 0
0.643609 0.227572 0.804368 0.8 0 0
0.244976 0.792769 0.268254 0.8 0 0
0.345221 0.620294 0.726516 0.8 0 0
0.616854 0.152519 0.688798 0.8 0 0
0.686860 0.291081 0.807812 0.8 0 0
0.702866 0.485237 0.716054 0.8 0 0
0.189718 0.737707 0.460744 0.8 0 0
0.571302 0.159417 0.833138 0.8 0 0
0.330697 0.608620 0.655147 0.8 0 0
0.352258 0.823223 0.217698 0.8 0 0
0.126103 0.427957 0.555401 0.8 0 0
0.212187 0.395192 0.727085 0.8 0 0
0.508378 0.239534 0.823847 0.8 0 0
0.313522 0.246289 0.791634 0.8 0 0
0.921332 0.504834 0.446224 0.8 0 0
0.069074 0.399351 0.502315 0.8 0 0
0.711050 0.594379 0.701039 0.8 0 0
0.242947 0.298516 0.738852 0.8 0 0
0.101311 0.561599 0.529932 0.8 0 0
0.802673 0.549754 0.639371 0.8 0 0
0.710259 0.403230 0.804033 0.8 0 0
0.157361 0.286569 0.329537 0.8 0 0
0.151740 0.430495 0.235243 0.8 0 0
0.702803 0.508003 0.080675 0.8 0 0
0.266582 0.288990 0.183659 0.8 0 0
0.552568 0.888216 0.636886 0.8 0 0
0.399970 0.238742 0.851548 0.8 0 0
0.828947 0.468073 0.194878 0.8 0 0
0.138332 0.369343 0.470460 0.8 0 0
0.704134 0.767116 0.709693 0.8 0 0
0.260364 0.785309 0.249338 0.8 0 0
0.357661 0.591821 0.066254 0.8 0 0
0.631711 0.619892 0.672096 0.8 0 0
0.325373 0.833742 0.654245 0.8 0 0
0.357391 0.207331 0.756274 0.8 0 0
0.518892 0.727091 0.093048 0.8 0 0
0.280410 0.443708 0.103277 0.8 0 0
0.444660 0.678756 0.071843 0.8 0 0
0.482771 0.649889 0.827247 0.8 0 0
0.735484 0.644021 0.796532 0.8 0 0
0.532866 0.810293 0.155441 0.8 0 0
0.875594 0.531128 0.320202 0.8 0 0
0.789835 0.517178 0.134362 0.8 0 0
0.862532 0.374550 0.467331 0.8 0 0
0.169799 0.582363 0.208099 0.8 0 0
0.247135 0.604490 0.748025 0.8 0 0
0.342742 0.100232 0.789087 0.8 0 0
0.464424 0.312984 0.078235 0.8 0 0
0.866691 0.418868 0.454771 0.8 0 0
0.525033 0.708198 0.082953 0.8 0 0
0.392575 0.511157 0.783063 0.8 0 0
0.357811 0.249659 0.828033 0.8 0 0
0.463172 0.193001 0.866545 0.8 0 0
0.342216 0.909997 0.384724 0.8 0 0
0.416845 0.237943 0.693692 0.8 0 0
0.182314 0.713491 0.525085 0.8 0 0
0.478296 0.698432 0.076293 0.8 0 0
0.867576 0.535208 0.474576 0.8 0 0
0.269535 0.857173 0.427673 0.8 0 0
0.302979 0.833400 0.269960 0.8 0 0
0.127885 0.536911 0.398288 0.8 0 0
0.664630 0.716356 0.132751 0.8 0 0
0.182599 0.618457 0.592394 0.8 0 0
0.593211 0.465852 0.814609 0.8 0 0
0.854943 0.328735 0.353113 0.8 0 0
0.721352 0.129736 0.713974 0.8 0 0
0.335129 0.856596 0.277435 0.8 0 0
0.717170 0.502828 0.713898 0.8 0 0
0.766420 0.803435 0.309682 0.8 0 0
0.513724 0.653655 0.053003 0.8 0 0
0.220306 0.573960 0.690168 0.8 0 0
0.136234 0.452311 0.376012 0.8 0 0
0.853834 0.552785 0.550190 0.8 0 0
0.539720 0.138680 0.684855 0.8 0 0
0.821443 0.705075 0.463299 0.8 0 0
0.701075 0.881898 0.483121 0.8 0 0
0.558270 0.768402 0.769606 0.8 0 0
0.196874 0.748323 0.564432 0.8 0 0
0.260251 0.642966 0.783382 0.8 0 0
0.941182 0.377906 0.492745 0.8 0 0
0.633549 0.518398 0.782151 0.8 0 0
0.697782 0.143440 0.752049 0.8 0 0
0.848758 0.274938 0.391379 0.8 0 0
0.570089 0.926633 0.440188 0.8 0 0
0.682191 0.542656 0.773431 0.8 0 0
0.584305 0.309512 0.091491 0.8 0 0
0.641532 0.201382 0.761424 0.8 0 0
0.867603 0.474777 0.248771 0.8 0 0
0.616648 0.230618 0.691532 0.8 0 0
0.480717 0.806954 0.146993 0.8 0 0
0.515063 0.910209 0.613319 0.8 0 0
0.190527 0.743604 0.502176 0.8 0 0
0.184201 0.421456 0.192027 0.8 0 0
0.418381 0.532379 0.044566 0.8 0 0
0.914113 0.413847 0.462903 0.8 0 0
0.371973 0.921026 0.534943 0.8 0 0
0.859154 0.407348 0.325868 0.8 0 0
0.803640 0.489803 0.656970 0.8 0 0
0.705891 0.783571 0.693080 0.8 0 0
0.816635 0.531548 0.172606 0.8 0 0
0.951144 0.515801 0.453722 0.8 0 0
0.666875 0.836441 0.251650 0.8 0 0
0.447829 0.606653 0.845155 0.8 0 0
0.615311 0.434004 0.819679 0.8 0 0
0.455123 0.366880 0.849368 0.8 0 0
0.241223 0.336408 0.165796 0.8 0 0
0.578546 0.714786 0.098956 0.8 0 0
0.776989 0.820008 0.384771 0.8 0 0
0.298142 0.816830 0.255820 0.8 0 0
0.568017 0.552246 0.673462 0.8 0 0
0.722793 0.218714 0.760035 0.8 0 0
0.842164 0.657273 0.414178 0.8 0 0
0.064606 0.525912 0.469384 0.8 0 0
0.476122 0.322890 0.864255 0.8 0 0
0.396524 0.575955 0.763054 0.8 0 0
0.841269 0.634836 0.517517 0.8 0 0
0.832983 0.672291 0.251868 0.8 0 0
0.372442 0.463270 0.683497 0.8 0 0
0.946982 0.430513 0.470769 0.8 0 0
0.163520 0.661830 0.468200 0.8 0 0
0.319110 0.414504 0.814046 0.8 0 0
0.683396 0.255005 0.172227 0.8 0 0
0.586310 0.685825 0.820348 0.8 0 0
0.630523 0.243165 0.718608 0.8 0 0
0.933151 0.373649 0.481646 0.8 0 0
0.514048 0.877764 0.666090 0.8 0 0
0.432467 0.404240 0.055167 0.8 0 0
0.719831 0.866868 0.464742 0.8 0 0
0.389675 0.823089 0.199451 0.8 0 0
0.471953 0.235652 0.855524 0.8 0 0
0.319745 0.616773 0.821202 0.8 0 0
0.544351 0.172466 0.689292 0.8 0 0
0.760501 0.837357 0.514722 0.8 0 0
0.762904 0.836061 0.530724 0.8 0 0
0.417942 0.581992 0.737409 0.8 0 0
0.400070 0.504545 0.788581 0.8 0 0
0.213626 0.398974 0.730507 0.8 0 0
0.337339 0.234739 0.803711 0.8 0 0
0.670639 0.516503 0.773526 0.8 0 0
0.482745 0.413148 0.904236 0.8 0 0
0.862259 0.430224 0.255646 0.8 0 0
0.940681 0.571391 0.501580 0.8 0 0
0.582090 0.123768 0.862785 0.8 0 0
0.812781 0.447813 0.651838 0.8 0 0
0.878432 0.533204 0.498939 0.8 0 0
0.867346 0.417526 0.495114 0.8 0 0
0.610758 0.923257 0.520523 0.8 0 0
0.146401 0.631604 0.372609 0.8 0 0
0.851187 0.315443 0.538922 0.8 0 0
0.671526 0.905134 0.501997 0.8 0 0
0.537060 0.829447 0.734052 0.8 0 0
0.755309 0.298197 0.197694 0.8 0 0
0.848918 0.270640 0.404208 0.8 0 0
0.425586 0.585219 0.812262 0.8 0 0
0.772126 0.467252 0.739641 0.8 0 0
0.677005 0.731434 0.762536 0.8 0 0
0.718232 0.794633 0.243947 0.8 0 0
0.462912 0.429134 0.045084 0.8 0 0
0.216197 0.595332 0.150152 0.8 0 0
0.563915 0.542987 0.706909 0.8 0 0
0.851327 0.566315 0.539210 0.8 0 0
0.326949 0.904248 0.508162 0.8 0 0
0.419810 0.191887 0.855904 0.8 0 0
0.271686 0.745229 0.729023 0.8 0 0
0.170580 0.671374 0.516897 0.8 0 0
0.396563 0.585253 0.757098 0.8 0 0
0.580683 0.142419 0.709238 0.8 0 0
0.317976 0.109077 0.757527 0.8 0 0
0.240515 0.388386 0.769984 0.8 0 0
0.806043 0.227790 0.627631 0.8 0 0
0.489587 0.047205 0.863429 0.8 0 0
0.927672 0.334067 0.518429 0.8 0 0
0.822612 0.708591 0.268815 0.8 0 0
0.365204 0.796336 0.724453 0.8 0 0
0.410569 0.560049 0.758863 0.8 0 0
0.778230 0.623380 0.703749 0.8 0 0
0.134605 0.537155 0.492299 0.8 0 0
0.536713 0.518538 0.817056 0.8 0 0
0.809538 0.724391 0.565645 0.8 0 0
0.331641 0.718066 0.136557 0.8 0 0
0.358993 0.212643 0.695102 0.8 0 0
0.368481 0.162450 0.705619 0.8 0 0
0.703548 0.332857 0.805809 0.8 0 0
0.819187 0.442526 0.189219 0.8 0 0
0.295738 0.536686 0.642278 0.8 0 0
0.335283 0.908041 0.450750 0.8 0 0
0.756028 0.689214 0.742125 0.8 0 0
0.390296 0.216568 0.690611 0.8 0 0
0.828309 0.535758 0.190444 0.8 0 0
0.395223 0.883659 0.626191 0.8 0 0
0.556307 0.145781 0.685860 0.8 0 0
0.437634 0.241451 0.797907 0.8 0 0
0.495428 0.566095 0.838428 0.8 0 0
0.445565 0.458624 0.841710 0.8 0 0
0.476875 0.342704 0.882243 0.8 0 0
0.718548 0.868908 0.492680 0.8 0 0
0.542646 0.484723 0.840467 0.8 0 0
0.687967 0.677378 0.121873 0.8 0 0
0.841708 0.229473 0.406196 0.8 0 0
0.868328 0.470693 0.438975 0.8 0 0
0.249707 0.684740 0.756244 0.8 0 0
0.268697 0.320358 0.159401 0.8 0 0
0.592573 0.923566 0.455127 0.8 0 0
0.443979 0.631313 0.837656 0.8 0 0
0.411526 0.141359 0.845053 0.8 0 0
0.526872 0.298618 0.085007 0.8 0 0
0.532911 0.932772 0.442130 0.8 0 0
0.221460 0.589060 0.680654 0.8 0 0
0.794733 0.796193 0.439286 0.8 0 0
0.345540 0.517984 0.620099 0.8 0 0
0.621384 0.159752 0.688749 0.8 0 0
0.716988 0.098581 0.693634 0.8 0 0
0.396527 0.451343 0.053286 0.8 0 0
0.204760 0.791485 0.357469 0.8 0 0
0.508752 0.244435 0.871660 0.8 0 0
0.403923 0.220193 0.815471 0.8 0 0
0.387701 0.882835 0.296320 0.8 0 0
0.465444 0.702297 0.812599 0.8 0 0
0.195483 0.300596 0.677046 0.8 0 0
0.657900 0.461458 0.691815 0.8 0 0
0.570802 0.509771 0.706893 0.8 0 0
0.115449 0.514235 0.530271 0.8 0 0
0.400336 0.247693 0.859971 0.8 0 0
0.194762 0.270816 0.284300 0.8 0 0
0.227091 0.691731 0.708429 0.8 0 0
0.653911 0.688352 0.106222 0.8 0 0
0.204973 0.672490 0.680933 0.8 0 0
0.802876 0.433784 0.677637 0.8 0 0
0.669417 0.671059 0.812979 0.8 0 0
0.196816 0.281175 0.270621 0.8 0 0
0.259470 0.124352 0.681463 0.8 0 0
0.156613 0.529326 0.591642 0.8 0 0
0.820396 0.298520 0.278382 0.8 0 0
0.473617 0.655035 0.055581 0.8 0 0
0.539074 0.449956 0.865016 0.8 0 0
0.282448 0.555713 0.099760 0.8 0 0
0.319077 0.895377 0.442219 0.8 0 0
0.735100 0.829191 0.331976 0.8 0 0
0.766585 0.830157 0.442309 0.8 0 0
0.477832 0.331605 0.928487 0.8 0 0
0.149060 0.594160 0.507068 0.8 0 0
0.397924 0.236851 0.848524 0.8 0 0
0.542404 0.341865 0.062138 0.8 0 0
0.869172 0.522385 0.403902 0.8 0 0
0.501886 0.565467 0.035590 0.8 0 0
0.117252 0.274952 0.516302 0.8 0 0
0.413873 0.512772 0.749490 0.8 0 0
0.219321 0.330307 0.722024 0.8 0 0
0.104817 0.432619 0.502871 0.8 0 0
0.855465 0.653020 0.271338 0.8 0 0
0.439967 0.931399 0.517932 0.8 0 0
0.640955 0.892771 0.332779 0.8 0 0
0.580165 0.915439 0.581768 0.8 0 0
0.359604 0.900961 0.352965 0.8 0 0
0.621838 0.860891 0.651788 0.8 0 0
0.767352 0.166586 0.665002 0.8 0 0
0.521070 0.341150 0.882573 0.8 0 0
0.824768 0.591076 0.592626 0.8 0 0
0.606676 0.234376 0.839464 0.8 0 0
0.731983 0.763290 0.220488 0.8 0 0
0.434352 0.221166 0.853627 0.8 0 0
0.235589 0.298880 0.209087 0.8 0 0
0.435632 0.523574 0.685701 0.8 0 0
0.293361 0.878703 0.510585 0.8 0 0
0.199978 0.779092 0.488264 0.8 0 0
0.837680 0.317564 0.285907 0.8 0 0
0.512487 0.822984 0.740743 0.8 0 0
0.813297 0.282576 0.653258 0.8 0 0
0.849772 0.602908 0.504537 0.8 0 0
0.619806 0.443352 0.057584 0.8 0 0
0.636330 0.749502 0.767813 0.8 0 0
0.844488 0.671830 0.329641 0.8 0 0
0.717457 0.797124 0.246038 0.8 0 0
0.612950 0.855591 0.242938 0.8 0 0
0.270537 0.848044 0.578396 0.8 0 0
0.231690 0.267087 0.241194 0.8 0 0
0.641853 0.856459 0.645783 0.8 0 0
0.840549 0.264493 0.593655 0.8 0 0
0.780452 0.821714 0.506823 0.8 0 0
0.136342 0.457725 0.363345 0.8 0 0
0.353888 0.738233 0.134358 0.8 0 0
0.506416 0.209009 0.696137 0.8 0 0
0.306439 0.185529 0.775754 0.8 0 0
0.067531 0.400679 0.506077 0.8 0 0
0.154218 0.404946 0.598703 0.8 0 0
0.505444 0.286975 0.087218 0.8 0 0
0.514046 0.143344 0.713814 0.8 0 0
0.221498 0.660831 0.718556 0.8 0 0
0.843513 0.658675 0.389588 0.8 0 0
0.491912 0.941652 0.563062 0.8 0 0
0.703308 0.486647 0.675790 0.8 0 0
0.353883 0.241882 0.822612 0.8 0 0
0.851300 0.337317 0.566673 0.8 0 0
0.189559 0.408787 0.189124 0.8 0 0
0.310867 0.498949 0.644812 0.8 0 0
0.123235 0.546592 0.504135 0.8 0 0
0.596530 0.259173 0.706874 0.8 0 0
0.113770 0.559285 0.493392 0.8 0 0
0.483487 0.286438 0.872760 0.8 0 0
0.124159 0.521946 0.329325 0.8 0 0
0.209679 0.768346 0.285104 0.8 0 0
0.921657 0.379779 0.502416 0.8 0 0
0.331975 0.470448 0.666939 0.8 0 0
0.552515 0.365207 0.837547 0.8 0 0
0.799421 0.690330 0.641471 0.8 0 0
0.174974 0.640861 0.585195 0.8 0 0
0.752393 0.609319 0.752127 0.8 0 0
0.801082 0.720163 0.597083 0.8 0 0
0.484954 0.364324 0.051689 0.8 0 0
0.340461 0.842654 0.252570 0.8 0 0
0.434781 0.296500 0.864463 0.8 0 0
0.560410 0.366983 0.895574 0.8 0 0
0.857754 0.596559 0.430209 0.8 0 0
0.849684 0.335921 0.579338 0.8 0 0
0.359992 0.042922 0.752298 0.8 0 0
0.703831 0.602458 0.705972 0.8 0 0
0.719754 0.759481 0.707062 0.8 0 0
0.924482 0.341231 0.521573 0.8 0 0
0.220985 0.246834 0.689708 0.8 0 0
0.299982 0.602181 0.685263 0.8 0 0
0.853205 0.653007 0.307493 0.8 0 0
0.317670 0.563348 0.080547 0.8 0 0
0.213806 0.319686 0.712046 0.8 0 0
0.678483 0.495805 0.758509 0.8 0 0
0.155476 0.641795 0.247580 0.8 0 0
0.232149 0.241328 0.261738 0.8 0 0
0.695769 0.887909 0.549997 0.8 0 0
0.391051 0.725470 0.113210 0.8 0 0
0.849548 0.612924 0.481995 0.8 0 0
0.148205 0.508427 0.214817 0.8 0 0
0.448623 0.359909 0.846064 0.8 0 0
0.340906 0.660984 0.818707 0.8 0 0
0.257975 0.206139 0.727173 0.8 0 0
0.624318 0.579117 0.769916 0.8 0 0
0.639786 0.240785 0.150822 0.8 0 0
0.699039 0.347875 0.118093 0.8 0 0
0.547865 0.387888 0.877352 0.8 0 0
0.736073 0.187405 0.726887 0.8 0 0
0.477031 0.847529 0.710425 0.8 0 0
0.219039 0.596670 0.148002 0.8 0 0
0.282852 0.619375 0.114143 0.8 0 0
0.280252 0.526005 0.094618 0.8 0 0
0.614632 0.246488 0.745359 0.8 0 0
0.663907 0.889046 0.347029 0.8 0 0
0.550726 0.831584 0.189989 0.8 0 0
0.149204 0.547303 0.225906 0.8 0 0
0.317779 0.761933 0.728363 0.8 0 0
0.698288 0.382472 0.104498 0.8 0 0
0.570291 0.702042 0.089366 0.8 0 0
0.796846 0.576031 0.638644 0.8 0 0
0.641302 0.460338 0.699189 0.8 0 0
0.074561 0.571788 0.514025 0.8 0 0
0.628781 0.512231 0.049090 0.8 0 0
0.610498 0.594416 0.644252 0.8 0 0
0.857285 0.544971 0.234318 0.8 0 0
0.592889 0.552443 0.780913 0.8 0 0
0.205087 0.666046 0.685910 0.8 0 0
0.865347 0.436739 0.257988 0.8 0 0
0.420898 0.210061 0.813989 0.8 0 0
0.267660 0.483976 0.102098 0.8 0 0
0.143175 0.502272 0.224104 0.8 0 0
0.803375 0.296290 0.677174 0.8 0 0
0.324387 0.530955 0.622587 0.8 0 0
0.044316 0.560119 0.478757 0.8 0 0
0.393932 0.334838 0.081022 0.8 0 0
0.544377 0.932891 0.491638 0.8 0 0
0.292630 0.558157 0.094258 0.8 0 0
0.302646 0.108161 0.737093 0.8 0 0
0.532866 0.862955 0.685513 0.8 0 0
0.456287 0.336424 0.885886 0.8 0 0
0.646953 0.803435 0.192760 0.8 0 0
0.761327 0.313074 0.740757 0.8 0 0
0.316058 0.611542 0.675776 0.8 0 0
0.293937 0.555911 0.763627 0.8 0 0
0.472229 0.480363 0.034589 0.8 0 0
0.286079 0.509017 0.669666 0.8 0 0
0.855497 0.622105 0.378469 0.8 0 0
0.792578 0.390764 0.716192 0.8 0 0
0.856412 0.640329 0.306263 0.8 0 0
0.868783 0.526051 0.466465 0.8 0 0
0.792576 0.615416 0.168892 0.8 0 0
0.347196 0.508203 0.052621 0.8 0 0
0.685525 0.362881 0.815954 0.8 0 0
0.462472 0.395153 0.050874 0.8 0 0
0.435498 0.247598 0.869192 0.8 0 0
0.672218 0.072869 0.690703 0.8 0 0
0.561307 0.572851 0.800089 0.8 0 0
0.160745 0.650165 0.486567 0.8 0 0
0.125907 0.362759 0.568692 0.8 0 0
0.820771 0.239289 0.606561 0.8 0 0
0.068911 0.525314 0.473359 0.8 0 0
0.858378 0.394206 0.327335 0.8 0 0
0.218260 0.781802 0.285463 0.8 0 0
0.117347 0.402834 0.485328 0.8 0 0
0.653730 0.917450 0.549976 0.8 0 0
0.359379 0.605740 0.644795 0.8 0 0
0.343181 0.308254 0.117375 0.8 0 0
0.407242 0.326360 0.841625 0.8 0 0
0.297696 0.573214 0.748819 0.8 0 0
0.191038 0.603559 0.609378 0.8 0 0
0.873529 0.476670 0.270935 0.8 0 0
0.323660 0.284227 0.147479 0.8 0 0
0.378522 0.913174 0.375687 0.8 0 0
0.659136 0.105550 0.779848 0.8 0 0
0.593928 0.442909 0.053064 0.8 0 0
0.199209 0.783191 0.371074 0.8 0 0
0.274370 0.647566 0.126146 0.8 0 0
0.649159 0.098730 0.797968 0.8 0 0
0.081903 0.561727 0.521265 0.8 0 0
0.174299 0.420695 0.639201 0.8 0 0
0.268247 0.183772 0.731423 0.8 0 0
0.207120 0.782828 0.565946 0.8 0 0
0.870226 0.446944 0.474262 0.8 0 0
0.480901 0.478438 0.865859 0.8 0 0
0.431688 0.655259 0.830521 0.8 0 0
0.806037 0.753743 0.455913 0.8 0 0
0.340440 0.129497 0.793124 0.8 0 0
0.689547 0.396317 0.095785 0.8 0 0
0.670724 0.415664 0.080405 0.8 0 0
0.178038 0.466670 0.185203 0.8 0 0
0.549034 0.444917 0.044575 0.8 0 0
0.825330 0.728251 0.319739 0.8 0 0
0.856799 0.327098 0.402046 0.8 0 0
0.389412 0.458071 0.811579 0.8 0 0
0.351607 0.885100 0.602241 0.8 0 0
0.469827 0.125968 0.869004 0.8 0 0
0.447712 0.242592 0.790711 0.8 0 0
0.142169 0.580217 0.474765 0.8 0 0
0.376563 0.621566 0.682032 0.8 0 0
0.705349 0.688385 0.796539 0.8 0 0
0.539107 0.668056 0.061735 0.8 0 0
0.530238 0.259002 0.725112 0.8 0 0
0.656734 0.360053 0.824971 0.8 0 0
0.348519 0.727084 0.130647 0.8 0 0
0.701466 0.846634 0.617038 0.8 0 0
0.822457 0.176799 0.562673 0.8 0 0
0.595347 0.883669 0.289386 0.8 0 0
0.092652 0.365809 0.475908 0.8 0 0
0.411873 0.249059 0.757378 0.8 0 0
0.177480 0.607955 0.588302 0.8 0 0
0.197162 0.771757 0.540706 0.8 0 0
0.132400 0.464082 0.313149 0.8 0 0
0.761007 0.449334 0.756175 0.8 0 0
0.771366 0.278683 0.235292 0.8 0 0
0.150559 0.393660 0.249051 0.8 0 0
0.719185 0.680958 0.145043 0.8 0 0
0.124760 0.533331 0.318826 0.8 0 0
0.866052 0.486313 0.380054 0.8 0 0
0.247170 0.823518 0.591005 0.8 0 0
0.149961 0.624434 0.440233 0.8 0 0
0.865241 0.454749 0.321925 0.8 0 0
0.486081 0.123318 0.871933 0.8 0 0
0.406416 0.832016 0.205354 0.8 0 0
0.530974 0.194435 0.692102 0.8 0 0
0.769049 0.599396 0.705404 0.8 0 0
0.782943 0.637260 0.163624 0.8 0 0
0.671192 0.776258 0.721801 0.8 0 0
0.543139 0.215644 0.824189 0.8 0 0
0.344032 0.886412 0.328618 0.8 0 0
0.341438 0.668230 0.095840 0.8 0 0
0.107159 0.346862 0.523060 0.8 0 0
0.239752 0.556630 0.728294 0.8 0 0
0.203031 0.295542 0.251564 0.8 0 0
0.476359 0.880771 0.659446 0.8 0 0
0.879082 0.517284 0.264659 0.8 0 0
0.171404 0.671982 0.533081 0.8 0 0
0.538356 0.879133 0.251606 0.8 0 0
0.371744 0.864692 0.260379 0.8 0 0
0.625890 0.462014 0.055209 0.8 0 0
0.661372 0.234328 0.804663 0.8 0 0
0.663119 0.618307 0.081083 0.8 0 0
0.521711 0.264399 0.104733 0.8 0 0
0.366756 0.744759 0.773901 0.8 0 0
0.496658 0.121743 0.873697 0.8 0 0
0.522396 0.905786 0.310286 0.8 0 0
0.144841 0.560411 0.518919 0.8 0 0
