0.198567 0.474591 0.141774 0.8 0 0
0.434122 0.736339 0.065022 0.8 0 0
0.573826 0.197176 0.711665 0.8 0 0
0.388438 0.032931 0.659790 0.8 0 0
0.082202 0.793813 0.392784 0.8 0 0
0.556693 0.272828 0.257548 0.8 0 0
0.240831 0.719276 0.108335 0.8 0 0
0.688674 0.319558 0.421840 0.8 0 0
0.646634 0.868354 0.292576 0.8 0 0
0.611710 0.916348 0.394000 0.8 0 0
0.263135 0.887020 0.673410 0.8 0 0
0.576844 0.593504 0.764109 0.8 0 0
0.586282 0.542523 0.745104 0.8 0 0
0.059180 0.614186 0.340463 0.8 0 0
0.514902 0.070735 0.637982 0.8 0 0
0.284861 0.594366 0.811656 0.8 0 0
0.494908 0.939810 0.574263 0.8 0 0
0.611464 0.139765 0.404614 0.8 0 0
0.614235 0.720449 0.688621 0.8 0 0
0.386949 0.921527 0.171305 0.8 0 0
0.241711 0.221846 0.242988 0.8 0 0
0.066878 0.433717 0.469735 0.8 0 0
0.317535 0.956658 0.339014 0.8 0 0
0.474973 0.104986 0.770433 0.8 0 0
0.641858 0.617666 0.679785 0.8 0 0
0.161275 0.801823 0.643573 0.8 0 0
0.088808 0.403948 0.304323 0.8 0 0
0.069239 0.706362 0.265831 0.8 0 0
0.531338 0.113997 0.395213 0.8 0 0
0.289742 0.544703 0.067910 0.8 0 0
0.328959 0.118275 0.333959 0.8 0 0
0.221616 0.078132 0.465811 0.8 0 0
0.151616 0.530765 0.706611 0.8 0 0
0.291819 0.447869 0.767312 0.8 0 0
0.314711 0.954160 0.512297 0.8 0 0
0.636392 0.890439 0.393681 0.8 0 0
0.183744 0.352160 0.761190 0.8 0 0
0.297707 0.141892 0.778287 0.8 0 0
0.478646 0.564264 0.067499 0.8 0 0
0.122925 0.369745 0.672321 0.8 0 0
0.568609 0.431183 0.741010 0.8 0 0
0.472777 0.108471 0.394008 0.8 0 0
0.481545 0.596466 0.071070 0.8 0 0
0.329004 0.165609 0.182657 0.8 0 0
0.626838 0.477455 0.673874 0.8 0 0
0.549108 0.113737 0.399596 0.8 0 0
0.328868 0.481822 0.065672 0.8 0 0
0.392121 0.971440 0.402033 0.8 0 0
0.326841 0.922961 0.207612 0.8 0 0
0.142792 0.888901 0.273541 0.8 0 0
0.286344 0.248556 0.185355 0.8 0 0
0.505876 0.542845 0.080289 0.8 0 0
0.583275 0.141957 0.336340 0.8 0 0
0.352806 0.210123 0.815121 0.8 0 0
0.400398 0.320846 0.869136 0.8 0 0
0.274751 0.854840 0.706664 0.8 0 0
0.527986 0.928811 0.595111 0.8 0 0
0.038022 0.483263 0.355134 0.8 0 0
0.273338 0.717043 0.092063 0.8 0 0
0.629629 0.774249 0.184203 0.8 0 0
0.654137 0.683110 0.641657 0.8 0 0
0.711354 0.580091 0.385725 0.8 0 0
0.307702 0.196162 0.807201 0.8 0 0
0.311860 0.886332 0.169668 0.8 0 0
0.181507 0.240462 0.721743 0.8 0 0
0.602574 0.339861 0.251062 0.8 0 0
0.641357 0.856235 0.515209 0.8 0 0
0.397037 0.052665 0.769803 0.8 0 0
0.232930 0.532331 0.095097 0.8 0 0
0.739229 0.458105 0.292314 0.8 0 0
0.171408 0.269612 0.724244 0.8 0 0
0.258460 0.541257 0.082318 0.8 0 0
0.093476 0.833821 0.324955 0.8 0 0
0.348877 0.923735 0.644136 0.8 0 0
0.219170 0.752935 0.731629 0.8 0 0
0.352367 0.396347 0.880547 0.8 0 0
0.281205 0.775983 0.767165 0.8 0 0
0.459018 0.957798 0.463009 0.8 0 0
0.513029 0.925331 0.278984 0.8 0 0
0.271470 0.858463 0.165776 0.8 0 0
0.188530 0.352291 0.763982 0.8 0 0
0.196574 0.088603 0.449808 0.8 0 0
0.060734 0.698421 0.352149 0.8 0 0
0.564696 0.938883 0.428880 0.8 0 0
0.188291 0.595550 0.762142 0.8 0 0
0.254019 0.503815 0.092901 0.8 0 0
0.505641 0.365697 0.139821 0.8 0 0
0.392340 0.028439 0.596960 0.8 0 0
0.630108 0.637274 0.694247 0.8 0 0
0.580323 0.860134 0.208770 0.8 0 0
0.694878 0.318201 0.398431 0.8 0 0
0.471744 0.493688 0.772746 0.8 0 0
0.316149 0.773852 0.786270 0.8 0 0
0.500303 0.044116 0.551041 0.8 0 0
0.589124 0.845664 0.634763 0.8 0 0
0.638982 0.393835 0.695668 0.8 0 0
0.467121 0.947048 0.570221 0.8 0 0
0.312070 0.196003 0.811456 0.8 0 0
0.079080 0.644857 0.562122 0.8 0 0
0.167324 0.177574 0.342640 0.8 0 0
0.101693 0.408472 0.598482 0.8 0 0
0.690950 0.713037 0.244855 0.8 0 0
0.526573 0.506474 0.097606 0.8 0 0
0.297421 0.384645 0.798792 0.8 0 0
0.636532 0.873720 0.470669 0.8 0 0
0.125815 0.578507 0.682995 0.8 0 0
0.117202 0.555500 0.651690 0.8 0 0
0.180731 0.185901 0.676128 0.8 0 0
0.307151 0.848437 0.732410 0.8 0 0
0.181697 0.653871 0.742419 0.8 0 0
0.231417 0.164825 0.249645 0.8 0 0
0.247492 0.502872 0.772526 0.8 0 0
0.423831 0.339262 0.881276 0.8 0 0
0.310175 0.214918 0.189316 0.8 0 0
0.062109 0.519263 0.431548 0.8 0 0
0.738412 0.455435 0.302361 0.8 0 0
0.463721 0.938828 0.281175 0.8 0 0
0.132245 0.759067 0.645185 0.8 0 0
0.286634 0.132910 0.299757 0.8 0 0
0.703396 0.493063 0.311840 0.8 0 0
0.520097 0.216751 0.761575 0.8 0 0
0.574766 0.803003 0.683393 0.8 0 0
0.527669 0.087570 0.661287 0.8 0 0
0.309721 0.801833 0.098841 0.8 0 0
0.226863 0.261431 0.245046 0.8 0 0
0.333677 0.028430 0.547933 0.8 0 0
0.697396 0.496916 0.280045 0.8 0 0
0.150019 0.909316 0.361273 0.8 0 0
0.679118 0.673009 0.599028 0.8 0 0
0.177194 0.633978 0.132052 0.8 0 0
0.609038 0.629219 0.726951 0.8 0 0
0.587535 0.373727 0.207339 0.8 0 0
0.608125 0.184595 0.394138 0.8 0 0
0.529133 0.949194 0.405181 0.8 0 0
0.547052 0.490577 0.115861 0.8 0 0
0.312599 0.882254 0.703093 0.8 0 0
0.459726 0.323574 0.134254 0.8 0 0
0.046965 0.500687 0.309384 0.8 0 0
0.303047 0.103348 0.404607 0.8 0 0
0.330808 0.120895 0.317357 0.8 0 0
0.680204 0.727011 0.592046 0.8 0 0
0.243136 0.155039 0.740954 0.8 0 0
0.081918 0.796713 0.370661 0.8 0 0
0.128526 0.625992 0.170385 0.8 0 0
0.396836 0.698616 0.041339 0.8 0 0
0.203866 0.829465 0.663340 0.8 0 0
0.383846 0.774853 0.794844 0.8 0 0
0.580678 0.257487 0.284577 0.8 0 0
0.028195 0.448117 0.289092 0.8 0 0
0.139550 0.494450 0.669728 0.8 0 0
0.696051 0.711840 0.257395 0.8 0 0
0.157914 0.120871 0.398358 0.8 0 0
0.285799 0.535424 0.788377 0.8 0 0
0.177785 0.929432 0.441051 0.8 0 0
0.499835 0.369289 0.133315 0.8 0 0
0.124837 0.278635 0.389508 0.8 0 0
0.226515 0.783939 0.722586 0.8 0 0
0.098840 0.828473 0.300680 0.8 0 0
0.649063 0.341821 0.314619 0.8 0 0
0.697333 0.632735 0.548430 0.8 0 0
0.456240 0.949153 0.558047 0.8 0 0
0.234765 0.142920 0.302576 0.8 0 0
0.686187 0.431716 0.291723 0.8 0 0
0.416703 0.594257 0.040663 0.8 0 0
0.201736 0.075057 0.475050 0.8 0 0
0.284344 0.940106 0.603507 0.8 0 0
0.364537 0.844931 0.746386 0.8 0 0
0.652765 0.336469 0.327127 0.8 0 0
0.059298 0.601103 0.332365 0.8 0 0
0.692124 0.466336 0.503511 0.8 0 0
0.523211 0.104086 0.712901 0.8 0 0
0.624440 0.197382 0.414479 0.8 0 0
0.362866 0.441947 0.067158 0.8 0 0
0.321735 0.146230 0.198349 0.8 0 0
0.291133 0.064546 0.716621 0.8 0 0
0.055038 0.466474 0.287842 0.8 0 0
0.676739 0.448180 0.564813 0.8 0 0
0.501080 0.110649 0.395872 0.8 0 0
0.100201 0.680184 0.200193 0.8 0 0
0.190670 0.283791 0.271518 0.8 0 0
0.670298 0.454197 0.254354 0.8 0 0
0.162701 0.414361 0.726330 0.8 0 0
0.382749 0.771094 0.796130 0.8 0 0
0.588106 0.088113 0.463639 0.8 0 0
0.335104 0.062158 0.777816 0.8 0 0
0.066946 0.530305 0.470886 0.8 0 0
0.520317 0.159294 0.227304 0.8 0 0
0.403809 0.666487 0.037382 0.8 0 0
0.346597 0.036253 0.635280 0.8 0 0
0.666473 0.304241 0.533194 0.8 0 0
0.471424 0.067970 0.742757 0.8 0 0
0.198534 0.112562 0.405210 0.8 0 0
0.143289 0.888417 0.447697 0.8 0 0
0.242543 0.849782 0.173726 0.8 0 0
0.061890 0.686435 0.435602 0.8 0 0
0.639051 0.222204 0.472349 0.8 0 0
0.205922 0.905339 0.254491 0.8 0 0
0.197446 0.935415 0.365119 0.8 0 0
0.386922 0.959957 0.319560 0.8 0 0
0.650060 0.251399 0.493031 0.8 0 0
0.506968 0.551864 0.790898 0.8 0 0
0.561388 0.164323 0.272252 0.8 0 0
0.092720 0.436117 0.273135 0.8 0 0
0.318288 0.891190 0.695795 0.8 0 0
0.443308 0.171376 0.819756 0.8 0 0
0.125166 0.233766 0.467569 0.8 0 0
0.353155 0.067853 0.791746 0.8 0 0
0.422504 0.952755 0.551548 0.8 0 0
0.599553 0.855841 0.215480 0.8 0 0
0.707362 0.527873 0.286920 0.8 0 0
0.602134 0.712458 0.705424 0.8 0 0
0.518719 0.129364 0.726998 0.8 0 0
0.703370 0.732900 0.354292 0.8 0 0
0.143746 0.563520 0.153530 0.8 0 0
0.311577 0.959633 0.353748 0.8 0 0
0.233624 0.820762 0.153990 0.8 0 0
0.522592 0.891025 0.658195 0.8 0 0
0.057161 0.627156 0.458606 0.8 0 0
0.623340 0.409982 0.710896 0.8 0 0
0.155290 0.160986 0.477472 0.8 0 0
0.316182 0.890463 0.171424 0.8 0 0
0.655299 0.489611 0.632291 0.8 0 0
0.300393 0.963439 0.374494 0.8 0 0
0.565857 0.102956 0.586424 0.8 0 0
0.566069 0.855402 0.655158 0.8 0 0
0.555363 0.945142 0.394321 0.8 0 0
0.408399 0.759038 0.795781 0.8 0 0
0.144610 0.371416 0.719043 0.8 0 0
0.100369 0.317245 0.527703 0.8 0 0
0.709551 0.449671 0.411881 0.8 0 0
0.361805 0.224930 0.831953 0.8 0 0
0.710663 0.624432 0.374031 0.8 0 0
0.284973 0.264262 0.808348 0.8 0 0
0.289644 0.314397 0.145588 0.8 0 0
0.687701 0.723673 0.581476 0.8 0 0
0.375795 0.334959 0.908743 0.8 0 0
0.344959 0.279231 0.138540 0.8 0 0
0.402700 0.045678 0.743015 0.8 0 0
0.475852 0.802667 0.762973 0.8 0 0
0.276536 0.310744 0.807152 0.8 0 0
0.236238 0.291506 0.209336 0.8 0 0
0.210736 0.871350 0.649950 0.8 0 0
0.701122 0.689471 0.484323 0.8 0 0
0.248827 0.282360 0.789491 0.8 0 0
0.695211 0.753986 0.427539 0.8 0 0
0.460941 0.466429 0.078767 0.8 0 0
0.670565 0.331546 0.547671 0.8 0 0
0.150376 0.376522 0.239506 0.8 0 0
0.556482 0.383312 0.769996 0.8 0 0
0.332823 0.038789 0.641727 0.8 0 0
0.682591 0.335283 0.488268 0.8 0 0
0.625559 0.704733 0.167797 0.8 0 0
0.341921 0.947738 0.601545 0.8 0 0
0.627233 0.842017 0.226399 0.8 0 0
0.582864 0.583477 0.758989 0.8 0 0
0.613354 0.622145 0.723658 0.8 0 0
0.325799 0.539309 0.057029 0.8 0 0
0.177462 0.925982 0.456653 0.8 0 0
0.088290 0.413985 0.545065 0.8 0 0
0.647391 0.648985 0.179253 0.8 0 0
0.667519 0.356651 0.593578 0.8 0 0
0.338827 0.144416 0.799234 0.8 0 0
0.350517 0.225507 0.827143 0.8 0 0
0.319333 0.543321 0.059051 0.8 0 0
0.605625 0.167932 0.384257 0.8 0 0
0.227987 0.913885 0.261408 0.8 0 0
0.715521 0.377329 0.388741 0.8 0 0
0.124958 0.882332 0.390093 0.8 0 0
0.541873 0.062459 0.532029 0.8 0 0
0.603122 0.276112 0.317568 0.8 0 0
0.399610 0.635144 0.830080 0.8 0 0
0.074694 0.597713 0.568178 0.8 0 0
0.063244 0.336100 0.406440 0.8 0 0
0.140296 0.845800 0.230607 0.8 0 0
0.464724 0.123104 0.784051 0.8 0 0
0.593432 0.690571 0.721433 0.8 0 0
0.063518 0.426246 0.455204 0.8 0 0
0.286071 0.900567 0.193534 0.8 0 0
0.245510 0.189852 0.241509 0.8 0 0
0.174533 0.333505 0.751449 0.8 0 0
0.612068 0.917507 0.385679 0.8 0 0
0.229402 0.570587 0.783234 0.8 0 0
0.270099 0.081396 0.451443 0.8 0 0
0.124680 0.874188 0.422995 0.8 0 0
0.226895 0.696099 0.111116 0.8 0 0
0.533416 0.755711 0.741798 0.8 0 0
0.657844 0.537554 0.630591 0.8 0 0
0.092436 0.817527 0.420356 0.8 0 0
0.136350 0.208933 0.539416 0.8 0 0
0.686926 0.699925 0.584712 0.8 0 0
0.414949 0.930499 0.221437 0.8 0 0
0.119670 0.882485 0.357902 0.8 0 0
0.515172 0.638526 0.798493 0.8 0 0
0.330828 0.520336 0.795718 0.8 0 0
0.061036 0.328921 0.374131 0.8 0 0
0.452518 0.286299 0.836396 0.8 0 0
0.566329 0.927609 0.338913 0.8 0 0
0.193197 0.937983 0.426480 0.8 0 0
0.068643 0.653175 0.512277 0.8 0 0
0.317939 0.498535 0.782285 0.8 0 0
0.087812 0.415632 0.542402 0.8 0 0
0.557353 0.738703 0.729739 0.8 0 0
0.074956 0.735922 0.264155 0.8 0 0
0.131366 0.227009 0.576412 0.8 0 0
0.689112 0.715773 0.580801 0.8 0 0
0.378566 0.546334 0.037661 0.8 0 0
0.467590 0.480371 0.076318 0.8 0 0
0.109223 0.536741 0.628095 0.8 0 0
0.534527 0.720901 0.112012 0.8 0 0
0.529183 0.837187 0.698768 0.8 0 0
0.336984 0.414746 0.818967 0.8 0 0
0.260106 0.928978 0.282653 0.8 0 0
0.388816 0.152897 0.160443 0.8 0 0
0.316332 0.513797 0.059267 0.8 0 0
0.636356 0.317174 0.681732 0.8 0 0
0.702471 0.566873 0.484888 0.8 0 0
0.214367 0.108528 0.409940 0.8 0 0
0.564149 0.688282 0.121924 0.8 0 0
0.355046 0.313799 0.119953 0.8 0 0
0.175323 0.132108 0.364550 0.8 0 0
0.277365 0.175001 0.204434 0.8 0 0
0.553218 0.923526 0.577290 0.8 0 0
0.077098 0.488546 0.515187 0.8 0 0
0.542806 0.104083 0.416189 0.8 0 0
0.513099 0.272222 0.206341 0.8 0 0
0.228056 0.866482 0.667569 0.8 0 0
0.136895 0.534181 0.169965 0.8 0 0
0.569145 0.487499 0.747579 0.8 0 0
0.245330 0.522074 0.781616 0.8 0 0
0.603053 0.272340 0.320223 0.8 0 0
0.164137 0.187436 0.639044 0.8 0 0
0.061004 0.485185 0.411170 0.8 0 0
0.117725 0.873722 0.314032 0.8 0 0
0.659223 0.615338 0.633557 0.8 0 0
0.138310 0.889709 0.302609 0.8 0 0
0.570109 0.179191 0.703591 0.8 0 0
0.189467 0.927364 0.500112 0.8 0 0
0.466516 0.962787 0.371562 0.8 0 0
0.654813 0.855894 0.451164 0.8 0 0
0.419394 0.924843 0.644638 0.8 0 0
0.648712 0.829396 0.253704 0.8 0 0
0.404579 0.036820 0.675700 0.8 0 0
0.545253 0.358327 0.776607 0.8 0 0
0.086943 0.409805 0.302366 0.8 0 0
0.514282 0.103713 0.412106 0.8 0 0
0.599138 0.396744 0.201756 0.8 0 0
0.653759 0.299796 0.601639 0.8 0 0
0.492121 0.091080 0.750377 0.8 0 0
0.405107 0.897322 0.156876 0.8 0 0
0.471584 0.920888 0.642114 0.8 0 0
0.661591 0.399197 0.620797 0.8 0 0
0.122620 0.857877 0.274067 0.8 0 0
0.226927 0.150727 0.267471 0.8 0 0
0.453014 0.581712 0.816664 0.8 0 0
0.108200 0.541270 0.626513 0.8 0 0
0.320140 0.231350 0.174107 0.8 0 0
0.515071 0.945965 0.454090 0.8 0 0
0.694560 0.647956 0.563805 0.8 0 0
0.133694 0.382310 0.704171 0.8 0 0
0.623668 0.904993 0.362795 0.8 0 0
0.177375 0.586110 0.753814 0.8 0 0
0.467221 0.962593 0.403981 0.8 0 0
0.673246 0.400749 0.575369 0.8 0 0
0.402040 0.753944 0.057217 0.8 0 0
0.399962 0.851029 0.112983 0.8 0 0
0.221953 0.919257 0.285592 0.8 0 0
0.324484 0.256432 0.851718 0.8 0 0
0.083241 0.681002 0.562522 0.8 0 0
0.620745 0.820909 0.614922 0.8 0 0
0.249722 0.945216 0.478446 0.8 0 0
0.078939 0.618730 0.575366 0.8 0 0
0.540343 0.577978 0.100638 0.8 0 0
0.457744 0.325146 0.132796 0.8 0 0
0.356766 0.562918 0.047208 0.8 0 0
0.114171 0.266890 0.527360 0.8 0 0
0.266222 0.363510 0.138046 0.8 0 0
0.706947 0.425751 0.448536 0.8 0 0
0.132914 0.796147 0.207465 0.8 0 0
0.604434 0.180331 0.376250 0.8 0 0
0.555890 0.924931 0.554684 0.8 0 0
0.261817 0.411152 0.772519 0.8 0 0
0.129068 0.231312 0.563190 0.8 0 0
0.354536 0.037129 0.661974 0.8 0 0
0.285385 0.944534 0.566673 0.8 0 0
0.223642 0.946805 0.383285 0.8 0 0
0.113569 0.456857 0.231262 0.8 0 0
0.479354 0.941440 0.602922 0.8 0 0
0.612545 0.271102 0.703776 0.8 0 0
0.543761 0.889254 0.214830 0.8 0 0
0.218515 0.244326 0.760718 0.8 0 0
0.340925 0.964060 0.439394 0.8 0 0
0.177164 0.932230 0.422916 0.8 0 0
0.692349 0.746264 0.269137 0.8 0 0
0.213411 0.136120 0.343998 0.8 0 0
0.190590 0.083725 0.460205 0.8 0 0
0.697577 0.681748 0.268265 0.8 0 0
0.267923 0.446902 0.103282 0.8 0 0
0.146107 0.534545 0.157649 0.8 0 0
0.681486 0.717857 0.592765 0.8 0 0
0.070060 0.650090 0.532847 0.8 0 0
0.455673 0.516710 0.060130 0.8 0 0
0.481618 0.071411 0.728043 0.8 0 0
0.164828 0.589380 0.740452 0.8 0 0
0.437012 0.087242 0.799238 0.8 0 0
0.633441 0.273382 0.374894 0.8 0 0
0.448926 0.307502 0.829382 0.8 0 0
0.463772 0.932931 0.259286 0.8 0 0
0.671355 0.421264 0.584495 0.8 0 0
0.151419 0.555404 0.145259 0.8 0 0
0.111238 0.818830 0.260446 0.8 0 0
0.660765 0.450269 0.624847 0.8 0 0
0.652200 0.415640 0.254624 0.8 0 0
0.317713 0.321231 0.131414 0.8 0 0
0.468529 0.431602 0.775115 0.8 0 0
0.401888 0.644630 0.033489 0.8 0 0
0.613716 0.773981 0.170374 0.8 0 0
0.594240 0.765400 0.155646 0.8 0 0
0.689151 0.347515 0.460158 0.8 0 0
0.251558 0.261503 0.213339 0.8 0 0
0.632605 0.848048 0.239823 0.8 0 0
0.060105 0.592957 0.302222 0.8 0 0
0.185737 0.455082 0.742359 0.8 0 0
0.262597 0.948167 0.352066 0.8 0 0
0.450078 0.062417 0.759261 0.8 0 0
0.622263 0.384972 0.237910 0.8 0 0
0.161904 0.200283 0.649445 0.8 0 0
0.382413 0.482447 0.833092 0.8 0 0
0.693399 0.621427 0.230571 0.8 0 0
0.450029 0.115769 0.360206 0.8 0 0
0.075531 0.775703 0.361361 0.8 0 0
0.408132 0.968010 0.416791 0.8 0 0
0.379856 0.441137 0.862570 0.8 0 0
0.633374 0.249593 0.392303 0.8 0 0
0.169609 0.646414 0.734358 0.8 0 0
0.496354 0.808885 0.744358 0.8 0 0
0.299194 0.960792 0.421598 0.8 0 0
0.387680 0.957231 0.542680 0.8 0 0
0.375722 0.029854 0.608156 0.8 0 0
0.152323 0.672242 0.700130 0.8 0 0
0.691535 0.534200 0.519445 0.8 0 0
0.665342 0.842516 0.409655 0.8 0 0
0.299327 0.915147 0.199190 0.8 0 0
0.695633 0.728878 0.263139 0.8 0 0
0.284533 0.159457 0.777541 0.8 0 0
0.143706 0.300890 0.323686 0.8 0 0
0.649169 0.346018 0.310559 0.8 0 0
0.584897 0.699183 0.133884 0.8 0 0
0.311616 0.073397 0.458239 0.8 0 0
0.097061 0.835588 0.404684 0.8 0 0
0.687940 0.664496 0.582408 0.8 0 0
0.660280 0.813994 0.528186 0.8 0 0
0.714368 0.438708 0.406013 0.8 0 0
0.698462 0.515749 0.486068 0.8 0 0
0.208443 0.808344 0.683895 0.8 0 0
0.663817 0.617740 0.625490 0.8 0 0
0.558758 0.621188 0.774784 0.8 0 0
0.450745 0.173601 0.812754 0.8 0 0
0.278746 0.052735 0.618645 0.8 0 0
0.157619 0.856688 0.594357 0.8 0 0
0.454786 0.246311 0.831793 0.8 0 0
0.396248 0.661341 0.032635 0.8 0 0
0.404927 0.940097 0.252850 0.8 0 0
0.059346 0.657939 0.351032 0.8 0 0
0.649408 0.870300 0.421418 0.8 0 0
0.365557 0.121661 0.808612 0.8 0 0
0.339667 0.620379 0.050604 0.8 0 0
0.683400 0.469707 0.540353 0.8 0 0
0.579229 0.150788 0.644371 0.8 0 0
0.413070 0.957951 0.327618 0.8 0 0
0.647169 0.458826 0.656099 0.8 0 0
0.656438 0.423633 0.643003 0.8 0 0
0.665155 0.533374 0.617046 0.8 0 0
0.198020 0.299724 0.246207 0.8 0 0
0.380810 0.070851 0.459135 0.8 0 0
0.705233 0.368488 0.422301 0.8 0 0
0.654380 0.669671 0.187430 0.8 0 0
0.479739 0.507738 0.775597 0.8 0 0
0.078081 0.731910 0.542453 0.8 0 0
0.315704 0.131823 0.275183 0.8 0 0
0.301690 0.811184 0.764627 0.8 0 0
0.476388 0.138387 0.262671 0.8 0 0
0.360370 0.902791 0.683998 0.8 0 0
0.474547 0.257837 0.173444 0.8 0 0
0.662013 0.613824 0.628427 0.8 0 0
0.226092 0.158245 0.720769 0.8 0 0
0.109808 0.719522 0.625203 0.8 0 0
0.197540 0.299248 0.247309 0.8 0 0
0.446875 0.967380 0.379265 0.8 0 0
0.522587 0.934094 0.553835 0.8 0 0
0.635851 0.222837 0.565723 0.8 0 0
0.694827 0.426987 0.486963 0.8 0 0
0.636688 0.886618 0.412713 0.8 0 0
0.170913 0.715285 0.145453 0.8 0 0
0.454693 0.487030 0.773962 0.8 0 0
0.196780 0.732304 0.133341 0.8 0 0
0.152447 0.668934 0.155176 0.8 0 0
0.731739 0.453621 0.365714 0.8 0 0
0.233333 0.806236 0.141908 0.8 0 0
0.166916 0.902677 0.510122 0.8 0 0
0.726612 0.375168 0.345655 0.8 0 0
0.055674 0.409460 0.421637 0.8 0 0
0.469868 0.142151 0.237690 0.8 0 0
0.421948 0.347785 0.890819 0.8 0 0
0.607443 0.419906 0.722512 0.8 0 0
0.072511 0.696607 0.246816 0.8 0 0
0.062059 0.715587 0.370942 0.8 0 0
0.293633 0.963446 0.381144 0.8 0 0
0.579123 0.132733 0.359213 0.8 0 0
0.181076 0.104082 0.491220 0.8 0 0
0.454629 0.193273 0.189258 0.8 0 0
0.069930 0.581650 0.519423 0.8 0 0
0.681685 0.789952 0.281216 0.8 0 0
0.704076 0.695837 0.329227 0.8 0 0
0.170035 0.109739 0.454632 0.8 0 0
0.162564 0.144739 0.472447 0.8 0 0
0.510900 0.256956 0.214184 0.8 0 0
0.677580 0.311155 0.388576 0.8 0 0
0.648726 0.389418 0.665145 0.8 0 0
0.255393 0.657046 0.092103 0.8 0 0
0.529539 0.478726 0.109167 0.8 0 0
0.391934 0.086404 0.424126 0.8 0 0
0.384593 0.924725 0.179700 0.8 0 0
0.274904 0.067990 0.684227 0.8 0 0
0.619801 0.740095 0.675031 0.8 0 0
0.359261 0.055341 0.772645 0.8 0 0
0.085778 0.697142 0.220468 0.8 0 0
0.533331 0.947728 0.409968 0.8 0 0
0.140514 0.307354 0.321984 0.8 0 0
0.113188 0.638309 0.646980 0.8 0 0
0.310197 0.959110 0.453539 0.8 0 0
0.328707 0.890767 0.697950 0.8 0 0
0.464434 0.635638 0.064753 0.8 0 0
0.597081 0.260285 0.318210 0.8 0 0
0.695104 0.463698 0.292312 0.8 0 0
0.544786 0.590162 0.785175 0.8 0 0
0.138893 0.864880 0.246677 0.8 0 0
0.124085 0.821834 0.578560 0.8 0 0
0.055294 0.561137 0.392140 0.8 0 0
0.388052 0.050702 0.503831 0.8 0 0
0.626794 0.457849 0.686813 0.8 0 0
0.339699 0.146369 0.182952 0.8 0 0
0.092584 0.824637 0.403599 0.8 0 0
0.399837 0.404876 0.881431 0.8 0 0
0.084825 0.427366 0.528790 0.8 0 0
0.625749 0.419864 0.705313 0.8 0 0
0.603755 0.762573 0.682961 0.8 0 0
0.478062 0.726067 0.797930 0.8 0 0
0.677975 0.605774 0.599118 0.8 0 0
0.465986 0.041574 0.617056 0.8 0 0
0.482443 0.050970 0.633374 0.8 0 0
0.268785 0.850157 0.706604 0.8 0 0
0.064417 0.561736 0.471253 0.8 0 0
0.333134 0.034055 0.596576 0.8 0 0
0.706399 0.693525 0.349397 0.8 0 0
0.202040 0.865714 0.207586 0.8 0 0
0.375145 0.347326 0.097924 0.8 0 0
0.486561 0.057141 0.658470 0.8 0 0
0.332482 0.407224 0.813795 0.8 0 0
0.294811 0.041336 0.570727 0.8 0 0
0.258927 0.190857 0.227001 0.8 0 0
0.486545 0.170121 0.202505 0.8 0 0
0.601109 0.355907 0.236605 0.8 0 0
0.203682 0.200533 0.278617 0.8 0 0
0.697612 0.760830 0.346998 0.8 0 0
0.351482 0.829429 0.103223 0.8 0 0
0.397978 0.378967 0.903353 0.8 0 0
0.081478 0.488820 0.533019 0.8 0 0
0.431364 0.663502 0.050902 0.8 0 0
0.542928 0.854290 0.675785 0.8 0 0
0.081292 0.512632 0.262163 0.8 0 0
0.056555 0.632416 0.418371 0.8 0 0
0.268562 0.064922 0.651605 0.8 0 0
0.657313 0.569022 0.645477 0.8 0 0
0.577034 0.690154 0.734824 0.8 0 0
0.240766 0.929561 0.592052 0.8 0 0
0.651465 0.356860 0.302993 0.8 0 0
0.250471 0.616713 0.801856 0.8 0 0
0.240585 0.264878 0.780475 0.8 0 0
0.409656 0.442892 0.851571 0.8 0 0
0.660911 0.557487 0.631707 0.8 0 0
0.270901 0.655985 0.083731 0.8 0 0
0.435761 0.327091 0.842459 0.8 0 0
0.575128 0.252411 0.278929 0.8 0 0
0.255418 0.797975 0.123300 0.8 0 0
0.424647 0.404495 0.844721 0.8 0 0
0.506001 0.131749 0.334022 0.8 0 0
0.072685 0.746951 0.275232 0.8 0 0
0.686084 0.512769 0.535891 0.8 0 0
0.404871 0.632140 0.830169 0.8 0 0
0.083876 0.345233 0.484253 0.8 0 0
0.080170 0.792716 0.358189 0.8 0 0
0.075085 0.700422 0.240494 0.8 0 0
0.434787 0.946886 0.602622 0.8 0 0
0.524685 0.427036 0.761051 0.8 0 0
0.313365 0.930171 0.242709 0.8 0 0
0.428485 0.902480 0.681600 0.8 0 0
0.190141 0.512044 0.743765 0.8 0 0
0.628302 0.586383 0.156235 0.8 0 0
0.450892 0.953770 0.330462 0.8 0 0
0.426705 0.285087 0.137642 0.8 0 0
0.066693 0.467679 0.442669 0.8 0 0
0.276716 0.618142 0.077806 0.8 0 0
0.652565 0.263360 0.431887 0.8 0 0
0.236286 0.387487 0.779236 0.8 0 0
0.478058 0.841965 0.730421 0.8 0 0
0.103527 0.752387 0.227312 0.8 0 0
0.129168 0.778580 0.623498 0.8 0 0
0.076052 0.401232 0.483453 0.8 0 0
0.317881 0.828119 0.752702 0.8 0 0
0.627557 0.200433 0.564159 0.8 0 0
0.485960 0.746116 0.092663 0.8 0 0
0.679848 0.522144 0.561477 0.8 0 0
0.651338 0.878992 0.370491 0.8 0 0
0.435138 0.489805 0.061506 0.8 0 0
0.205985 0.160768 0.697777 0.8 0 0
0.173163 0.915205 0.484971 0.8 0 0
0.059596 0.672933 0.434871 0.8 0 0
0.238512 0.346403 0.169220 0.8 0 0
0.512347 0.757980 0.758409 0.8 0 0
0.294571 0.245860 0.180542 0.8 0 0
0.108720 0.417509 0.626133 0.8 0 0
0.107205 0.862147 0.326895 0.8 0 0
0.200708 0.146835 0.319434 0.8 0 0
0.606782 0.461857 0.713590 0.8 0 0
0.101805 0.666485 0.607291 0.8 0 0
0.462447 0.082054 0.783970 0.8 0 0
0.589852 0.618590 0.753826 0.8 0 0
0.502883 0.127617 0.352244 0.8 0 0
0.663419 0.830779 0.285710 0.8 0 0
0.335276 0.893933 0.166638 0.8 0 0
0.541485 0.944706 0.374282 0.8 0 0
0.529451 0.199438 0.746793 0.8 0 0
0.416152 0.952685 0.558319 0.8 0 0
0.098609 0.445728 0.258609 0.8 0 0
0.722349 0.396197 0.303129 0.8 0 0
0.583736 0.120068 0.393360 0.8 0 0
0.664712 0.750844 0.600483 0.8 0 0
0.280587 0.061523 0.663362 0.8 0 0
0.697889 0.748713 0.396051 0.8 0 0
0.582926 0.118104 0.397257 0.8 0 0
0.184585 0.802801 0.666017 0.8 0 0
0.384437 0.051053 0.503465 0.8 0 0
0.640807 0.234197 0.426183 0.8 0 0
0.520532 0.326716 0.793774 0.8 0 0
0.069566 0.631002 0.521036 0.8 0 0
0.536567 0.465878 0.761837 0.8 0 0
0.337757 0.048941 0.743462 0.8 0 0
0.465699 0.541677 0.061002 0.8 0 0
0.119781 0.834265 0.551789 0.8 0 0
0.682713 0.428727 0.540729 0.8 0 0
0.204059 0.435571 0.740011 0.8 0 0
0.177974 0.691991 0.723732 0.8 0 0
0.455719 0.105270 0.397795 0.8 0 0
0.085538 0.347201 0.490852 0.8 0 0
0.245316 0.416058 0.130997 0.8 0 0
0.620252 0.374000 0.722629 0.8 0 0
0.197446 0.774499 0.145219 0.8 0 0
0.319269 0.641167 0.818584 0.8 0 0
0.701229 0.540959 0.478441 0.8 0 0
0.732309 0.441869 0.278699 0.8 0 0
0.340259 0.112802 0.351937 0.8 0 0
0.330982 0.402782 0.092752 0.8 0 0
0.584260 0.135494 0.353401 0.8 0 0
0.396096 0.966998 0.439977 0.8 0 0
0.055029 0.512670 0.344775 0.8 0 0
0.051587 0.408680 0.365672 0.8 0 0
0.157546 0.905857 0.439195 0.8 0 0
0.027696 0.493164 0.346873 0.8 0 0
0.568427 0.933108 0.358663 0.8 0 0
0.695798 0.613866 0.565256 0.8 0 0
0.368017 0.110286 0.339844 0.8 0 0
0.081672 0.523829 0.253756 0.8 0 0
0.087176 0.511458 0.560228 0.8 0 0
0.389606 0.036529 0.690757 0.8 0 0
0.444976 0.669983 0.817972 0.8 0 0
0.524389 0.606620 0.094166 0.8 0 0
0.340684 0.949009 0.297120 0.8 0 0
0.158850 0.277865 0.328025 0.8 0 0
0.090992 0.623463 0.209572 0.8 0 0
0.699285 0.320852 0.386176 0.8 0 0
0.474270 0.484849 0.077149 0.8 0 0
0.226078 0.225909 0.754448 0.8 0 0
0.230834 0.928128 0.306761 0.8 0 0
0.639986 0.280804 0.661449 0.8 0 0
0.588418 0.829823 0.188640 0.8 0 0
0.252282 0.330220 0.165782 0.8 0 0
0.604428 0.269157 0.714691 0.8 0 0
0.127293 0.823705 0.236763 0.8 0 0
0.446892 0.146494 0.197209 0.8 0 0
0.216170 0.904981 0.625391 0.8 0 0
0.627210 0.501077 0.173856 0.8 0 0
0.601823 0.807033 0.177400 0.8 0 0
0.721558 0.511672 0.350397 0.8 0 0
0.304903 0.109572 0.388685 0.8 0 0
0.360586 0.254882 0.141450 0.8 0 0
0.062027 0.646022 0.285613 0.8 0 0
0.684318 0.373356 0.522640 0.8 0 0
0.551738 0.123156 0.376829 0.8 0 0
0.321808 0.411648 0.092831 0.8 0 0
0.212837 0.819520 0.679082 0.8 0 0
0.275077 0.931388 0.277710 0.8 0 0
0.464026 0.074550 0.781725 0.8 0 0
0.382333 0.245665 0.136347 0.8 0 0
0.420905 0.969847 0.375632 0.8 0 0
0.067973 0.492090 0.457746 0.8 0 0
0.466518 0.456203 0.084285 0.8 0 0
0.157012 0.361593 0.735153 0.8 0 0
0.232906 0.063361 0.556081 0.8 0 0
0.059927 0.392819 0.425708 0.8 0 0
0.566320 0.909320 0.611990 0.8 0 0
0.507043 0.329490 0.801296 0.8 0 0
0.065323 0.323635 0.379058 0.8 0 0
0.507860 0.457609 0.768707 0.8 0 0
0.060070 0.550624 0.292237 0.8 0 0
0.252675 0.066498 0.621437 0.8 0 0
0.694246 0.639994 0.568517 0.8 0 0
0.699221 0.747279 0.375014 0.8 0 0
0.212997 0.920358 0.298238 0.8 0 0
0.494212 0.388245 0.786781 0.8 0 0
0.706643 0.675067 0.331294 0.8 0 0
0.318873 0.900707 0.679404 0.8 0 0
0.711580 0.567008 0.422783 0.8 0 0
0.637931 0.267523 0.654821 0.8 0 0
0.647382 0.325136 0.331976 0.8 0 0
0.415035 0.583662 0.830359 0.8 0 0
0.713635 0.381998 0.382995 0.8 0 0
0.709565 0.527216 0.317538 0.8 0 0
0.355199 0.450382 0.067013 0.8 0 0
0.452982 0.946200 0.592700 0.8 0 0
0.222803 0.595339 0.104590 0.8 0 0
0.073930 0.492764 0.499351 0.8 0 0
0.666442 0.564396 0.619957 0.8 0 0
0.630971 0.801772 0.203842 0.8 0 0
0.066364 0.739443 0.352047 0.8 0 0
0.066318 0.731362 0.387620 0.8 0 0
0.552741 0.191447 0.260061 0.8 0 0
0.607827 0.288401 0.721102 0.8 0 0
0.617465 0.194628 0.606592 0.8 0 0
0.058505 0.649329 0.464578 0.8 0 0
0.253903 0.863538 0.179318 0.8 0 0
0.656023 0.846642 0.287677 0.8 0 0
0.691883 0.399942 0.494514 0.8 0 0
0.593204 0.516321 0.750815 0.8 0 0
0.604633 0.160153 0.379018 0.8 0 0
0.356542 0.138349 0.209186 0.8 0 0
0.557744 0.933499 0.483282 0.8 0 0
0.526573 0.930051 0.585860 0.8 0 0
0.254643 0.722823 0.102203 0.8 0 0
0.151280 0.631731 0.712385 0.8 0 0
0.469252 0.517959 0.064310 0.8 0 0
0.377712 0.963610 0.480211 0.8 0 0
0.110095 0.845119 0.463471 0.8 0 0
0.433767 0.338191 0.855354 0.8 0 0
0.258228 0.497710 0.092124 0.8 0 0
0.648741 0.497219 0.644675 0.8 0 0
0.687936 0.532057 0.532986 0.8 0 0
0.282871 0.243328 0.192530 0.8 0 0
0.192758 0.256368 0.749370 0.8 0 0
0.184521 0.859449 0.625005 0.8 0 0
0.518911 0.742703 0.108171 0.8 0 0
0.446642 0.282909 0.845225 0.8 0 0
0.552234 0.932171 0.502950 0.8 0 0
0.490914 0.585126 0.075231 0.8 0 0
0.304958 0.800587 0.771164 0.8 0 0
0.468473 0.465389 0.763243 0.8 0 0
0.234791 0.068407 0.481439 0.8 0 0
0.600226 0.340173 0.248216 0.8 0 0
0.196281 0.933272 0.469198 0.8 0 0
0.073350 0.698298 0.543018 0.8 0 0
0.307638 0.538024 0.062417 0.8 0 0
0.670567 0.711918 0.210075 0.8 0 0
0.157390 0.667038 0.709376 0.8 0 0
0.429695 0.947971 0.298616 0.8 0 0
0.061246 0.663909 0.467958 0.8 0 0
0.128255 0.312285 0.674452 0.8 0 0
0.639868 0.842306 0.247997 0.8 0 0
0.115791 0.529750 0.199148 0.8 0 0
0.046677 0.419541 0.291418 0.8 0 0
0.384111 0.724215 0.043003 0.8 0 0
0.463130 0.859393 0.148987 0.8 0 0
0.088052 0.487429 0.557848 0.8 0 0
0.099712 0.584385 0.621364 0.8 0 0
0.677001 0.640575 0.602622 0.8 0 0
0.356580 0.765527 0.796649 0.8 0 0
0.364231 0.138762 0.200835 0.8 0 0
0.340358 0.457465 0.808750 0.8 0 0
0.255605 0.082568 0.687949 0.8 0 0
0.420107 0.210559 0.813464 0.8 0 0
0.314222 0.872492 0.712296 0.8 0 0
0.190859 0.486644 0.142889 0.8 0 0
0.401744 0.762013 0.059130 0.8 0 0
0.055430 0.615799 0.439471 0.8 0 0
0.487993 0.959157 0.377208 0.8 0 0
0.529952 0.493203 0.768030 0.8 0 0
0.419649 0.902647 0.683057 0.8 0 0
0.263165 0.955343 0.399569 0.8 0 0
0.407121 0.439662 0.068591 0.8 0 0
0.244928 0.126290 0.361171 0.8 0 0
0.658575 0.275482 0.505349 0.8 0 0
0.276519 0.063480 0.482376 0.8 0 0
0.698120 0.688573 0.273940 0.8 0 0
0.599515 0.440974 0.180683 0.8 0 0
0.425875 0.040602 0.674770 0.8 0 0
0.501598 0.358410 0.800509 0.8 0 0
0.428929 0.957715 0.492433 0.8 0 0
0.733733 0.511839 0.327759 0.8 0 0
0.475642 0.771340 0.778267 0.8 0 0
0.162388 0.742026 0.157791 0.8 0 0
0.441132 0.230732 0.824567 0.8 0 0
0.675185 0.316143 0.472862 0.8 0 0
0.700105 0.576798 0.511875 0.8 0 0
0.472267 0.946957 0.316497 0.8 0 0
0.198190 0.224201 0.281154 0.8 0 0
0.215621 0.362250 0.773569 0.8 0 0
0.542753 0.126912 0.364675 0.8 0 0
0.505361 0.140704 0.753465 0.8 0 0
0.481011 0.487570 0.772908 0.8 0 0
0.093656 0.380407 0.315758 0.8 0 0
0.515630 0.187006 0.752498 0.8 0 0
0.498292 0.912391 0.214804 0.8 0 0
0.301697 0.954920 0.341983 0.8 0 0
0.152668 0.890193 0.485380 0.8 0 0
0.372064 0.030490 0.609377 0.8 0 0
0.075444 0.734131 0.262157 0.8 0 0
0.555560 0.089863 0.444668 0.8 0 0
0.470631 0.764936 0.088445 0.8 0 0
0.163073 0.840761 0.206887 0.8 0 0
0.616340 0.360240 0.250975 0.8 0 0
0.602641 0.898806 0.274718 0.8 0 0
0.082395 0.558344 0.555450 0.8 0 0
0.691154 0.645587 0.222863 0.8 0 0
0.418578 0.959259 0.488599 0.8 0 0
0.060893 0.618383 0.276647 0.8 0 0
0.080501 0.584361 0.231219 0.8 0 0
0.641828 0.421895 0.687908 0.8 0 0
0.159873 0.116534 0.404402 0.8 0 0
0.540569 0.941051 0.451311 0.8 0 0
0.485732 0.077552 0.740343 0.8 0 0
0.549845 0.665438 0.112455 0.8 0 0
0.075216 0.777528 0.344689 0.8 0 0
0.362380 0.824848 0.764425 0.8 0 0
0.499144 0.379303 0.790327 0.8 0 0
0.528931 0.061317 0.564753 0.8 0 0
0.056024 0.508656 0.378742 0.8 0 0
0.134805 0.611912 0.163545 0.8 0 0
0.549230 0.906857 0.625589 0.8 0 0
0.356491 0.462929 0.062287 0.8 0 0
0.128048 0.230672 0.440897 0.8 0 0
0.396944 0.284831 0.126054 0.8 0 0
0.683652 0.495368 0.542473 0.8 0 0
0.167065 0.207963 0.670766 0.8 0 0
0.079116 0.496110 0.279860 0.8 0 0
0.075621 0.694164 0.235466 0.8 0 0
0.593162 0.146975 0.597297 0.8 0 0
0.303012 0.791208 0.775308 0.8 0 0
0.410536 0.385889 0.893865 0.8 0 0
0.291192 0.092231 0.427050 0.8 0 0
0.676349 0.706718 0.216298 0.8 0 0
0.399030 0.172340 0.163102 0.8 0 0
0.076267 0.692660 0.233393 0.8 0 0
0.374739 0.125897 0.256434 0.8 0 0
0.477992 0.133355 0.292915 0.8 0 0
0.460007 0.038378 0.602418 0.8 0 0
0.574334 0.120844 0.388844 0.8 0 0
0.661536 0.798782 0.559638 0.8 0 0
0.198807 0.346949 0.208935 0.8 0 0
0.397324 0.722994 0.811084 0.8 0 0
0.469885 0.950692 0.528653 0.8 0 0
0.316873 0.644003 0.060009 0.8 0 0
0.404780 0.751433 0.799217 0.8 0 0
0.168585 0.921230 0.425791 0.8 0 0
0.485863 0.854534 0.156257 0.8 0 0
0.613773 0.863540 0.586381 0.8 0 0
0.156720 0.368682 0.733470 0.8 0 0
0.112013 0.703984 0.194365 0.8 0 0
0.506504 0.295024 0.796759 0.8 0 0
0.190631 0.639927 0.755502 0.8 0 0
0.706382 0.349359 0.333708 0.8 0 0
0.137715 0.888041 0.295466 0.8 0 0
0.732655 0.399414 0.306249 0.8 0 0
0.661712 0.451624 0.243890 0.8 0 0
0.037398 0.395073 0.329668 0.8 0 0
0.709257 0.454082 0.405489 0.8 0 0
0.143910 0.682059 0.163800 0.8 0 0
0.123343 0.239329 0.481947 0.8 0 0
0.434418 0.427528 0.082621 0.8 0 0
0.173201 0.159250 0.318982 0.8 0 0
0.072151 0.701742 0.519211 0.8 0 0
0.583249 0.235379 0.289560 0.8 0 0
0.530145 0.204429 0.748737 0.8 0 0
0.600637 0.904219 0.522916 0.8 0 0
0.269830 0.934997 0.296092 0.8 0 0
0.223698 0.365795 0.171951 0.8 0 0
0.369846 0.107216 0.353665 0.8 0 0
0.227764 0.224197 0.754709 0.8 0 0
0.282580 0.134771 0.293887 0.8 0 0
0.288039 0.812728 0.752843 0.8 0 0
0.603347 0.211931 0.365275 0.8 0 0
0.208181 0.324042 0.772900 0.8 0 0
0.188510 0.164933 0.668857 0.8 0 0
0.046590 0.466051 0.285264 0.8 0 0
0.081612 0.718075 0.585090 0.8 0 0
0.115543 0.862957 0.303076 0.8 0 0
0.135335 0.888528 0.411162 0.8 0 0
0.080048 0.434740 0.292626 0.8 0 0
0.245569 0.142604 0.738525 0.8 0 0
0.246861 0.106101 0.408953 0.8 0 0
0.055077 0.412279 0.371606 0.8 0 0
0.250911 0.931568 0.598155 0.8 0 0
0.602397 0.371172 0.743669 0.8 0 0
0.524350 0.293480 0.789427 0.8 0 0
0.707072 0.609055 0.263216 0.8 0 0
0.675373 0.807574 0.395155 0.8 0 0
0.651766 0.284858 0.399871 0.8 0 0
0.568106 0.153404 0.681333 0.8 0 0
0.620407 0.347797 0.727432 0.8 0 0
0.683901 0.747550 0.255876 0.8 0 0
0.100726 0.557552 0.211628 0.8 0 0
0.612343 0.542427 0.721343 0.8 0 0
0.640643 0.389044 0.688982 0.8 0 0
0.675019 0.316663 0.443120 0.8 0 0
0.227467 0.291243 0.782402 0.8 0 0
0.731616 0.471817 0.342577 0.8 0 0
0.493307 0.221701 0.776085 0.8 0 0
0.077660 0.727453 0.545448 0.8 0 0
0.262863 0.047245 0.549650 0.8 0 0
0.068955 0.631377 0.236395 0.8 0 0
0.356953 0.343934 0.106398 0.8 0 0
0.592711 0.169310 0.307905 0.8 0 0
0.147949 0.363177 0.254939 0.8 0 0
0.429595 0.108314 0.378920 0.8 0 0
0.163885 0.508899 0.737038 0.8 0 0
0.314040 0.290999 0.146180 0.8 0 0
0.259433 0.240377 0.777817 0.8 0 0
0.249210 0.703850 0.777648 0.8 0 0
0.620829 0.184008 0.420431 0.8 0 0
0.116064 0.844704 0.273678 0.8 0 0
0.678231 0.545389 0.576806 0.8 0 0
0.124293 0.639852 0.670933 0.8 0 0
0.597991 0.180664 0.635029 0.8 0 0
0.412105 0.047702 0.507730 0.8 0 0
0.471210 0.464667 0.763943 0.8 0 0
0.083252 0.770621 0.479151 0.8 0 0
0.696403 0.434459 0.486119 0.8 0 0
0.083466 0.798958 0.389038 0.8 0 0
0.395924 0.929851 0.638728 0.8 0 0
0.308786 0.791762 0.090330 0.8 0 0
0.725902 0.440049 0.376541 0.8 0 0
0.292213 0.059987 0.692969 0.8 0 0
0.695749 0.755837 0.408044 0.8 0 0
0.482627 0.826841 0.740661 0.8 0 0
0.197931 0.740418 0.720237 0.8 0 0
0.458827 0.139995 0.239411 0.8 0 0
0.701677 0.556154 0.483787 0.8 0 0
0.401885 0.885048 0.709392 0.8 0 0
0.536390 0.931169 0.544462 0.8 0 0
0.397939 0.693771 0.820060 0.8 0 0
0.429005 0.140444 0.212759 0.8 0 0
0.419552 0.109706 0.359576 0.8 0 0
0.385016 0.301493 0.860884 0.8 0 0
0.313729 0.801014 0.772683 0.8 0 0
0.422082 0.052765 0.761909 0.8 0 0
0.146576 0.823747 0.604132 0.8 0 0
0.397052 0.167923 0.833024 0.8 0 0
0.334580 0.698697 0.816266 0.8 0 0
0.651881 0.561431 0.191120 0.8 0 0
0.590930 0.459021 0.164097 0.8 0 0
0.241885 0.539767 0.090898 0.8 0 0
0.564851 0.132488 0.660950 0.8 0 0
0.243063 0.502203 0.771147 0.8 0 0
0.231557 0.710867 0.760202 0.8 0 0
0.590871 0.659355 0.735852 0.8 0 0
0.657253 0.764270 0.222415 0.8 0 0
0.361656 0.450901 0.847182 0.8 0 0
0.695827 0.340226 0.433028 0.8 0 0
0.218127 0.557143 0.104475 0.8 0 0
0.128381 0.351042 0.292995 0.8 0 0
0.318485 0.096457 0.414627 0.8 0 0
0.099847 0.559176 0.615170 0.8 0 0
0.041815 0.369827 0.343116 0.8 0 0
0.472610 0.660578 0.071271 0.8 0 0
0.425216 0.699195 0.053976 0.8 0 0
0.108402 0.836867 0.473287 0.8 0 0
0.486270 0.614459 0.806062 0.8 0 0
0.346019 0.130125 0.258842 0.8 0 0
0.492623 0.246361 0.794701 0.8 0 0
0.400623 0.569082 0.037894 0.8 0 0
0.615980 0.552997 0.723558 0.8 0 0
0.239154 0.431618 0.755624 0.8 0 0
0.237432 0.580000 0.790799 0.8 0 0
0.630454 0.411007 0.226868 0.8 0 0
0.062471 0.649410 0.282318 0.8 0 0
0.077727 0.751061 0.493844 0.8 0 0
0.261738 0.526593 0.079640 0.8 0 0
0.495709 0.089645 0.746465 0.8 0 0
0.053020 0.380937 0.393348 0.8 0 0
0.275308 0.373632 0.126231 0.8 0 0
0.253276 0.079258 0.666716 0.8 0 0
0.708286 0.553737 0.287287 0.8 0 0
0.084570 0.654309 0.570835 0.8 0 0
0.466593 0.067037 0.752051 0.8 0 0
0.251064 0.937386 0.322512 0.8 0 0
0.069970 0.589820 0.521453 0.8 0 0
0.533934 0.832521 0.698504 0.8 0 0
0.498290 0.234371 0.778775 0.8 0 0
0.671523 0.831535 0.311214 0.8 0 0
0.502989 0.947110 0.470913 0.8 0 0
0.453928 0.909425 0.664957 0.8 0 0
0.613667 0.613453 0.147020 0.8 0 0
0.414169 0.045164 0.513131 0.8 0 0
0.708051 0.336545 0.395880 0.8 0 0
0.291493 0.351599 0.811877 0.8 0 0
0.709139 0.534086 0.308458 0.8 0 0
0.421995 0.428093 0.839510 0.8 0 0
0.572494 0.691095 0.126609 0.8 0 0
0.254196 0.330094 0.164267 0.8 0 0
0.212270 0.273574 0.252674 0.8 0 0
0.060504 0.451600 0.417154 0.8 0 0
0.642269 0.262928 0.398704 0.8 0 0
0.108191 0.610665 0.643445 0.8 0 0
0.036677 0.472596 0.347101 0.8 0 0
0.484389 0.574370 0.071109 0.8 0 0
0.122898 0.882857 0.378548 0.8 0 0
0.419304 0.547513 0.045789 0.8 0 0
0.343403 0.963082 0.351008 0.8 0 0
0.235271 0.410285 0.767286 0.8 0 0
0.670525 0.811830 0.278166 0.8 0 0
0.620635 0.383924 0.720302 0.8 0 0
0.334394 0.933902 0.624987 0.8 0 0
0.383900 0.952628 0.590275 0.8 0 0
0.662483 0.843257 0.429031 0.8 0 0
0.482062 0.213811 0.784996 0.8 0 0
0.481276 0.141173 0.252533 0.8 0 0
0.584756 0.085253 0.458416 0.8 0 0
0.347135 0.390779 0.091288 0.8 0 0
0.716528 0.485421 0.388430 0.8 0 0
0.614276 0.165367 0.460164 0.8 0 0
0.122079 0.878827 0.322295 0.8 0 0
0.439234 0.053234 0.495268 0.8 0 0
0.603573 0.883159 0.586690 0.8 0 0
0.645962 0.266141 0.602134 0.8 0 0
0.073934 0.474835 0.489877 0.8 0 0
0.620639 0.678245 0.160136 0.8 0 0
0.600003 0.131192 0.494757 0.8 0 0
0.297174 0.632332 0.813577 0.8 0 0
0.310903 0.723478 0.075835 0.8 0 0
0.401037 0.327740 0.886991 0.8 0 0
0.402790 0.045008 0.732697 0.8 0 0
0.426041 0.030039 0.579939 0.8 0 0
0.387671 0.115647 0.302675 0.8 0 0
0.557347 0.273641 0.257767 0.8 0 0
0.629736 0.373343 0.258283 0.8 0 0
0.389326 0.418041 0.879069 0.8 0 0
0.365343 0.747391 0.058393 0.8 0 0
0.061276 0.616364 0.269290 0.8 0 0
0.243919 0.946412 0.452374 0.8 0 0
0.303514 0.201390 0.801291 0.8 0 0
0.390649 0.630313 0.029101 0.8 0 0
0.566022 0.403164 0.756483 0.8 0 0
0.525049 0.928182 0.603329 0.8 0 0
0.065032 0.436388 0.465438 0.8 0 0
0.199342 0.478666 0.745733 0.8 0 0
0.698474 0.678020 0.273055 0.8 0 0
0.330349 0.440791 0.797114 0.8 0 0
0.124116 0.840615 0.561274 0.8 0 0
0.060337 0.698205 0.396917 0.8 0 0
0.254374 0.136747 0.744790 0.8 0 0
0.609567 0.286826 0.717641 0.8 0 0
0.072848 0.728499 0.477573 0.8 0 0
0.285109 0.067266 0.710900 0.8 0 0
0.531077 0.584515 0.096217 0.8 0 0
0.710983 0.614894 0.454248 0.8 0 0
0.128305 0.514447 0.661423 0.8 0 0
0.378613 0.965076 0.340822 0.8 0 0
0.396874 0.488870 0.048174 0.8 0 0
0.596688 0.643155 0.136136 0.8 0 0
0.625803 0.258962 0.371586 0.8 0 0
0.619831 0.903257 0.418655 0.8 0 0
0.067552 0.737628 0.384781 0.8 0 0
0.066700 0.576488 0.488979 0.8 0 0
0.317015 0.743679 0.801004 0.8 0 0
0.446156 0.031489 0.568309 0.8 0 0
0.628684 0.440952 0.204094 0.8 0 0
0.057347 0.384636 0.380654 0.8 0 0
0.298169 0.035761 0.545148 0.8 0 0
0.527301 0.926774 0.604563 0.8 0 0
0.375299 0.499486 0.043175 0.8 0 0
0.126508 0.273536 0.390218 0.8 0 0
0.603733 0.190485 0.371312 0.8 0 0
0.433381 0.968306 0.385591 0.8 0 0
0.206288 0.819649 0.167474 0.8 0 0
0.700615 0.686663 0.296590 0.8 0 0
0.348768 0.143997 0.187364 0.8 0 0
0.561297 0.411989 0.164852 0.8 0 0
0.619684 0.175853 0.511442 0.8 0 0
0.212027 0.166143 0.709814 0.8 0 0
0.360141 0.960623 0.493904 0.8 0 0
0.511274 0.894781 0.203055 0.8 0 0
0.161126 0.113325 0.410057 0.8 0 0
0.119417 0.287262 0.393040 0.8 0 0
0.432351 0.043245 0.683562 0.8 0 0
0.233360 0.289280 0.784438 0.8 0 0
0.698196 0.477691 0.297153 0.8 0 0
0.399831 0.131572 0.808871 0.8 0 0
0.731705 0.446085 0.340507 0.8 0 0
0.695841 0.641971 0.229624 0.8 0 0
0.605514 0.250566 0.697354 0.8 0 0
0.637008 0.292514 0.677130 0.8 0 0
0.096266 0.843536 0.379874 0.8 0 0
0.268152 0.108577 0.400874 0.8 0 0
0.243153 0.093668 0.688934 0.8 0 0
0.235011 0.922438 0.608773 0.8 0 0
0.639885 0.425467 0.688466 0.8 0 0
0.641208 0.248906 0.606700 0.8 0 0
0.280600 0.721834 0.089347 0.8 0 0
0.092622 0.750780 0.580550 0.8 0 0
0.313178 0.509498 0.061832 0.8 0 0
0.137926 0.215453 0.608217 0.8 0 0
0.707199 0.682468 0.343471 0.8 0 0
0.154796 0.250351 0.688402 0.8 0 0
0.648269 0.284280 0.614136 0.8 0 0
0.239461 0.207117 0.246410 0.8 0 0
0.365978 0.478651 0.829362 0.8 0 0
0.540585 0.058062 0.501079 0.8 0 0
0.376303 0.551115 0.038370 0.8 0 0
0.369125 0.763633 0.060544 0.8 0 0
0.529487 0.547743 0.092971 0.8 0 0
0.344369 0.143749 0.192203 0.8 0 0
0.362522 0.141507 0.188536 0.8 0 0
0.093283 0.462798 0.261670 0.8 0 0
0.038379 0.393398 0.304739 0.8 0 0
0.731714 0.445511 0.347334 0.8 0 0
0.607893 0.274467 0.713064 0.8 0 0
0.410959 0.626226 0.829732 0.8 0 0
0.227039 0.810312 0.700644 0.8 0 0
0.209763 0.776605 0.138914 0.8 0 0
0.088969 0.668953 0.208339 0.8 0 0
0.556297 0.122610 0.672267 0.8 0 0
0.502845 0.768839 0.105324 0.8 0 0
0.631333 0.302612 0.694069 0.8 0 0
0.158846 0.647727 0.717957 0.8 0 0
0.709198 0.694822 0.371847 0.8 0 0
0.464906 0.081974 0.781235 0.8 0 0
0.173126 0.912823 0.496896 0.8 0 0
0.155205 0.239655 0.362833 0.8 0 0
0.414051 0.566327 0.825418 0.8 0 0
0.143710 0.339220 0.719495 0.8 0 0
0.243880 0.328908 0.173529 0.8 0 0
0.397666 0.901823 0.688758 0.8 0 0
0.131398 0.501304 0.186122 0.8 0 0
0.588311 0.128460 0.568707 0.8 0 0
0.736272 0.499060 0.309251 0.8 0 0
0.637178 0.596981 0.698130 0.8 0 0
0.619317 0.288004 0.703806 0.8 0 0
0.364760 0.120494 0.291566 0.8 0 0
0.210948 0.138372 0.338798 0.8 0 0
0.228620 0.791759 0.720506 0.8 0 0
0.602924 0.181891 0.623768 0.8 0 0
0.376323 0.677674 0.823328 0.8 0 0
0.684887 0.371907 0.519831 0.8 0 0
0.477899 0.042993 0.599487 0.8 0 0
0.139409 0.210031 0.602516 0.8 0 0
0.702014 0.615069 0.242940 0.8 0 0
0.229488 0.838936 0.171478 0.8 0 0
0.194405 0.917402 0.587074 0.8 0 0
0.601187 0.764850 0.159387 0.8 0 0
0.284597 0.904034 0.664191 0.8 0 0
0.485357 0.224240 0.782382 0.8 0 0
0.581314 0.107561 0.517584 0.8 0 0
0.154129 0.767100 0.673051 0.8 0 0
0.612915 0.347216 0.736146 0.8 0 0
0.632014 0.782922 0.192581 0.8 0 0
0.303789 0.135063 0.781841 0.8 0 0
0.549994 0.924523 0.576074 0.8 0 0
0.558816 0.756868 0.720280 0.8 0 0
0.513069 0.268597 0.789570 0.8 0 0
0.708429 0.577635 0.294718 0.8 0 0
0.601501 0.177960 0.359118 0.8 0 0
0.706753 0.537245 0.438510 0.8 0 0
0.306064 0.046240 0.511529 0.8 0 0
0.508312 0.489208 0.092405 0.8 0 0
0.508431 0.266446 0.204766 0.8 0 0
0.283335 0.828251 0.134070 0.8 0 0
0.264756 0.797742 0.745237 0.8 0 0
0.667884 0.517242 0.607345 0.8 0 0
0.411338 0.865337 0.725484 0.8 0 0
0.130435 0.394840 0.253165 0.8 0 0
0.702836 0.591547 0.501002 0.8 0 0
0.368096 0.623709 0.035855 0.8 0 0
0.348802 0.044924 0.732838 0.8 0 0
0.321762 0.640780 0.819232 0.8 0 0
0.637054 0.295153 0.677287 0.8 0 0
0.493745 0.252853 0.196679 0.8 0 0
0.037602 0.488629 0.347887 0.8 0 0
0.474103 0.089963 0.770514 0.8 0 0
0.461231 0.130540 0.289634 0.8 0 0
0.153763 0.399845 0.723113 0.8 0 0
0.423134 0.192312 0.173367 0.8 0 0
0.647906 0.337086 0.318167 0.8 0 0
0.126558 0.581521 0.686244 0.8 0 0
0.163311 0.473249 0.723811 0.8 0 0
0.694171 0.330220 0.351469 0.8 0 0
0.102683 0.770184 0.240476 0.8 0 0
0.430890 0.365873 0.872680 0.8 0 0
0.404858 0.081802 0.804810 0.8 0 0
0.654025 0.860347 0.302573 0.8 0 0
0.128116 0.292587 0.668700 0.8 0 0
0.354215 0.034121 0.622217 0.8 0 0
0.631737 0.799048 0.203182 0.8 0 0
0.164303 0.667669 0.719420 0.8 0 0
0.470494 0.916176 0.200623 0.8 0 0
0.101333 0.331282 0.359668 0.8 0 0
0.055600 0.546529 0.392258 0.8 0 0
0.084684 0.790824 0.285805 0.8 0 0
0.700607 0.521082 0.475307 0.8 0 0
0.252704 0.935415 0.572417 0.8 0 0
0.387730 0.341434 0.098326 0.8 0 0
0.336653 0.780358 0.787163 0.8 0 0
0.567288 0.594832 0.770688 0.8 0 0
0.060255 0.616983 0.302536 0.8 0 0
0.636219 0.474284 0.195130 0.8 0 0
0.525912 0.931851 0.568282 0.8 0 0
0.591845 0.123766 0.525820 0.8 0 0
0.514739 0.830578 0.714493 0.8 0 0
0.493559 0.778978 0.103053 0.8 0 0
0.131317 0.640840 0.680707 0.8 0 0
0.515511 0.324875 0.796865 0.8 0 0
0.059320 0.376162 0.314134 0.8 0 0
0.693389 0.669744 0.565632 0.8 0 0
0.325343 0.241660 0.164462 0.8 0 0
0.295461 0.950926 0.520499 0.8 0 0
0.563141 0.570473 0.769140 0.8 0 0
0.649697 0.329102 0.644583 0.8 0 0
0.051855 0.397337 0.399328 0.8 0 0
0.465044 0.652525 0.811200 0.8 0 0
0.103609 0.297313 0.415665 0.8 0 0
0.511822 0.834460 0.713801 0.8 0 0
0.514867 0.128509 0.731930 0.8 0 0
0.300269 0.836968 0.132478 0.8 0 0
0.339324 0.433079 0.814868 0.8 0 0
0.528350 0.758295 0.744830 0.8 0 0
0.320385 0.142451 0.218312 0.8 0 0
0.277905 0.571330 0.074112 0.8 0 0
0.147070 0.190458 0.589764 0.8 0 0
0.088118 0.586946 0.596417 0.8 0 0
0.077492 0.578407 0.558259 0.8 0 0
0.523576 0.080838 0.647599 0.8 0 0
0.437306 0.926019 0.640187 0.8 0 0
0.178605 0.589048 0.754957 0.8 0 0
0.670535 0.309047 0.416719 0.8 0 0
0.186059 0.931338 0.462363 0.8 0 0
0.099555 0.478684 0.594003 0.8 0 0
0.690630 0.421992 0.504481 0.8 0 0
0.409305 0.594617 0.831751 0.8 0 0
0.470827 0.234980 0.809145 0.8 0 0
0.638848 0.332509 0.676239 0.8 0 0
0.653078 0.542064 0.640526 0.8 0 0
0.201762 0.811316 0.673813 0.8 0 0
0.657909 0.617507 0.636087 0.8 0 0
0.385510 0.527439 0.819325 0.8 0 0
0.107327 0.847219 0.440727 0.8 0 0
0.424793 0.305783 0.128186 0.8 0 0
0.646225 0.319889 0.653576 0.8 0 0
0.161626 0.257868 0.337696 0.8 0 0
0.450827 0.435919 0.778192 0.8 0 0
0.168579 0.719693 0.148292 0.8 0 0
0.480467 0.048602 0.625286 0.8 0 0
0.401874 0.061625 0.477986 0.8 0 0
0.154015 0.866152 0.231901 0.8 0 0
0.635988 0.231669 0.410282 0.8 0 0
0.161707 0.350088 0.742444 0.8 0 0
0.446511 0.029205 0.544860 0.8 0 0
0.265076 0.845773 0.707745 0.8 0 0
0.695308 0.378396 0.475045 0.8 0 0
0.097164 0.533237 0.225043 0.8 0 0
0.636374 0.814637 0.598858 0.8 0 0
0.485509 0.065129 0.697109 0.8 0 0
0.111021 0.820266 0.531173 0.8 0 0
0.430336 0.807817 0.773989 0.8 0 0
0.629225 0.806287 0.617419 0.8 0 0
0.594943 0.314245 0.265939 0.8 0 0
0.057053 0.583803 0.375502 0.8 0 0
0.431306 0.463346 0.816658 0.8 0 0
0.216740 0.940527 0.366247 0.8 0 0
0.628191 0.379803 0.712408 0.8 0 0
0.471478 0.756071 0.788136 0.8 0 0
0.588969 0.731348 0.142799 0.8 0 0
0.684078 0.491614 0.261572 0.8 0 0
0.652961 0.405847 0.655093 0.8 0 0
0.201942 0.145085 0.323742 0.8 0 0
0.201573 0.090180 0.547719 0.8 0 0
0.251336 0.239225 0.773592 0.8 0 0
0.087737 0.452220 0.548695 0.8 0 0
0.735335 0.452252 0.277399 0.8 0 0
0.137998 0.348944 0.280870 0.8 0 0
0.517302 0.147634 0.743852 0.8 0 0
0.200871 0.465988 0.143203 0.8 0 0
0.414123 0.731733 0.806175 0.8 0 0
0.625313 0.790033 0.638788 0.8 0 0
0.423437 0.141505 0.202907 0.8 0 0
0.309617 0.301183 0.143458 0.8 0 0
0.414990 0.066013 0.467282 0.8 0 0
0.349749 0.841947 0.115380 0.8 0 0
0.184568 0.101393 0.427955 0.8 0 0
0.457896 0.117694 0.358340 0.8 0 0
0.165792 0.361957 0.745166 0.8 0 0
0.069643 0.652191 0.525857 0.8 0 0
0.277673 0.212047 0.212217 0.8 0 0
0.356467 0.033578 0.619489 0.8 0 0
0.515278 0.115306 0.728010 0.8 0 0
0.235627 0.119117 0.708347 0.8 0 0
0.199299 0.479596 0.745916 0.8 0 0
0.126974 0.382219 0.687264 0.8 0 0
0.124679 0.478711 0.654308 0.8 0 0
0.116107 0.536149 0.197002 0.8 0 0
0.340959 0.944108 0.608651 0.8 0 0
0.454625 0.145592 0.208041 0.8 0 0
0.372093 0.919290 0.656767 0.8 0 0
0.305783 0.731901 0.804480 0.8 0 0
0.541750 0.670194 0.108509 0.8 0 0
0.347940 0.365568 0.894498 0.8 0 0
0.660903 0.301072 0.558794 0.8 0 0
0.065058 0.545418 0.466263 0.8 0 0
0.698332 0.698533 0.498541 0.8 0 0
0.251779 0.378325 0.142534 0.8 0 0
0.297932 0.602319 0.066792 0.8 0 0
0.069029 0.561613 0.500284 0.8 0 0
0.688070 0.353637 0.334157 0.8 0 0
0.120536 0.504131 0.646669 0.8 0 0
0.506122 0.149335 0.234878 0.8 0 0
0.161536 0.560282 0.733954 0.8 0 0
0.211608 0.420487 0.153169 0.8 0 0
0.395560 0.678919 0.822828 0.8 0 0
0.186574 0.113510 0.545363 0.8 0 0
0.652191 0.753323 0.206731 0.8 0 0
0.246449 0.223333 0.238662 0.8 0 0
0.555087 0.620546 0.111670 0.8 0 0
0.634926 0.213693 0.512800 0.8 0 0
0.482094 0.220061 0.785829 0.8 0 0
0.732348 0.441943 0.339221 0.8 0 0
0.599109 0.148541 0.581798 0.8 0 0
0.672703 0.347928 0.558058 0.8 0 0
0.589512 0.445816 0.722889 0.8 0 0
0.598759 0.300008 0.741032 0.8 0 0
0.485996 0.292950 0.805982 0.8 0 0
0.132535 0.779438 0.628863 0.8 0 0
0.057405 0.545589 0.331479 0.8 0 0
0.069549 0.464991 0.459362 0.8 0 0
0.304830 0.358540 0.120331 0.8 0 0
0.677145 0.788941 0.463445 0.8 0 0
0.666192 0.632810 0.193239 0.8 0 0
0.596048 0.214623 0.324034 0.8 0 0
0.740102 0.493717 0.332748 0.8 0 0
0.059656 0.493603 0.404325 0.8 0 0
0.415187 0.333077 0.880830 0.8 0 0
0.423495 0.155255 0.175891 0.8 0 0
0.370932 0.954870 0.557935 0.8 0 0
0.364871 0.399438 0.081664 0.8 0 0
0.646471 0.275057 0.397432 0.8 0 0
0.709868 0.687036 0.384120 0.8 0 0
0.194032 0.094355 0.528078 0.8 0 0
0.073338 0.494785 0.496321 0.8 0 0
0.073994 0.468620 0.487000 0.8 0 0
0.496152 0.912528 0.213035 0.8 0 0
0.557157 0.261406 0.765204 0.8 0 0
0.655714 0.796558 0.578915 0.8 0 0
0.061832 0.687735 0.326575 0.8 0 0
0.085477 0.435086 0.284891 0.8 0 0
0.715033 0.379935 0.395690 0.8 0 0
0.303801 0.054657 0.698995 0.8 0 0
0.245823 0.628078 0.094903 0.8 0 0
