0.281691 0.193879 0.323358 0.8 0 0
0.041458 0.767714 0.264110 0.8 0 0
0.089729 0.595981 0.503917 0.8 0 0
0.474847 0.477867 0.465410 0.8 0 0
0.372967 0.180335 0.364693 0.8 0 0
0.185394 0.292486 0.422418 0.8 0 0
0.050907 0.761075 0.211022 0.8 0 0
0.227528 0.363529 0.192554 0.8 0 0
0.307694 0.778564 0.065849 0.8 0 0
0.046471 0.641183 0.326572 0.8 0 0
0.392374 0.957967 0.303835 0.8 0 0
0.405164 0.379731 0.582757 0.8 0 0
0.349729 0.203712 0.150269 0.8 0 0
0.426165 0.577748 0.057504 0.8 0 0
0.415679 0.442375 0.194753 0.8 0 0
0.238137 0.621977 0.622196 0.8 0 0
0.145867 0.438798 0.577637 0.8 0 0
0.264245 0.729601 0.049126 0.8 0 0
0.062300 0.777549 0.182379 0.8 0 0
0.461691 0.178407 0.370576 0.8 0 0
0.347931 0.449358 0.512610 0.8 0 0
0.135735 0.244858 0.319651 0.8 0 0
0.479623 0.568258 0.100613 0.8 0 0
0.194057 0.425937 0.620126 0.8 0 0
0.218811 0.487969 0.084190 0.8 0 0
0.107630 0.830932 0.532197 0.8 0 0
0.419502 0.304757 0.364567 0.8 0 0
0.204518 0.895233 0.134745 0.8 0 0
0.236419 0.342304 0.639517 0.8 0 0
0.545741 0.734077 0.308221 0.8 0 0
0.109268 0.883259 0.210069 0.8 0 0
0.472287 0.630201 0.531822 0.8 0 0
0.407569 0.909056 0.553667 0.8 0 0
0.191716 0.133989 0.468770 0.8 0 0
0.300642 0.937603 0.172473 0.8 0 0
0.369928 0.808255 0.087442 0.8 0 0
0.437750 0.433144 0.262426 0.8 0 0
0.432327 0.464448 0.585438 0.8 0 0
0.186214 0.947082 0.492764 0.8 0 0
0.108887 0.870165 0.174883 0.8 0 0
0.176056 0.167763 0.403062 0.8 0 0
0.433533 0.368863 0.347974 0.8 0 0
0.269453 0.434001 0.111146 0.8 0 0
0.372375 0.324338 0.593581 0.8 0 0
0.218108 0.464209 0.564009 0.8 0 0
0.056395 0.596090 0.304300 0.8 0 0
0.413602 0.591006 0.598816 0.8 0 0
0.089087 0.578549 0.498971 0.8 0 0
0.313555 0.456889 0.661858 0.8 0 0
0.191092 0.638640 0.610011 0.8 0 0
0.405985 0.808360 0.596559 0.8 0 0
0.161567 0.770172 0.596012 0.8 0 0
0.352132 0.364558 0.506994 0.8 0 0
0.489823 0.709863 0.105751 0.8 0 0
0.100820 0.789284 0.124497 0.8 0 0
0.247422 0.199024 0.307655 0.8 0 0
0.318170 0.970534 0.316915 0.8 0 0
0.495539 0.557835 0.271353 0.8 0 0
0.174388 0.138498 0.461875 0.8 0 0
0.225243 0.480464 0.532836 0.8 0 0
0.454414 0.584666 0.565397 0.8 0 0
0.517910 0.605406 0.153735 0.8 0 0
0.337957 0.233586 0.147165 0.8 0 0
0.307402 0.972543 0.395571 0.8 0 0
0.375418 0.314981 0.502968 0.8 0 0
0.210843 0.956905 0.468255 0.8 0 0
0.375464 0.320118 0.465236 0.8 0 0
0.238354 0.877242 0.114890 0.8 0 0
0.513607 0.815509 0.352934 0.8 0 0
0.069131 0.781257 0.474323 0.8 0 0
0.388524 0.960984 0.306572 0.8 0 0
0.433097 0.902479 0.522211 0.8 0 0
0.310883 0.971386 0.305404 0.8 0 0
0.148927 0.180891 0.362997 0.8 0 0
0.273988 0.875622 0.635513 0.8 0 0
0.131445 0.818761 0.121339 0.8 0 0
0.302661 0.758859 0.642590 0.8 0 0
0.494816 0.537371 0.302538 0.8 0 0
0.477585 0.878813 0.444036 0.8 0 0
0.263905 0.146319 0.443609 0.8 0 0
0.179763 0.418964 0.512989 0.8 0 0
0.235376 0.274353 0.172542 0.8 0 0
0.434737 0.245192 0.339673 0.8 0 0
0.278717 0.300109 0.502174 0.8 0 0
0.221450 0.389831 0.508613 0.8 0 0
0.164164 0.920748 0.521386 0.8 0 0
0.068572 0.692900 0.471322 0.8 0 0
0.358382 0.774118 0.069819 0.8 0 0
0.383937 0.805477 0.087802 0.8 0 0
0.157625 0.941868 0.322299 0.8 0 0
0.461878 0.460879 0.515183 0.8 0 0
0.467264 0.509355 0.233200 0.8 0 0
0.512875 0.708064 0.439949 0.8 0 0
0.199142 0.242107 0.169186 0.8 0 0
0.059151 0.680820 0.414773 0.8 0 0
0.411743 0.347068 0.449909 0.8 0 0
0.099363 0.210781 0.280000 0.8 0 0
0.209728 0.414293 0.150516 0.8 0 0
0.067984 0.819233 0.216445 0.8 0 0
0.151729 0.227351 0.383098 0.8 0 0
0.138937 0.911383 0.217072 0.8 0 0
0.328279 0.424168 0.645046 0.8 0 0
0.196594 0.215333 0.234860 0.8 0 0
0.115780 0.164846 0.411962 0.8 0 0
0.354852 0.300081 0.454863 0.8 0 0
0.165576 0.347981 0.432096 0.8 0 0
0.392666 0.762269 0.068298 0.8 0 0
0.367429 0.210517 0.199806 0.8 0 0
0.319183 0.425361 0.651332 0.8 0 0
0.290096 0.467541 0.087694 0.8 0 0
0.068733 0.842558 0.344104 0.8 0 0
0.379104 0.289341 0.213505 0.8 0 0
0.426915 0.424759 0.247494 0.8 0 0
0.474773 0.886195 0.443289 0.8 0 0
0.107123 0.492836 0.163509 0.8 0 0
0.125529 0.438515 0.531485 0.8 0 0
0.296688 0.396425 0.664868 0.8 0 0
0.453915 0.484260 0.154853 0.8 0 0
0.177939 0.949793 0.460629 0.8 0 0
0.437846 0.925905 0.326797 0.8 0 0
0.125627 0.545207 0.580594 0.8 0 0
0.406304 0.436846 0.228155 0.8 0 0
0.158679 0.203023 0.295452 0.8 0 0
0.183556 0.718492 0.056595 0.8 0 0
0.476312 0.535042 0.274330 0.8 0 0
0.255715 0.844251 0.097194 0.8 0 0
0.174763 0.180722 0.363512 0.8 0 0
0.324101 0.955190 0.496508 0.8 0 0
0.357855 0.547899 0.626072 0.8 0 0
0.055467 0.738445 0.437262 0.8 0 0
0.371887 0.953130 0.212965 0.8 0 0
0.384292 0.354088 0.222287 0.8 0 0
0.240572 0.415738 0.510556 0.8 0 0
0.505246 0.786791 0.458750 0.8 0 0
0.352403 0.414744 0.620859 0.8 0 0
0.097427 0.501212 0.164879 0.8 0 0
0.467080 0.509487 0.275335 0.8 0 0
0.480171 0.890301 0.339554 0.8 0 0
0.446402 0.226081 0.305198 0.8 0 0
0.118027 0.645407 0.564830 0.8 0 0
0.108979 0.884072 0.482962 0.8 0 0
0.193559 0.095951 0.487130 0.8 0 0
0.303877 0.302131 0.566298 0.8 0 0
0.125096 0.895305 0.499576 0.8 0 0
0.048827 0.624492 0.232537 0.8 0 0
0.512407 0.783611 0.424211 0.8 0 0
0.431813 0.731136 0.076122 0.8 0 0
0.393546 0.250925 0.391926 0.8 0 0
0.518660 0.591574 0.273405 0.8 0 0
0.346920 0.159024 0.429730 0.8 0 0
0.121709 0.463566 0.289344 0.8 0 0
0.337574 0.931854 0.175887 0.8 0 0
0.100197 0.656203 0.534973 0.8 0 0
0.078307 0.814068 0.465195 0.8 0 0
0.289073 0.450661 0.607313 0.8 0 0
0.312636 0.145568 0.444223 0.8 0 0
0.145147 0.526749 0.084327 0.8 0 0
0.486451 0.639545 0.504468 0.8 0 0
0.397342 0.270950 0.399328 0.8 0 0
0.429634 0.610897 0.585980 0.8 0 0
0.349992 0.446791 0.512375 0.8 0 0
0.342537 0.318149 0.625583 0.8 0 0
0.121531 0.914086 0.304458 0.8 0 0
0.257569 0.781963 0.636403 0.8 0 0
0.358029 0.770336 0.628197 0.8 0 0
0.172251 0.426806 0.185875 0.8 0 0
0.539026 0.758405 0.320693 0.8 0 0
0.413273 0.277212 0.243123 0.8 0 0
0.400621 0.701940 0.615643 0.8 0 0
0.289967 0.109700 0.517574 0.8 0 0
0.498491 0.832563 0.212158 0.8 0 0
0.459289 0.532930 0.112120 0.8 0 0
0.536997 0.676791 0.303275 0.8 0 0
0.498718 0.596167 0.434608 0.8 0 0
0.266361 0.204194 0.153775 0.8 0 0
0.425778 0.931307 0.272657 0.8 0 0
0.189109 0.101036 0.483516 0.8 0 0
0.234782 0.093357 0.500245 0.8 0 0
0.118162 0.465876 0.533829 0.8 0 0
0.250424 0.431599 0.648551 0.8 0 0
0.064697 0.794105 0.425413 0.8 0 0
0.270665 0.511000 0.697750 0.8 0 0
0.123589 0.224858 0.235603 0.8 0 0
0.217885 0.205538 0.437256 0.8 0 0
0.105623 0.627672 0.080908 0.8 0 0
0.153039 0.616568 0.047099 0.8 0 0
0.271567 0.747522 0.051174 0.8 0 0
0.442840 0.462278 0.277567 0.8 0 0
0.407902 0.411352 0.598988 0.8 0 0
0.488358 0.722490 0.518642 0.8 0 0
0.426792 0.284830 0.265029 0.8 0 0
0.399271 0.357153 0.577752 0.8 0 0
0.232583 0.969343 0.387991 0.8 0 0
0.498245 0.539473 0.306563 0.8 0 0
0.386232 0.215000 0.232443 0.8 0 0
0.129287 0.875272 0.538255 0.8 0 0
0.060014 0.640783 0.115687 0.8 0 0
0.214529 0.583214 0.610982 0.8 0 0
0.214387 0.861013 0.111231 0.8 0 0
0.256527 0.883943 0.114850 0.8 0 0
0.244404 0.411713 0.510355 0.8 0 0
0.222800 0.379239 0.559712 0.8 0 0
0.394547 0.397899 0.602751 0.8 0 0
0.211399 0.139490 0.471619 0.8 0 0
0.536348 0.715181 0.239263 0.8 0 0
0.123463 0.424358 0.379640 0.8 0 0
0.344375 0.207572 0.178367 0.8 0 0
0.438188 0.545242 0.081300 0.8 0 0
0.494733 0.552615 0.408418 0.8 0 0
0.167421 0.875303 0.136305 0.8 0 0
0.532631 0.771574 0.332347 0.8 0 0
0.288452 0.478321 0.551504 0.8 0 0
0.161146 0.735266 0.602739 0.8 0 0
0.083952 0.884784 0.280053 0.8 0 0
0.486734 0.482916 0.394203 0.8 0 0
0.307282 0.397231 0.608314 0.8 0 0
0.077721 0.870923 0.332233 0.8 0 0
0.326767 0.376413 0.190185 0.8 0 0
0.106063 0.215439 0.257559 0.8 0 0
0.340752 0.772308 0.632017 0.8 0 0
0.196520 0.387664 0.211240 0.8 0 0
0.345052 0.224869 0.453123 0.8 0 0
0.426979 0.172730 0.387902 0.8 0 0
0.236410 0.552720 0.047991 0.8 0 0
0.385488 0.359378 0.600971 0.8 0 0
0.190987 0.559232 0.615395 0.8 0 0
0.459191 0.908603 0.354396 0.8 0 0
0.094860 0.542424 0.505852 0.8 0 0
0.144146 0.248912 0.238038 0.8 0 0
0.349053 0.382768 0.508205 0.8 0 0
0.173558 0.237446 0.393445 0.8 0 0
0.137826 0.770197 0.579855 0.8 0 0
0.485912 0.872756 0.401061 0.8 0 0
0.245636 0.900291 0.128132 0.8 0 0
0.202931 0.327509 0.601120 0.8 0 0
0.234032 0.727643 0.638268 0.8 0 0
0.482934 0.656176 0.094752 0.8 0 0
0.491093 0.509068 0.310964 0.8 0 0
0.180495 0.316776 0.535599 0.8 0 0
0.182781 0.278625 0.218093 0.8 0 0
0.141040 0.528865 0.086776 0.8 0 0
0.140088 0.401505 0.301823 0.8 0 0
0.069473 0.787802 0.464098 0.8 0 0
0.395000 0.345264 0.571963 0.8 0 0
0.153743 0.223088 0.205609 0.8 0 0
0.050505 0.705325 0.390958 0.8 0 0
0.120303 0.197071 0.368927 0.8 0 0
0.292178 0.598803 0.656098 0.8 0 0
0.202998 0.964219 0.273460 0.8 0 0
0.297106 0.418039 0.122222 0.8 0 0
0.208389 0.413698 0.604098 0.8 0 0
0.332083 0.272002 0.460830 0.8 0 0
0.223618 0.412739 0.145681 0.8 0 0
0.159241 0.175942 0.378100 0.8 0 0
0.114876 0.762134 0.102510 0.8 0 0
0.543767 0.747806 0.289601 0.8 0 0
0.523878 0.766549 0.225129 0.8 0 0
0.360594 0.311818 0.585298 0.8 0 0
0.451217 0.637468 0.569727 0.8 0 0
0.288254 0.972481 0.218424 0.8 0 0
0.283765 0.336627 0.652923 0.8 0 0
0.215274 0.955256 0.477340 0.8 0 0
0.065775 0.582118 0.297641 0.8 0 0
0.357224 0.079337 0.498323 0.8 0 0
0.103540 0.894932 0.397293 0.8 0 0
0.281375 0.478745 0.668632 0.8 0 0
0.043544 0.711099 0.363550 0.8 0 0
0.284558 0.387332 0.571335 0.8 0 0
0.255134 0.953513 0.508964 0.8 0 0
0.417797 0.293367 0.258518 0.8 0 0
0.415133 0.186408 0.346158 0.8 0 0
0.382472 0.330556 0.220040 0.8 0 0
0.070316 0.564764 0.378084 0.8 0 0
0.445412 0.472821 0.268850 0.8 0 0
0.247830 0.306163 0.487145 0.8 0 0
0.146102 0.381240 0.365718 0.8 0 0
0.080578 0.862208 0.378262 0.8 0 0
0.267431 0.476628 0.084246 0.8 0 0
0.312341 0.270151 0.163187 0.8 0 0
0.418992 0.166456 0.443253 0.8 0 0
0.148121 0.548142 0.070861 0.8 0 0
0.100150 0.530983 0.129179 0.8 0 0
0.238904 0.413335 0.510377 0.8 0 0
0.393675 0.479953 0.621307 0.8 0 0
0.135856 0.539889 0.603978 0.8 0 0
0.067874 0.581453 0.383388 0.8 0 0
0.310780 0.326208 0.179305 0.8 0 0
0.156177 0.360389 0.543899 0.8 0 0
0.095436 0.894700 0.311842 0.8 0 0
0.195450 0.212886 0.217047 0.8 0 0
0.238748 0.143905 0.477931 0.8 0 0
0.156506 0.433679 0.596220 0.8 0 0
0.513811 0.807550 0.371811 0.8 0 0
0.114442 0.441430 0.397978 0.8 0 0
0.483281 0.557688 0.114638 0.8 0 0
0.133417 0.504791 0.590453 0.8 0 0
0.258749 0.557329 0.651297 0.8 0 0
0.495551 0.872614 0.328749 0.8 0 0
0.196670 0.416401 0.587759 0.8 0 0
0.145737 0.935928 0.378376 0.8 0 0
0.191516 0.965195 0.368306 0.8 0 0
0.512997 0.573932 0.336876 0.8 0 0
0.125879 0.224392 0.304418 0.8 0 0
0.189979 0.393979 0.556633 0.8 0 0
0.084026 0.556447 0.122479 0.8 0 0
0.249428 0.899967 0.126349 0.8 0 0
0.419156 0.439435 0.595639 0.8 0 0
0.469512 0.223671 0.251563 0.8 0 0
0.068934 0.743860 0.120438 0.8 0 0
0.477109 0.618914 0.519663 0.8 0 0
0.229959 0.465522 0.641454 0.8 0 0
0.111206 0.530493 0.117635 0.8 0 0
0.502180 0.547048 0.174996 0.8 0 0
0.099241 0.585463 0.087727 0.8 0 0
0.154607 0.508599 0.091200 0.8 0 0
0.320255 0.856214 0.636380 0.8 0 0
0.198245 0.152030 0.462105 0.8 0 0
0.397425 0.598719 0.603588 0.8 0 0
0.249846 0.892195 0.119668 0.8 0 0
0.044192 0.659032 0.193211 0.8 0 0
0.112982 0.153220 0.438026 0.8 0 0
0.391102 0.112328 0.476350 0.8 0 0
0.495341 0.519153 0.369313 0.8 0 0
0.300589 0.826721 0.638558 0.8 0 0
0.147167 0.324396 0.354233 0.8 0 0
0.061298 0.573770 0.236058 0.8 0 0
0.470027 0.800593 0.544114 0.8 0 0
0.263100 0.216604 0.254004 0.8 0 0
0.080800 0.545383 0.413500 0.8 0 0
0.241389 0.190201 0.334581 0.8 0 0
0.412509 0.355964 0.392795 0.8 0 0
0.317964 0.241048 0.148852 0.8 0 0
0.422044 0.891640 0.553795 0.8 0 0
0.316270 0.788177 0.635462 0.8 0 0
0.247983 0.950981 0.516739 0.8 0 0
0.450148 0.420721 0.338054 0.8 0 0
0.087693 0.527030 0.457219 0.8 0 0
0.310771 0.943960 0.552097 0.8 0 0
0.542640 0.722442 0.269584 0.8 0 0
0.426392 0.309607 0.265529 0.8 0 0
0.051792 0.608901 0.229115 0.8 0 0
0.409242 0.507781 0.615880 0.8 0 0
0.061878 0.764347 0.464771 0.8 0 0
0.179921 0.954213 0.451890 0.8 0 0
0.367235 0.931515 0.564691 0.8 0 0
0.110403 0.836301 0.534566 0.8 0 0
0.079657 0.567879 0.116354 0.8 0 0
0.081601 0.572192 0.445027 0.8 0 0
0.052518 0.757246 0.198073 0.8 0 0
0.349386 0.750937 0.632816 0.8 0 0
0.336709 0.754194 0.057740 0.8 0 0
0.327129 0.192140 0.328664 0.8 0 0
0.364667 0.218843 0.428328 0.8 0 0
0.203372 0.282256 0.444417 0.8 0 0
0.522249 0.795441 0.344105 0.8 0 0
0.142099 0.699751 0.596917 0.8 0 0
0.501614 0.860241 0.258480 0.8 0 0
0.522626 0.766837 0.219781 0.8 0 0
0.306572 0.343553 0.180967 0.8 0 0
0.143609 0.340000 0.294526 0.8 0 0
0.068104 0.839979 0.346602 0.8 0 0
0.233876 0.869416 0.628714 0.8 0 0
0.134442 0.456450 0.260680 0.8 0 0
0.228365 0.812059 0.086268 0.8 0 0
0.507040 0.547244 0.315716 0.8 0 0
0.041923 0.752115 0.239431 0.8 0 0
0.263059 0.468843 0.658631 0.8 0 0
0.060694 0.739322 0.461587 0.8 0 0
0.334881 0.968975 0.345186 0.8 0 0
0.120625 0.428012 0.376027 0.8 0 0
0.496549 0.650834 0.486640 0.8 0 0
0.221964 0.206530 0.132230 0.8 0 0
0.489881 0.882818 0.321167 0.8 0 0
0.164219 0.215169 0.258382 0.8 0 0
0.145281 0.510877 0.610072 0.8 0 0
0.221135 0.679353 0.641613 0.8 0 0
0.067689 0.837483 0.350483 0.8 0 0
0.107289 0.896452 0.420356 0.8 0 0
0.232714 0.287607 0.180435 0.8 0 0
0.326891 0.654470 0.039034 0.8 0 0
0.270611 0.189233 0.337537 0.8 0 0
0.274116 0.252718 0.478057 0.8 0 0
0.143181 0.269683 0.314642 0.8 0 0
0.132516 0.234023 0.321930 0.8 0 0
0.493798 0.852124 0.224803 0.8 0 0
0.363024 0.966652 0.356133 0.8 0 0
0.481213 0.489347 0.462554 0.8 0 0
0.260366 0.406111 0.510315 0.8 0 0
0.269837 0.429723 0.658257 0.8 0 0
0.285099 0.630125 0.030636 0.8 0 0
0.510420 0.705359 0.450843 0.8 0 0
0.118050 0.179144 0.368326 0.8 0 0
0.398386 0.448679 0.615861 0.8 0 0
0.502540 0.574485 0.391547 0.8 0 0
0.316241 0.691029 0.648610 0.8 0 0
0.393299 0.316807 0.423441 0.8 0 0
0.099948 0.691267 0.541361 0.8 0 0
0.090169 0.757067 0.535513 0.8 0 0
0.313484 0.433852 0.633250 0.8 0 0
0.319286 0.441517 0.618565 0.8 0 0
0.453969 0.909442 0.401415 0.8 0 0
0.097404 0.870160 0.460609 0.8 0 0
0.090690 0.623720 0.508983 0.8 0 0
0.153973 0.364810 0.378009 0.8 0 0
0.515090 0.626554 0.375024 0.8 0 0
0.493464 0.838461 0.429307 0.8 0 0
0.275366 0.500707 0.690298 0.8 0 0
0.235333 0.814466 0.628454 0.8 0 0
0.448791 0.870387 0.155969 0.8 0 0
0.393084 0.787610 0.605290 0.8 0 0
0.454036 0.477109 0.544569 0.8 0 0
0.464188 0.454820 0.505630 0.8 0 0
0.408195 0.501980 0.085823 0.8 0 0
0.328535 0.945487 0.539992 0.8 0 0
0.138901 0.262448 0.301510 0.8 0 0
0.179281 0.188340 0.340263 0.8 0 0
0.216143 0.680256 0.640311 0.8 0 0
0.232299 0.456713 0.582579 0.8 0 0
0.040614 0.671388 0.321725 0.8 0 0
0.434905 0.832335 0.125634 0.8 0 0
0.150930 0.533153 0.075946 0.8 0 0
0.258047 0.134024 0.453652 0.8 0 0
0.062237 0.572653 0.218760 0.8 0 0
0.305779 0.955248 0.508920 0.8 0 0
0.241987 0.968458 0.234867 0.8 0 0
0.157966 0.426011 0.237634 0.8 0 0
0.429365 0.362831 0.487324 0.8 0 0
0.078097 0.874388 0.325338 0.8 0 0
0.266761 0.271011 0.162092 0.8 0 0
0.219028 0.879979 0.620112 0.8 0 0
0.269227 0.942677 0.557825 0.8 0 0
0.261313 0.492296 0.665047 0.8 0 0
0.377302 0.661990 0.630121 0.8 0 0
0.420695 0.902555 0.545660 0.8 0 0
0.213226 0.964883 0.238099 0.8 0 0
0.532642 0.665034 0.249233 0.8 0 0
0.508871 0.819342 0.232329 0.8 0 0
0.517301 0.596996 0.190416 0.8 0 0
0.177956 0.330492 0.552044 0.8 0 0
0.274088 0.704200 0.043881 0.8 0 0
0.527893 0.625948 0.305793 0.8 0 0
0.230760 0.365651 0.513144 0.8 0 0
0.154529 0.380392 0.554555 0.8 0 0
0.341856 0.876422 0.624175 0.8 0 0
0.477401 0.491215 0.497708 0.8 0 0
0.434581 0.883690 0.163499 0.8 0 0
0.105093 0.887607 0.461092 0.8 0 0
0.449995 0.902124 0.461484 0.8 0 0
0.460359 0.909544 0.330633 0.8 0 0
0.280505 0.465386 0.576597 0.8 0 0
0.313925 0.161358 0.422610 0.8 0 0
0.390198 0.833828 0.105256 0.8 0 0
0.245450 0.523439 0.658746 0.8 0 0
0.268361 0.744337 0.051030 0.8 0 0
0.283003 0.128668 0.458027 0.8 0 0
0.330023 0.968743 0.255783 0.8 0 0
0.176001 0.285567 0.401462 0.8 0 0
0.177961 0.824683 0.604186 0.8 0 0
0.409997 0.234079 0.388084 0.8 0 0
0.283580 0.973958 0.294979 0.8 0 0
0.238087 0.398993 0.606926 0.8 0 0
0.312293 0.481836 0.655859 0.8 0 0
0.372814 0.964539 0.298607 0.8 0 0
0.155778 0.779029 0.087195 0.8 0 0
0.513326 0.674731 0.124530 0.8 0 0
0.226613 0.375415 0.633225 0.8 0 0
0.095330 0.889245 0.374281 0.8 0 0
0.178688 0.917070 0.558093 0.8 0 0
0.326715 0.914034 0.147561 0.8 0 0
0.542105 0.750919 0.317210 0.8 0 0
0.034769 0.731530 0.254191 0.8 0 0
0.065547 0.563675 0.352252 0.8 0 0
0.065951 0.560126 0.217089 0.8 0 0
0.328184 0.111244 0.472260 0.8 0 0
0.190413 0.391081 0.215847 0.8 0 0
0.245206 0.159215 0.429148 0.8 0 0
0.394870 0.960351 0.369164 0.8 0 0
0.222159 0.601508 0.032819 0.8 0 0
0.089233 0.476227 0.378656 0.8 0 0
0.463527 0.906661 0.322177 0.8 0 0
0.270085 0.289342 0.476591 0.8 0 0
0.414544 0.657259 0.610283 0.8 0 0
0.141430 0.283633 0.270645 0.8 0 0
0.047404 0.727782 0.393039 0.8 0 0
0.278125 0.209334 0.191192 0.8 0 0
0.268191 0.126833 0.499072 0.8 0 0
0.236358 0.962759 0.453958 0.8 0 0
0.441283 0.394886 0.516015 0.8 0 0
0.130886 0.922092 0.378131 0.8 0 0
0.119656 0.701530 0.574431 0.8 0 0
0.165338 0.211947 0.210214 0.8 0 0
0.357450 0.419700 0.620336 0.8 0 0
0.288070 0.183204 0.355938 0.8 0 0
0.206653 0.399339 0.509001 0.8 0 0
0.338666 0.509489 0.068101 0.8 0 0
0.356357 0.967524 0.368666 0.8 0 0
0.475970 0.849967 0.169981 0.8 0 0
0.218369 0.458832 0.573383 0.8 0 0
0.404556 0.661282 0.616438 0.8 0 0
0.354398 0.332300 0.620541 0.8 0 0
0.109751 0.501767 0.533758 0.8 0 0
0.256664 0.336708 0.644472 0.8 0 0
0.168277 0.746620 0.063824 0.8 0 0
0.424875 0.207663 0.281289 0.8 0 0
0.133722 0.923793 0.315472 0.8 0 0
0.424934 0.164093 0.414263 0.8 0 0
0.344654 0.174880 0.381341 0.8 0 0
0.299562 0.205559 0.287710 0.8 0 0
0.205689 0.385113 0.623236 0.8 0 0
0.093049 0.865364 0.203564 0.8 0 0
0.180459 0.375730 0.513242 0.8 0 0
0.429844 0.308678 0.282436 0.8 0 0
0.525970 0.616467 0.300780 0.8 0 0
0.435876 0.478200 0.586968 0.8 0 0
0.443446 0.468830 0.174006 0.8 0 0
0.499869 0.841948 0.228795 0.8 0 0
0.314786 0.228089 0.140256 0.8 0 0
0.255493 0.758057 0.057325 0.8 0 0
0.112792 0.466285 0.299455 0.8 0 0
0.474912 0.795170 0.537114 0.8 0 0
0.094018 0.212818 0.267211 0.8 0 0
0.378420 0.417418 0.155546 0.8 0 0
0.177966 0.953048 0.450151 0.8 0 0
0.141630 0.816218 0.115017 0.8 0 0
0.483520 0.487673 0.440779 0.8 0 0
0.396473 0.359082 0.586039 0.8 0 0
0.056313 0.591282 0.290345 0.8 0 0
0.311955 0.089381 0.490118 0.8 0 0
0.341434 0.408296 0.509952 0.8 0 0
0.069826 0.547871 0.214571 0.8 0 0
0.270970 0.942341 0.559132 0.8 0 0
0.408598 0.366427 0.566222 0.8 0 0
0.175997 0.786871 0.082046 0.8 0 0
0.053549 0.609529 0.183687 0.8 0 0
0.249712 0.208378 0.184235 0.8 0 0
0.068924 0.587076 0.109757 0.8 0 0
0.466975 0.715774 0.557640 0.8 0 0
0.418775 0.516324 0.083903 0.8 0 0
0.510905 0.611737 0.386897 0.8 0 0
0.148930 0.284391 0.262026 0.8 0 0
0.447403 0.478320 0.203990 0.8 0 0
0.240219 0.961186 0.214289 0.8 0 0
0.438157 0.392822 0.397876 0.8 0 0
0.507704 0.814307 0.219680 0.8 0 0
0.036209 0.685286 0.311740 0.8 0 0
0.212577 0.112853 0.470945 0.8 0 0
0.434342 0.389857 0.325269 0.8 0 0
0.192906 0.868118 0.120128 0.8 0 0
0.136559 0.441503 0.273061 0.8 0 0
0.080287 0.494161 0.362193 0.8 0 0
0.199022 0.822311 0.094666 0.8 0 0
0.409864 0.369221 0.565551 0.8 0 0
0.224944 0.281095 0.178513 0.8 0 0
0.187483 0.446364 0.121023 0.8 0 0
0.082631 0.553829 0.276638 0.8 0 0
0.080836 0.712519 0.107998 0.8 0 0
0.144714 0.916701 0.474217 0.8 0 0
0.307755 0.966248 0.452210 0.8 0 0
0.528439 0.634347 0.282119 0.8 0 0
0.253938 0.646716 0.036925 0.8 0 0
0.170138 0.313450 0.395258 0.8 0 0
0.473576 0.605558 0.524444 0.8 0 0
0.122301 0.424210 0.434403 0.8 0 0
0.363195 0.431341 0.605527 0.8 0 0
0.111717 0.589024 0.077254 0.8 0 0
0.512981 0.579093 0.215933 0.8 0 0
0.427819 0.330799 0.308188 0.8 0 0
0.359804 0.364590 0.196425 0.8 0 0
0.435282 0.393545 0.327300 0.8 0 0
0.128021 0.559195 0.586178 0.8 0 0
0.523341 0.690507 0.378465 0.8 0 0
0.065186 0.844952 0.310623 0.8 0 0
0.109137 0.532232 0.538295 0.8 0 0
0.128798 0.470195 0.561246 0.8 0 0
0.235777 0.104948 0.477403 0.8 0 0
0.493371 0.567924 0.115864 0.8 0 0
0.207289 0.099281 0.482032 0.8 0 0
0.492645 0.651998 0.495485 0.8 0 0
0.508930 0.638558 0.110877 0.8 0 0
0.119491 0.579907 0.566815 0.8 0 0
0.227033 0.901436 0.136242 0.8 0 0
0.208616 0.866751 0.114653 0.8 0 0
0.256957 0.970492 0.267166 0.8 0 0
0.415807 0.655439 0.609107 0.8 0 0
0.232762 0.506740 0.641055 0.8 0 0
0.365710 0.824991 0.094896 0.8 0 0
0.145824 0.784624 0.582398 0.8 0 0
0.367117 0.485548 0.630166 0.8 0 0
0.384829 0.174515 0.382455 0.8 0 0
0.475426 0.516638 0.225138 0.8 0 0
0.395234 0.451454 0.119394 0.8 0 0
0.046838 0.775649 0.358832 0.8 0 0
0.039753 0.663247 0.282458 0.8 0 0
0.302252 0.577528 0.034246 0.8 0 0
0.202303 0.964593 0.293997 0.8 0 0
0.122088 0.437214 0.522683 0.8 0 0
0.455927 0.435345 0.451732 0.8 0 0
0.406997 0.946924 0.299896 0.8 0 0
0.282359 0.374665 0.650592 0.8 0 0
0.339576 0.967579 0.261371 0.8 0 0
0.208823 0.949027 0.205654 0.8 0 0
0.390709 0.477619 0.622051 0.8 0 0
0.438765 0.389472 0.441289 0.8 0 0
0.159444 0.359269 0.549383 0.8 0 0
0.163190 0.908201 0.178600 0.8 0 0
0.266716 0.234877 0.142586 0.8 0 0
0.508107 0.841374 0.321777 0.8 0 0
0.160974 0.219981 0.392510 0.8 0 0
0.140677 0.501870 0.112598 0.8 0 0
0.048152 0.776415 0.364832 0.8 0 0
0.248897 0.387083 0.508846 0.8 0 0
0.443514 0.596193 0.569889 0.8 0 0
0.264477 0.599273 0.636040 0.8 0 0
0.479902 0.506191 0.176962 0.8 0 0
0.093261 0.792170 0.527577 0.8 0 0
0.491948 0.510268 0.311635 0.8 0 0
0.033585 0.702691 0.258784 0.8 0 0
0.361422 0.201071 0.130296 0.8 0 0
0.278340 0.576160 0.033998 0.8 0 0
0.358819 0.887225 0.616068 0.8 0 0
0.435495 0.391576 0.265819 0.8 0 0
0.307416 0.466357 0.661318 0.8 0 0
0.080275 0.554354 0.291752 0.8 0 0
0.117355 0.183532 0.399809 0.8 0 0
0.108610 0.195396 0.318728 0.8 0 0
0.419980 0.936127 0.281042 0.8 0 0
0.320845 0.184640 0.351555 0.8 0 0
0.243319 0.942892 0.546977 0.8 0 0
0.229558 0.489388 0.515816 0.8 0 0
0.217890 0.564932 0.045180 0.8 0 0
0.354623 0.954700 0.481294 0.8 0 0
0.179365 0.458737 0.513830 0.8 0 0
0.343617 0.812885 0.626988 0.8 0 0
0.351334 0.072485 0.506018 0.8 0 0
0.059021 0.592208 0.148509 0.8 0 0
0.261710 0.381750 0.173751 0.8 0 0
0.299391 0.209059 0.189190 0.8 0 0
0.084842 0.846206 0.442409 0.8 0 0
0.214666 0.445021 0.115590 0.8 0 0
0.059813 0.606794 0.110496 0.8 0 0
0.369012 0.132522 0.454880 0.8 0 0
0.449030 0.196874 0.393680 0.8 0 0
0.507651 0.556929 0.346248 0.8 0 0
0.351811 0.364273 0.631033 0.8 0 0
0.492578 0.524938 0.395355 0.8 0 0
0.439729 0.142714 0.446554 0.8 0 0
0.105167 0.793406 0.549993 0.8 0 0
0.356599 0.316147 0.463886 0.8 0 0
0.338399 0.951772 0.503785 0.8 0 0
0.330518 0.414525 0.137282 0.8 0 0
0.490551 0.508157 0.397806 0.8 0 0
0.246067 0.348402 0.186168 0.8 0 0
0.149759 0.125570 0.461148 0.8 0 0
0.158447 0.431547 0.236340 0.8 0 0
0.297610 0.208315 0.279301 0.8 0 0
0.515517 0.753923 0.168396 0.8 0 0
0.329347 0.103590 0.478512 0.8 0 0
0.473781 0.575898 0.091941 0.8 0 0
0.069386 0.856853 0.308883 0.8 0 0
0.140513 0.336713 0.266811 0.8 0 0
0.537264 0.735449 0.248932 0.8 0 0
0.187525 0.295726 0.431057 0.8 0 0
0.173009 0.875505 0.582728 0.8 0 0
0.441163 0.250798 0.281764 0.8 0 0
0.257462 0.432673 0.647545 0.8 0 0
0.104978 0.625030 0.538690 0.8 0 0
0.140251 0.797271 0.105303 0.8 0 0
0.482878 0.616323 0.090120 0.8 0 0
0.451797 0.897574 0.474483 0.8 0 0
0.437170 0.402552 0.329180 0.8 0 0
0.248102 0.316270 0.182133 0.8 0 0
0.410164 0.838623 0.589125 0.8 0 0
0.314086 0.150715 0.440019 0.8 0 0
0.492843 0.538269 0.405210 0.8 0 0
0.100512 0.694916 0.092676 0.8 0 0
0.419683 0.141604 0.454726 0.8 0 0
0.341851 0.202081 0.138394 0.8 0 0
0.370513 0.477105 0.534276 0.8 0 0
0.263237 0.213920 0.224576 0.8 0 0
0.156797 0.304109 0.369640 0.8 0 0
0.506796 0.621057 0.414220 0.8 0 0
0.313286 0.952882 0.515618 0.8 0 0
0.288378 0.793921 0.641073 0.8 0 0
0.508232 0.542178 0.327395 0.8 0 0
0.309097 0.501191 0.069029 0.8 0 0
0.209262 0.425755 0.628596 0.8 0 0
0.143690 0.565572 0.065769 0.8 0 0
0.396026 0.674412 0.049868 0.8 0 0
0.240125 0.419952 0.131446 0.8 0 0
0.393466 0.462463 0.516773 0.8 0 0
0.446735 0.579604 0.576470 0.8 0 0
0.275888 0.400849 0.510306 0.8 0 0
0.147569 0.933982 0.420990 0.8 0 0
0.310353 0.213364 0.471548 0.8 0 0
0.299706 0.649627 0.648764 0.8 0 0
0.426838 0.544515 0.073643 0.8 0 0
0.334998 0.196492 0.458149 0.8 0 0
0.439666 0.215403 0.235370 0.8 0 0
0.266760 0.944566 0.552057 0.8 0 0
0.358351 0.274763 0.177512 0.8 0 0
0.526581 0.726507 0.198379 0.8 0 0
0.520094 0.781371 0.229125 0.8 0 0
0.252906 0.939541 0.182038 0.8 0 0
0.182307 0.413699 0.523921 0.8 0 0
0.472035 0.720203 0.097120 0.8 0 0
0.202605 0.927230 0.575802 0.8 0 0
0.282087 0.560485 0.674554 0.8 0 0
0.326845 0.249100 0.463206 0.8 0 0
0.378369 0.965047 0.346201 0.8 0 0
0.073558 0.776808 0.494787 0.8 0 0
0.519233 0.696641 0.157124 0.8 0 0
0.530559 0.695126 0.207710 0.8 0 0
0.496183 0.572789 0.422596 0.8 0 0
0.232258 0.398703 0.163419 0.8 0 0
0.113140 0.213854 0.262396 0.8 0 0
0.089065 0.566607 0.107344 0.8 0 0
0.075507 0.632643 0.102514 0.8 0 0
0.206687 0.779112 0.073199 0.8 0 0
0.137279 0.382387 0.518972 0.8 0 0
0.355341 0.315149 0.190143 0.8 0 0
0.255232 0.849957 0.636333 0.8 0 0
0.394363 0.963320 0.409298 0.8 0 0
0.453534 0.648176 0.567845 0.8 0 0
0.222478 0.812175 0.625158 0.8 0 0
0.329208 0.152356 0.438678 0.8 0 0
0.481450 0.502614 0.299912 0.8 0 0
0.514935 0.635114 0.120936 0.8 0 0
0.371549 0.608366 0.036155 0.8 0 0
0.411532 0.436449 0.188540 0.8 0 0
0.326706 0.616419 0.625822 0.8 0 0
0.215534 0.609989 0.034956 0.8 0 0
0.067090 0.828530 0.371110 0.8 0 0
0.348075 0.147464 0.442674 0.8 0 0
0.090390 0.885386 0.365536 0.8 0 0
0.430745 0.380776 0.310614 0.8 0 0
0.359470 0.447037 0.512165 0.8 0 0
0.378421 0.203036 0.295412 0.8 0 0
0.526033 0.624700 0.266122 0.8 0 0
0.045021 0.722185 0.378215 0.8 0 0
0.247277 0.215932 0.239221 0.8 0 0
0.032294 0.754450 0.316074 0.8 0 0
0.048406 0.650465 0.170607 0.8 0 0
0.477158 0.687312 0.533025 0.8 0 0
0.124192 0.201190 0.301044 0.8 0 0
0.253403 0.894032 0.119896 0.8 0 0
0.462216 0.901103 0.408924 0.8 0 0
0.109271 0.667464 0.555324 0.8 0 0
0.424114 0.587839 0.051303 0.8 0 0
0.422515 0.292268 0.338796 0.8 0 0
0.215547 0.783891 0.626433 0.8 0 0
0.255458 0.621355 0.632680 0.8 0 0
0.183453 0.490115 0.623315 0.8 0 0
0.515469 0.805202 0.366808 0.8 0 0
0.254936 0.157399 0.434559 0.8 0 0
0.312122 0.336879 0.181175 0.8 0 0
0.350651 0.476171 0.091130 0.8 0 0
0.391166 0.396152 0.221905 0.8 0 0
0.226429 0.370124 0.193617 0.8 0 0
0.250233 0.409356 0.141353 0.8 0 0
0.347074 0.768521 0.631033 0.8 0 0
0.163728 0.490972 0.097733 0.8 0 0
0.385854 0.161669 0.454641 0.8 0 0
0.185366 0.401439 0.536676 0.8 0 0
0.148452 0.378992 0.371224 0.8 0 0
0.426337 0.381639 0.253925 0.8 0 0
0.226708 0.308682 0.509164 0.8 0 0
0.271177 0.933494 0.167114 0.8 0 0
0.534995 0.680074 0.318131 0.8 0 0
0.520539 0.710959 0.166921 0.8 0 0
0.083748 0.800986 0.500382 0.8 0 0
0.450094 0.787948 0.568973 0.8 0 0
0.265426 0.955358 0.506817 0.8 0 0
0.373347 0.653559 0.624961 0.8 0 0
0.053136 0.712487 0.166276 0.8 0 0
0.450001 0.202441 0.368196 0.8 0 0
0.132468 0.720715 0.079348 0.8 0 0
0.347530 0.498323 0.076536 0.8 0 0
0.389916 0.946876 0.485836 0.8 0 0
0.195191 0.382238 0.550292 0.8 0 0
0.490366 0.532909 0.218733 0.8 0 0
0.291753 0.374642 0.174344 0.8 0 0
0.204393 0.730943 0.628319 0.8 0 0
0.430045 0.927947 0.269373 0.8 0 0
0.304695 0.595394 0.645266 0.8 0 0
0.380390 0.430364 0.572624 0.8 0 0
0.295025 0.158885 0.430156 0.8 0 0
0.078483 0.501874 0.320198 0.8 0 0
0.140897 0.792106 0.102315 0.8 0 0
0.178436 0.961203 0.425034 0.8 0 0
0.151046 0.455340 0.218546 0.8 0 0
0.459100 0.753951 0.098694 0.8 0 0
0.381454 0.463733 0.549884 0.8 0 0
0.292910 0.591182 0.658577 0.8 0 0
0.305212 0.836857 0.638328 0.8 0 0
0.380667 0.206382 0.169706 0.8 0 0
0.146179 0.916629 0.214323 0.8 0 0
0.310064 0.971253 0.259157 0.8 0 0
0.195451 0.284929 0.208592 0.8 0 0
0.397567 0.641264 0.609430 0.8 0 0
0.430569 0.492348 0.609076 0.8 0 0
0.379962 0.777789 0.616191 0.8 0 0
0.501233 0.859148 0.323710 0.8 0 0
0.462909 0.595318 0.547103 0.8 0 0
0.139980 0.373634 0.261221 0.8 0 0
0.461274 0.439724 0.369732 0.8 0 0
0.333556 0.457283 0.100658 0.8 0 0
0.519324 0.616700 0.138399 0.8 0 0
0.096177 0.649559 0.525378 0.8 0 0
0.531527 0.744402 0.228337 0.8 0 0
0.119220 0.539785 0.564086 0.8 0 0
0.068537 0.611770 0.417897 0.8 0 0
0.175099 0.596021 0.603256 0.8 0 0
0.520548 0.598500 0.324226 0.8 0 0
0.190846 0.491091 0.625733 0.8 0 0
0.081223 0.523356 0.397084 0.8 0 0
0.222073 0.538134 0.630132 0.8 0 0
0.456296 0.822450 0.549310 0.8 0 0
0.526206 0.640986 0.198712 0.8 0 0
0.396436 0.206825 0.172928 0.8 0 0
0.205462 0.320057 0.453551 0.8 0 0
0.259219 0.815768 0.634320 0.8 0 0
0.126847 0.404726 0.495115 0.8 0 0
0.115320 0.839824 0.539749 0.8 0 0
0.519595 0.804002 0.259528 0.8 0 0
0.311765 0.429171 0.641189 0.8 0 0
0.242051 0.161864 0.470755 0.8 0 0
0.170498 0.931472 0.203388 0.8 0 0
0.426693 0.208142 0.279828 0.8 0 0
0.070255 0.677921 0.470173 0.8 0 0
0.238226 0.363403 0.635977 0.8 0 0
0.276276 0.394204 0.595915 0.8 0 0
0.174839 0.922525 0.540750 0.8 0 0
0.353003 0.071848 0.504440 0.8 0 0
0.053554 0.612147 0.172066 0.8 0 0
0.269868 0.672240 0.654103 0.8 0 0
0.422847 0.520198 0.084642 0.8 0 0
0.153153 0.589353 0.047890 0.8 0 0
0.506097 0.841945 0.335337 0.8 0 0
0.527258 0.680859 0.188941 0.8 0 0
0.428917 0.923852 0.450483 0.8 0 0
0.076791 0.547773 0.238844 0.8 0 0
0.468684 0.466588 0.484202 0.8 0 0
0.050787 0.738024 0.415737 0.8 0 0
0.245614 0.640801 0.036877 0.8 0 0
0.149337 0.697352 0.065064 0.8 0 0
0.065123 0.837047 0.255359 0.8 0 0
0.232695 0.333157 0.188038 0.8 0 0
0.075010 0.536784 0.153665 0.8 0 0
0.343233 0.430360 0.615131 0.8 0 0
0.202265 0.577976 0.610703 0.8 0 0
0.378761 0.966047 0.394845 0.8 0 0
0.389577 0.909017 0.579824 0.8 0 0
0.143624 0.594860 0.582857 0.8 0 0
0.100567 0.477829 0.486330 0.8 0 0
0.322480 0.466588 0.093085 0.8 0 0
0.203552 0.477101 0.534435 0.8 0 0
0.415560 0.173557 0.385378 0.8 0 0
0.075283 0.793024 0.481917 0.8 0 0
0.392681 0.359812 0.229015 0.8 0 0
0.381127 0.965508 0.379604 0.8 0 0
0.160030 0.459200 0.610233 0.8 0 0
0.085929 0.866423 0.406794 0.8 0 0
0.270618 0.741842 0.050366 0.8 0 0
0.404988 0.272477 0.229644 0.8 0 0
0.137670 0.269059 0.277707 0.8 0 0
0.500951 0.805453 0.448337 0.8 0 0
0.389839 0.609410 0.038303 0.8 0 0
0.249271 0.810448 0.631461 0.8 0 0
0.251985 0.900296 0.616476 0.8 0 0
0.296382 0.081990 0.496155 0.8 0 0
0.261533 0.266356 0.161018 0.8 0 0
0.139081 0.864732 0.552905 0.8 0 0
0.458260 0.909218 0.357362 0.8 0 0
0.120625 0.421363 0.498843 0.8 0 0
0.514628 0.585713 0.207901 0.8 0 0
0.431646 0.659498 0.600250 0.8 0 0
0.361185 0.438765 0.595302 0.8 0 0
0.211540 0.315390 0.478048 0.8 0 0
0.132080 0.393030 0.472106 0.8 0 0
0.136850 0.379432 0.476537 0.8 0 0
0.410850 0.304715 0.380217 0.8 0 0
0.317676 0.970655 0.328488 0.8 0 0
0.203461 0.374588 0.206752 0.8 0 0
0.408888 0.883102 0.145749 0.8 0 0
0.271276 0.375673 0.536249 0.8 0 0
0.394751 0.684677 0.051451 0.8 0 0
0.051534 0.611070 0.225824 0.8 0 0
0.113230 0.187838 0.360688 0.8 0 0
0.364454 0.141220 0.447774 0.8 0 0
0.452426 0.163729 0.415372 0.8 0 0
0.150731 0.231132 0.215737 0.8 0 0
0.122717 0.489198 0.233976 0.8 0 0
0.137171 0.400717 0.531607 0.8 0 0
0.384386 0.869703 0.122856 0.8 0 0
0.133893 0.245145 0.306075 0.8 0 0
0.136188 0.380940 0.479199 0.8 0 0
0.256447 0.898334 0.618206 0.8 0 0
0.083812 0.696858 0.104115 0.8 0 0
0.073280 0.678229 0.485987 0.8 0 0
0.455570 0.860480 0.533184 0.8 0 0
0.189975 0.423009 0.148650 0.8 0 0
0.087111 0.878450 0.249468 0.8 0 0
0.062313 0.576162 0.187717 0.8 0 0
0.439080 0.924505 0.387779 0.8 0 0
0.442055 0.822115 0.123228 0.8 0 0
0.190910 0.472056 0.537061 0.8 0 0
0.069363 0.784240 0.470091 0.8 0 0
0.492395 0.527329 0.195720 0.8 0 0
0.402250 0.596962 0.602653 0.8 0 0
0.388665 0.720818 0.619451 0.8 0 0
0.514093 0.762014 0.454808 0.8 0 0
0.168089 0.408732 0.599692 0.8 0 0
0.152611 0.134968 0.452882 0.8 0 0
0.480445 0.526359 0.498218 0.8 0 0
0.370559 0.694714 0.050524 0.8 0 0
0.173109 0.898077 0.159148 0.8 0 0
0.322326 0.406663 0.510133 0.8 0 0
0.247149 0.082300 0.511749 0.8 0 0
0.260773 0.722392 0.645281 0.8 0 0
0.368335 0.579805 0.040673 0.8 0 0
0.182569 0.381473 0.599939 0.8 0 0
0.096105 0.613147 0.085881 0.8 0 0
0.148949 0.245092 0.373562 0.8 0 0
0.310590 0.211543 0.269449 0.8 0 0
0.056581 0.810368 0.342847 0.8 0 0
0.337130 0.946899 0.196025 0.8 0 0
0.326517 0.420104 0.129080 0.8 0 0
0.329513 0.413727 0.137951 0.8 0 0
0.398899 0.210017 0.196169 0.8 0 0
0.039107 0.680110 0.223982 0.8 0 0
0.416739 0.294927 0.257370 0.8 0 0
0.462021 0.438712 0.334386 0.8 0 0
0.146246 0.174355 0.382942 0.8 0 0
0.386405 0.566094 0.612214 0.8 0 0
0.059096 0.817327 0.254609 0.8 0 0
0.420264 0.613609 0.596108 0.8 0 0
0.227065 0.460613 0.100925 0.8 0 0
0.351328 0.453565 0.107400 0.8 0 0
0.300066 0.300688 0.498210 0.8 0 0
0.320451 0.379298 0.184945 0.8 0 0
0.348607 0.969095 0.409364 0.8 0 0
0.122347 0.426196 0.416141 0.8 0 0
0.187905 0.212440 0.266712 0.8 0 0
0.212325 0.343466 0.623300 0.8 0 0
0.067235 0.731354 0.119668 0.8 0 0
0.305496 0.204477 0.155839 0.8 0 0
0.358931 0.470307 0.631490 0.8 0 0
0.401697 0.895115 0.573213 0.8 0 0
0.158119 0.380753 0.562297 0.8 0 0
0.298959 0.412612 0.511124 0.8 0 0
0.354178 0.423020 0.632035 0.8 0 0
0.218221 0.963845 0.441353 0.8 0 0
0.136530 0.465712 0.575821 0.8 0 0
0.331998 0.399234 0.609427 0.8 0 0
0.111058 0.875943 0.500440 0.8 0 0
0.344427 0.221162 0.453411 0.8 0 0
0.192161 0.782928 0.614263 0.8 0 0
0.200205 0.644890 0.617293 0.8 0 0
0.351225 0.960221 0.458818 0.8 0 0
0.344892 0.793212 0.628210 0.8 0 0
0.123628 0.759694 0.572307 0.8 0 0
0.492970 0.627721 0.489636 0.8 0 0
0.510084 0.579915 0.127421 0.8 0 0
0.354615 0.498267 0.634974 0.8 0 0
0.149254 0.376394 0.371840 0.8 0 0
0.212672 0.440954 0.592215 0.8 0 0
0.200174 0.423495 0.603752 0.8 0 0
0.369844 0.278295 0.443750 0.8 0 0
0.385861 0.653939 0.622908 0.8 0 0
0.523496 0.740481 0.413681 0.8 0 0
0.366711 0.485561 0.630295 0.8 0 0
0.109167 0.494522 0.530711 0.8 0 0
0.356435 0.496712 0.634468 0.8 0 0
0.130815 0.213417 0.220917 0.8 0 0
0.250298 0.173974 0.384107 0.8 0 0
0.506569 0.681690 0.114199 0.8 0 0
0.320267 0.569588 0.636055 0.8 0 0
0.344129 0.761801 0.062249 0.8 0 0
0.067589 0.615344 0.415348 0.8 0 0
0.473413 0.791105 0.543273 0.8 0 0
0.244615 0.763921 0.061421 0.8 0 0
0.303496 0.320510 0.642079 0.8 0 0
0.499640 0.555197 0.249402 0.8 0 0
0.087703 0.553919 0.481872 0.8 0 0
0.111880 0.448228 0.473941 0.8 0 0
0.351770 0.967693 0.357019 0.8 0 0
0.507691 0.829192 0.359132 0.8 0 0
0.389345 0.651783 0.620330 0.8 0 0
0.186607 0.958040 0.452786 0.8 0 0
0.027801 0.724805 0.302021 0.8 0 0
0.177983 0.512118 0.619530 0.8 0 0
0.433588 0.274985 0.279410 0.8 0 0
0.391120 0.262788 0.406700 0.8 0 0
0.397383 0.531106 0.066177 0.8 0 0
0.317158 0.298006 0.471759 0.8 0 0
0.069870 0.747568 0.121665 0.8 0 0
0.450245 0.417635 0.470114 0.8 0 0
0.077747 0.547111 0.397538 0.8 0 0
0.114120 0.547230 0.098555 0.8 0 0
0.519463 0.597553 0.246858 0.8 0 0
0.120569 0.577483 0.076454 0.8 0 0
0.231968 0.062416 0.512144 0.8 0 0
0.248038 0.306331 0.533457 0.8 0 0
0.275318 0.499690 0.688216 0.8 0 0
0.119093 0.739824 0.573213 0.8 0 0
0.058819 0.592221 0.154096 0.8 0 0
0.473288 0.755017 0.553822 0.8 0 0
0.421115 0.647457 0.053565 0.8 0 0
0.380240 0.268414 0.197652 0.8 0 0
0.470230 0.466525 0.441798 0.8 0 0
0.505865 0.833642 0.360404 0.8 0 0
0.074101 0.626677 0.456394 0.8 0 0
0.227709 0.872104 0.625615 0.8 0 0
0.282690 0.212205 0.212092 0.8 0 0
0.055181 0.796822 0.366622 0.8 0 0
0.119773 0.912719 0.366520 0.8 0 0
0.129374 0.615772 0.062948 0.8 0 0
0.271685 0.678539 0.040013 0.8 0 0
0.062513 0.575060 0.191149 0.8 0 0
0.118673 0.488867 0.267311 0.8 0 0
0.439806 0.469280 0.200019 0.8 0 0
0.466796 0.656135 0.083477 0.8 0 0
0.272006 0.475503 0.084288 0.8 0 0
0.154032 0.635368 0.050212 0.8 0 0
0.138462 0.400569 0.534464 0.8 0 0
0.528205 0.652525 0.196505 0.8 0 0
0.341447 0.923668 0.165824 0.8 0 0
0.162841 0.753220 0.600285 0.8 0 0
0.142900 0.348095 0.291560 0.8 0 0
0.414928 0.132762 0.460187 0.8 0 0
0.282324 0.288629 0.483152 0.8 0 0
0.224252 0.968319 0.424569 0.8 0 0
0.302122 0.142371 0.446835 0.8 0 0
0.424551 0.375002 0.390977 0.8 0 0
0.207310 0.869833 0.620294 0.8 0 0
0.433748 0.367322 0.513872 0.8 0 0
0.183363 0.363762 0.515227 0.8 0 0
0.416340 0.904477 0.177890 0.8 0 0
0.138467 0.276089 0.267171 0.8 0 0
0.524979 0.694412 0.182388 0.8 0 0
0.415840 0.304102 0.256476 0.8 0 0
0.434487 0.268309 0.288422 0.8 0 0
0.416306 0.132247 0.455104 0.8 0 0
0.445332 0.241618 0.273581 0.8 0 0
0.407899 0.841000 0.590379 0.8 0 0
0.533152 0.675118 0.217290 0.8 0 0
0.373219 0.721963 0.055304 0.8 0 0
0.186537 0.099508 0.483524 0.8 0 0
0.381691 0.240269 0.176240 0.8 0 0
0.217892 0.311043 0.591255 0.8 0 0
0.057284 0.816798 0.330092 0.8 0 0
0.536017 0.764854 0.278560 0.8 0 0
0.378719 0.165602 0.409656 0.8 0 0
0.051059 0.810849 0.299839 0.8 0 0
0.467094 0.895395 0.422404 0.8 0 0
0.385110 0.511346 0.073776 0.8 0 0
0.343954 0.897011 0.129013 0.8 0 0
0.267161 0.533903 0.686793 0.8 0 0
0.065214 0.810738 0.397436 0.8 0 0
0.224618 0.203270 0.147051 0.8 0 0
0.184974 0.258776 0.199268 0.8 0 0
0.196507 0.435137 0.588261 0.8 0 0
0.129768 0.746847 0.086024 0.8 0 0
0.253078 0.062566 0.526256 0.8 0 0
0.344776 0.393343 0.508945 0.8 0 0
0.411812 0.280968 0.244513 0.8 0 0
0.067808 0.788655 0.173898 0.8 0 0
0.427889 0.367150 0.451079 0.8 0 0
0.400227 0.558505 0.054265 0.8 0 0
0.238625 0.373776 0.537931 0.8 0 0
0.459051 0.845136 0.144702 0.8 0 0
0.488787 0.710496 0.105100 0.8 0 0
0.071082 0.574270 0.294037 0.8 0 0
0.406467 0.660223 0.615173 0.8 0 0
0.067608 0.795232 0.439761 0.8 0 0
0.480446 0.822303 0.145808 0.8 0 0
0.379287 0.898382 0.145613 0.8 0 0
0.382465 0.433748 0.563649 0.8 0 0
0.305643 0.386201 0.571679 0.8 0 0
0.204452 0.365866 0.520226 0.8 0 0
0.282805 0.810766 0.639566 0.8 0 0
0.278360 0.932656 0.585650 0.8 0 0
0.098794 0.548793 0.516581 0.8 0 0
0.456112 0.210063 0.273967 0.8 0 0
0.448411 0.905323 0.233422 0.8 0 0
0.480621 0.711677 0.530683 0.8 0 0
0.470733 0.653545 0.539621 0.8 0 0
0.418636 0.346652 0.494781 0.8 0 0
0.302981 0.090014 0.489601 0.8 0 0
0.277600 0.544585 0.046662 0.8 0 0
0.056722 0.595777 0.184001 0.8 0 0
0.459598 0.801492 0.122990 0.8 0 0
0.488594 0.540711 0.444727 0.8 0 0
0.253729 0.956476 0.204626 0.8 0 0
0.180280 0.707815 0.618761 0.8 0 0
0.181566 0.316393 0.519431 0.8 0 0
0.190553 0.446511 0.562618 0.8 0 0
0.425737 0.460323 0.240793 0.8 0 0
0.219903 0.592663 0.612356 0.8 0 0
0.281738 0.454924 0.598059 0.8 0 0
0.043939 0.768701 0.254120 0.8 0 0
0.105498 0.531826 0.529441 0.8 0 0
0.367511 0.425002 0.626105 0.8 0 0
0.052752 0.607293 0.212876 0.8 0 0
0.489764 0.655350 0.501531 0.8 0 0
0.400424 0.951354 0.293410 0.8 0 0
0.537741 0.702577 0.242089 0.8 0 0
0.193625 0.216199 0.241169 0.8 0 0
0.368553 0.202250 0.132101 0.8 0 0
0.422036 0.330232 0.258543 0.8 0 0
0.345298 0.868856 0.112842 0.8 0 0
0.126910 0.454622 0.545973 0.8 0 0
0.332710 0.311064 0.618347 0.8 0 0
0.457125 0.514833 0.552215 0.8 0 0
0.168555 0.870358 0.580430 0.8 0 0
0.385363 0.884360 0.131784 0.8 0 0
0.129162 0.523584 0.104700 0.8 0 0
0.184708 0.552787 0.055165 0.8 0 0
0.374857 0.244695 0.171957 0.8 0 0
0.332548 0.307473 0.574940 0.8 0 0
0.374976 0.966093 0.423004 0.8 0 0
0.427534 0.288242 0.268688 0.8 0 0
0.086046 0.769314 0.123116 0.8 0 0
0.346463 0.216704 0.244842 0.8 0 0
0.147650 0.766634 0.085476 0.8 0 0
0.136069 0.263125 0.280093 0.8 0 0
0.075954 0.792572 0.155441 0.8 0 0
0.348887 0.584900 0.613107 0.8 0 0
0.429916 0.210887 0.202500 0.8 0 0
0.456364 0.907976 0.392455 0.8 0 0
0.459093 0.667642 0.562520 0.8 0 0
0.176053 0.167069 0.405178 0.8 0 0
0.229300 0.826120 0.092844 0.8 0 0
0.499367 0.802166 0.463392 0.8 0 0
0.428027 0.254581 0.241303 0.8 0 0
0.121701 0.734011 0.088149 0.8 0 0
0.380119 0.136033 0.468254 0.8 0 0
0.051839 0.728846 0.413911 0.8 0 0
0.386701 0.738301 0.059505 0.8 0 0
0.407482 0.334915 0.531936 0.8 0 0
0.141061 0.365391 0.515696 0.8 0 0
0.346309 0.229680 0.145965 0.8 0 0
0.468976 0.856412 0.502404 0.8 0 0
0.309091 0.379125 0.176786 0.8 0 0
0.220367 0.374406 0.631026 0.8 0 0
0.524047 0.742698 0.191441 0.8 0 0
0.056861 0.720718 0.430841 0.8 0 0
0.476916 0.851002 0.481834 0.8 0 0
0.463657 0.512063 0.269020 0.8 0 0
0.379785 0.131327 0.455856 0.8 0 0
0.105685 0.899273 0.370022 0.8 0 0
0.349296 0.798411 0.626490 0.8 0 0
0.435243 0.520616 0.605402 0.8 0 0
0.292278 0.133613 0.453988 0.8 0 0
0.425586 0.223593 0.212755 0.8 0 0
0.240651 0.366949 0.190082 0.8 0 0
0.309564 0.709087 0.647799 0.8 0 0
0.509793 0.827967 0.249035 0.8 0 0
0.359788 0.202642 0.142482 0.8 0 0
0.316626 0.313655 0.630808 0.8 0 0
0.299695 0.461663 0.514660 0.8 0 0
0.079160 0.827849 0.444414 0.8 0 0
0.313123 0.394308 0.509479 0.8 0 0
0.104676 0.902487 0.317373 0.8 0 0
0.166528 0.347752 0.549981 0.8 0 0
0.517332 0.654343 0.136992 0.8 0 0
0.179132 0.959318 0.346765 0.8 0 0
0.234459 0.665804 0.042265 0.8 0 0
0.056227 0.605983 0.134260 0.8 0 0
0.317290 0.385215 0.171295 0.8 0 0
0.366965 0.453468 0.627555 0.8 0 0
0.338747 0.391269 0.508903 0.8 0 0
0.328300 0.442444 0.110305 0.8 0 0
0.521329 0.797006 0.346650 0.8 0 0
0.366046 0.305180 0.201705 0.8 0 0
0.219516 0.160818 0.424255 0.8 0 0
0.195908 0.671297 0.631424 0.8 0 0
0.152544 0.128334 0.458300 0.8 0 0
0.307014 0.202768 0.143396 0.8 0 0
0.336204 0.933202 0.177365 0.8 0 0
0.105033 0.449169 0.362068 0.8 0 0
0.436322 0.189413 0.336989 0.8 0 0
0.072307 0.527286 0.348108 0.8 0 0
0.375966 0.161829 0.457294 0.8 0 0
0.458158 0.487157 0.157933 0.8 0 0
0.313172 0.891195 0.623211 0.8 0 0
0.502182 0.789299 0.471395 0.8 0 0
0.528964 0.645824 0.244392 0.8 0 0
0.226722 0.385315 0.193097 0.8 0 0
0.052804 0.709954 0.167079 0.8 0 0
0.496992 0.709115 0.110671 0.8 0 0
0.209915 0.330378 0.609921 0.8 0 0
0.294625 0.664152 0.036863 0.8 0 0
0.036139 0.740613 0.351189 0.8 0 0
0.432813 0.482026 0.131156 0.8 0 0
0.527483 0.780726 0.262206 0.8 0 0
0.060282 0.662818 0.408796 0.8 0 0
0.376028 0.381211 0.507703 0.8 0 0
0.512560 0.575868 0.230600 0.8 0 0
0.185406 0.320663 0.481595 0.8 0 0
0.209164 0.168643 0.400375 0.8 0 0
0.068276 0.762686 0.137606 0.8 0 0
0.131259 0.676178 0.071314 0.8 0 0
0.253248 0.058880 0.516165 0.8 0 0
0.508036 0.604770 0.395664 0.8 0 0
0.367427 0.900032 0.140410 0.8 0 0
0.466803 0.225213 0.251118 0.8 0 0
0.429550 0.816394 0.579239 0.8 0 0
0.484624 0.641038 0.094188 0.8 0 0
0.476063 0.869103 0.199310 0.8 0 0
0.163329 0.754227 0.069977 0.8 0 0
0.485217 0.864164 0.428138 0.8 0 0
0.072445 0.567813 0.296685 0.8 0 0
0.508397 0.588673 0.112455 0.8 0 0
0.135570 0.926036 0.383100 0.8 0 0
0.205888 0.965043 0.299848 0.8 0 0
0.095407 0.781467 0.539814 0.8 0 0
0.240912 0.925386 0.594409 0.8 0 0
0.299345 0.534772 0.050961 0.8 0 0
0.388569 0.468636 0.513110 0.8 0 0
0.067765 0.589058 0.390995 0.8 0 0
0.517776 0.828041 0.286289 0.8 0 0
0.129399 0.891501 0.530388 0.8 0 0
0.412825 0.115634 0.468675 0.8 0 0
0.081740 0.605990 0.481456 0.8 0 0
0.124710 0.782332 0.106914 0.8 0 0
0.372356 0.231032 0.421572 0.8 0 0
0.464199 0.710591 0.090728 0.8 0 0
0.244267 0.614371 0.621691 0.8 0 0
0.088879 0.524701 0.465495 0.8 0 0
0.261051 0.907415 0.614781 0.8 0 0
0.112761 0.705679 0.565226 0.8 0 0
0.367814 0.671601 0.636408 0.8 0 0
0.438141 0.401778 0.528063 0.8 0 0
0.218739 0.310885 0.560202 0.8 0 0
0.322663 0.969670 0.257258 0.8 0 0
0.185350 0.305579 0.431332 0.8 0 0
0.152440 0.370072 0.542927 0.8 0 0
0.156462 0.919396 0.197512 0.8 0 0
0.504889 0.848720 0.325422 0.8 0 0
0.408725 0.604863 0.602065 0.8 0 0
0.122312 0.912962 0.391294 0.8 0 0
0.507339 0.567577 0.306158 0.8 0 0
0.155909 0.195163 0.319439 0.8 0 0
0.493103 0.503877 0.371499 0.8 0 0
0.335859 0.430088 0.620016 0.8 0 0
0.465022 0.441589 0.348771 0.8 0 0
0.242525 0.081943 0.496194 0.8 0 0
0.318327 0.126068 0.492851 0.8 0 0
0.284818 0.810801 0.077325 0.8 0 0
0.443803 0.530130 0.097960 0.8 0 0
0.056643 0.608937 0.354658 0.8 0 0
0.124744 0.475633 0.270414 0.8 0 0
0.317686 0.962144 0.465970 0.8 0 0
0.260774 0.393400 0.597032 0.8 0 0
0.238415 0.774496 0.633031 0.8 0 0
0.051315 0.780683 0.374767 0.8 0 0
0.042100 0.687561 0.340087 0.8 0 0
0.350480 0.922405 0.597328 0.8 0 0
0.355305 0.911822 0.605482 0.8 0 0
0.169788 0.928380 0.199922 0.8 0 0
0.402626 0.112885 0.472909 0.8 0 0
0.491421 0.661472 0.101290 0.8 0 0
0.279238 0.895108 0.625876 0.8 0 0
0.258392 0.202085 0.298312 0.8 0 0
0.286950 0.398791 0.608511 0.8 0 0
0.453555 0.570687 0.568528 0.8 0 0
0.163945 0.649996 0.610577 0.8 0 0
0.326235 0.755758 0.057227 0.8 0 0
0.392278 0.949855 0.469515 0.8 0 0
0.393932 0.472461 0.515364 0.8 0 0
0.139247 0.828642 0.569079 0.8 0 0
0.395253 0.752349 0.063890 0.8 0 0
0.264982 0.537227 0.050994 0.8 0 0
0.435965 0.378907 0.466244 0.8 0 0
0.430781 0.448054 0.577460 0.8 0 0
0.417495 0.943716 0.398612 0.8 0 0
0.039937 0.673796 0.231605 0.8 0 0
0.128105 0.625024 0.064901 0.8 0 0
0.529095 0.656352 0.201300 0.8 0 0
0.095181 0.811829 0.518058 0.8 0 0
0.314685 0.966987 0.445361 0.8 0 0
0.344303 0.065123 0.509934 0.8 0 0
0.366610 0.699336 0.633547 0.8 0 0
0.039417 0.712283 0.345688 0.8 0 0
0.200489 0.432030 0.600524 0.8 0 0
0.521642 0.606233 0.240715 0.8 0 0
0.275164 0.316126 0.175117 0.8 0 0
0.328928 0.704724 0.047390 0.8 0 0
0.100641 0.845615 0.502882 0.8 0 0
0.484742 0.788316 0.520189 0.8 0 0
0.051485 0.601439 0.285151 0.8 0 0
0.398136 0.788151 0.083102 0.8 0 0
0.100221 0.216882 0.246142 0.8 0 0
0.082183 0.606879 0.484700 0.8 0 0
0.294577 0.973172 0.256331 0.8 0 0
0.115741 0.197779 0.339687 0.8 0 0
0.192447 0.957213 0.221632 0.8 0 0
0.269377 0.201533 0.134404 0.8 0 0
0.472699 0.453652 0.350898 0.8 0 0
0.142616 0.557914 0.599099 0.8 0 0
0.436222 0.461472 0.176598 0.8 0 0
0.469883 0.703866 0.551276 0.8 0 0
0.064326 0.830492 0.344747 0.8 0 0
0.113679 0.441262 0.390722 0.8 0 0
0.244010 0.596939 0.617746 0.8 0 0
0.215447 0.936669 0.187392 0.8 0 0
0.082560 0.829507 0.460538 0.8 0 0
0.529484 0.692337 0.202107 0.8 0 0
0.368978 0.842356 0.621257 0.8 0 0
0.480220 0.473743 0.398206 0.8 0 0
0.310544 0.485916 0.078990 0.8 0 0
0.292698 0.169757 0.396977 0.8 0 0
0.122071 0.484410 0.264489 0.8 0 0
0.218964 0.510352 0.069886 0.8 0 0
0.192427 0.102079 0.479746 0.8 0 0
0.255712 0.436780 0.651823 0.8 0 0
0.395535 0.124634 0.469351 0.8 0 0
0.280213 0.278948 0.481833 0.8 0 0
0.418488 0.818326 0.589648 0.8 0 0
0.254575 0.368481 0.187308 0.8 0 0
0.424323 0.934911 0.426982 0.8 0 0
0.199357 0.387215 0.560571 0.8 0 0
0.277558 0.300663 0.507969 0.8 0 0
0.122413 0.857146 0.539292 0.8 0 0
0.517591 0.604897 0.148215 0.8 0 0
0.339590 0.523985 0.060974 0.8 0 0
0.111428 0.907150 0.312447 0.8 0 0
0.132850 0.256909 0.271769 0.8 0 0
0.131777 0.414860 0.529184 0.8 0 0
0.495290 0.549179 0.297432 0.8 0 0
0.361929 0.669473 0.045362 0.8 0 0
0.153972 0.209301 0.276290 0.8 0 0
0.101931 0.849098 0.155819 0.8 0 0
0.370657 0.313113 0.508999 0.8 0 0
0.501083 0.600586 0.101020 0.8 0 0
0.524892 0.746267 0.200491 0.8 0 0
0.507396 0.846992 0.311361 0.8 0 0
0.205238 0.574271 0.042863 0.8 0 0
0.111933 0.448822 0.467536 0.8 0 0
0.497485 0.824486 0.198367 0.8 0 0
0.058541 0.591581 0.167212 0.8 0 0
0.452847 0.887722 0.518444 0.8 0 0
0.099647 0.872563 0.465311 0.8 0 0
0.464574 0.900095 0.395022 0.8 0 0
0.481439 0.815268 0.142810 0.8 0 0
0.142495 0.366992 0.476099 0.8 0 0
0.231966 0.181766 0.360327 0.8 0 0
0.301332 0.146160 0.443740 0.8 0 0
0.500931 0.659477 0.469701 0.8 0 0
0.203919 0.464792 0.555669 0.8 0 0
0.082925 0.831927 0.188074 0.8 0 0
0.110391 0.440178 0.357466 0.8 0 0
0.402526 0.365832 0.236360 0.8 0 0
0.065736 0.564439 0.354047 0.8 0 0
0.148621 0.770430 0.587153 0.8 0 0
0.143975 0.447025 0.246073 0.8 0 0
0.302213 0.386050 0.570352 0.8 0 0
0.197550 0.505643 0.626886 0.8 0 0
0.176007 0.807863 0.601498 0.8 0 0
0.290384 0.140744 0.448163 0.8 0 0
0.442545 0.865642 0.544162 0.8 0 0
0.057287 0.595830 0.167619 0.8 0 0
0.112917 0.489537 0.538434 0.8 0 0
0.509828 0.801705 0.405165 0.8 0 0
0.083835 0.519944 0.416886 0.8 0 0
0.211467 0.967691 0.400468 0.8 0 0
0.166030 0.216221 0.241329 0.8 0 0
0.536531 0.737570 0.352487 0.8 0 0
0.302033 0.973139 0.400687 0.8 0 0
0.068930 0.820894 0.399560 0.8 0 0
