0.527664 0.823252 0.225404 0.8 0 0
0.167188 0.162816 0.402187 0.8 0 0
0.289968 0.870977 0.161286 0.8 0 0
0.115988 0.388989 0.289758 0.8 0 0
0.230270 0.137876 0.645562 0.8 0 0
0.270071 0.108571 0.584481 0.8 0 0
0.621657 0.534211 0.370836 0.8 0 0
0.224294 0.287115 0.198556 0.8 0 0
0.038737 0.669336 0.397158 0.8 0 0
0.501838 0.549757 0.638582 0.8 0 0
0.440879 0.709264 0.083144 0.8 0 0
0.386343 0.844327 0.695709 0.8 0 0
0.141163 0.345107 0.228386 0.8 0 0
0.360865 0.039984 0.433154 0.8 0 0
0.068101 0.738399 0.345079 0.8 0 0
0.553598 0.692578 0.513422 0.8 0 0
0.162123 0.254206 0.278752 0.8 0 0
0.390841 0.253579 0.705730 0.8 0 0
0.201043 0.843083 0.596988 0.8 0 0
0.545791 0.589641 0.554409 0.8 0 0
0.393657 0.881760 0.195560 0.8 0 0
0.611020 0.703079 0.337638 0.8 0 0
0.169295 0.856011 0.212500 0.8 0 0
0.205422 0.109874 0.192698 0.8 0 0
0.127166 0.318550 0.522635 0.8 0 0
0.564474 0.484922 0.488944 0.8 0 0
0.352010 0.260037 0.732572 0.8 0 0
0.134720 0.444991 0.601661 0.8 0 0
0.119669 0.599652 0.552455 0.8 0 0
0.596879 0.423394 0.318344 0.8 0 0
0.524756 0.212375 0.486834 0.8 0 0
0.606231 0.418978 0.357857 0.8 0 0
0.470344 0.280481 0.294567 0.8 0 0
0.534289 0.506425 0.588959 0.8 0 0
0.494299 0.358734 0.111257 0.8 0 0
0.211263 0.893276 0.403408 0.8 0 0
0.435885 0.539546 0.068781 0.8 0 0
0.271520 0.288476 0.710831 0.8 0 0
0.390962 0.827556 0.685666 0.8 0 0
0.479436 0.109741 0.269033 0.8 0 0
0.316720 0.871033 0.161375 0.8 0 0
0.065961 0.540027 0.200090 0.8 0 0
0.354369 0.599761 0.032178 0.8 0 0
0.270526 0.745722 0.069776 0.8 0 0
0.061458 0.602499 0.238438 0.8 0 0
0.556239 0.324803 0.364220 0.8 0 0
0.399155 0.305784 0.079012 0.8 0 0
0.557720 0.405580 0.177998 0.8 0 0
0.632520 0.492816 0.310966 0.8 0 0
0.547239 0.478156 0.558203 0.8 0 0
0.485864 0.119732 0.393734 0.8 0 0
0.616671 0.424104 0.339535 0.8 0 0
0.329591 0.284471 0.206461 0.8 0 0
0.295582 0.237897 0.530649 0.8 0 0
0.337751 0.972553 0.727976 0.8 0 0
0.271344 0.291693 0.120694 0.8 0 0
0.494604 0.191662 0.238902 0.8 0 0
0.036923 0.639735 0.288410 0.8 0 0
0.103283 0.424943 0.495377 0.8 0 0
0.305081 0.445377 0.711793 0.8 0 0
0.431765 0.293197 0.085416 0.8 0 0
0.502563 0.333892 0.131534 0.8 0 0
0.621472 0.500277 0.310615 0.8 0 0
0.571368 0.755225 0.240429 0.8 0 0
0.385993 0.284298 0.169603 0.8 0 0
0.039193 0.452277 0.308720 0.8 0 0
0.541928 0.234557 0.435605 0.8 0 0
0.302528 0.632627 0.044239 0.8 0 0
0.151335 0.291790 0.559541 0.8 0 0
0.198284 0.876692 0.226788 0.8 0 0
0.279658 0.046718 0.334447 0.8 0 0
0.422483 0.806794 0.640612 0.8 0 0
0.556656 0.366641 0.328468 0.8 0 0
0.455262 0.823462 0.645767 0.8 0 0
0.230616 0.840422 0.671570 0.8 0 0
0.544401 0.301927 0.483707 0.8 0 0
0.285724 0.252706 0.520384 0.8 0 0
0.507995 0.221974 0.305883 0.8 0 0
0.556894 0.809862 0.429295 0.8 0 0
0.168984 0.586552 0.650116 0.8 0 0
0.304347 0.280712 0.221669 0.8 0 0
0.599344 0.731898 0.456754 0.8 0 0
0.519334 0.456900 0.614495 0.8 0 0
0.489810 0.215446 0.439881 0.8 0 0
0.405059 0.412358 0.690128 0.8 0 0
0.488711 0.209362 0.443264 0.8 0 0
0.177271 0.312206 0.177590 0.8 0 0
0.151953 0.783924 0.160277 0.8 0 0
0.130356 0.374139 0.160647 0.8 0 0
0.307954 0.074373 0.214730 0.8 0 0
0.104026 0.410809 0.291195 0.8 0 0
0.170471 0.135689 0.293818 0.8 0 0
0.406794 0.844945 0.140257 0.8 0 0
0.278037 0.038115 0.375485 0.8 0 0
0.222577 0.130601 0.609019 0.8 0 0
0.051425 0.563978 0.344168 0.8 0 0
0.491174 0.168794 0.237224 0.8 0 0
0.463304 0.850114 0.549919 0.8 0 0
0.392626 0.529390 0.048702 0.8 0 0
0.145080 0.374487 0.144838 0.8 0 0
0.366985 0.713263 0.057119 0.8 0 0
0.538265 0.471001 0.578164 0.8 0 0
0.303323 0.894281 0.524902 0.8 0 0
0.347430 0.921957 0.275923 0.8 0 0
0.630206 0.544819 0.270183 0.8 0 0
0.371466 0.960559 0.695048 0.8 0 0
0.280621 0.109685 0.481089 0.8 0 0
0.058189 0.707768 0.266722 0.8 0 0
0.363408 0.486508 0.696803 0.8 0 0
0.069933 0.452349 0.358602 0.8 0 0
0.443921 0.066094 0.424347 0.8 0 0
0.178788 0.277168 0.357340 0.8 0 0
0.436041 0.764926 0.093149 0.8 0 0
0.180845 0.660138 0.629997 0.8 0 0
0.232708 0.686665 0.664630 0.8 0 0
0.050446 0.648130 0.444979 0.8 0 0
0.540515 0.359414 0.170931 0.8 0 0
0.489179 0.520079 0.653812 0.8 0 0
0.492822 0.336224 0.614264 0.8 0 0
0.427735 0.864709 0.655937 0.8 0 0
0.180411 0.816764 0.168924 0.8 0 0
0.230637 0.081694 0.227937 0.8 0 0
0.532204 0.733235 0.579903 0.8 0 0
0.172614 0.185727 0.224490 0.8 0 0
0.579702 0.776700 0.416716 0.8 0 0
0.262525 0.749892 0.656140 0.8 0 0
0.228167 0.225727 0.505570 0.8 0 0
0.529615 0.271751 0.504456 0.8 0 0
0.348454 0.273334 0.310085 0.8 0 0
0.544304 0.283508 0.480910 0.8 0 0
0.281027 0.463948 0.061319 0.8 0 0
0.566190 0.336478 0.360780 0.8 0 0
0.410014 0.060471 0.261645 0.8 0 0
0.047271 0.657930 0.346505 0.8 0 0
0.368797 0.810595 0.103258 0.8 0 0
0.209617 0.348855 0.103103 0.8 0 0
0.277193 0.344371 0.718388 0.8 0 0
0.192600 0.394403 0.677362 0.8 0 0
0.336228 0.914644 0.236382 0.8 0 0
0.060536 0.730716 0.391365 0.8 0 0
0.146895 0.453251 0.618780 0.8 0 0
0.284824 0.910676 0.375309 0.8 0 0
0.260969 0.288325 0.121065 0.8 0 0
0.283141 0.445252 0.061411 0.8 0 0
0.054474 0.498648 0.376034 0.8 0 0
0.140266 0.852588 0.369854 0.8 0 0
0.632460 0.623170 0.363244 0.8 0 0
0.446183 0.271400 0.386855 0.8 0 0
0.127474 0.830744 0.431892 0.8 0 0
0.580917 0.781177 0.347296 0.8 0 0
0.138586 0.291342 0.535674 0.8 0 0
0.421039 0.873961 0.578015 0.8 0 0
0.568403 0.437948 0.286578 0.8 0 0
0.430129 0.717747 0.079843 0.8 0 0
0.481716 0.146911 0.435279 0.8 0 0
0.245941 0.620344 0.694829 0.8 0 0
0.225965 0.712440 0.644589 0.8 0 0
0.582773 0.689780 0.194530 0.8 0 0
0.465553 0.130826 0.451908 0.8 0 0
0.568431 0.334141 0.412671 0.8 0 0
0.075659 0.569837 0.418495 0.8 0 0
0.263822 0.702988 0.676464 0.8 0 0
0.098184 0.565840 0.166145 0.8 0 0
0.170810 0.124436 0.343162 0.8 0 0
0.169394 0.292767 0.255176 0.8 0 0
0.153567 0.411501 0.639303 0.8 0 0
0.319852 0.897476 0.619650 0.8 0 0
0.498197 0.649707 0.616705 0.8 0 0
0.176206 0.222810 0.218606 0.8 0 0
0.062659 0.733172 0.379540 0.8 0 0
0.636310 0.536420 0.341108 0.8 0 0
0.393515 0.435497 0.054545 0.8 0 0
0.048232 0.671890 0.334843 0.8 0 0
0.519667 0.852425 0.402148 0.8 0 0
0.545004 0.688617 0.142743 0.8 0 0
0.314338 0.521037 0.036016 0.8 0 0
0.161166 0.351567 0.134180 0.8 0 0
0.278162 0.836831 0.717784 0.8 0 0
0.164492 0.877485 0.329618 0.8 0 0
0.137229 0.336510 0.557302 0.8 0 0
0.540875 0.230738 0.450149 0.8 0 0
0.104461 0.315143 0.442775 0.8 0 0
0.118654 0.358934 0.176868 0.8 0 0
0.106832 0.507123 0.163446 0.8 0 0
0.417199 0.691737 0.672242 0.8 0 0
0.415926 0.251044 0.516158 0.8 0 0
0.057981 0.719560 0.463520 0.8 0 0
0.193115 0.285248 0.248760 0.8 0 0
0.186789 0.265987 0.604851 0.8 0 0
0.088256 0.591170 0.472762 0.8 0 0
0.183301 0.204307 0.576957 0.8 0 0
0.520454 0.248782 0.342763 0.8 0 0
0.185370 0.187826 0.460307 0.8 0 0
0.563004 0.335401 0.356046 0.8 0 0
0.481152 0.882034 0.400637 0.8 0 0
0.541499 0.599152 0.141174 0.8 0 0
0.611309 0.511452 0.353835 0.8 0 0
0.107693 0.408348 0.284524 0.8 0 0
0.290462 0.534722 0.049002 0.8 0 0
0.335243 0.630501 0.708095 0.8 0 0
0.046418 0.605754 0.370301 0.8 0 0
0.558598 0.637982 0.152171 0.8 0 0
0.521464 0.367787 0.247959 0.8 0 0
0.500884 0.668362 0.109120 0.8 0 0
0.361176 0.491754 0.038194 0.8 0 0
0.054227 0.715529 0.446938 0.8 0 0
0.115332 0.785095 0.564669 0.8 0 0
0.351568 0.933312 0.394208 0.8 0 0
0.161161 0.835030 0.500693 0.8 0 0
0.293926 0.266006 0.360197 0.8 0 0
0.259835 0.111147 0.613295 0.8 0 0
0.056650 0.565970 0.235834 0.8 0 0
0.280196 0.554175 0.698065 0.8 0 0
0.309809 0.038803 0.363586 0.8 0 0
0.116544 0.584299 0.552362 0.8 0 0
0.192674 0.675920 0.635217 0.8 0 0
0.256144 0.146065 0.683369 0.8 0 0
0.102451 0.668463 0.173767 0.8 0 0
0.247719 0.852709 0.682149 0.8 0 0
0.307026 0.154623 0.501036 0.8 0 0
0.218736 0.276503 0.111430 0.8 0 0
0.461516 0.238174 0.194459 0.8 0 0
0.587365 0.409505 0.391068 0.8 0 0
0.071637 0.722855 0.317529 0.8 0 0
0.479236 0.349917 0.098510 0.8 0 0
0.584244 0.780213 0.388226 0.8 0 0
0.262316 0.577806 0.063214 0.8 0 0
0.065584 0.739783 0.423365 0.8 0 0
0.475628 0.282083 0.204009 0.8 0 0
0.112684 0.786167 0.216492 0.8 0 0
0.385877 0.484486 0.661406 0.8 0 0
0.210010 0.260735 0.492810 0.8 0 0
0.266598 0.207398 0.131785 0.8 0 0
0.252467 0.036881 0.390555 0.8 0 0
0.381135 0.688918 0.053925 0.8 0 0
0.301196 0.792913 0.674064 0.8 0 0
0.043364 0.615161 0.279286 0.8 0 0
0.616975 0.424497 0.310473 0.8 0 0
0.226084 0.274689 0.323216 0.8 0 0
0.338868 0.822501 0.698428 0.8 0 0
0.583933 0.506762 0.189102 0.8 0 0
0.465100 0.307354 0.163548 0.8 0 0
0.152371 0.660122 0.592506 0.8 0 0
0.569768 0.406552 0.226578 0.8 0 0
0.313357 0.108573 0.552913 0.8 0 0
0.073269 0.482494 0.362648 0.8 0 0
0.354532 0.509093 0.705248 0.8 0 0
0.347483 0.973259 0.725317 0.8 0 0
0.484197 0.293686 0.230141 0.8 0 0
0.374198 0.240589 0.130656 0.8 0 0
0.413047 0.320595 0.076954 0.8 0 0
0.505010 0.174136 0.434914 0.8 0 0
0.540226 0.737700 0.155079 0.8 0 0
0.177485 0.260237 0.588688 0.8 0 0
0.517615 0.684182 0.121432 0.8 0 0
0.268776 0.075154 0.213011 0.8 0 0
0.242778 0.882762 0.206625 0.8 0 0
0.179602 0.840790 0.494871 0.8 0 0
0.353112 0.399258 0.774035 0.8 0 0
0.335267 0.748011 0.056586 0.8 0 0
0.461905 0.681269 0.086887 0.8 0 0
0.365949 0.921859 0.358937 0.8 0 0
0.488515 0.278235 0.590027 0.8 0 0
0.050106 0.447698 0.347788 0.8 0 0
0.393674 0.183198 0.513022 0.8 0 0
0.254427 0.680168 0.064471 0.8 0 0
0.490950 0.524662 0.101872 0.8 0 0
0.373131 0.923284 0.328503 0.8 0 0
0.130336 0.220562 0.422204 0.8 0 0
0.138096 0.202305 0.421878 0.8 0 0
0.230069 0.245353 0.665969 0.8 0 0
0.521988 0.598564 0.126502 0.8 0 0
0.406814 0.272349 0.124880 0.8 0 0
0.256322 0.262560 0.434243 0.8 0 0
0.378177 0.085775 0.490963 0.8 0 0
0.205182 0.144794 0.478954 0.8 0 0
0.509231 0.859570 0.305471 0.8 0 0
0.064792 0.511954 0.424494 0.8 0 0
0.398249 0.520598 0.051487 0.8 0 0
0.283334 0.114226 0.169812 0.8 0 0
0.241547 0.462407 0.077245 0.8 0 0
0.472724 0.827918 0.609434 0.8 0 0
0.445086 0.176953 0.493467 0.8 0 0
0.549651 0.821694 0.405680 0.8 0 0
0.480578 0.601325 0.660249 0.8 0 0
0.226034 0.833337 0.669498 0.8 0 0
0.292760 0.887193 0.560496 0.8 0 0
0.359629 0.200813 0.522462 0.8 0 0
0.472070 0.847970 0.511906 0.8 0 0
0.178599 0.116264 0.280664 0.8 0 0
0.358073 0.567188 0.712047 0.8 0 0
0.311819 0.494672 0.713571 0.8 0 0
0.501701 0.170382 0.397170 0.8 0 0
0.414487 0.114240 0.585588 0.8 0 0
0.159520 0.623674 0.618427 0.8 0 0
0.614742 0.529693 0.367220 0.8 0 0
0.618027 0.659870 0.407627 0.8 0 0
0.480675 0.868097 0.216908 0.8 0 0
0.557057 0.284602 0.440343 0.8 0 0
0.283454 0.752006 0.664885 0.8 0 0
0.134196 0.843307 0.364773 0.8 0 0
0.582728 0.565233 0.440336 0.8 0 0
0.507771 0.252831 0.544641 0.8 0 0
0.497099 0.514711 0.107839 0.8 0 0
0.157945 0.154730 0.357142 0.8 0 0
0.461076 0.681923 0.643695 0.8 0 0
0.504528 0.510085 0.625198 0.8 0 0
0.385103 0.487616 0.662431 0.8 0 0
0.381052 0.210017 0.130869 0.8 0 0
0.105632 0.515343 0.522934 0.8 0 0
0.466404 0.086087 0.286445 0.8 0 0
0.060190 0.602206 0.240969 0.8 0 0
0.267368 0.174805 0.137981 0.8 0 0
0.171519 0.656415 0.103832 0.8 0 0
0.569834 0.497903 0.176167 0.8 0 0
0.429158 0.577109 0.064357 0.8 0 0
0.232334 0.184233 0.661547 0.8 0 0
0.516201 0.229699 0.343765 0.8 0 0
0.446366 0.419133 0.677247 0.8 0 0
0.498225 0.688256 0.598880 0.8 0 0
0.258966 0.696008 0.064591 0.8 0 0
0.331338 0.701402 0.042547 0.8 0 0
0.559966 0.369214 0.455617 0.8 0 0
0.494889 0.386826 0.656509 0.8 0 0
0.429120 0.848017 0.157069 0.8 0 0
0.449882 0.865495 0.525516 0.8 0 0
0.506179 0.513685 0.115757 0.8 0 0
0.154051 0.303032 0.567781 0.8 0 0
0.211742 0.280482 0.113668 0.8 0 0
0.266527 0.909409 0.650367 0.8 0 0
0.120672 0.482263 0.152430 0.8 0 0
0.292021 0.136916 0.150593 0.8 0 0
0.556337 0.811085 0.425299 0.8 0 0
0.191739 0.284904 0.262179 0.8 0 0
0.540297 0.486101 0.576004 0.8 0 0
0.448777 0.233672 0.177469 0.8 0 0
0.570843 0.775168 0.265714 0.8 0 0
0.092855 0.456086 0.443891 0.8 0 0
0.332478 0.907511 0.628516 0.8 0 0
0.345782 0.562325 0.715760 0.8 0 0
0.437503 0.283715 0.147378 0.8 0 0
0.343571 0.924124 0.275075 0.8 0 0
0.420728 0.281165 0.216076 0.8 0 0
0.362819 0.759991 0.065132 0.8 0 0
0.373852 0.922395 0.645052 0.8 0 0
0.140039 0.196400 0.435805 0.8 0 0
0.292815 0.833318 0.698451 0.8 0 0
0.299547 0.071282 0.227921 0.8 0 0
0.487661 0.278725 0.287014 0.8 0 0
0.227682 0.879258 0.509591 0.8 0 0
0.472521 0.115065 0.221786 0.8 0 0
0.100887 0.427599 0.482263 0.8 0 0
0.176047 0.326808 0.221695 0.8 0 0
0.241148 0.575218 0.069513 0.8 0 0
0.166658 0.725510 0.583073 0.8 0 0
0.205156 0.143482 0.503131 0.8 0 0
0.345048 0.573325 0.714284 0.8 0 0
0.576342 0.634898 0.476082 0.8 0 0
0.405312 0.845607 0.141174 0.8 0 0
0.488871 0.392357 0.662370 0.8 0 0
0.501063 0.877667 0.332459 0.8 0 0
0.269257 0.259099 0.462371 0.8 0 0
0.622276 0.621045 0.243133 0.8 0 0
0.274231 0.284917 0.166660 0.8 0 0
0.449329 0.070339 0.264606 0.8 0 0
0.312757 0.256051 0.452999 0.8 0 0
0.189320 0.215086 0.194493 0.8 0 0
0.535877 0.361152 0.231304 0.8 0 0
0.297975 0.641053 0.703108 0.8 0 0
0.506150 0.301243 0.270046 0.8 0 0
0.495241 0.167743 0.477304 0.8 0 0
0.146839 0.197804 0.342534 0.8 0 0
0.396437 0.831467 0.120236 0.8 0 0
0.144508 0.530090 0.617962 0.8 0 0
0.090589 0.533638 0.455920 0.8 0 0
0.501788 0.269605 0.268284 0.8 0 0
0.041659 0.666368 0.409570 0.8 0 0
0.362884 0.616467 0.707094 0.8 0 0
0.502120 0.781020 0.622570 0.8 0 0
0.624213 0.642017 0.336151 0.8 0 0
0.488563 0.427481 0.107640 0.8 0 0
0.328548 0.673040 0.038332 0.8 0 0
0.338953 0.106738 0.488820 0.8 0 0
0.558689 0.525805 0.530893 0.8 0 0
0.066067 0.444348 0.217049 0.8 0 0
0.219596 0.090345 0.234231 0.8 0 0
0.291468 0.381922 0.066711 0.8 0 0
0.118090 0.358657 0.178044 0.8 0 0
0.252370 0.895373 0.412762 0.8 0 0
0.183394 0.295685 0.225710 0.8 0 0
0.313657 0.707341 0.053988 0.8 0 0
0.307083 0.531379 0.039476 0.8 0 0
0.442399 0.279976 0.229858 0.8 0 0
0.342495 0.513678 0.029366 0.8 0 0
0.513094 0.378401 0.136998 0.8 0 0
0.619426 0.436318 0.307167 0.8 0 0
0.530822 0.368766 0.581426 0.8 0 0
0.487009 0.833508 0.520846 0.8 0 0
0.463463 0.274754 0.627136 0.8 0 0
0.542955 0.526295 0.147201 0.8 0 0
0.254113 0.123501 0.488751 0.8 0 0
0.126715 0.506076 0.583449 0.8 0 0
0.101779 0.724498 0.533825 0.8 0 0
0.401573 0.106466 0.176260 0.8 0 0
0.544936 0.540566 0.568650 0.8 0 0
0.190048 0.565807 0.090072 0.8 0 0
0.098582 0.677975 0.493439 0.8 0 0
0.525681 0.758413 0.148003 0.8 0 0
0.507361 0.173084 0.303303 0.8 0 0
0.146914 0.194008 0.466497 0.8 0 0
0.085299 0.647969 0.198628 0.8 0 0
0.404194 0.028229 0.390854 0.8 0 0
0.081462 0.429700 0.240159 0.8 0 0
0.586042 0.757698 0.477073 0.8 0 0
0.450072 0.431344 0.082719 0.8 0 0
0.364363 0.719706 0.057982 0.8 0 0
0.547544 0.258236 0.468654 0.8 0 0
0.387946 0.375159 0.063453 0.8 0 0
0.592648 0.508433 0.197499 0.8 0 0
0.380669 0.707907 0.683808 0.8 0 0
0.432428 0.865351 0.596489 0.8 0 0
0.630149 0.609146 0.386558 0.8 0 0
0.380068 0.451826 0.048159 0.8 0 0
0.622341 0.558450 0.344612 0.8 0 0
0.565436 0.506954 0.488745 0.8 0 0
0.136838 0.207406 0.466726 0.8 0 0
0.399666 0.602403 0.703663 0.8 0 0
0.253194 0.266107 0.131061 0.8 0 0
0.291971 0.102196 0.662706 0.8 0 0
0.615703 0.638826 0.428218 0.8 0 0
0.500619 0.223364 0.404477 0.8 0 0
0.320659 0.931913 0.668372 0.8 0 0
0.280907 0.152095 0.143441 0.8 0 0
0.584868 0.416642 0.322509 0.8 0 0
0.278042 0.126504 0.155977 0.8 0 0
0.519710 0.336648 0.154290 0.8 0 0
0.529251 0.423381 0.610744 0.8 0 0
0.244525 0.242618 0.142224 0.8 0 0
0.181385 0.105058 0.350006 0.8 0 0
0.505650 0.174460 0.288840 0.8 0 0
0.428433 0.169496 0.496130 0.8 0 0
0.344858 0.559850 0.716250 0.8 0 0
0.475859 0.097521 0.298488 0.8 0 0
0.174053 0.850024 0.473873 0.8 0 0
0.235656 0.069533 0.241747 0.8 0 0
0.297140 0.920935 0.397286 0.8 0 0
0.274268 0.278587 0.238426 0.8 0 0
0.321907 0.158980 0.719429 0.8 0 0
0.369357 0.829155 0.116746 0.8 0 0
0.247852 0.775091 0.660522 0.8 0 0
0.280784 0.825731 0.695673 0.8 0 0
0.454903 0.136075 0.554186 0.8 0 0
0.480603 0.135450 0.428179 0.8 0 0
0.224537 0.892717 0.319688 0.8 0 0
0.301288 0.107693 0.545360 0.8 0 0
0.378651 0.524746 0.673570 0.8 0 0
0.160836 0.403992 0.649502 0.8 0 0
0.263268 0.890719 0.221599 0.8 0 0
0.529158 0.462778 0.139973 0.8 0 0
0.286824 0.912262 0.369425 0.8 0 0
0.248083 0.119495 0.534830 0.8 0 0
0.618171 0.541576 0.228811 0.8 0 0
0.230577 0.102171 0.463147 0.8 0 0
0.285113 0.879356 0.182034 0.8 0 0
0.269130 0.599353 0.704360 0.8 0 0
0.089171 0.432978 0.190217 0.8 0 0
0.046871 0.670110 0.323800 0.8 0 0
0.563018 0.657407 0.154479 0.8 0 0
0.102716 0.432229 0.501256 0.8 0 0
0.378284 0.649403 0.698959 0.8 0 0
0.194238 0.226540 0.195379 0.8 0 0
0.475915 0.293895 0.613456 0.8 0 0
0.467805 0.643147 0.087816 0.8 0 0
0.593870 0.485199 0.397785 0.8 0 0
0.464614 0.873511 0.271109 0.8 0 0
0.089348 0.559366 0.450163 0.8 0 0
0.591884 0.708426 0.482182 0.8 0 0
0.529062 0.583114 0.131435 0.8 0 0
0.496694 0.306656 0.253070 0.8 0 0
0.201132 0.577397 0.682331 0.8 0 0
0.250374 0.479966 0.073360 0.8 0 0
0.632815 0.537514 0.282441 0.8 0 0
0.448718 0.102569 0.197487 0.8 0 0
0.095338 0.449393 0.465054 0.8 0 0
0.319994 0.269719 0.306942 0.8 0 0
0.362439 0.169299 0.514429 0.8 0 0
0.322191 0.467995 0.744988 0.8 0 0
0.318947 0.842376 0.108582 0.8 0 0
0.411764 0.268442 0.689817 0.8 0 0
0.294430 0.509503 0.667380 0.8 0 0
0.108304 0.313829 0.459044 0.8 0 0
0.194615 0.440810 0.665052 0.8 0 0
0.097524 0.595599 0.163900 0.8 0 0
0.164555 0.153457 0.284308 0.8 0 0
0.407460 0.281702 0.203252 0.8 0 0
0.092657 0.772790 0.509134 0.8 0 0
0.413746 0.052303 0.293153 0.8 0 0
0.332714 0.525957 0.025342 0.8 0 0
0.359988 0.127252 0.159426 0.8 0 0
0.265412 0.442822 0.685491 0.8 0 0
0.372507 0.107802 0.540230 0.8 0 0
0.049590 0.520369 0.311219 0.8 0 0
0.428103 0.131434 0.465279 0.8 0 0
0.186166 0.104811 0.284019 0.8 0 0
0.282029 0.120028 0.486008 0.8 0 0
0.155711 0.541775 0.116281 0.8 0 0
0.492770 0.803348 0.594486 0.8 0 0
0.244833 0.630494 0.065798 0.8 0 0
0.312047 0.106052 0.578278 0.8 0 0
0.047015 0.480702 0.240409 0.8 0 0
0.486927 0.330116 0.100289 0.8 0 0
0.495844 0.746470 0.606191 0.8 0 0
0.395688 0.256818 0.460213 0.8 0 0
0.247929 0.684495 0.676862 0.8 0 0
0.376387 0.130232 0.153424 0.8 0 0
0.535237 0.223622 0.402212 0.8 0 0
0.137906 0.843585 0.303792 0.8 0 0
0.093123 0.649662 0.182107 0.8 0 0
0.556985 0.290502 0.443773 0.8 0 0
0.333347 0.886172 0.562106 0.8 0 0
0.117556 0.823773 0.412153 0.8 0 0
0.079234 0.400147 0.395504 0.8 0 0
0.349106 0.338381 0.726411 0.8 0 0
0.415440 0.716397 0.071384 0.8 0 0
0.190445 0.539992 0.089138 0.8 0 0
0.375474 0.201661 0.707430 0.8 0 0
0.171135 0.750603 0.605098 0.8 0 0
0.415561 0.617965 0.697264 0.8 0 0
0.555014 0.795137 0.502561 0.8 0 0
0.186840 0.744847 0.111263 0.8 0 0
0.295364 0.046559 0.437178 0.8 0 0
0.351754 0.108723 0.497799 0.8 0 0
0.233812 0.786429 0.096537 0.8 0 0
0.143960 0.321840 0.563245 0.8 0 0
0.414861 0.287211 0.145393 0.8 0 0
0.325580 0.542874 0.029227 0.8 0 0
0.402888 0.275885 0.323645 0.8 0 0
0.540551 0.440133 0.153433 0.8 0 0
0.454835 0.278027 0.177696 0.8 0 0
0.474699 0.823228 0.615353 0.8 0 0
0.504435 0.282563 0.277913 0.8 0 0
0.554352 0.269965 0.427141 0.8 0 0
0.215273 0.285220 0.166853 0.8 0 0
0.379538 0.480491 0.678716 0.8 0 0
0.045292 0.536321 0.301482 0.8 0 0
0.278166 0.911933 0.468205 0.8 0 0
0.224924 0.054927 0.405208 0.8 0 0
0.576253 0.653859 0.468935 0.8 0 0
0.383205 0.687420 0.691402 0.8 0 0
0.076697 0.481088 0.361659 0.8 0 0
0.401106 0.916970 0.705765 0.8 0 0
0.168963 0.596089 0.643382 0.8 0 0
0.256143 0.702902 0.065168 0.8 0 0
0.248405 0.327310 0.681061 0.8 0 0
0.156680 0.580109 0.634372 0.8 0 0
0.298193 0.288239 0.155341 0.8 0 0
0.365675 0.206611 0.525241 0.8 0 0
0.428876 0.125300 0.637337 0.8 0 0
0.560055 0.438871 0.515868 0.8 0 0
0.202171 0.650419 0.654913 0.8 0 0
0.578776 0.596530 0.175143 0.8 0 0
0.278219 0.688615 0.688992 0.8 0 0
0.212207 0.136760 0.596002 0.8 0 0
0.316660 0.102927 0.488266 0.8 0 0
0.370085 0.193612 0.127887 0.8 0 0
0.090691 0.396233 0.421812 0.8 0 0
0.237150 0.587630 0.069813 0.8 0 0
0.474355 0.587853 0.089287 0.8 0 0
0.561768 0.411901 0.466363 0.8 0 0
0.556796 0.421487 0.522351 0.8 0 0
0.566538 0.326955 0.410430 0.8 0 0
0.168409 0.150145 0.261916 0.8 0 0
0.284474 0.253636 0.511064 0.8 0 0
0.110395 0.560296 0.154836 0.8 0 0
0.339758 0.565388 0.028064 0.8 0 0
0.512095 0.252029 0.316466 0.8 0 0
0.200397 0.892970 0.352172 0.8 0 0
0.285383 0.308949 0.718509 0.8 0 0
0.431462 0.213659 0.506079 0.8 0 0
0.389670 0.538059 0.667348 0.8 0 0
0.536293 0.361432 0.165928 0.8 0 0
0.240565 0.675467 0.067008 0.8 0 0
0.198326 0.080700 0.320436 0.8 0 0
0.597040 0.522219 0.399511 0.8 0 0
0.544814 0.455756 0.564234 0.8 0 0
0.259896 0.898669 0.499083 0.8 0 0
0.370096 0.098093 0.655437 0.8 0 0
0.160570 0.823447 0.522275 0.8 0 0
0.455898 0.273712 0.187884 0.8 0 0
0.125907 0.731773 0.159549 0.8 0 0
0.195473 0.084088 0.322666 0.8 0 0
0.430863 0.845587 0.157028 0.8 0 0
0.510925 0.518331 0.620522 0.8 0 0
0.200188 0.841091 0.605584 0.8 0 0
0.396773 0.263301 0.419496 0.8 0 0
0.399145 0.109562 0.611203 0.8 0 0
0.343148 0.926865 0.284871 0.8 0 0
0.421502 0.282590 0.250380 0.8 0 0
0.063834 0.579022 0.384829 0.8 0 0
0.176059 0.837355 0.600839 0.8 0 0
0.538074 0.701693 0.538342 0.8 0 0
0.347145 0.280065 0.123853 0.8 0 0
0.035697 0.634436 0.289136 0.8 0 0
0.357752 0.414107 0.732810 0.8 0 0
0.335751 0.047475 0.325569 0.8 0 0
0.036670 0.445277 0.319897 0.8 0 0
0.067545 0.436125 0.315939 0.8 0 0
0.322349 0.028067 0.409898 0.8 0 0
0.492049 0.246691 0.433764 0.8 0 0
0.350031 0.535366 0.709899 0.8 0 0
0.121921 0.318079 0.500342 0.8 0 0
0.375131 0.051516 0.457758 0.8 0 0
0.547169 0.327644 0.487798 0.8 0 0
0.159820 0.339071 0.247556 0.8 0 0
0.360066 0.361317 0.784504 0.8 0 0
0.048779 0.474167 0.231056 0.8 0 0
0.225914 0.056304 0.412591 0.8 0 0
0.166190 0.848187 0.205765 0.8 0 0
0.056102 0.685958 0.328873 0.8 0 0
0.206508 0.439889 0.669179 0.8 0 0
0.202907 0.731442 0.616355 0.8 0 0
0.367902 0.920178 0.348984 0.8 0 0
0.086286 0.455109 0.295961 0.8 0 0
0.386842 0.186461 0.516892 0.8 0 0
0.170443 0.125830 0.323943 0.8 0 0
0.271279 0.114150 0.679359 0.8 0 0
0.512505 0.431145 0.631808 0.8 0 0
0.491427 0.604372 0.100442 0.8 0 0
0.147556 0.221699 0.524079 0.8 0 0
0.218351 0.223772 0.501318 0.8 0 0
0.194381 0.880541 0.304124 0.8 0 0
0.421357 0.883712 0.645829 0.8 0 0
0.217767 0.476435 0.651139 0.8 0 0
0.300633 0.940689 0.669355 0.8 0 0
0.121610 0.361318 0.303736 0.8 0 0
0.516896 0.666054 0.583562 0.8 0 0
0.429371 0.421141 0.678824 0.8 0 0
0.337685 0.097436 0.663259 0.8 0 0
0.206966 0.576552 0.079494 0.8 0 0
0.161118 0.188414 0.271913 0.8 0 0
0.549189 0.542711 0.557664 0.8 0 0
0.317726 0.686975 0.700049 0.8 0 0
0.462458 0.865527 0.473423 0.8 0 0
0.400473 0.249929 0.128329 0.8 0 0
0.274502 0.939263 0.671939 0.8 0 0
0.440390 0.729154 0.088446 0.8 0 0
0.564548 0.628904 0.158749 0.8 0 0
0.167832 0.754444 0.124952 0.8 0 0
0.129682 0.553706 0.593846 0.8 0 0
0.130424 0.644739 0.130108 0.8 0 0
0.365918 0.953867 0.690499 0.8 0 0
0.103301 0.311238 0.428711 0.8 0 0
0.372221 0.288028 0.138603 0.8 0 0
0.156698 0.239296 0.369179 0.8 0 0
0.255770 0.271261 0.120082 0.8 0 0
0.454152 0.857949 0.551278 0.8 0 0
0.322513 0.862193 0.144662 0.8 0 0
0.145684 0.191534 0.347654 0.8 0 0
0.373617 0.919856 0.448165 0.8 0 0
0.084159 0.489513 0.433517 0.8 0 0
0.391936 0.701614 0.681908 0.8 0 0
0.204833 0.808763 0.655680 0.8 0 0
0.563759 0.393301 0.319358 0.8 0 0
0.107763 0.366533 0.328958 0.8 0 0
0.394827 0.109003 0.568789 0.8 0 0
0.442328 0.701344 0.081522 0.8 0 0
0.233723 0.621995 0.688551 0.8 0 0
0.484599 0.165303 0.438904 0.8 0 0
0.379741 0.435615 0.049219 0.8 0 0
0.369960 0.188396 0.129391 0.8 0 0
0.518438 0.186855 0.436253 0.8 0 0
0.070886 0.512905 0.390381 0.8 0 0
0.429545 0.780470 0.630721 0.8 0 0
0.264185 0.275141 0.122218 0.8 0 0
0.227894 0.773547 0.095197 0.8 0 0
0.561736 0.335190 0.446381 0.8 0 0
0.361433 0.289102 0.129672 0.8 0 0
0.356301 0.034827 0.376103 0.8 0 0
0.282235 0.694178 0.059758 0.8 0 0
0.330648 0.926394 0.737714 0.8 0 0
0.290405 0.195232 0.514833 0.8 0 0
0.222749 0.646509 0.673342 0.8 0 0
0.523626 0.728404 0.574337 0.8 0 0
0.227808 0.857021 0.624874 0.8 0 0
0.203931 0.114180 0.447518 0.8 0 0
0.347651 0.251089 0.471574 0.8 0 0
0.368080 0.432549 0.049228 0.8 0 0
0.589584 0.753290 0.326946 0.8 0 0
0.299512 0.405739 0.720110 0.8 0 0
0.429281 0.871609 0.658180 0.8 0 0
0.182551 0.114177 0.248816 0.8 0 0
0.503803 0.854494 0.276839 0.8 0 0
0.226746 0.054054 0.314250 0.8 0 0
0.615627 0.565134 0.397617 0.8 0 0
0.345771 0.509051 0.030959 0.8 0 0
0.067319 0.509104 0.408393 0.8 0 0
0.612229 0.500910 0.310624 0.8 0 0
0.457088 0.653349 0.659906 0.8 0 0
0.151601 0.801569 0.182032 0.8 0 0
0.202096 0.144791 0.521935 0.8 0 0
0.112403 0.704396 0.522633 0.8 0 0
0.423789 0.254643 0.141621 0.8 0 0
0.298736 0.954424 0.687822 0.8 0 0
0.563118 0.793990 0.326506 0.8 0 0
0.547282 0.802503 0.512395 0.8 0 0
0.146921 0.454747 0.129634 0.8 0 0
0.628401 0.615983 0.405277 0.8 0 0
0.294884 0.284705 0.121205 0.8 0 0
0.594941 0.441032 0.222851 0.8 0 0
0.175752 0.230344 0.575054 0.8 0 0
0.174872 0.221470 0.427525 0.8 0 0
0.273429 0.912918 0.302776 0.8 0 0
0.078826 0.366174 0.341434 0.8 0 0
0.238012 0.134037 0.656637 0.8 0 0
0.279716 0.278635 0.231960 0.8 0 0
0.544174 0.817115 0.261358 0.8 0 0
0.125469 0.301773 0.343923 0.8 0 0
0.593452 0.441072 0.229796 0.8 0 0
0.434756 0.348586 0.675916 0.8 0 0
0.364995 0.830694 0.115074 0.8 0 0
0.336723 0.446427 0.042721 0.8 0 0
0.559504 0.297382 0.433707 0.8 0 0
0.403454 0.269584 0.114238 0.8 0 0
0.201418 0.302148 0.629288 0.8 0 0
0.253673 0.897326 0.495215 0.8 0 0
0.273970 0.696869 0.061726 0.8 0 0
0.326205 0.160484 0.504986 0.8 0 0
0.210361 0.066517 0.319670 0.8 0 0
0.257461 0.872069 0.183907 0.8 0 0
0.216793 0.238790 0.505281 0.8 0 0
0.430300 0.411877 0.681091 0.8 0 0
0.257823 0.899850 0.292216 0.8 0 0
0.561694 0.459027 0.504644 0.8 0 0
0.602699 0.450399 0.215053 0.8 0 0
0.137341 0.618291 0.128433 0.8 0 0
0.390780 0.045475 0.325688 0.8 0 0
0.626375 0.598535 0.355859 0.8 0 0
0.559205 0.801802 0.453886 0.8 0 0
0.145167 0.290988 0.301593 0.8 0 0
0.244525 0.887283 0.240482 0.8 0 0
0.103988 0.410273 0.276786 0.8 0 0
0.526435 0.565428 0.129891 0.8 0 0
0.305116 0.411884 0.732945 0.8 0 0
0.282853 0.914436 0.464365 0.8 0 0
0.488791 0.863544 0.260938 0.8 0 0
0.145245 0.781201 0.176985 0.8 0 0
0.305252 0.050993 0.449055 0.8 0 0
0.279515 0.286408 0.161962 0.8 0 0
0.190347 0.312600 0.182346 0.8 0 0
0.138047 0.842889 0.281105 0.8 0 0
0.459366 0.554338 0.080124 0.8 0 0
0.086137 0.520062 0.441485 0.8 0 0
0.457385 0.300003 0.155533 0.8 0 0
0.073176 0.628432 0.444264 0.8 0 0
0.288823 0.196854 0.515331 0.8 0 0
0.585428 0.758960 0.471024 0.8 0 0
0.375246 0.420161 0.052874 0.8 0 0
0.093424 0.762137 0.558709 0.8 0 0
0.176113 0.134161 0.243084 0.8 0 0
0.182459 0.239863 0.458890 0.8 0 0
0.108694 0.536534 0.158789 0.8 0 0
0.379850 0.436110 0.698865 0.8 0 0
0.093551 0.647476 0.486775 0.8 0 0
0.345615 0.388620 0.798672 0.8 0 0
0.313068 0.898803 0.741804 0.8 0 0
0.392647 0.109196 0.665031 0.8 0 0
0.320225 0.516641 0.033274 0.8 0 0
0.337049 0.239049 0.726335 0.8 0 0
0.211912 0.306706 0.642757 0.8 0 0
0.423375 0.330387 0.678312 0.8 0 0
0.410262 0.088280 0.195432 0.8 0 0
0.400027 0.654210 0.049550 0.8 0 0
0.236584 0.723270 0.080381 0.8 0 0
0.187357 0.096219 0.376669 0.8 0 0
0.186625 0.836074 0.557884 0.8 0 0
0.269824 0.900518 0.422213 0.8 0 0
0.264439 0.892355 0.531960 0.8 0 0
0.461470 0.140970 0.527095 0.8 0 0
0.424185 0.313022 0.670645 0.8 0 0
0.301195 0.881969 0.578003 0.8 0 0
0.100541 0.393406 0.187768 0.8 0 0
0.326659 0.251076 0.494502 0.8 0 0
0.125848 0.827139 0.328607 0.8 0 0
0.560964 0.516906 0.512761 0.8 0 0
0.246418 0.645744 0.064813 0.8 0 0
0.493966 0.800724 0.160657 0.8 0 0
0.373594 0.284129 0.194819 0.8 0 0
0.050342 0.661044 0.272364 0.8 0 0
0.534657 0.278545 0.497771 0.8 0 0
0.594460 0.393750 0.328057 0.8 0 0
0.227823 0.261812 0.466079 0.8 0 0
0.299585 0.768762 0.070340 0.8 0 0
0.183352 0.821968 0.631838 0.8 0 0
0.303016 0.225293 0.722243 0.8 0 0
0.385014 0.050543 0.306955 0.8 0 0
0.412855 0.795772 0.100601 0.8 0 0
0.053306 0.577306 0.249749 0.8 0 0
0.397703 0.274622 0.098850 0.8 0 0
0.568913 0.396629 0.198385 0.8 0 0
0.489876 0.315350 0.176609 0.8 0 0
0.299385 0.253190 0.500053 0.8 0 0
0.608712 0.574776 0.403280 0.8 0 0
0.442761 0.883095 0.265937 0.8 0 0
0.422624 0.282789 0.182144 0.8 0 0
0.304516 0.926618 0.356247 0.8 0 0
0.166991 0.227529 0.558583 0.8 0 0
0.586807 0.760760 0.326388 0.8 0 0
0.406275 0.803809 0.666570 0.8 0 0
0.322382 0.826317 0.700267 0.8 0 0
0.379009 0.910245 0.625201 0.8 0 0
0.335879 0.898466 0.495159 0.8 0 0
0.221148 0.894134 0.425191 0.8 0 0
0.351805 0.554116 0.031261 0.8 0 0
0.151962 0.708038 0.571967 0.8 0 0
0.260742 0.035632 0.393865 0.8 0 0
0.284768 0.084365 0.470627 0.8 0 0
0.448961 0.397107 0.680355 0.8 0 0
0.526275 0.231568 0.362325 0.8 0 0
0.321132 0.072272 0.222958 0.8 0 0
0.183922 0.498788 0.094696 0.8 0 0
0.609061 0.565232 0.340471 0.8 0 0
0.467073 0.165366 0.589981 0.8 0 0
0.141825 0.675163 0.123057 0.8 0 0
0.349904 0.455916 0.741899 0.8 0 0
0.266288 0.721865 0.666643 0.8 0 0
0.309195 0.320466 0.729320 0.8 0 0
0.189786 0.879867 0.301209 0.8 0 0
0.286317 0.102278 0.646208 0.8 0 0
0.297343 0.921102 0.397419 0.8 0 0
0.402780 0.846737 0.144667 0.8 0 0
0.300212 0.923736 0.431249 0.8 0 0
0.477436 0.266269 0.451882 0.8 0 0
0.206351 0.279784 0.295893 0.8 0 0
0.371806 0.206778 0.713735 0.8 0 0
0.421726 0.638139 0.060941 0.8 0 0
0.425611 0.895281 0.402685 0.8 0 0
0.335513 0.317549 0.076623 0.8 0 0
0.452950 0.685955 0.649308 0.8 0 0
0.504085 0.264682 0.279254 0.8 0 0
0.558878 0.635068 0.509083 0.8 0 0
0.368321 0.112170 0.702952 0.8 0 0
0.294094 0.921586 0.312724 0.8 0 0
0.493749 0.302008 0.152261 0.8 0 0
0.533890 0.835865 0.422903 0.8 0 0
0.098343 0.412696 0.303380 0.8 0 0
0.193873 0.880254 0.296842 0.8 0 0
0.374989 0.886657 0.597679 0.8 0 0
0.335476 0.772537 0.667532 0.8 0 0
0.253468 0.233081 0.131311 0.8 0 0
0.443261 0.723203 0.635681 0.8 0 0
0.250547 0.114299 0.570343 0.8 0 0
0.188744 0.475820 0.095510 0.8 0 0
0.297430 0.337137 0.715789 0.8 0 0
0.455504 0.805099 0.111290 0.8 0 0
0.297984 0.112748 0.483911 0.8 0 0
0.290480 0.496616 0.055271 0.8 0 0
0.377496 0.515775 0.043384 0.8 0 0
0.621084 0.565296 0.367775 0.8 0 0
0.383207 0.467071 0.048536 0.8 0 0
0.248568 0.199692 0.137650 0.8 0 0
0.499926 0.164687 0.274148 0.8 0 0
0.399907 0.184187 0.510674 0.8 0 0
0.331196 0.064050 0.256779 0.8 0 0
0.097048 0.592922 0.164621 0.8 0 0
0.503967 0.393570 0.123535 0.8 0 0
0.204923 0.162357 0.607277 0.8 0 0
0.574483 0.466146 0.431489 0.8 0 0
0.551846 0.315926 0.375128 0.8 0 0
0.087083 0.442680 0.422672 0.8 0 0
0.344936 0.331030 0.070484 0.8 0 0
0.295416 0.144700 0.496751 0.8 0 0
0.409148 0.282322 0.220745 0.8 0 0
0.386083 0.779964 0.660755 0.8 0 0
0.410353 0.869830 0.678525 0.8 0 0
0.265675 0.763449 0.080552 0.8 0 0
0.479726 0.868195 0.223405 0.8 0 0
0.109401 0.532117 0.158532 0.8 0 0
0.238484 0.405872 0.081844 0.8 0 0
0.464129 0.271867 0.626558 0.8 0 0
0.346511 0.206281 0.721937 0.8 0 0
0.208264 0.347169 0.103985 0.8 0 0
0.278266 0.867663 0.148750 0.8 0 0
0.083110 0.782173 0.359894 0.8 0 0
0.481933 0.156799 0.489301 0.8 0 0
0.554606 0.560233 0.538377 0.8 0 0
0.264017 0.052962 0.309805 0.8 0 0
0.625165 0.646229 0.381914 0.8 0 0
0.211977 0.433148 0.672945 0.8 0 0
0.215428 0.678192 0.078590 0.8 0 0
0.409861 0.863599 0.655284 0.8 0 0
0.197908 0.082037 0.315175 0.8 0 0
0.458096 0.281696 0.100680 0.8 0 0
0.121380 0.830966 0.393125 0.8 0 0
0.219530 0.131087 0.512209 0.8 0 0
0.356259 0.466333 0.714548 0.8 0 0
0.502248 0.491586 0.113802 0.8 0 0
0.437746 0.282002 0.138483 0.8 0 0
0.619602 0.527238 0.314339 0.8 0 0
0.532451 0.271623 0.500142 0.8 0 0
0.412374 0.695382 0.673473 0.8 0 0
0.191770 0.102542 0.274864 0.8 0 0
0.408461 0.716679 0.663395 0.8 0 0
0.159614 0.783730 0.143803 0.8 0 0
0.417427 0.118720 0.543047 0.8 0 0
0.561828 0.329958 0.381528 0.8 0 0
0.195356 0.879318 0.291018 0.8 0 0
0.560979 0.307950 0.427916 0.8 0 0
0.481243 0.120453 0.248929 0.8 0 0
0.246778 0.832461 0.685496 0.8 0 0
0.187349 0.660005 0.636548 0.8 0 0
0.240307 0.285455 0.195250 0.8 0 0
0.233416 0.799169 0.681988 0.8 0 0
0.366805 0.412495 0.705568 0.8 0 0
0.201695 0.266967 0.194574 0.8 0 0
0.499957 0.533974 0.109052 0.8 0 0
0.405949 0.140299 0.147761 0.8 0 0
0.399704 0.673945 0.055710 0.8 0 0
0.494028 0.278996 0.328129 0.8 0 0
0.292435 0.304588 0.085700 0.8 0 0
0.181131 0.741668 0.591193 0.8 0 0
0.055504 0.716545 0.454191 0.8 0 0
0.260756 0.896756 0.437397 0.8 0 0
0.144228 0.777322 0.163427 0.8 0 0
0.619805 0.459703 0.340522 0.8 0 0
0.495411 0.323197 0.191256 0.8 0 0
0.528018 0.599537 0.587839 0.8 0 0
0.180150 0.440474 0.104749 0.8 0 0
0.323771 0.432870 0.772687 0.8 0 0
0.085315 0.645156 0.471145 0.8 0 0
0.299674 0.177633 0.700722 0.8 0 0
0.067399 0.449074 0.238443 0.8 0 0
0.344964 0.570981 0.714634 0.8 0 0
0.581308 0.643240 0.175672 0.8 0 0
0.128812 0.546903 0.593136 0.8 0 0
0.593705 0.440178 0.225747 0.8 0 0
0.542288 0.715138 0.541809 0.8 0 0
0.078423 0.495338 0.192527 0.8 0 0
0.201382 0.566589 0.661854 0.8 0 0
0.314059 0.719232 0.055111 0.8 0 0
0.083860 0.734668 0.219139 0.8 0 0
0.470757 0.189908 0.472136 0.8 0 0
0.358224 0.248897 0.485035 0.8 0 0
0.183910 0.516865 0.631685 0.8 0 0
0.487166 0.627216 0.643211 0.8 0 0
0.439147 0.600145 0.687405 0.8 0 0
0.540070 0.592362 0.564932 0.8 0 0
0.225266 0.086906 0.230912 0.8 0 0
0.629743 0.613214 0.261907 0.8 0 0
0.408496 0.897000 0.287163 0.8 0 0
0.129637 0.579377 0.581555 0.8 0 0
0.514788 0.242432 0.524024 0.8 0 0
0.560215 0.570311 0.159678 0.8 0 0
0.154671 0.226453 0.302303 0.8 0 0
0.378403 0.229752 0.533374 0.8 0 0
0.239638 0.719314 0.650117 0.8 0 0
0.093353 0.449162 0.283843 0.8 0 0
0.254591 0.273780 0.129260 0.8 0 0
0.489055 0.452474 0.630057 0.8 0 0
0.113200 0.776357 0.579763 0.8 0 0
0.497989 0.216459 0.412889 0.8 0 0
0.626121 0.620350 0.411699 0.8 0 0
0.417595 0.884288 0.213119 0.8 0 0
0.529965 0.344310 0.163365 0.8 0 0
0.494827 0.488428 0.626212 0.8 0 0
0.554287 0.397831 0.492715 0.8 0 0
0.456249 0.281083 0.281654 0.8 0 0
0.088692 0.561419 0.447044 0.8 0 0
0.092277 0.335855 0.363544 0.8 0 0
0.245070 0.231696 0.668279 0.8 0 0
0.237474 0.898280 0.316116 0.8 0 0
0.536381 0.586671 0.575826 0.8 0 0
0.288645 0.868706 0.143355 0.8 0 0
0.243348 0.250985 0.518872 0.8 0 0
0.595009 0.437264 0.210349 0.8 0 0
0.063175 0.730852 0.365355 0.8 0 0
0.240178 0.164369 0.151914 0.8 0 0
0.623095 0.482085 0.341818 0.8 0 0
0.525326 0.811658 0.200679 0.8 0 0
0.396602 0.341208 0.686740 0.8 0 0
0.392755 0.107713 0.637742 0.8 0 0
0.086084 0.577833 0.446686 0.8 0 0
0.339727 0.280538 0.250784 0.8 0 0
0.082778 0.570674 0.434072 0.8 0 0
0.444790 0.287953 0.142225 0.8 0 0
0.146808 0.846748 0.270752 0.8 0 0
0.547221 0.650673 0.531698 0.8 0 0
0.357506 0.284506 0.172950 0.8 0 0
0.360137 0.452469 0.717716 0.8 0 0
0.524697 0.360295 0.153823 0.8 0 0
0.454527 0.073460 0.271779 0.8 0 0
0.507293 0.211476 0.305362 0.8 0 0
0.206593 0.299855 0.633316 0.8 0 0
0.126853 0.293166 0.357572 0.8 0 0
0.228491 0.831000 0.160382 0.8 0 0
0.133887 0.331116 0.544313 0.8 0 0
0.377549 0.914608 0.291170 0.8 0 0
0.587800 0.347958 0.393507 0.8 0 0
0.221705 0.233161 0.655187 0.8 0 0
0.192407 0.892506 0.361594 0.8 0 0
0.540533 0.355903 0.518274 0.8 0 0
0.074310 0.346753 0.383311 0.8 0 0
0.277721 0.896565 0.535205 0.8 0 0
0.526755 0.395026 0.616966 0.8 0 0
0.202658 0.614692 0.670584 0.8 0 0
0.468989 0.872789 0.277796 0.8 0 0
0.080265 0.415568 0.390272 0.8 0 0
0.596258 0.487979 0.411826 0.8 0 0
0.354028 0.115364 0.171727 0.8 0 0
0.406574 0.879520 0.672341 0.8 0 0
0.490622 0.243698 0.254337 0.8 0 0
0.572163 0.553457 0.468649 0.8 0 0
0.352909 0.102968 0.177218 0.8 0 0
0.124719 0.265964 0.379747 0.8 0 0
0.384995 0.905531 0.499541 0.8 0 0
0.132705 0.803699 0.201114 0.8 0 0
0.224138 0.704551 0.647954 0.8 0 0
0.402297 0.288400 0.135510 0.8 0 0
0.131517 0.800750 0.567266 0.8 0 0
0.408805 0.854118 0.693240 0.8 0 0
0.097266 0.776707 0.517486 0.8 0 0
0.269635 0.371728 0.075037 0.8 0 0
0.612752 0.662278 0.247624 0.8 0 0
0.622162 0.553466 0.237433 0.8 0 0
0.557153 0.415048 0.505110 0.8 0 0
0.581593 0.728849 0.224898 0.8 0 0
0.377501 0.368327 0.063451 0.8 0 0
0.240285 0.305694 0.094839 0.8 0 0
0.272343 0.894254 0.536419 0.8 0 0
0.167402 0.166927 0.422689 0.8 0 0
0.326914 0.831680 0.704346 0.8 0 0
0.429147 0.798686 0.103593 0.8 0 0
0.265053 0.560075 0.698781 0.8 0 0
0.434032 0.128672 0.633820 0.8 0 0
0.184884 0.283795 0.282133 0.8 0 0
0.161967 0.207978 0.265306 0.8 0 0
0.305702 0.131908 0.154565 0.8 0 0
0.483355 0.278496 0.273570 0.8 0 0
0.558913 0.570177 0.517840 0.8 0 0
0.328312 0.909983 0.474706 0.8 0 0
0.314558 0.265647 0.341894 0.8 0 0
0.579653 0.723496 0.520754 0.8 0 0
0.132960 0.339873 0.548082 0.8 0 0
0.542044 0.768416 0.186723 0.8 0 0
0.228970 0.756363 0.091266 0.8 0 0
0.144171 0.261417 0.534509 0.8 0 0
0.407725 0.112230 0.592426 0.8 0 0
0.166397 0.175813 0.247095 0.8 0 0
0.180506 0.835677 0.565016 0.8 0 0
0.453221 0.232257 0.638703 0.8 0 0
0.068114 0.482382 0.278987 0.8 0 0
0.612391 0.461107 0.311808 0.8 0 0
0.360483 0.909150 0.244038 0.8 0 0
0.487177 0.374724 0.654375 0.8 0 0
0.156822 0.602904 0.623644 0.8 0 0
0.095865 0.732631 0.535603 0.8 0 0
0.328321 0.873930 0.730945 0.8 0 0
0.618910 0.534115 0.374161 0.8 0 0
0.390668 0.038252 0.354361 0.8 0 0
0.191925 0.281372 0.223659 0.8 0 0
0.492999 0.334645 0.208694 0.8 0 0
0.056742 0.692605 0.463984 0.8 0 0
0.452571 0.061728 0.302376 0.8 0 0
0.376125 0.108005 0.536072 0.8 0 0
0.497036 0.563418 0.646360 0.8 0 0
0.172435 0.456816 0.628856 0.8 0 0
0.588970 0.711126 0.245274 0.8 0 0
0.375352 0.205730 0.709018 0.8 0 0
0.423134 0.516771 0.642573 0.8 0 0
0.398008 0.735411 0.067287 0.8 0 0
0.125583 0.290271 0.503446 0.8 0 0
0.252889 0.495035 0.071604 0.8 0 0
0.571612 0.453306 0.280949 0.8 0 0
0.465695 0.839183 0.168184 0.8 0 0
0.501761 0.144092 0.363977 0.8 0 0
0.451491 0.658379 0.078571 0.8 0 0
0.437239 0.878193 0.514973 0.8 0 0
0.443654 0.125773 0.556851 0.8 0 0
0.425816 0.273677 0.092328 0.8 0 0
0.573921 0.754905 0.538746 0.8 0 0
0.234777 0.567065 0.682954 0.8 0 0
0.426329 0.890072 0.499665 0.8 0 0
0.209330 0.093640 0.255032 0.8 0 0
0.328342 0.464193 0.040118 0.8 0 0
0.039714 0.636723 0.327950 0.8 0 0
0.256808 0.112145 0.601809 0.8 0 0
0.254040 0.118090 0.654355 0.8 0 0
0.347775 0.143150 0.149971 0.8 0 0
0.290298 0.917214 0.298407 0.8 0 0
0.310068 0.238209 0.531606 0.8 0 0
0.315715 0.067086 0.244752 0.8 0 0
0.277172 0.231222 0.697668 0.8 0 0
0.176864 0.169216 0.518554 0.8 0 0
0.491666 0.145226 0.274242 0.8 0 0
0.180356 0.655470 0.098405 0.8 0 0
0.041106 0.606742 0.349386 0.8 0 0
0.042027 0.638479 0.368490 0.8 0 0
0.149643 0.227876 0.341556 0.8 0 0
0.070337 0.479915 0.406142 0.8 0 0
0.326484 0.502922 0.032673 0.8 0 0
0.295316 0.819011 0.689730 0.8 0 0
0.582608 0.429655 0.382657 0.8 0 0
0.345568 0.264752 0.123600 0.8 0 0
0.336085 0.109545 0.531437 0.8 0 0
0.390909 0.898346 0.521592 0.8 0 0
0.524455 0.298702 0.315048 0.8 0 0
0.267857 0.036135 0.408316 0.8 0 0
0.135323 0.369909 0.593768 0.8 0 0
0.206156 0.335754 0.106942 0.8 0 0
0.561787 0.419126 0.286886 0.8 0 0
0.607485 0.675971 0.434890 0.8 0 0
0.110746 0.394222 0.259492 0.8 0 0
0.493792 0.813925 0.555190 0.8 0 0
0.301882 0.427117 0.711888 0.8 0 0
0.243674 0.882424 0.541166 0.8 0 0
0.033491 0.621593 0.302311 0.8 0 0
0.585846 0.763602 0.422198 0.8 0 0
0.285445 0.352930 0.737555 0.8 0 0
0.489084 0.536876 0.100263 0.8 0 0
0.202816 0.113735 0.445279 0.8 0 0
0.222810 0.403021 0.681472 0.8 0 0
0.442532 0.234931 0.654406 0.8 0 0
0.321224 0.234552 0.530927 0.8 0 0
0.365006 0.258051 0.423806 0.8 0 0
0.063380 0.529331 0.203752 0.8 0 0
0.425086 0.751212 0.638153 0.8 0 0
0.381271 0.346657 0.067956 0.8 0 0
0.578094 0.466360 0.284578 0.8 0 0
0.486152 0.680757 0.618204 0.8 0 0
0.048260 0.675391 0.345309 0.8 0 0
0.277569 0.159947 0.499815 0.8 0 0
0.123651 0.669941 0.133615 0.8 0 0
0.605657 0.719222 0.445155 0.8 0 0
0.240816 0.119282 0.553080 0.8 0 0
0.126598 0.233040 0.387220 0.8 0 0
0.349619 0.415950 0.770072 0.8 0 0
0.247421 0.899077 0.670166 0.8 0 0
0.365255 0.626224 0.035271 0.8 0 0
0.536077 0.220743 0.467302 0.8 0 0
0.526218 0.617661 0.127625 0.8 0 0
0.416829 0.325363 0.679984 0.8 0 0
0.190368 0.088173 0.341800 0.8 0 0
0.352460 0.233492 0.723133 0.8 0 0
0.341789 0.933160 0.306423 0.8 0 0
0.355557 0.444569 0.727313 0.8 0 0
0.515278 0.196100 0.484023 0.8 0 0
0.367991 0.921261 0.455468 0.8 0 0
0.337210 0.289299 0.738748 0.8 0 0
0.361635 0.541897 0.035678 0.8 0 0
0.353873 0.613385 0.708338 0.8 0 0
0.393961 0.911127 0.302351 0.8 0 0
0.126392 0.708283 0.536811 0.8 0 0
0.470996 0.262030 0.492731 0.8 0 0
0.329836 0.464720 0.039420 0.8 0 0
0.211934 0.880565 0.237990 0.8 0 0
0.628051 0.572443 0.265529 0.8 0 0
0.207881 0.125889 0.465492 0.8 0 0
0.505268 0.277865 0.300645 0.8 0 0
0.546027 0.307212 0.367378 0.8 0 0
0.272986 0.257016 0.122672 0.8 0 0
0.519975 0.781854 0.177864 0.8 0 0
0.459957 0.594655 0.674378 0.8 0 0
0.132856 0.836781 0.322610 0.8 0 0
0.423754 0.872297 0.580712 0.8 0 0
0.439243 0.352959 0.076597 0.8 0 0
0.549065 0.501223 0.155558 0.8 0 0
0.225460 0.786806 0.678164 0.8 0 0
0.550792 0.468856 0.542665 0.8 0 0
0.126327 0.264503 0.496709 0.8 0 0
0.604234 0.383179 0.329542 0.8 0 0
0.049329 0.478657 0.310024 0.8 0 0
0.216285 0.282171 0.259034 0.8 0 0
0.238592 0.398806 0.082265 0.8 0 0
0.523100 0.805897 0.189896 0.8 0 0
0.282998 0.128571 0.154560 0.8 0 0
0.273750 0.283134 0.712606 0.8 0 0
0.156540 0.348446 0.610722 0.8 0 0
0.202333 0.683022 0.087418 0.8 0 0
0.160792 0.787677 0.146517 0.8 0 0
0.070005 0.684982 0.479302 0.8 0 0
0.109459 0.459374 0.531010 0.8 0 0
0.366569 0.468547 0.702633 0.8 0 0
0.421871 0.183809 0.501249 0.8 0 0
0.203218 0.227187 0.496709 0.8 0 0
0.485548 0.159842 0.473074 0.8 0 0
0.219720 0.418984 0.088502 0.8 0 0
0.407674 0.864724 0.187316 0.8 0 0
0.415530 0.271196 0.108061 0.8 0 0
0.080411 0.773891 0.355502 0.8 0 0
0.040152 0.557560 0.345822 0.8 0 0
0.312579 0.907710 0.482024 0.8 0 0
0.364959 0.249477 0.478942 0.8 0 0
0.510545 0.866163 0.332564 0.8 0 0
0.146962 0.465852 0.128805 0.8 0 0
0.280233 0.146061 0.714747 0.8 0 0
0.239887 0.681245 0.672981 0.8 0 0
0.089384 0.431524 0.308429 0.8 0 0
0.590774 0.745238 0.473683 0.8 0 0
0.494984 0.304046 0.156263 0.8 0 0
0.120701 0.535995 0.572266 0.8 0 0
0.408223 0.895162 0.281691 0.8 0 0
0.035466 0.522180 0.349584 0.8 0 0
0.561637 0.798472 0.291845 0.8 0 0
0.385915 0.397691 0.694968 0.8 0 0
0.131087 0.592154 0.581390 0.8 0 0
0.610544 0.498935 0.217345 0.8 0 0
0.474972 0.160848 0.201405 0.8 0 0
0.291507 0.046956 0.436511 0.8 0 0
0.486102 0.268644 0.239369 0.8 0 0
0.487345 0.435169 0.652633 0.8 0 0
0.528848 0.839257 0.320738 0.8 0 0
0.599577 0.686488 0.467409 0.8 0 0
0.345493 0.344617 0.732326 0.8 0 0
0.276686 0.894521 0.227095 0.8 0 0
0.248230 0.063427 0.266396 0.8 0 0
0.490261 0.745619 0.595700 0.8 0 0
0.074618 0.496678 0.196129 0.8 0 0
0.208013 0.540805 0.082070 0.8 0 0
0.283841 0.669073 0.057342 0.8 0 0
0.320683 0.039078 0.434579 0.8 0 0
0.247202 0.743417 0.079104 0.8 0 0
0.092682 0.595372 0.168619 0.8 0 0
0.429943 0.533185 0.066014 0.8 0 0
0.142621 0.290885 0.543068 0.8 0 0
0.507076 0.762572 0.135347 0.8 0 0
0.450413 0.076907 0.427001 0.8 0 0
0.474464 0.280266 0.297446 0.8 0 0
0.350190 0.103562 0.612029 0.8 0 0
0.520926 0.320450 0.171679 0.8 0 0
0.379518 0.788509 0.666713 0.8 0 0
0.186608 0.835902 0.172681 0.8 0 0
0.444941 0.268647 0.414562 0.8 0 0
0.488370 0.419502 0.108413 0.8 0 0
0.189148 0.871221 0.258016 0.8 0 0
0.599377 0.590588 0.429488 0.8 0 0
0.505407 0.261944 0.289889 0.8 0 0
0.189322 0.273288 0.383573 0.8 0 0
0.581290 0.577356 0.443890 0.8 0 0
0.321093 0.033019 0.424628 0.8 0 0
0.199370 0.195632 0.484325 0.8 0 0
0.515121 0.261536 0.327200 0.8 0 0
0.514938 0.794231 0.573555 0.8 0 0
0.316798 0.910146 0.230231 0.8 0 0
0.596905 0.360393 0.340001 0.8 0 0
0.507987 0.216817 0.306817 0.8 0 0
0.462965 0.191830 0.184698 0.8 0 0
0.037063 0.596973 0.316032 0.8 0 0
0.593642 0.534970 0.195689 0.8 0 0
0.448986 0.693706 0.648200 0.8 0 0
0.122930 0.809390 0.512802 0.8 0 0
0.114287 0.368286 0.191784 0.8 0 0
0.399661 0.894916 0.522438 0.8 0 0
0.382993 0.369618 0.742550 0.8 0 0
0.100669 0.663620 0.173894 0.8 0 0
0.497464 0.274243 0.248705 0.8 0 0
0.553672 0.292954 0.459744 0.8 0 0
0.452877 0.776373 0.625389 0.8 0 0
0.325239 0.321471 0.075625 0.8 0 0
0.542157 0.553702 0.144252 0.8 0 0
0.482153 0.272215 0.392855 0.8 0 0
0.507760 0.178540 0.368587 0.8 0 0
0.398734 0.841691 0.133675 0.8 0 0
0.431881 0.227123 0.509915 0.8 0 0
0.385004 0.168865 0.696555 0.8 0 0
0.413159 0.912208 0.670385 0.8 0 0
0.284621 0.275319 0.264356 0.8 0 0
0.182931 0.851661 0.184906 0.8 0 0
0.468206 0.318889 0.087449 0.8 0 0
0.397113 0.357695 0.067919 0.8 0 0
0.319874 0.728963 0.054688 0.8 0 0
0.330772 0.927495 0.276403 0.8 0 0
0.122792 0.242455 0.481333 0.8 0 0
0.360609 0.097472 0.673769 0.8 0 0
0.403692 0.675554 0.688548 0.8 0 0
0.575522 0.770243 0.499538 0.8 0 0
0.491119 0.818506 0.173465 0.8 0 0
0.471742 0.849575 0.504921 0.8 0 0
0.401131 0.910558 0.670228 0.8 0 0
0.532408 0.604694 0.574979 0.8 0 0
0.408965 0.252529 0.500143 0.8 0 0
0.378241 0.261596 0.413271 0.8 0 0
0.159353 0.152383 0.365318 0.8 0 0
0.129958 0.455046 0.587987 0.8 0 0
0.485745 0.749046 0.598497 0.8 0 0
0.316526 0.257703 0.430118 0.8 0 0
0.196594 0.621302 0.086954 0.8 0 0
0.435291 0.132547 0.640084 0.8 0 0
0.236910 0.643687 0.067888 0.8 0 0
0.066851 0.718842 0.498497 0.8 0 0
0.429619 0.127635 0.499304 0.8 0 0
0.088182 0.545861 0.443563 0.8 0 0
0.588554 0.580019 0.186756 0.8 0 0
0.126513 0.764088 0.175919 0.8 0 0
0.513644 0.735375 0.591489 0.8 0 0
0.540290 0.358930 0.299743 0.8 0 0
0.345354 0.605795 0.710148 0.8 0 0
0.382782 0.043774 0.334331 0.8 0 0
0.352026 0.942243 0.685466 0.8 0 0
0.599061 0.495015 0.381377 0.8 0 0
0.355898 0.826211 0.696936 0.8 0 0
0.126236 0.224369 0.444421 0.8 0 0
0.296170 0.544912 0.045757 0.8 0 0
0.534240 0.366084 0.567264 0.8 0 0
0.107503 0.341570 0.341778 0.8 0 0
0.416786 0.116350 0.615279 0.8 0 0
0.155628 0.167515 0.318103 0.8 0 0
0.462859 0.878370 0.236083 0.8 0 0
0.321235 0.918193 0.649391 0.8 0 0
0.471656 0.085582 0.332374 0.8 0 0
0.453566 0.143177 0.475365 0.8 0 0
0.631563 0.569509 0.280316 0.8 0 0
0.420414 0.484724 0.648012 0.8 0 0
0.466844 0.854505 0.501998 0.8 0 0
0.557971 0.801462 0.461435 0.8 0 0
0.064619 0.734964 0.454744 0.8 0 0
0.038116 0.524693 0.312438 0.8 0 0
0.455611 0.517193 0.079750 0.8 0 0
0.476939 0.154042 0.511184 0.8 0 0
0.460289 0.816014 0.128709 0.8 0 0
0.506053 0.240745 0.293246 0.8 0 0
0.073585 0.635308 0.219632 0.8 0 0
0.193181 0.564320 0.087682 0.8 0 0
0.159979 0.146586 0.353648 0.8 0 0
0.259525 0.132655 0.686059 0.8 0 0
0.624619 0.603254 0.401028 0.8 0 0
0.258099 0.534152 0.670901 0.8 0 0
0.183465 0.873303 0.427880 0.8 0 0
0.476074 0.710711 0.102868 0.8 0 0
0.235449 0.271479 0.351487 0.8 0 0
0.256840 0.862668 0.177136 0.8 0 0
0.467057 0.442484 0.092273 0.8 0 0
0.098728 0.548951 0.496493 0.8 0 0
0.139049 0.472036 0.135594 0.8 0 0
0.497230 0.563341 0.646258 0.8 0 0
0.616274 0.509068 0.280228 0.8 0 0
0.178733 0.532493 0.648275 0.8 0 0
0.573693 0.415262 0.236786 0.8 0 0
0.446413 0.659738 0.075539 0.8 0 0
0.557046 0.776139 0.576654 0.8 0 0
0.053150 0.564239 0.341886 0.8 0 0
0.439765 0.146962 0.638593 0.8 0 0
0.498248 0.277020 0.267861 0.8 0 0
0.403377 0.876549 0.709834 0.8 0 0
0.552027 0.368378 0.477339 0.8 0 0
0.372433 0.310523 0.078062 0.8 0 0
0.143836 0.855115 0.353920 0.8 0 0
0.189875 0.252233 0.607091 0.8 0 0
0.388692 0.282539 0.186881 0.8 0 0
0.115945 0.767579 0.589321 0.8 0 0
0.034158 0.542837 0.281927 0.8 0 0
0.384133 0.851581 0.155293 0.8 0 0
0.444121 0.517386 0.639834 0.8 0 0
0.341875 0.073522 0.216484 0.8 0 0
0.275182 0.885552 0.614386 0.8 0 0
0.208537 0.138120 0.537568 0.8 0 0
0.488054 0.275891 0.357549 0.8 0 0
0.347620 0.235129 0.725135 0.8 0 0
0.263431 0.058270 0.447371 0.8 0 0
0.530819 0.298475 0.331814 0.8 0 0
0.066662 0.591993 0.409830 0.8 0 0
0.046225 0.539126 0.384037 0.8 0 0
0.351724 0.972138 0.722711 0.8 0 0
0.460483 0.101406 0.216392 0.8 0 0
0.462478 0.850496 0.552297 0.8 0 0
0.189744 0.269587 0.217477 0.8 0 0
0.121193 0.507623 0.573791 0.8 0 0
0.232764 0.128434 0.477552 0.8 0 0
0.210943 0.759601 0.620714 0.8 0 0
0.535774 0.372438 0.247661 0.8 0 0
0.178800 0.131751 0.424097 0.8 0 0
0.602259 0.683344 0.254350 0.8 0 0
0.397573 0.898085 0.512793 0.8 0 0
