0.674826 0.247490 0.234023 0.8 0 0
0.557230 0.237041 0.303741 0.8 0 0
0.748047 0.254773 0.183682 0.8 0 0
0.808097 0.144839 0.416920 0.8 0 0
0.464277 0.153075 0.373155 0.8 0 0
0.910908 0.234517 0.403502 0.8 0 0
0.374887 0.222711 0.293566 0.8 0 0
0.359682 0.193674 0.398804 0.8 0 0
0.243621 0.123426 0.426639 0.8 0 0
0.447985 0.111241 0.321419 0.8 0 0
0.606901 0.125162 0.423974 0.8 0 0
0.514901 0.108297 0.293455 0.8 0 0
0.462132 0.083868 0.576869 0.8 0 0
0.409994 0.146971 0.441814 0.8 0 0
0.416380 0.148733 0.441564 0.8 0 0
0.241377 0.111979 0.431744 0.8 0 0
0.470878 0.131846 0.464919 0.8 0 0
0.487279 0.233283 0.351899 0.8 0 0
0.324645 0.219390 0.118314 0.8 0 0
0.320232 0.216484 0.061107 0.8 0 0
0.196083 0.058236 0.400433 0.8 0 0
0.377430 0.094465 0.446367 0.8 0 0
0.521010 0.188896 0.413554 0.8 0 0
0.533129 0.095773 0.377654 0.8 0 0
0.376012 0.221157 0.529277 0.8 0 0
0.647881 0.105565 0.408241 0.8 0 0
0.482321 0.073207 0.544664 0.8 0 0
0.472523 0.108618 0.295477 0.8 0 0
0.611035 0.243369 0.256023 0.8 0 0
0.850644 0.172777 0.415745 0.8 0 0
0.405599 0.145407 0.371476 0.8 0 0
0.528542 0.237545 0.483746 0.8 0 0
0.492935 0.111369 0.301482 0.8 0 0
0.676300 0.172285 0.405016 0.8 0 0
0.461596 0.071973 0.522534 0.8 0 0
0.933496 0.206535 0.404746 0.8 0 0
0.374535 0.156307 0.374643 0.8 0 0
0.453313 0.082794 0.486364 0.8 0 0
0.368318 0.177425 0.419348 0.8 0 0
0.748426 0.161420 0.417967 0.8 0 0
0.485243 0.125219 0.444471 0.8 0 0
0.420189 0.222971 0.413191 0.8 0 0
0.527928 0.108185 0.437430 0.8 0 0
0.350472 0.168205 0.434717 0.8 0 0
0.840303 0.157043 0.448471 0.8 0 0
0.443295 0.059471 0.378237 0.8 0 0
0.467287 0.072660 0.247308 0.8 0 0
0.490317 0.089638 0.367765 0.8 0 0
0.452929 0.083750 0.497598 0.8 0 0
0.478156 0.114973 0.521291 0.8 0 0
0.928852 0.200614 0.404505 0.8 0 0
0.850622 0.161408 0.457353 0.8 0 0
0.233155 0.037912 0.386184 0.8 0 0
0.152144 0.203653 0.414825 0.8 0 0
0.506012 0.181273 0.388331 0.8 0 0
0.637444 0.243694 0.561675 0.8 0 0
0.506450 0.143231 0.438983 0.8 0 0
0.272573 0.214969 0.401768 0.8 0 0
0.475229 0.109470 0.265041 0.8 0 0
0.398483 0.223742 0.507626 0.8 0 0
0.615596 0.128616 0.423946 0.8 0 0
0.481287 0.064619 0.440772 0.8 0 0
0.446934 0.084341 0.495119 0.8 0 0
0.200039 0.054192 0.409904 0.8 0 0
0.921371 0.194709 0.403677 0.8 0 0
0.441201 0.087593 0.316920 0.8 0 0
0.513250 0.151028 0.436571 0.8 0 0
0.337775 0.174654 0.428672 0.8 0 0
0.299856 0.068299 0.443107 0.8 0 0
0.769184 0.165790 0.397987 0.8 0 0
0.645308 0.172000 0.404493 0.8 0 0
0.481796 0.109484 0.295477 0.8 0 0
0.204043 0.114871 0.407117 0.8 0 0
0.312917 0.137287 0.442258 0.8 0 0
0.717580 0.118745 0.410524 0.8 0 0
0.510437 0.072076 0.439884 0.8 0 0
0.209570 0.209423 0.401307 0.8 0 0
0.504060 0.233951 0.333740 0.8 0 0
0.364146 0.223201 0.224288 0.8 0 0
0.842470 0.161898 0.434041 0.8 0 0
0.475450 0.092547 0.310071 0.8 0 0
0.339096 0.065017 0.372468 0.8 0 0
0.857567 0.144995 0.401550 0.8 0 0
0.523216 0.236624 0.344897 0.8 0 0
0.931951 0.226811 0.401978 0.8 0 0
0.482117 0.233357 0.359546 0.8 0 0
0.366272 0.124876 0.368968 0.8 0 0
0.323382 0.218982 0.731847 0.8 0 0
0.431416 0.213271 0.402642 0.8 0 0
0.704057 0.150814 0.420793 0.8 0 0
0.392515 0.140821 0.442750 0.8 0 0
0.730109 0.143107 0.420526 0.8 0 0
0.578665 0.239019 0.303333 0.8 0 0
0.364577 0.223019 0.596534 0.8 0 0
0.332640 0.217404 0.140931 0.8 0 0
0.043889 0.195146 0.406866 0.8 0 0
0.208316 0.045337 0.385839 0.8 0 0
0.373207 0.098568 0.446257 0.8 0 0
0.426692 0.090614 0.493230 0.8 0 0
0.671425 0.127603 0.421111 0.8 0 0
0.215273 0.048442 0.412244 0.8 0 0
0.936420 0.225195 0.403093 0.8 0 0
0.920716 0.231632 0.412377 0.8 0 0
0.838174 0.160628 0.352790 0.8 0 0
0.299681 0.066787 0.442148 0.8 0 0
0.470571 0.103764 0.252364 0.8 0 0
0.501275 0.235100 0.353660 0.8 0 0
0.373855 0.172490 0.436565 0.8 0 0
0.717960 0.252595 0.608194 0.8 0 0
0.039273 0.194742 0.407545 0.8 0 0
0.610336 0.244406 0.264671 0.8 0 0
0.465570 0.075532 0.580456 0.8 0 0
0.585704 0.154164 0.390683 0.8 0 0
0.272451 0.062035 0.438091 0.8 0 0
0.360068 0.054887 0.393086 0.8 0 0
0.351259 0.174423 0.399713 0.8 0 0
0.411628 0.128303 0.444239 0.8 0 0
0.259519 0.210659 0.407230 0.8 0 0
0.659381 0.134817 0.422691 0.8 0 0
0.541458 0.094118 0.432560 0.8 0 0
0.484175 0.091971 0.503378 0.8 0 0
0.323384 0.058855 0.434343 0.8 0 0
0.888701 0.169580 0.413381 0.8 0 0
0.402191 0.226278 0.481353 0.8 0 0
0.511957 0.104469 0.519834 0.8 0 0
0.924770 0.236905 0.430941 0.8 0 0
0.544928 0.162441 0.426556 0.8 0 0
0.522048 0.169707 0.427241 0.8 0 0
0.839457 0.162223 0.392692 0.8 0 0
0.242686 0.051605 0.389282 0.8 0 0
0.719516 0.252045 0.611623 0.8 0 0
0.348496 0.219077 0.195706 0.8 0 0
0.213071 0.047641 0.385839 0.8 0 0
0.672829 0.172379 0.405190 0.8 0 0
0.436895 0.130532 0.369377 0.8 0 0
0.515171 0.163899 0.430374 0.8 0 0
0.319743 0.125954 0.369064 0.8 0 0
0.437207 0.222114 0.400843 0.8 0 0
0.464133 0.061424 0.375331 0.8 0 0
0.501442 0.084211 0.545243 0.8 0 0
0.414081 0.079624 0.446511 0.8 0 0
0.443470 0.191271 0.421066 0.8 0 0
0.346474 0.220011 0.418721 0.8 0 0
0.198638 0.087975 0.428073 0.8 0 0
0.403383 0.173230 0.373326 0.8 0 0
0.328932 0.081533 0.366980 0.8 0 0
0.646314 0.152987 0.391527 0.8 0 0
0.370631 0.103089 0.367477 0.8 0 0
0.351968 0.218710 0.631386 0.8 0 0
0.506656 0.063704 0.427774 0.8 0 0
0.574571 0.168373 0.417476 0.8 0 0
0.099509 0.200014 0.408087 0.8 0 0
0.464061 0.124091 0.479867 0.8 0 0
0.491891 0.089181 0.480270 0.8 0 0
0.430891 0.137131 0.370092 0.8 0 0
0.401050 0.226410 0.345982 0.8 0 0
0.712709 0.251789 0.181983 0.8 0 0
0.221904 0.046824 0.398076 0.8 0 0
0.271665 0.099611 0.370280 0.8 0 0
0.926034 0.243813 0.439201 0.8 0 0
0.504470 0.074751 0.581940 0.8 0 0
0.342996 0.148406 0.441564 0.8 0 0
0.556053 0.108871 0.431195 0.8 0 0
0.373718 0.221508 0.583103 0.8 0 0
0.947666 0.218117 0.407512 0.8 0 0
0.371608 0.056240 0.428368 0.8 0 0
0.571150 0.237968 0.518706 0.8 0 0
0.464531 0.060005 0.436056 0.8 0 0
0.463089 0.093882 0.367113 0.8 0 0
0.475291 0.054882 0.417815 0.8 0 0
0.820882 0.135461 0.408234 0.8 0 0
0.513408 0.073019 0.374234 0.8 0 0
0.967969 0.310606 0.437260 0.8 0 0
0.362581 0.196193 0.410715 0.8 0 0
0.425433 0.184908 0.426437 0.8 0 0
0.162500 0.202173 0.407196 0.8 0 0
0.444921 0.054883 0.415218 0.8 0 0
0.187052 0.207591 0.403297 0.8 0 0
0.473806 0.090499 0.446463 0.8 0 0
0.335553 0.217728 0.648162 0.8 0 0
0.502922 0.078575 0.262768 0.8 0 0
0.302615 0.162105 0.396416 0.8 0 0
0.964719 0.307371 0.437260 0.8 0 0
0.434992 0.087316 0.289800 0.8 0 0
0.492518 0.082617 0.484732 0.8 0 0
0.455603 0.099707 0.294960 0.8 0 0
0.929456 0.225195 0.401659 0.8 0 0
0.726532 0.251478 0.629681 0.8 0 0
0.472589 0.118326 0.493685 0.8 0 0
0.343565 0.218050 0.168450 0.8 0 0
0.521107 0.233533 0.479444 0.8 0 0
0.680219 0.250859 0.217739 0.8 0 0
0.259815 0.104119 0.439880 0.8 0 0
0.030665 0.192081 0.395064 0.8 0 0
0.457062 0.163644 0.377573 0.8 0 0
0.472391 0.148173 0.441602 0.8 0 0
0.501611 0.133805 0.372492 0.8 0 0
0.502977 0.078431 0.579223 0.8 0 0
0.437100 0.057790 0.432757 0.8 0 0
0.312952 0.105502 0.445894 0.8 0 0
0.858058 0.147198 0.412440 0.8 0 0
0.473654 0.105575 0.557640 0.8 0 0
0.463936 0.122349 0.300403 0.8 0 0
0.400162 0.178484 0.369876 0.8 0 0
0.591144 0.239650 0.529514 0.8 0 0
0.315891 0.083509 0.366980 0.8 0 0
0.374712 0.167400 0.369981 0.8 0 0
0.472234 0.091144 0.284528 0.8 0 0
0.643325 0.246034 0.553451 0.8 0 0
0.752070 0.150541 0.419809 0.8 0 0
0.565217 0.240352 0.313374 0.8 0 0
0.194477 0.067664 0.415711 0.8 0 0
0.452231 0.188896 0.390173 0.8 0 0
0.194844 0.030983 0.390769 0.8 0 0
0.948461 0.213726 0.406797 0.8 0 0
0.470542 0.077576 0.580459 0.8 0 0
0.195752 0.090018 0.425822 0.8 0 0
0.883219 0.195416 0.414891 0.8 0 0
0.470076 0.114358 0.368082 0.8 0 0
0.308851 0.137384 0.374752 0.8 0 0
0.521204 0.081052 0.435200 0.8 0 0
0.477965 0.118078 0.319211 0.8 0 0
0.456367 0.136953 0.463528 0.8 0 0
0.380809 0.056891 0.382417 0.8 0 0
0.947673 0.238409 0.420202 0.8 0 0
0.641823 0.103986 0.406157 0.8 0 0
0.450314 0.229906 0.423183 0.8 0 0
0.144966 0.203993 0.404669 0.8 0 0
0.849061 0.150121 0.399144 0.8 0 0
0.632528 0.246629 0.559563 0.8 0 0
0.486426 0.086715 0.249381 0.8 0 0
0.253137 0.052808 0.406756 0.8 0 0
0.494702 0.124576 0.367250 0.8 0 0
0.795119 0.149714 0.418500 0.8 0 0
0.270195 0.063574 0.374451 0.8 0 0
0.382578 0.176770 0.366838 0.8 0 0
0.472851 0.105549 0.558758 0.8 0 0
0.510638 0.087345 0.372358 0.8 0 0
0.485118 0.082373 0.532009 0.8 0 0
0.433012 0.211551 0.417249 0.8 0 0
0.411483 0.175409 0.381905 0.8 0 0
0.641550 0.245478 0.234442 0.8 0 0
0.276577 0.079343 0.446435 0.8 0 0
0.327860 0.216586 0.698531 0.8 0 0
0.479831 0.074444 0.251567 0.8 0 0
0.529049 0.160268 0.430277 0.8 0 0
0.383742 0.127730 0.369235 0.8 0 0
0.547068 0.169290 0.422383 0.8 0 0
0.722284 0.251361 0.620447 0.8 0 0
0.479679 0.121519 0.321250 0.8 0 0
0.140094 0.200251 0.403971 0.8 0 0
0.474536 0.078285 0.576909 0.8 0 0
0.227294 0.208452 0.412646 0.8 0 0
0.546383 0.159422 0.427835 0.8 0 0
0.363490 0.222862 0.203144 0.8 0 0
0.407830 0.226983 0.455052 0.8 0 0
0.577204 0.241359 0.530076 0.8 0 0
0.589811 0.242822 0.532785 0.8 0 0
0.613320 0.148311 0.389989 0.8 0 0
0.361066 0.219510 0.599025 0.8 0 0
0.389706 0.092311 0.367074 0.8 0 0
0.450208 0.191536 0.420811 0.8 0 0
0.113707 0.200777 0.397425 0.8 0 0
0.349706 0.167218 0.434979 0.8 0 0
0.363729 0.222411 0.246288 0.8 0 0
0.642451 0.138981 0.423719 0.8 0 0
0.631052 0.108422 0.416428 0.8 0 0
0.236050 0.037860 0.387126 0.8 0 0
0.857225 0.177303 0.397713 0.8 0 0
0.556575 0.172991 0.414443 0.8 0 0
0.298786 0.161147 0.408856 0.8 0 0
0.501813 0.077653 0.580459 0.8 0 0
0.503649 0.064426 0.378218 0.8 0 0
0.535652 0.237013 0.477795 0.8 0 0
0.511135 0.075526 0.234977 0.8 0 0
0.314276 0.216140 0.764175 0.8 0 0
0.553896 0.171256 0.419355 0.8 0 0
0.209174 0.075748 0.433318 0.8 0 0
0.498540 0.121243 0.458852 0.8 0 0
0.429388 0.211667 0.406915 0.8 0 0
0.719750 0.251024 0.194239 0.8 0 0
0.360394 0.222628 0.583319 0.8 0 0
0.388210 0.222168 0.526515 0.8 0 0
0.452477 0.173583 0.432459 0.8 0 0
0.499767 0.073422 0.547738 0.8 0 0
0.485596 0.191899 0.393062 0.8 0 0
0.530256 0.135312 0.435734 0.8 0 0
0.398171 0.123286 0.368825 0.8 0 0
0.176329 0.073329 0.388852 0.8 0 0
0.560816 0.102456 0.385135 0.8 0 0
0.470068 0.120109 0.489282 0.8 0 0
0.579591 0.239081 0.531498 0.8 0 0
0.510298 0.233139 0.482209 0.8 0 0
0.945106 0.219471 0.408225 0.8 0 0
0.853296 0.159734 0.342100 0.8 0 0
0.720022 0.172170 0.404580 0.8 0 0
0.560973 0.083868 0.406605 0.8 0 0
0.444905 0.088027 0.329128 0.8 0 0
0.366938 0.080345 0.446511 0.8 0 0
0.491868 0.056872 0.405994 0.8 0 0
0.312455 0.217147 0.782734 0.8 0 0
0.466267 0.081639 0.249847 0.8 0 0
0.406940 0.071650 0.444496 0.8 0 0
0.319055 0.174728 0.425784 0.8 0 0
0.622762 0.170801 0.401796 0.8 0 0
0.391471 0.150944 0.441140 0.8 0 0
0.253218 0.059961 0.431365 0.8 0 0
0.547047 0.172622 0.402054 0.8 0 0
0.496314 0.107728 0.291846 0.8 0 0
0.106455 0.197668 0.398721 0.8 0 0
0.475517 0.059362 0.435098 0.8 0 0
0.447469 0.097925 0.315139 0.8 0 0
0.913685 0.226969 0.412701 0.8 0 0
0.310275 0.148843 0.438279 0.8 0 0
0.314684 0.170276 0.431697 0.8 0 0
0.499053 0.139635 0.440716 0.8 0 0
0.473874 0.080984 0.531637 0.8 0 0
0.298145 0.217364 0.031122 0.8 0 0
0.491572 0.064919 0.440026 0.8 0 0
0.242146 0.092835 0.375095 0.8 0 0
0.470243 0.104044 0.494498 0.8 0 0
0.456026 0.062553 0.439460 0.8 0 0
0.822593 0.135730 0.408173 0.8 0 0
0.464150 0.109758 0.489385 0.8 0 0
0.900559 0.149266 0.407241 0.8 0 0
0.503272 0.087954 0.554506 0.8 0 0
0.595378 0.121603 0.424107 0.8 0 0
0.398231 0.222981 0.466719 0.8 0 0
0.474903 0.104113 0.367531 0.8 0 0
0.307257 0.171026 0.413944 0.8 0 0
0.483249 0.115489 0.489150 0.8 0 0
0.192315 0.087122 0.387530 0.8 0 0
0.485418 0.093859 0.514374 0.8 0 0
0.514385 0.085007 0.326677 0.8 0 0
0.357594 0.146602 0.371666 0.8 0 0
0.393047 0.222506 0.483557 0.8 0 0
0.773106 0.165989 0.398133 0.8 0 0
0.520897 0.070853 0.384498 0.8 0 0
0.294439 0.213983 0.780964 0.8 0 0
0.673260 0.249779 0.583737 0.8 0 0
0.364839 0.177822 0.421682 0.8 0 0
0.369322 0.124535 0.368937 0.8 0 0
0.420721 0.216946 0.390830 0.8 0 0
0.481635 0.192821 0.393970 0.8 0 0
0.283148 0.106730 0.370447 0.8 0 0
0.892749 0.182936 0.414322 0.8 0 0
0.094578 0.199451 0.409796 0.8 0 0
0.629768 0.164940 0.396886 0.8 0 0
0.800130 0.142423 0.396599 0.8 0 0
0.297258 0.214685 0.038666 0.8 0 0
0.398920 0.089634 0.446484 0.8 0 0
0.393978 0.076577 0.445888 0.8 0 0
0.404145 0.224036 0.316844 0.8 0 0
0.138407 0.201439 0.417225 0.8 0 0
0.227279 0.075363 0.436579 0.8 0 0
0.734233 0.169686 0.399891 0.8 0 0
0.308497 0.215867 0.786571 0.8 0 0
0.414326 0.065976 0.371860 0.8 0 0
0.400794 0.101750 0.446090 0.8 0 0
0.647526 0.113436 0.396277 0.8 0 0
0.392579 0.225283 0.287780 0.8 0 0
0.553320 0.236697 0.510760 0.8 0 0
0.491512 0.082257 0.281524 0.8 0 0
0.271318 0.054885 0.403743 0.8 0 0
0.480358 0.122011 0.472673 0.8 0 0
0.262701 0.071645 0.371449 0.8 0 0
0.368238 0.221924 0.277022 0.8 0 0
0.627262 0.108594 0.417025 0.8 0 0
0.449547 0.103635 0.521253 0.8 0 0
0.477389 0.082223 0.508542 0.8 0 0
0.381288 0.198297 0.407271 0.8 0 0
0.309083 0.148339 0.438005 0.8 0 0
0.926558 0.245796 0.410505 0.8 0 0
0.302381 0.156573 0.421342 0.8 0 0
0.496398 0.105418 0.531031 0.8 0 0
0.497496 0.082040 0.304720 0.8 0 0
0.335563 0.121573 0.444832 0.8 0 0
0.170601 0.065382 0.410061 0.8 0 0
0.451328 0.137268 0.362267 0.8 0 0
0.354582 0.119577 0.445010 0.8 0 0
0.891785 0.187470 0.398459 0.8 0 0
0.202049 0.055894 0.420779 0.8 0 0
0.204026 0.085149 0.382311 0.8 0 0
0.359730 0.219524 0.409601 0.8 0 0
0.448546 0.077433 0.267352 0.8 0 0
0.849286 0.160805 0.474579 0.8 0 0
0.940898 0.251772 0.407271 0.8 0 0
0.666682 0.246553 0.592625 0.8 0 0
0.185588 0.206671 0.414277 0.8 0 0
0.696215 0.119289 0.415538 0.8 0 0
0.530682 0.112985 0.377023 0.8 0 0
0.929621 0.244046 0.402038 0.8 0 0
0.266160 0.076798 0.369485 0.8 0 0
0.630198 0.145349 0.423165 0.8 0 0
0.678781 0.247638 0.601951 0.8 0 0
0.358993 0.219397 0.207262 0.8 0 0
0.385941 0.178406 0.368570 0.8 0 0
0.412425 0.228229 0.428020 0.8 0 0
0.488934 0.073177 0.231548 0.8 0 0
0.480715 0.127870 0.348887 0.8 0 0
0.344326 0.220796 0.412880 0.8 0 0
0.498266 0.092725 0.286416 0.8 0 0
0.406559 0.126661 0.444380 0.8 0 0
0.491350 0.079474 0.237083 0.8 0 0
0.696848 0.147174 0.392051 0.8 0 0
0.943639 0.220946 0.408729 0.8 0 0
0.576147 0.240999 0.286542 0.8 0 0
0.286247 0.114301 0.440659 0.8 0 0
0.380981 0.116207 0.445310 0.8 0 0
0.360037 0.175385 0.414776 0.8 0 0
0.854242 0.186033 0.402346 0.8 0 0
0.626506 0.171453 0.403456 0.8 0 0
0.157995 0.203223 0.395069 0.8 0 0
0.438601 0.088736 0.366987 0.8 0 0
0.103904 0.197476 0.411560 0.8 0 0
0.505362 0.127615 0.440952 0.8 0 0
0.230215 0.075627 0.437181 0.8 0 0
0.497149 0.110182 0.305277 0.8 0 0
0.936069 0.211610 0.437243 0.8 0 0
0.472057 0.070493 0.263146 0.8 0 0
0.333296 0.153198 0.440300 0.8 0 0
0.456042 0.231876 0.432113 0.8 0 0
0.685773 0.248343 0.209672 0.8 0 0
0.633038 0.132178 0.423571 0.8 0 0
0.350035 0.060469 0.436747 0.8 0 0
0.472800 0.117094 0.291953 0.8 0 0
0.604384 0.164097 0.395631 0.8 0 0
0.642667 0.244407 0.242306 0.8 0 0
0.312568 0.218216 0.721250 0.8 0 0
0.508943 0.079763 0.283736 0.8 0 0
0.702385 0.252541 0.198066 0.8 0 0
0.413953 0.093055 0.367093 0.8 0 0
0.503735 0.061505 0.416636 0.8 0 0
0.848535 0.158774 0.423647 0.8 0 0
0.695987 0.172013 0.409004 0.8 0 0
0.521579 0.235062 0.465041 0.8 0 0
0.310325 0.087718 0.366981 0.8 0 0
0.396663 0.224337 0.286312 0.8 0 0
0.417579 0.098883 0.446241 0.8 0 0
0.464295 0.057898 0.432918 0.8 0 0
0.709210 0.149054 0.392567 0.8 0 0
0.301401 0.147222 0.410573 0.8 0 0
0.900038 0.174463 0.401928 0.8 0 0
0.236282 0.049753 0.398315 0.8 0 0
0.296087 0.136477 0.383824 0.8 0 0
0.388283 0.125518 0.444480 0.8 0 0
0.481821 0.088098 0.311160 0.8 0 0
0.459499 0.121377 0.307473 0.8 0 0
0.305660 0.171467 0.397183 0.8 0 0
0.584294 0.241299 0.513551 0.8 0 0
0.503002 0.063149 0.382464 0.8 0 0
0.710366 0.250124 0.620173 0.8 0 0
0.242202 0.209392 0.400924 0.8 0 0
0.490223 0.090872 0.503084 0.8 0 0
0.349811 0.181924 0.406820 0.8 0 0
0.460193 0.073955 0.266287 0.8 0 0
0.350009 0.062844 0.439645 0.8 0 0
0.374887 0.109070 0.445704 0.8 0 0
0.193906 0.058251 0.392685 0.8 0 0
0.697188 0.251129 0.194736 0.8 0 0
0.604997 0.172940 0.407469 0.8 0 0
0.642765 0.115684 0.395142 0.8 0 0
0.515673 0.087193 0.497625 0.8 0 0
0.311723 0.054886 0.397735 0.8 0 0
0.416045 0.177039 0.430860 0.8 0 0
0.516658 0.091926 0.439907 0.8 0 0
0.441059 0.077157 0.446052 0.8 0 0
0.522135 0.236460 0.327377 0.8 0 0
0.216057 0.114838 0.401314 0.8 0 0
0.487445 0.105215 0.489217 0.8 0 0
0.629791 0.129910 0.423488 0.8 0 0
0.495036 0.122911 0.352720 0.8 0 0
0.714067 0.251697 0.606707 0.8 0 0
0.551247 0.238403 0.489385 0.8 0 0
0.457299 0.126444 0.315508 0.8 0 0
0.824926 0.146304 0.416038 0.8 0 0
0.347912 0.074512 0.445305 0.8 0 0
0.435210 0.120481 0.444929 0.8 0 0
0.504318 0.074024 0.555341 0.8 0 0
0.641288 0.244157 0.570972 0.8 0 0
0.659244 0.245660 0.234054 0.8 0 0
0.359065 0.057934 0.380525 0.8 0 0
0.358036 0.070283 0.369379 0.8 0 0
0.378772 0.055531 0.425394 0.8 0 0
0.468586 0.109438 0.254701 0.8 0 0
0.401341 0.226002 0.312815 0.8 0 0
0.455355 0.095429 0.502131 0.8 0 0
0.859943 0.161040 0.426545 0.8 0 0
0.482496 0.117351 0.489192 0.8 0 0
0.323557 0.088002 0.366981 0.8 0 0
0.353911 0.220558 0.659369 0.8 0 0
0.323391 0.216764 0.732577 0.8 0 0
0.466362 0.231676 0.449256 0.8 0 0
0.645531 0.246262 0.583915 0.8 0 0
0.192864 0.058865 0.421282 0.8 0 0
0.455714 0.071341 0.444409 0.8 0 0
0.538368 0.178105 0.407428 0.8 0 0
0.544618 0.237818 0.306455 0.8 0 0
0.356985 0.054885 0.405229 0.8 0 0
0.486782 0.118738 0.321682 0.8 0 0
0.270592 0.091088 0.369032 0.8 0 0
0.406478 0.083375 0.366980 0.8 0 0
0.518043 0.078093 0.267352 0.8 0 0
0.457719 0.085006 0.531847 0.8 0 0
0.478966 0.125211 0.478381 0.8 0 0
0.498747 0.060387 0.389226 0.8 0 0
0.790793 0.145379 0.418050 0.8 0 0
0.648980 0.172105 0.409444 0.8 0 0
0.276036 0.061220 0.375812 0.8 0 0
0.408588 0.179095 0.383704 0.8 0 0
0.242100 0.104615 0.378234 0.8 0 0
0.452835 0.073952 0.288472 0.8 0 0
0.878331 0.233680 0.434536 0.8 0 0
0.215531 0.102702 0.427912 0.8 0 0
0.327484 0.054887 0.393679 0.8 0 0
0.327657 0.216571 0.707794 0.8 0 0
0.432319 0.087522 0.518683 0.8 0 0
0.512531 0.115641 0.490645 0.8 0 0
0.497273 0.079347 0.282459 0.8 0 0
0.467000 0.229362 0.432046 0.8 0 0
0.422426 0.218854 0.391358 0.8 0 0
0.433710 0.098522 0.367236 0.8 0 0
0.554589 0.132824 0.381868 0.8 0 0
0.341942 0.054886 0.394858 0.8 0 0
0.265930 0.088573 0.443761 0.8 0 0
0.600556 0.243601 0.284853 0.8 0 0
0.620845 0.245656 0.264448 0.8 0 0
0.462122 0.196976 0.415400 0.8 0 0
0.856136 0.161918 0.376974 0.8 0 0
0.238212 0.209683 0.414292 0.8 0 0
0.230661 0.208741 0.412614 0.8 0 0
0.410240 0.227964 0.368532 0.8 0 0
0.369453 0.138830 0.443040 0.8 0 0
0.412914 0.061182 0.375691 0.8 0 0
0.283793 0.142925 0.413863 0.8 0 0
0.361841 0.222797 0.229942 0.8 0 0
0.459424 0.085408 0.508771 0.8 0 0
0.306140 0.171846 0.425737 0.8 0 0
0.861643 0.240915 0.435175 0.8 0 0
0.601407 0.241561 0.266689 0.8 0 0
0.181611 0.204618 0.396723 0.8 0 0
0.489519 0.102404 0.554764 0.8 0 0
0.458674 0.105205 0.291388 0.8 0 0
0.492873 0.100691 0.499514 0.8 0 0
0.378270 0.055617 0.387755 0.8 0 0
0.531675 0.237843 0.329563 0.8 0 0
0.871914 0.158054 0.398996 0.8 0 0
0.276318 0.116652 0.373824 0.8 0 0
0.425721 0.207589 0.411753 0.8 0 0
0.476943 0.229674 0.444946 0.8 0 0
0.303643 0.149873 0.394868 0.8 0 0
0.437888 0.074940 0.368067 0.8 0 0
0.532652 0.234731 0.482608 0.8 0 0
0.348238 0.218461 0.174450 0.8 0 0
0.729026 0.154413 0.419747 0.8 0 0
0.454300 0.060352 0.436572 0.8 0 0
0.625604 0.243123 0.253184 0.8 0 0
0.494852 0.196909 0.411742 0.8 0 0
0.535782 0.074025 0.403067 0.8 0 0
0.381902 0.221385 0.284827 0.8 0 0
0.387176 0.222226 0.271709 0.8 0 0
0.817462 0.170414 0.411401 0.8 0 0
0.451140 0.199759 0.405939 0.8 0 0
0.307178 0.216292 0.083940 0.8 0 0
0.430171 0.195138 0.414815 0.8 0 0
0.468303 0.097975 0.367213 0.8 0 0
0.573753 0.130252 0.385102 0.8 0 0
0.370822 0.222198 0.284063 0.8 0 0
0.269407 0.056497 0.387559 0.8 0 0
0.274983 0.057567 0.432010 0.8 0 0
0.816076 0.134201 0.406149 0.8 0 0
0.499399 0.089120 0.303431 0.8 0 0
0.389171 0.193592 0.417347 0.8 0 0
0.519767 0.233416 0.478466 0.8 0 0
0.837577 0.160439 0.350450 0.8 0 0
0.497756 0.231495 0.463982 0.8 0 0
0.376067 0.224190 0.543939 0.8 0 0
0.334755 0.220645 0.133848 0.8 0 0
0.297883 0.159896 0.408924 0.8 0 0
0.450977 0.080591 0.529696 0.8 0 0
0.482136 0.087252 0.249014 0.8 0 0
0.439712 0.106758 0.445828 0.8 0 0
0.882662 0.168811 0.414615 0.8 0 0
0.513338 0.084275 0.487259 0.8 0 0
0.866355 0.173376 0.416424 0.8 0 0
0.222323 0.080161 0.377734 0.8 0 0
0.495295 0.113548 0.317706 0.8 0 0
0.355915 0.056238 0.385152 0.8 0 0
0.469591 0.094285 0.479950 0.8 0 0
0.718982 0.137953 0.393251 0.8 0 0
0.499956 0.083198 0.304857 0.8 0 0
0.748074 0.160103 0.418553 0.8 0 0
0.352067 0.114898 0.445389 0.8 0 0
0.955761 0.182679 0.437238 0.8 0 0
0.673890 0.122940 0.419591 0.8 0 0
0.319613 0.065241 0.372326 0.8 0 0
0.456437 0.106744 0.522036 0.8 0 0
0.785263 0.137674 0.397146 0.8 0 0
0.489693 0.089010 0.367625 0.8 0 0
0.317022 0.132303 0.443817 0.8 0 0
0.476940 0.108238 0.541873 0.8 0 0
0.474447 0.066652 0.442062 0.8 0 0
0.463104 0.082172 0.366980 0.8 0 0
0.570794 0.107426 0.387014 0.8 0 0
0.033524 0.194232 0.404433 0.8 0 0
0.467490 0.078710 0.266944 0.8 0 0
0.447996 0.110377 0.321416 0.8 0 0
0.297891 0.215230 0.050254 0.8 0 0
0.490580 0.057885 0.385066 0.8 0 0
0.503492 0.079888 0.550652 0.8 0 0
0.553998 0.150941 0.384210 0.8 0 0
0.422205 0.066208 0.441780 0.8 0 0
0.280904 0.082281 0.446341 0.8 0 0
0.715957 0.151855 0.393087 0.8 0 0
0.420898 0.106063 0.445864 0.8 0 0
0.478030 0.114541 0.290120 0.8 0 0
0.336301 0.220016 0.693961 0.8 0 0
0.450726 0.179953 0.384172 0.8 0 0
0.741197 0.172600 0.405461 0.8 0 0
0.226640 0.094560 0.434350 0.8 0 0
0.546874 0.112344 0.433315 0.8 0 0
0.507046 0.073520 0.372499 0.8 0 0
0.591942 0.095644 0.405444 0.8 0 0
0.187389 0.084527 0.425043 0.8 0 0
0.300561 0.160213 0.431158 0.8 0 0
0.506688 0.062660 0.395132 0.8 0 0
0.458258 0.131810 0.361938 0.8 0 0
0.457383 0.054884 0.410226 0.8 0 0
0.334561 0.168583 0.378970 0.8 0 0
0.849115 0.162220 0.391206 0.8 0 0
0.347212 0.218370 0.175280 0.8 0 0
0.137781 0.202049 0.395342 0.8 0 0
0.478918 0.124404 0.462665 0.8 0 0
0.510050 0.235517 0.353682 0.8 0 0
0.736091 0.165008 0.416073 0.8 0 0
0.386358 0.221991 0.500838 0.8 0 0
0.653811 0.245388 0.570444 0.8 0 0
0.680076 0.143470 0.422315 0.8 0 0
0.294116 0.140354 0.390586 0.8 0 0
0.257391 0.056698 0.396294 0.8 0 0
0.447698 0.088784 0.499701 0.8 0 0
0.521176 0.236550 0.329359 0.8 0 0
0.304602 0.145731 0.378540 0.8 0 0
0.408917 0.061056 0.375879 0.8 0 0
0.665349 0.120985 0.419503 0.8 0 0
0.717816 0.251152 0.615853 0.8 0 0
0.668526 0.115698 0.416499 0.8 0 0
0.480224 0.072721 0.561525 0.8 0 0
0.352360 0.171728 0.432033 0.8 0 0
0.480216 0.176459 0.382391 0.8 0 0
0.408887 0.226418 0.469499 0.8 0 0
0.419282 0.076984 0.446003 0.8 0 0
0.498565 0.089061 0.273173 0.8 0 0
0.363795 0.171451 0.432351 0.8 0 0
0.597669 0.172271 0.404692 0.8 0 0
0.404597 0.226351 0.326017 0.8 0 0
0.359600 0.157990 0.375344 0.8 0 0
0.821842 0.152872 0.395776 0.8 0 0
0.404150 0.117748 0.368329 0.8 0 0
0.466403 0.113235 0.295465 0.8 0 0
0.353608 0.218972 0.403340 0.8 0 0
0.435652 0.165932 0.435330 0.8 0 0
0.302365 0.217702 0.772569 0.8 0 0
0.246624 0.211662 0.416387 0.8 0 0
0.247481 0.075393 0.373151 0.8 0 0
0.189420 0.067667 0.394398 0.8 0 0
0.420926 0.215697 0.391700 0.8 0 0
0.353513 0.219316 0.207310 0.8 0 0
0.447303 0.056663 0.430141 0.8 0 0
0.521115 0.161706 0.382610 0.8 0 0
0.904892 0.229944 0.409324 0.8 0 0
0.447842 0.094294 0.520851 0.8 0 0
0.843399 0.157682 0.453189 0.8 0 0
0.671189 0.158399 0.420161 0.8 0 0
0.302430 0.171824 0.421434 0.8 0 0
0.211929 0.025353 0.385835 0.8 0 0
0.935140 0.225103 0.402841 0.8 0 0
0.407876 0.194085 0.395234 0.8 0 0
0.620459 0.151850 0.422852 0.8 0 0
0.509973 0.083039 0.495125 0.8 0 0
0.643091 0.245301 0.580841 0.8 0 0
0.361220 0.219523 0.595917 0.8 0 0
0.840214 0.157091 0.432691 0.8 0 0
0.668898 0.139966 0.422844 0.8 0 0
0.630779 0.168455 0.398661 0.8 0 0
0.306824 0.215107 0.400077 0.8 0 0
0.723576 0.254451 0.183006 0.8 0 0
0.956482 0.285438 0.434981 0.8 0 0
0.880792 0.177041 0.416070 0.8 0 0
0.866866 0.174420 0.397172 0.8 0 0
0.894856 0.221188 0.409763 0.8 0 0
0.744435 0.254210 0.629876 0.8 0 0
0.477254 0.109780 0.278699 0.8 0 0
0.595084 0.111895 0.421485 0.8 0 0
0.613977 0.147438 0.423472 0.8 0 0
0.532245 0.104981 0.377109 0.8 0 0
0.401034 0.171705 0.376671 0.8 0 0
0.516138 0.075586 0.265632 0.8 0 0
0.469720 0.113256 0.324283 0.8 0 0
0.265236 0.056580 0.424332 0.8 0 0
0.606866 0.100831 0.413920 0.8 0 0
0.442069 0.078850 0.546761 0.8 0 0
0.252775 0.056990 0.420283 0.8 0 0
0.328692 0.176019 0.423072 0.8 0 0
0.134107 0.199689 0.406973 0.8 0 0
0.485160 0.230473 0.448766 0.8 0 0
0.320878 0.097934 0.367212 0.8 0 0
0.503645 0.084883 0.268884 0.8 0 0
0.849661 0.161236 0.461688 0.8 0 0
0.320173 0.154392 0.439624 0.8 0 0
0.378293 0.223980 0.558982 0.8 0 0
0.521588 0.081869 0.435563 0.8 0 0
0.601209 0.101097 0.398573 0.8 0 0
0.377715 0.170248 0.447749 0.8 0 0
0.442765 0.058940 0.434469 0.8 0 0
0.928933 0.245592 0.411060 0.8 0 0
0.499785 0.077632 0.530405 0.8 0 0
0.456853 0.135560 0.344950 0.8 0 0
0.495091 0.097201 0.480735 0.8 0 0
0.509958 0.065363 0.424995 0.8 0 0
0.436405 0.087642 0.523909 0.8 0 0
0.414864 0.056335 0.428767 0.8 0 0
0.494772 0.084707 0.313267 0.8 0 0
0.787233 0.163021 0.416977 0.8 0 0
0.407476 0.054884 0.406173 0.8 0 0
0.576085 0.146062 0.387083 0.8 0 0
0.364242 0.221912 0.551291 0.8 0 0
0.515130 0.148299 0.376948 0.8 0 0
0.539686 0.237833 0.313352 0.8 0 0
0.561965 0.172535 0.405080 0.8 0 0
0.944764 0.245811 0.402320 0.8 0 0
0.458490 0.230150 0.383613 0.8 0 0
0.810655 0.144207 0.396937 0.8 0 0
0.501559 0.084573 0.544680 0.8 0 0
0.251439 0.213312 0.405419 0.8 0 0
0.469823 0.100329 0.499876 0.8 0 0
0.216958 0.109677 0.422328 0.8 0 0
0.744106 0.128906 0.415809 0.8 0 0
0.473397 0.128704 0.365660 0.8 0 0
0.473085 0.115772 0.510417 0.8 0 0
0.354798 0.105087 0.445915 0.8 0 0
0.480892 0.177382 0.382818 0.8 0 0
0.184482 0.053639 0.408880 0.8 0 0
0.460770 0.057080 0.431699 0.8 0 0
0.553947 0.081420 0.413361 0.8 0 0
0.242972 0.123162 0.387341 0.8 0 0
0.515226 0.105564 0.520454 0.8 0 0
0.298052 0.077876 0.446255 0.8 0 0
0.646494 0.170609 0.401938 0.8 0 0
0.359229 0.087770 0.446512 0.8 0 0
0.252974 0.138791 0.403341 0.8 0 0
0.468295 0.109709 0.367830 0.8 0 0
0.333890 0.217675 0.699884 0.8 0 0
0.757164 0.172091 0.404417 0.8 0 0
0.428436 0.190343 0.391564 0.8 0 0
0.860781 0.165403 0.396542 0.8 0 0
0.333726 0.218055 0.707967 0.8 0 0
0.746950 0.121971 0.406685 0.8 0 0
0.376267 0.222801 0.224942 0.8 0 0
0.494244 0.071892 0.291406 0.8 0 0
0.663323 0.153390 0.392050 0.8 0 0
0.417398 0.223722 0.397911 0.8 0 0
0.494600 0.118746 0.478535 0.8 0 0
0.640315 0.244147 0.561052 0.8 0 0
0.413256 0.166134 0.378242 0.8 0 0
0.321867 0.216543 0.109138 0.8 0 0
0.353253 0.180359 0.404974 0.8 0 0
0.399455 0.154938 0.443948 0.8 0 0
0.308968 0.167040 0.433742 0.8 0 0
0.209234 0.113939 0.413092 0.8 0 0
0.587261 0.125365 0.424937 0.8 0 0
0.455752 0.132896 0.369531 0.8 0 0
0.468244 0.107976 0.518027 0.8 0 0
0.409253 0.144587 0.371321 0.8 0 0
0.354112 0.218974 0.189949 0.8 0 0
0.252052 0.210655 0.397038 0.8 0 0
0.740734 0.139120 0.394096 0.8 0 0
0.414285 0.054885 0.402341 0.8 0 0
0.369184 0.223639 0.238831 0.8 0 0
0.460079 0.078827 0.236581 0.8 0 0
0.367473 0.220564 0.548381 0.8 0 0
0.453728 0.227160 0.387752 0.8 0 0
0.848834 0.160860 0.340363 0.8 0 0
0.322901 0.056132 0.385598 0.8 0 0
0.743502 0.254616 0.170675 0.8 0 0
0.482292 0.118195 0.488979 0.8 0 0
0.475023 0.115216 0.511047 0.8 0 0
0.342640 0.219068 0.415782 0.8 0 0
0.483175 0.072675 0.264026 0.8 0 0
0.175478 0.088378 0.412855 0.8 0 0
0.364400 0.149792 0.440939 0.8 0 0
0.465876 0.089201 0.530722 0.8 0 0
0.306435 0.131380 0.441886 0.8 0 0
0.302729 0.162758 0.391087 0.8 0 0
0.837330 0.161348 0.439118 0.8 0 0
0.456575 0.156098 0.374504 0.8 0 0
0.387235 0.115664 0.368153 0.8 0 0
0.223484 0.109957 0.388410 0.8 0 0
0.760943 0.165451 0.415707 0.8 0 0
0.372094 0.092053 0.367068 0.8 0 0
0.391831 0.222255 0.305657 0.8 0 0
0.446691 0.083594 0.366980 0.8 0 0
0.726014 0.251509 0.185713 0.8 0 0
0.356081 0.222358 0.187025 0.8 0 0
0.501811 0.161046 0.379267 0.8 0 0
0.161436 0.064301 0.407158 0.8 0 0
0.730802 0.251849 0.629554 0.8 0 0
0.489665 0.147222 0.441259 0.8 0 0
0.855375 0.161072 0.340304 0.8 0 0
0.466673 0.089018 0.562516 0.8 0 0
0.452159 0.075513 0.265951 0.8 0 0
0.299913 0.166289 0.411794 0.8 0 0
0.884178 0.234310 0.437247 0.8 0 0
0.495487 0.150485 0.373821 0.8 0 0
0.693904 0.169271 0.399406 0.8 0 0
0.619119 0.120557 0.390954 0.8 0 0
0.461066 0.079459 0.446511 0.8 0 0
0.726743 0.168029 0.398813 0.8 0 0
0.496496 0.081221 0.237862 0.8 0 0
0.893483 0.207672 0.399496 0.8 0 0
0.657378 0.170747 0.402191 0.8 0 0
0.504507 0.129364 0.372569 0.8 0 0
0.388652 0.223434 0.336746 0.8 0 0
0.493974 0.123994 0.449874 0.8 0 0
0.716852 0.130815 0.394110 0.8 0 0
0.677881 0.169295 0.399523 0.8 0 0
0.630791 0.243840 0.550270 0.8 0 0
0.474701 0.112666 0.523668 0.8 0 0
0.517663 0.093421 0.373812 0.8 0 0
0.303604 0.064504 0.372793 0.8 0 0
0.510452 0.166038 0.382054 0.8 0 0
0.084120 0.196793 0.417852 0.8 0 0
0.478006 0.096218 0.561769 0.8 0 0
0.495352 0.124158 0.358422 0.8 0 0
0.314847 0.216815 0.104810 0.8 0 0
0.928694 0.238984 0.432490 0.8 0 0
0.396583 0.140509 0.442795 0.8 0 0
0.501342 0.075185 0.271797 0.8 0 0
0.487656 0.114566 0.306031 0.8 0 0
0.348244 0.220832 0.202885 0.8 0 0
0.446316 0.064720 0.372657 0.8 0 0
0.461329 0.120502 0.520370 0.8 0 0
0.704127 0.147794 0.392289 0.8 0 0
0.455020 0.076280 0.284795 0.8 0 0
0.742595 0.142881 0.393633 0.8 0 0
0.432601 0.114663 0.368099 0.8 0 0
0.100360 0.199816 0.410642 0.8 0 0
0.562265 0.160683 0.424691 0.8 0 0
0.675968 0.247322 0.218033 0.8 0 0
0.296926 0.143855 0.409820 0.8 0 0
0.392056 0.223726 0.538037 0.8 0 0
0.492338 0.109871 0.515453 0.8 0 0
0.647648 0.138567 0.389945 0.8 0 0
0.367065 0.086738 0.366981 0.8 0 0
0.467394 0.098234 0.367220 0.8 0 0
0.210895 0.025002 0.387525 0.8 0 0
0.467221 0.070997 0.581939 0.8 0 0
0.850899 0.159222 0.466474 0.8 0 0
0.457721 0.099255 0.367274 0.8 0 0
0.449575 0.171553 0.380119 0.8 0 0
0.382169 0.132012 0.443845 0.8 0 0
0.392778 0.180648 0.366382 0.8 0 0
0.459066 0.130936 0.484306 0.8 0 0
0.506880 0.089936 0.301602 0.8 0 0
0.475106 0.124296 0.467212 0.8 0 0
0.301076 0.155966 0.382409 0.8 0 0
0.486253 0.126324 0.351838 0.8 0 0
0.583099 0.242311 0.525115 0.8 0 0
0.333985 0.217125 0.678962 0.8 0 0
0.928630 0.225339 0.412138 0.8 0 0
0.950479 0.184158 0.436920 0.8 0 0
0.495905 0.104206 0.276525 0.8 0 0
0.921119 0.177627 0.406162 0.8 0 0
0.484830 0.230891 0.463558 0.8 0 0
0.473997 0.132121 0.354961 0.8 0 0
0.493448 0.116892 0.325142 0.8 0 0
0.475845 0.117932 0.316261 0.8 0 0
0.311331 0.110107 0.445648 0.8 0 0
0.420857 0.136437 0.443466 0.8 0 0
0.830031 0.144196 0.398372 0.8 0 0
0.367318 0.139469 0.370562 0.8 0 0
0.256620 0.088587 0.441822 0.8 0 0
0.340308 0.176410 0.392564 0.8 0 0
0.910773 0.220373 0.400383 0.8 0 0
0.818895 0.167913 0.414343 0.8 0 0
0.302464 0.214829 0.749766 0.8 0 0
0.901711 0.230809 0.435528 0.8 0 0
0.377040 0.123977 0.368887 0.8 0 0
0.254837 0.058134 0.387559 0.8 0 0
0.332458 0.174282 0.399769 0.8 0 0
0.412403 0.224804 0.363636 0.8 0 0
0.506922 0.194502 0.411567 0.8 0 0
0.490487 0.194099 0.417371 0.8 0 0
0.896596 0.165030 0.410911 0.8 0 0
0.676573 0.110093 0.407393 0.8 0 0
0.524079 0.182338 0.418130 0.8 0 0
0.303750 0.217819 0.766702 0.8 0 0
0.490219 0.115243 0.494595 0.8 0 0
0.465330 0.125635 0.314555 0.8 0 0
0.432794 0.230198 0.400643 0.8 0 0
0.492914 0.093878 0.287309 0.8 0 0
0.414924 0.216809 0.421096 0.8 0 0
0.283338 0.087602 0.446082 0.8 0 0
0.949649 0.290765 0.436890 0.8 0 0
0.229622 0.208973 0.414535 0.8 0 0
0.895436 0.178674 0.413252 0.8 0 0
0.471605 0.190529 0.421779 0.8 0 0
0.377111 0.054882 0.420163 0.8 0 0
0.933066 0.227127 0.435323 0.8 0 0
0.404898 0.171421 0.372346 0.8 0 0
0.406172 0.157384 0.375077 0.8 0 0
0.314291 0.164006 0.407814 0.8 0 0
0.380119 0.173381 0.448556 0.8 0 0
0.279317 0.120096 0.375189 0.8 0 0
0.388294 0.131488 0.369609 0.8 0 0
0.384906 0.224753 0.270666 0.8 0 0
0.682628 0.124373 0.394126 0.8 0 0
0.561342 0.092843 0.423959 0.8 0 0
0.335415 0.218890 0.637429 0.8 0 0
0.236155 0.036817 0.396806 0.8 0 0
0.500094 0.118703 0.468211 0.8 0 0
0.553312 0.239371 0.320970 0.8 0 0
0.466463 0.072656 0.561635 0.8 0 0
0.353712 0.221865 0.165941 0.8 0 0
0.799560 0.169295 0.399960 0.8 0 0
0.271963 0.055337 0.393633 0.8 0 0
0.461253 0.099949 0.518306 0.8 0 0
0.456167 0.141550 0.367595 0.8 0 0
0.326099 0.159966 0.376401 0.8 0 0
0.463007 0.105943 0.522295 0.8 0 0
0.259586 0.139982 0.397628 0.8 0 0
0.585921 0.241679 0.278109 0.8 0 0
0.449134 0.054884 0.409722 0.8 0 0
0.505687 0.096961 0.442264 0.8 0 0
0.483367 0.106151 0.319808 0.8 0 0
0.505618 0.235543 0.469266 0.8 0 0
0.576054 0.162765 0.391884 0.8 0 0
0.119873 0.198779 0.399630 0.8 0 0
0.296197 0.151740 0.433530 0.8 0 0
0.629887 0.146295 0.390174 0.8 0 0
0.704757 0.131886 0.393409 0.8 0 0
0.468491 0.119724 0.317123 0.8 0 0
0.358256 0.054886 0.396760 0.8 0 0
0.647715 0.147387 0.390812 0.8 0 0
0.598849 0.111503 0.421114 0.8 0 0
0.257061 0.128108 0.430260 0.8 0 0
0.652177 0.172580 0.408333 0.8 0 0
0.804872 0.143218 0.416759 0.8 0 0
0.589381 0.143208 0.424639 0.8 0 0
0.396444 0.153626 0.371201 0.8 0 0
0.295544 0.216252 0.396343 0.8 0 0
0.319643 0.216699 0.749248 0.8 0 0
0.478215 0.166028 0.435304 0.8 0 0
0.280333 0.055549 0.425471 0.8 0 0
0.557800 0.166884 0.391251 0.8 0 0
0.317514 0.072747 0.444806 0.8 0 0
0.640942 0.105608 0.402228 0.8 0 0
0.744141 0.123524 0.402693 0.8 0 0
0.341103 0.217837 0.159034 0.8 0 0
0.527752 0.237046 0.493897 0.8 0 0
0.362426 0.219629 0.592791 0.8 0 0
0.491508 0.106570 0.282378 0.8 0 0
0.617456 0.133274 0.424313 0.8 0 0
0.325911 0.217334 0.731474 0.8 0 0
0.442830 0.075590 0.236097 0.8 0 0
0.503348 0.073866 0.371937 0.8 0 0
0.425485 0.072786 0.444817 0.8 0 0
0.174086 0.084378 0.397689 0.8 0 0
0.468608 0.126164 0.465077 0.8 0 0
0.464572 0.078647 0.235936 0.8 0 0
0.429873 0.212103 0.411875 0.8 0 0
0.388292 0.188155 0.422328 0.8 0 0
0.490393 0.102818 0.497289 0.8 0 0
0.433298 0.185479 0.387466 0.8 0 0
0.458374 0.131539 0.360801 0.8 0 0
0.332558 0.220281 0.674205 0.8 0 0
0.902611 0.241676 0.436247 0.8 0 0
0.576651 0.171841 0.403412 0.8 0 0
0.645912 0.244905 0.563170 0.8 0 0
0.473098 0.190662 0.391872 0.8 0 0
0.381577 0.224029 0.247704 0.8 0 0
0.455132 0.130904 0.481880 0.8 0 0
0.310880 0.218404 0.402947 0.8 0 0
0.499317 0.119979 0.465601 0.8 0 0
0.510085 0.083267 0.487014 0.8 0 0
0.329709 0.093154 0.446399 0.8 0 0
0.295849 0.054884 0.405656 0.8 0 0
0.253377 0.093320 0.372703 0.8 0 0
0.469797 0.054882 0.419945 0.8 0 0
0.458787 0.084998 0.312977 0.8 0 0
0.415306 0.175725 0.382051 0.8 0 0
0.083319 0.198493 0.403009 0.8 0 0
0.918252 0.171432 0.407048 0.8 0 0
0.351787 0.218983 0.169948 0.8 0 0
0.228880 0.025001 0.392615 0.8 0 0
0.627941 0.243268 0.251923 0.8 0 0
0.588233 0.104852 0.394267 0.8 0 0
0.136243 0.202849 0.398935 0.8 0 0
0.495989 0.102618 0.485402 0.8 0 0
0.338797 0.143955 0.442274 0.8 0 0
0.690857 0.251557 0.608108 0.8 0 0
0.351637 0.221028 0.415331 0.8 0 0
0.512340 0.098479 0.293637 0.8 0 0
0.362012 0.222919 0.585358 0.8 0 0
0.452159 0.082539 0.488619 0.8 0 0
0.509016 0.101096 0.316492 0.8 0 0
0.507334 0.104849 0.321294 0.8 0 0
0.406164 0.078416 0.367087 0.8 0 0
0.309373 0.132102 0.369781 0.8 0 0
0.684652 0.250160 0.204845 0.8 0 0
0.460320 0.082001 0.264584 0.8 0 0
0.894506 0.235519 0.434454 0.8 0 0
0.942326 0.201422 0.434448 0.8 0 0
0.678849 0.141252 0.422559 0.8 0 0
0.349775 0.218566 0.623264 0.8 0 0
0.383729 0.176875 0.449026 0.8 0 0
0.184490 0.086096 0.390848 0.8 0 0
0.906866 0.155020 0.406449 0.8 0 0
0.522793 0.235367 0.464501 0.8 0 0
0.594758 0.240058 0.285136 0.8 0 0
0.664454 0.246081 0.586112 0.8 0 0
0.705381 0.161629 0.418085 0.8 0 0
0.927404 0.244468 0.402481 0.8 0 0
0.608051 0.243934 0.553727 0.8 0 0
0.631561 0.246544 0.560394 0.8 0 0
0.477484 0.122442 0.492018 0.8 0 0
0.499592 0.114986 0.329169 0.8 0 0
0.543552 0.238456 0.504879 0.8 0 0
0.564491 0.239927 0.315876 0.8 0 0
0.477461 0.108296 0.263714 0.8 0 0
0.499161 0.136434 0.372345 0.8 0 0
0.286023 0.213962 0.414870 0.8 0 0
0.370542 0.223736 0.408668 0.8 0 0
0.391262 0.144524 0.442164 0.8 0 0
0.488598 0.195212 0.396666 0.8 0 0
0.558044 0.139519 0.383398 0.8 0 0
0.322732 0.216564 0.110744 0.8 0 0
0.543031 0.236122 0.311679 0.8 0 0
0.283171 0.102023 0.443916 0.8 0 0
0.909591 0.163579 0.407777 0.8 0 0
0.657442 0.246340 0.226786 0.8 0 0
0.397774 0.222768 0.329663 0.8 0 0
0.499585 0.105307 0.443520 0.8 0 0
0.375209 0.097398 0.446296 0.8 0 0
0.407958 0.148538 0.441554 0.8 0 0
0.325072 0.114513 0.368091 0.8 0 0
0.468477 0.193662 0.418715 0.8 0 0
0.596875 0.103073 0.396619 0.8 0 0
0.416173 0.054886 0.397594 0.8 0 0
0.480205 0.072852 0.262300 0.8 0 0
0.298711 0.097790 0.367209 0.8 0 0
0.452054 0.056381 0.428958 0.8 0 0
0.743640 0.253390 0.634818 0.8 0 0
0.488171 0.099054 0.291146 0.8 0 0
0.473871 0.110822 0.279991 0.8 0 0
0.965165 0.307241 0.434467 0.8 0 0
0.646087 0.244493 0.573002 0.8 0 0
0.361906 0.071076 0.369156 0.8 0 0
0.456950 0.126106 0.492771 0.8 0 0
0.403281 0.130046 0.369466 0.8 0 0
0.293613 0.214899 0.769146 0.8 0 0
0.348703 0.170321 0.380099 0.8 0 0
0.831527 0.160159 0.392894 0.8 0 0
0.474668 0.081424 0.495640 0.8 0 0
0.497712 0.086155 0.332014 0.8 0 0
0.528194 0.172771 0.421364 0.8 0 0
0.452031 0.078690 0.302475 0.8 0 0
0.374275 0.145559 0.371522 0.8 0 0
0.664968 0.246246 0.588598 0.8 0 0
0.236548 0.114568 0.424203 0.8 0 0
0.345718 0.221164 0.620420 0.8 0 0
0.848250 0.175614 0.399094 0.8 0 0
0.341852 0.220573 0.177460 0.8 0 0
0.474427 0.231670 0.433179 0.8 0 0
0.854860 0.232330 0.434739 0.8 0 0
0.662358 0.156814 0.420820 0.8 0 0
0.501007 0.062725 0.381902 0.8 0 0
0.855398 0.161085 0.340676 0.8 0 0
0.845363 0.164186 0.397049 0.8 0 0
0.232579 0.115802 0.416165 0.8 0 0
0.498925 0.089076 0.480569 0.8 0 0
0.885760 0.200525 0.414536 0.8 0 0
0.451251 0.226353 0.389488 0.8 0 0
0.553902 0.110739 0.431618 0.8 0 0
0.505628 0.137854 0.373716 0.8 0 0
0.416011 0.228995 0.397092 0.8 0 0
0.413780 0.178436 0.383345 0.8 0 0
0.430904 0.178254 0.430274 0.8 0 0
0.420093 0.103772 0.445984 0.8 0 0
0.430468 0.056285 0.384957 0.8 0 0
0.556228 0.082360 0.400296 0.8 0 0
0.438363 0.210912 0.399104 0.8 0 0
0.335211 0.217924 0.104788 0.8 0 0
0.471725 0.093317 0.565370 0.8 0 0
0.392134 0.180432 0.446569 0.8 0 0
0.940628 0.200910 0.434826 0.8 0 0
0.521595 0.233603 0.332845 0.8 0 0
0.767300 0.136390 0.417455 0.8 0 0
0.296250 0.141803 0.390785 0.8 0 0
0.377033 0.223693 0.516876 0.8 0 0
0.832439 0.234203 0.434458 0.8 0 0
0.394086 0.223946 0.532554 0.8 0 0
0.306492 0.086138 0.446512 0.8 0 0
0.410777 0.223180 0.430227 0.8 0 0
0.210226 0.028256 0.398072 0.8 0 0
0.405546 0.223440 0.359558 0.8 0 0
0.122194 0.202000 0.404530 0.8 0 0
0.372751 0.221759 0.413381 0.8 0 0
0.420141 0.127481 0.369177 0.8 0 0
0.670855 0.154280 0.392377 0.8 0 0
0.463151 0.128027 0.321745 0.8 0 0
0.335005 0.217261 0.408051 0.8 0 0
0.572712 0.153262 0.388286 0.8 0 0
0.505871 0.083913 0.282271 0.8 0 0
0.498149 0.113587 0.324355 0.8 0 0
0.629853 0.243696 0.248594 0.8 0 0
0.498719 0.083652 0.484051 0.8 0 0
0.659378 0.249033 0.232906 0.8 0 0
0.470391 0.083442 0.561115 0.8 0 0
0.852775 0.178489 0.414541 0.8 0 0
0.296706 0.148536 0.400433 0.8 0 0
0.596606 0.243535 0.278016 0.8 0 0
0.891294 0.208162 0.414005 0.8 0 0
0.516877 0.097126 0.485862 0.8 0 0
0.598003 0.241767 0.265432 0.8 0 0
0.189302 0.094679 0.423548 0.8 0 0
0.946579 0.270902 0.434494 0.8 0 0
0.280207 0.143942 0.410070 0.8 0 0
0.429596 0.080555 0.522341 0.8 0 0
0.705563 0.252646 0.622346 0.8 0 0
0.482279 0.231689 0.435943 0.8 0 0
0.303008 0.126539 0.442599 0.8 0 0
0.478422 0.075629 0.564794 0.8 0 0
0.308707 0.215876 0.785727 0.8 0 0
0.354217 0.222222 0.204708 0.8 0 0
0.423209 0.225004 0.387619 0.8 0 0
0.327722 0.098733 0.367247 0.8 0 0
0.491034 0.070218 0.563030 0.8 0 0
0.848895 0.158415 0.396290 0.8 0 0
0.324464 0.103943 0.445975 0.8 0 0
0.533522 0.234616 0.485706 0.8 0 0
0.524828 0.234446 0.325565 0.8 0 0
0.506078 0.062423 0.409524 0.8 0 0
0.857710 0.147070 0.412455 0.8 0 0
0.781007 0.145417 0.418508 0.8 0 0
0.527168 0.236879 0.323538 0.8 0 0
0.497255 0.110894 0.506772 0.8 0 0
0.472326 0.230180 0.361376 0.8 0 0
0.338732 0.220988 0.154729 0.8 0 0
0.393576 0.081402 0.366980 0.8 0 0
0.312365 0.215443 0.053312 0.8 0 0
0.055973 0.196161 0.403911 0.8 0 0
0.491503 0.084491 0.313483 0.8 0 0
0.594240 0.242625 0.524228 0.8 0 0
0.516946 0.187922 0.394263 0.8 0 0
0.511814 0.116941 0.491053 0.8 0 0
0.517753 0.121882 0.439241 0.8 0 0
0.436164 0.188416 0.423811 0.8 0 0
0.589991 0.139290 0.388506 0.8 0 0
0.596326 0.240229 0.284574 0.8 0 0
0.432779 0.104339 0.367543 0.8 0 0
0.418812 0.226074 0.356217 0.8 0 0
0.489641 0.072376 0.516470 0.8 0 0
0.229299 0.208406 0.411332 0.8 0 0
0.389748 0.223392 0.471928 0.8 0 0
0.300205 0.216045 0.027017 0.8 0 0
0.173232 0.057322 0.403850 0.8 0 0
0.312497 0.217414 0.029264 0.8 0 0
0.525761 0.091564 0.376414 0.8 0 0
0.832373 0.155051 0.417557 0.8 0 0
0.255113 0.057657 0.390197 0.8 0 0
0.326712 0.217058 0.397361 0.8 0 0
0.462567 0.110298 0.295300 0.8 0 0
0.474326 0.075504 0.263791 0.8 0 0
0.470029 0.170036 0.434100 0.8 0 0
0.426412 0.055982 0.386224 0.8 0 0
0.176071 0.090066 0.404691 0.8 0 0
0.391331 0.183820 0.425005 0.8 0 0
0.483378 0.054885 0.404002 0.8 0 0
0.892834 0.198054 0.398823 0.8 0 0
0.112685 0.200727 0.398013 0.8 0 0
0.313892 0.218468 0.754861 0.8 0 0
0.823996 0.164893 0.398070 0.8 0 0
0.463541 0.096432 0.518212 0.8 0 0
0.367871 0.223502 0.408809 0.8 0 0
0.401258 0.223614 0.309254 0.8 0 0
0.457489 0.111165 0.489657 0.8 0 0
0.332075 0.058945 0.379020 0.8 0 0
0.161511 0.202549 0.397821 0.8 0 0
0.443701 0.118670 0.368412 0.8 0 0
0.301139 0.165658 0.397623 0.8 0 0
0.498911 0.125569 0.369767 0.8 0 0
0.400274 0.137188 0.370228 0.8 0 0
0.359047 0.063692 0.440183 0.8 0 0
0.300416 0.170163 0.419199 0.8 0 0
0.457008 0.107117 0.493233 0.8 0 0
0.646485 0.247522 0.564820 0.8 0 0
0.551426 0.238348 0.301000 0.8 0 0
0.662279 0.151464 0.421622 0.8 0 0
0.737576 0.165197 0.397364 0.8 0 0
0.497426 0.118698 0.338796 0.8 0 0
0.451131 0.157970 0.375338 0.8 0 0
0.129710 0.200909 0.418609 0.8 0 0
0.475297 0.072317 0.296655 0.8 0 0
0.496047 0.078849 0.549685 0.8 0 0
0.367581 0.175717 0.428452 0.8 0 0
0.477795 0.121520 0.477746 0.8 0 0
0.458736 0.167631 0.378644 0.8 0 0
0.393123 0.224131 0.275883 0.8 0 0
0.366079 0.165642 0.378109 0.8 0 0
0.453635 0.098597 0.330819 0.8 0 0
0.378472 0.113664 0.445456 0.8 0 0
0.256721 0.058111 0.386770 0.8 0 0
0.327587 0.219651 0.680342 0.8 0 0
0.857562 0.170914 0.396926 0.8 0 0
0.359082 0.219335 0.603646 0.8 0 0
0.497235 0.074823 0.541302 0.8 0 0
0.509685 0.107589 0.321458 0.8 0 0
0.444978 0.186759 0.425203 0.8 0 0
0.879216 0.173274 0.415939 0.8 0 0
0.474330 0.230171 0.456521 0.8 0 0
0.372605 0.067634 0.370808 0.8 0 0
0.411993 0.224894 0.420502 0.8 0 0
0.470351 0.137016 0.444779 0.8 0 0
0.310192 0.124808 0.368962 0.8 0 0
0.699949 0.162918 0.395965 0.8 0 0
0.538503 0.075090 0.406397 0.8 0 0
0.256931 0.055276 0.402211 0.8 0 0
0.421719 0.208275 0.411359 0.8 0 0
0.488921 0.142152 0.371339 0.8 0 0
0.169378 0.070088 0.397244 0.8 0 0
0.319730 0.216876 0.691148 0.8 0 0
0.425894 0.081166 0.293264 0.8 0 0
0.482765 0.054882 0.419850 0.8 0 0
0.455233 0.133762 0.443884 0.8 0 0
0.374478 0.148673 0.372017 0.8 0 0
0.486528 0.087403 0.249390 0.8 0 0
0.664884 0.145592 0.422354 0.8 0 0
0.328207 0.216900 0.124903 0.8 0 0
0.470940 0.232524 0.371862 0.8 0 0
0.576715 0.128879 0.385873 0.8 0 0
0.404619 0.163195 0.440237 0.8 0 0
0.189766 0.205170 0.412652 0.8 0 0
0.652096 0.114374 0.417559 0.8 0 0
0.403469 0.145751 0.371596 0.8 0 0
0.212189 0.101252 0.427525 0.8 0 0
0.528036 0.162865 0.429012 0.8 0 0
0.511761 0.085232 0.315807 0.8 0 0
0.218195 0.209760 0.412865 0.8 0 0
0.485352 0.111668 0.516333 0.8 0 0
0.378963 0.154147 0.439758 0.8 0 0
0.405680 0.226795 0.456809 0.8 0 0
0.320824 0.216271 0.102364 0.8 0 0
0.538557 0.153947 0.431200 0.8 0 0
0.364056 0.220985 0.416048 0.8 0 0
0.489573 0.156548 0.375203 0.8 0 0
0.571465 0.158871 0.423857 0.8 0 0
0.610823 0.171965 0.409809 0.8 0 0
0.088084 0.196426 0.396740 0.8 0 0
0.306685 0.095357 0.446346 0.8 0 0
0.266848 0.076410 0.369470 0.8 0 0
0.175189 0.057753 0.400245 0.8 0 0
0.227360 0.116018 0.411529 0.8 0 0
0.282977 0.129838 0.379967 0.8 0 0
0.897535 0.174059 0.401430 0.8 0 0
0.117563 0.200327 0.416625 0.8 0 0
0.796837 0.134031 0.400526 0.8 0 0
0.548683 0.093658 0.429901 0.8 0 0
0.317303 0.096761 0.446312 0.8 0 0
0.322711 0.054886 0.399157 0.8 0 0
0.381637 0.087076 0.366981 0.8 0 0
0.935299 0.246335 0.411349 0.8 0 0
0.377794 0.167610 0.449294 0.8 0 0
0.433890 0.210629 0.419138 0.8 0 0
0.416823 0.125779 0.369051 0.8 0 0
0.412802 0.226091 0.470594 0.8 0 0
0.294964 0.141738 0.420022 0.8 0 0
0.712704 0.253596 0.621706 0.8 0 0
0.236843 0.097641 0.436115 0.8 0 0
0.464181 0.116167 0.518329 0.8 0 0
0.688034 0.251327 0.605759 0.8 0 0
0.488936 0.078331 0.549688 0.8 0 0
0.318998 0.130400 0.444006 0.8 0 0
0.624530 0.242619 0.258611 0.8 0 0
0.359811 0.221976 0.623487 0.8 0 0
0.340594 0.218033 0.134256 0.8 0 0
0.674964 0.248435 0.605189 0.8 0 0
0.363994 0.220215 0.199828 0.8 0 0
0.450319 0.095137 0.367144 0.8 0 0
0.588866 0.241719 0.274352 0.8 0 0
0.279144 0.215563 0.402036 0.8 0 0
0.216964 0.094869 0.431537 0.8 0 0
0.386078 0.108562 0.445731 0.8 0 0
0.921118 0.234664 0.430925 0.8 0 0
0.408854 0.176960 0.448995 0.8 0 0
0.844454 0.171226 0.414903 0.8 0 0
0.855757 0.160237 0.356527 0.8 0 0
0.839280 0.161449 0.368852 0.8 0 0
0.375501 0.223770 0.527781 0.8 0 0
0.408424 0.056459 0.429288 0.8 0 0
0.359609 0.219699 0.400464 0.8 0 0
0.628532 0.118180 0.421306 0.8 0 0
0.366434 0.054883 0.411608 0.8 0 0
0.861493 0.161369 0.366819 0.8 0 0
0.649258 0.245066 0.580527 0.8 0 0
0.576303 0.239455 0.507787 0.8 0 0
0.392917 0.222792 0.286387 0.8 0 0
0.497354 0.119941 0.468983 0.8 0 0
0.366155 0.078109 0.367173 0.8 0 0
0.590225 0.240730 0.273742 0.8 0 0
0.441741 0.087156 0.526596 0.8 0 0
0.468278 0.078845 0.577470 0.8 0 0
0.692244 0.251483 0.220621 0.8 0 0
0.489396 0.105080 0.273197 0.8 0 0
0.439455 0.089523 0.295453 0.8 0 0
0.145914 0.066517 0.404324 0.8 0 0
0.463701 0.174708 0.431939 0.8 0 0
0.657093 0.248541 0.584684 0.8 0 0
0.711703 0.153487 0.420262 0.8 0 0
0.727948 0.253898 0.618697 0.8 0 0
0.289997 0.110432 0.371582 0.8 0 0
0.490666 0.108392 0.289308 0.8 0 0
0.222689 0.108371 0.387209 0.8 0 0
0.404424 0.056862 0.382542 0.8 0 0
0.680579 0.148005 0.421696 0.8 0 0
0.914726 0.189119 0.402984 0.8 0 0
0.807578 0.160795 0.396551 0.8 0 0
0.408047 0.156354 0.374618 0.8 0 0
0.388175 0.139392 0.442958 0.8 0 0
0.209350 0.065596 0.384404 0.8 0 0
0.306894 0.215552 0.396798 0.8 0 0
0.478969 0.094291 0.251644 0.8 0 0
0.311927 0.218566 0.403947 0.8 0 0
0.683132 0.248939 0.584564 0.8 0 0
0.852820 0.159634 0.383905 0.8 0 0
0.931116 0.205385 0.409178 0.8 0 0
0.851813 0.161064 0.469148 0.8 0 0
0.333035 0.218148 0.649208 0.8 0 0
0.659079 0.247153 0.220630 0.8 0 0
0.423308 0.091033 0.491617 0.8 0 0
0.616314 0.243833 0.534936 0.8 0 0
0.360754 0.176216 0.425209 0.8 0 0
0.216646 0.114364 0.399335 0.8 0 0
0.333984 0.218706 0.094072 0.8 0 0
0.398430 0.225957 0.410120 0.8 0 0
0.298442 0.111095 0.368621 0.8 0 0
0.205830 0.050685 0.412291 0.8 0 0
0.416232 0.174529 0.432021 0.8 0 0
0.348378 0.175714 0.388195 0.8 0 0
0.449741 0.231763 0.424832 0.8 0 0
0.454381 0.116148 0.493070 0.8 0 0
0.577598 0.146578 0.426183 0.8 0 0
0.726214 0.122695 0.414290 0.8 0 0
0.479280 0.233014 0.372597 0.8 0 0
0.288816 0.141814 0.395492 0.8 0 0
0.494097 0.104529 0.276675 0.8 0 0
0.414811 0.054887 0.392850 0.8 0 0
0.313744 0.215343 0.740341 0.8 0 0
0.199263 0.206917 0.418136 0.8 0 0
0.811236 0.167349 0.398878 0.8 0 0
0.368924 0.169778 0.433962 0.8 0 0
0.350074 0.126782 0.444365 0.8 0 0
0.522560 0.236955 0.330459 0.8 0 0
0.329563 0.137289 0.443264 0.8 0 0
0.507097 0.232584 0.340786 0.8 0 0
0.697169 0.173047 0.407106 0.8 0 0
0.678284 0.250625 0.593952 0.8 0 0
0.467366 0.122793 0.330744 0.8 0 0
0.413640 0.222771 0.387571 0.8 0 0
0.440235 0.225222 0.392358 0.8 0 0
0.426750 0.144714 0.442256 0.8 0 0
