0.165478 0.133871 0.700608 0.8 0 0
0.115520 0.278869 0.292874 0.8 0 0
0.170415 0.138182 0.687216 0.8 0 0
0.106762 0.192424 0.090673 0.8 0 0
0.063294 0.064341 0.524803 0.8 0 0
0.120255 0.284701 0.933839 0.8 0 0
0.172523 0.101058 0.535530 0.8 0 0
0.106859 0.179802 0.266679 0.8 0 0
0.109791 0.068135 0.561284 0.8 0 0
0.169545 0.160294 0.641530 0.8 0 0
0.124079 0.276614 0.606583 0.8 0 0
0.091281 0.068339 0.558015 0.8 0 0
0.102858 0.069775 0.522306 0.8 0 0
0.063934 0.123840 0.651417 0.8 0 0
0.139486 0.132703 0.409370 0.8 0 0
0.124041 0.221659 0.593443 0.8 0 0
0.106762 0.186579 0.097343 0.8 0 0
0.161317 0.146618 0.702183 0.8 0 0
0.127700 0.067086 0.592156 0.8 0 0
0.111535 0.067828 0.708780 0.8 0 0
0.126515 0.278485 0.374850 0.8 0 0
0.167874 0.162447 0.511945 0.8 0 0
0.114926 0.069626 0.537424 0.8 0 0
0.064068 0.100124 0.595749 0.8 0 0
0.120668 0.067603 0.574061 0.8 0 0
0.208909 0.035228 0.537248 0.8 0 0
0.132352 0.218760 0.455046 0.8 0 0
0.134016 0.188274 0.069720 0.8 0 0
0.072492 0.095179 0.736687 0.8 0 0
0.064281 0.144578 0.603066 0.8 0 0
0.113625 0.071565 0.740687 0.8 0 0
0.151405 0.182454 0.517919 0.8 0 0
0.182447 0.061133 0.526057 0.8 0 0
0.126656 0.186525 0.365675 0.8 0 0
0.064903 0.149552 0.583834 0.8 0 0
0.141833 0.069775 0.527382 0.8 0 0
0.126624 0.184236 0.250875 0.8 0 0
0.028458 0.027437 0.611856 0.8 0 0
0.114541 0.271881 0.583717 0.8 0 0
0.102860 0.284104 0.049231 0.8 0 0
0.082201 0.131547 0.452649 0.8 0 0
0.119938 0.204098 0.563834 0.8 0 0
0.112078 0.069775 0.522279 0.8 0 0
0.211885 0.030915 0.554677 0.8 0 0
0.127327 0.068301 0.558613 0.8 0 0
0.107113 0.067425 0.696208 0.8 0 0
0.113619 0.189839 0.186045 0.8 0 0
0.160265 0.148967 0.470178 0.8 0 0
0.143850 0.207720 0.455297 0.8 0 0
0.110512 0.166555 0.236671 0.8 0 0
0.184174 0.175728 0.259151 0.8 0 0
0.166925 0.141321 0.492162 0.8 0 0
0.122992 0.276886 0.593243 0.8 0 0
0.205719 0.046526 0.526278 0.8 0 0
0.063934 0.120026 0.624001 0.8 0 0
0.148134 0.066604 0.670257 0.8 0 0
0.127967 0.069775 0.533387 0.8 0 0
0.063934 0.103212 0.538041 0.8 0 0
0.123501 0.283759 0.153994 0.8 0 0
0.099966 0.147005 0.076061 0.8 0 0
0.118966 0.271835 0.479959 0.8 0 0
0.153629 0.080633 0.741573 0.8 0 0
0.171881 0.150365 0.583381 0.8 0 0
0.063934 0.104767 0.642482 0.8 0 0
0.091106 0.195126 0.463894 0.8 0 0
0.105283 0.249899 0.069013 0.8 0 0
0.080112 0.066639 0.521414 0.8 0 0
0.099423 0.164586 0.088088 0.8 0 0
0.067673 0.160961 0.629156 0.8 0 0
0.092886 0.196531 0.620073 0.8 0 0
0.172951 0.116177 0.563616 0.8 0 0
0.082606 0.176910 0.241615 0.8 0 0
0.072930 0.070421 0.648166 0.8 0 0
0.103812 0.175801 0.355514 0.8 0 0
0.128454 0.225512 0.526314 0.8 0 0
0.052254 0.176679 0.255582 0.8 0 0
0.123716 0.225512 0.531940 0.8 0 0
0.093050 0.069775 0.529307 0.8 0 0
0.099540 0.162334 0.079324 0.8 0 0
0.120063 0.189584 0.352265 0.8 0 0
0.148951 0.196725 0.576376 0.8 0 0
0.143023 0.188866 0.635711 0.8 0 0
0.124686 0.278297 0.309105 0.8 0 0
0.107606 0.155876 0.712837 0.8 0 0
0.138263 0.169219 0.397086 0.8 0 0
0.071485 0.107902 0.717342 0.8 0 0
0.110324 0.271609 0.635219 0.8 0 0
0.100610 0.124502 0.739755 0.8 0 0
0.065041 0.150654 0.632150 0.8 0 0
0.171799 0.151018 0.642911 0.8 0 0
0.148576 0.138039 0.429718 0.8 0 0
0.107791 0.181766 0.289544 0.8 0 0
0.106551 0.171042 0.098114 0.8 0 0
0.165730 0.111134 0.494133 0.8 0 0
0.132135 0.167519 0.327393 0.8 0 0
0.211885 0.033486 0.581447 0.8 0 0
0.119534 0.197511 0.120782 0.8 0 0
0.115633 0.225512 0.532281 0.8 0 0
0.135938 0.176805 0.229639 0.8 0 0
0.150781 0.192465 0.521577 0.8 0 0
0.132869 0.067630 0.573133 0.8 0 0
0.097542 0.204335 0.429683 0.8 0 0
0.172951 0.127534 0.549201 0.8 0 0
0.071436 0.083170 0.520642 0.8 0 0
0.116258 0.274567 0.415024 0.8 0 0
0.127288 0.225512 0.590773 0.8 0 0
0.124283 0.273825 0.615591 0.8 0 0
0.108730 0.181582 0.212033 0.8 0 0
0.126664 0.067828 0.712360 0.8 0 0
0.151797 0.169401 0.443198 0.8 0 0
0.092185 0.207328 0.462506 0.8 0 0
0.112602 0.281719 0.295733 0.8 0 0
0.172435 0.145929 0.554314 0.8 0 0
0.146373 0.139304 0.422063 0.8 0 0
0.156035 0.073625 0.510921 0.8 0 0
0.101790 0.215880 0.550247 0.8 0 0
0.151726 0.182665 0.516916 0.8 0 0
0.103652 0.065881 0.525218 0.8 0 0
0.097818 0.128137 0.735678 0.8 0 0
0.063934 0.126658 0.668820 0.8 0 0
0.129533 0.081618 0.448897 0.8 0 0
0.088962 0.204613 0.529915 0.8 0 0
0.112602 0.272775 0.511494 0.8 0 0
0.164067 0.103794 0.733479 0.8 0 0
0.180867 0.064372 0.521414 0.8 0 0
0.147907 0.203671 0.488697 0.8 0 0
0.156737 0.084198 0.745428 0.8 0 0
0.132524 0.219744 0.467832 0.8 0 0
0.108520 0.277161 0.717396 0.8 0 0
0.172280 0.106397 0.675792 0.8 0 0
0.169638 0.084634 0.657533 0.8 0 0
0.079573 0.094960 0.478415 0.8 0 0
0.109896 0.177476 0.177706 0.8 0 0
0.110867 0.218121 0.446745 0.8 0 0
0.171758 0.098319 0.536908 0.8 0 0
0.098197 0.179133 0.411806 0.8 0 0
0.064908 0.097369 0.648220 0.8 0 0
0.122374 0.182707 0.084241 0.8 0 0
0.108785 0.156632 0.323824 0.8 0 0
0.135352 0.211423 0.429071 0.8 0 0
0.150502 0.193599 0.562397 0.8 0 0
0.025590 0.033715 0.582140 0.8 0 0
0.029343 0.035062 0.542166 0.8 0 0
0.116496 0.235561 0.564167 0.8 0 0
0.069079 0.163773 0.619440 0.8 0 0
0.168866 0.076988 0.597105 0.8 0 0
0.112602 0.277811 0.364347 0.8 0 0
0.122460 0.274094 0.696579 0.8 0 0
0.081170 0.126190 0.725597 0.8 0 0
0.154439 0.176844 0.233893 0.8 0 0
0.086719 0.181287 0.576044 0.8 0 0
0.089273 0.068030 0.562962 0.8 0 0
0.119576 0.280627 0.881652 0.8 0 0
0.115270 0.070515 0.514287 0.8 0 0
0.066946 0.151189 0.519960 0.8 0 0
0.129005 0.167322 0.245281 0.8 0 0
0.161014 0.072683 0.540519 0.8 0 0
0.066092 0.134769 0.518951 0.8 0 0
0.109714 0.183690 0.188994 0.8 0 0
0.147147 0.165335 0.426235 0.8 0 0
0.106532 0.173366 0.086012 0.8 0 0
0.118009 0.186436 0.056572 0.8 0 0
0.126457 0.184403 0.206828 0.8 0 0
0.076592 0.069417 0.567736 0.8 0 0
0.103764 0.130403 0.398082 0.8 0 0
0.125965 0.176339 0.157919 0.8 0 0
0.086419 0.181855 0.517848 0.8 0 0
0.067769 0.101667 0.705056 0.8 0 0
0.206045 0.034142 0.505274 0.8 0 0
0.119058 0.139504 0.384051 0.8 0 0
0.111851 0.082722 0.445584 0.8 0 0
0.094611 0.214910 0.448568 0.8 0 0
0.073987 0.166492 0.676226 0.8 0 0
0.131488 0.066890 0.599028 0.8 0 0
0.075919 0.166189 0.480353 0.8 0 0
0.194254 0.056195 0.640352 0.8 0 0
0.157375 0.175234 0.485192 0.8 0 0
0.106716 0.200002 0.087000 0.8 0 0
0.065768 0.088278 0.558207 0.8 0 0
0.085098 0.145200 0.437001 0.8 0 0
0.063934 0.122833 0.588237 0.8 0 0
0.127563 0.272621 0.477852 0.8 0 0
0.089345 0.194049 0.578353 0.8 0 0
0.112137 0.276348 0.760143 0.8 0 0
0.114835 0.102965 0.406049 0.8 0 0
0.124283 0.279875 0.805952 0.8 0 0
0.129812 0.224783 0.590589 0.8 0 0
0.140905 0.101398 0.430863 0.8 0 0
0.108624 0.159998 0.298408 0.8 0 0
0.163441 0.126346 0.708539 0.8 0 0
0.131536 0.153036 0.370996 0.8 0 0
0.087795 0.084182 0.759354 0.8 0 0
0.063934 0.140513 0.549686 0.8 0 0
0.165084 0.171164 0.505897 0.8 0 0
0.115620 0.148241 0.373930 0.8 0 0
0.092951 0.217844 0.469489 0.8 0 0
0.094180 0.073862 0.737045 0.8 0 0
0.127971 0.074601 0.750033 0.8 0 0
0.114383 0.187750 0.087402 0.8 0 0
0.138884 0.216266 0.439658 0.8 0 0
0.064083 0.100029 0.623675 0.8 0 0
0.103054 0.174898 0.253723 0.8 0 0
0.100717 0.178690 0.111118 0.8 0 0
0.116867 0.069775 0.533643 0.8 0 0
0.115000 0.279502 0.849703 0.8 0 0
0.157119 0.070427 0.538945 0.8 0 0
0.126943 0.275044 0.478434 0.8 0 0
0.099410 0.097022 0.425292 0.8 0 0
0.129298 0.178944 0.245367 0.8 0 0
0.088218 0.066640 0.607751 0.8 0 0
0.088847 0.114192 0.438049 0.8 0 0
0.165130 0.070899 0.578097 0.8 0 0
0.074966 0.068606 0.626742 0.8 0 0
0.156693 0.078967 0.492329 0.8 0 0
0.176002 0.174898 0.251176 0.8 0 0
0.122376 0.283249 0.242297 0.8 0 0
0.121612 0.194117 0.127799 0.8 0 0
0.120921 0.167019 0.699677 0.8 0 0
0.029283 0.035406 0.531971 0.8 0 0
0.120548 0.129472 0.738871 0.8 0 0
0.113315 0.278548 0.743177 0.8 0 0
0.119271 0.285147 0.174941 0.8 0 0
0.172247 0.096698 0.609891 0.8 0 0
0.104816 0.279939 0.830494 0.8 0 0
0.063934 0.120210 0.658922 0.8 0 0
0.202925 0.035135 0.644353 0.8 0 0
0.151758 0.186960 0.531075 0.8 0 0
0.092653 0.219133 0.545723 0.8 0 0
0.073006 0.127961 0.706929 0.8 0 0
0.072810 0.070879 0.573339 0.8 0 0
0.071981 0.116676 0.491397 0.8 0 0
0.127808 0.220527 0.478017 0.8 0 0
0.097671 0.072297 0.733881 0.8 0 0
0.099034 0.200988 0.081970 0.8 0 0
0.112602 0.276646 0.380502 0.8 0 0
0.126910 0.222279 0.495511 0.8 0 0
0.114737 0.275254 0.395511 0.8 0 0
0.104816 0.281309 0.885001 0.8 0 0
0.123134 0.276124 0.370826 0.8 0 0
0.121912 0.204098 0.580723 0.8 0 0
0.113576 0.160434 0.264193 0.8 0 0
0.065574 0.154920 0.556910 0.8 0 0
0.128186 0.170795 0.692793 0.8 0 0
0.078213 0.175021 0.489977 0.8 0 0
0.030174 0.031519 0.647288 0.8 0 0
0.172951 0.141568 0.596166 0.8 0 0
0.092816 0.220982 0.542512 0.8 0 0
0.171614 0.152494 0.578831 0.8 0 0
0.131227 0.179404 0.301765 0.8 0 0
0.096265 0.065881 0.644249 0.8 0 0
0.063934 0.132948 0.541838 0.8 0 0
0.162088 0.171763 0.486950 0.8 0 0
0.142455 0.197859 0.623416 0.8 0 0
0.109348 0.225512 0.543692 0.8 0 0
0.119170 0.149955 0.358505 0.8 0 0
0.192280 0.049774 0.643924 0.8 0 0
0.113580 0.099249 0.408990 0.8 0 0
0.132528 0.067580 0.700858 0.8 0 0
0.106868 0.277076 0.780820 0.8 0 0
0.171564 0.092600 0.601459 0.8 0 0
0.130977 0.065881 0.644545 0.8 0 0
0.110126 0.152387 0.348710 0.8 0 0
0.025278 0.029770 0.560531 0.8 0 0
0.115421 0.154979 0.313283 0.8 0 0
0.069168 0.176954 0.241966 0.8 0 0
0.123511 0.283945 0.217596 0.8 0 0
0.084796 0.069513 0.539225 0.8 0 0
0.140502 0.203396 0.564521 0.8 0 0
0.206173 0.036047 0.512952 0.8 0 0
0.090078 0.172644 0.429473 0.8 0 0
0.172354 0.136390 0.526049 0.8 0 0
0.138251 0.220455 0.505067 0.8 0 0
0.117743 0.189615 0.385378 0.8 0 0
0.030840 0.031969 0.548914 0.8 0 0
0.085380 0.118147 0.739346 0.8 0 0
0.182785 0.177735 0.248209 0.8 0 0
0.115323 0.282586 0.937273 0.8 0 0
0.172951 0.119397 0.615668 0.8 0 0
0.121222 0.171866 0.161300 0.8 0 0
0.131590 0.117561 0.403829 0.8 0 0
0.100782 0.117659 0.069087 0.8 0 0
0.125095 0.183727 0.122716 0.8 0 0
0.025399 0.029501 0.566460 0.8 0 0
0.172951 0.104559 0.534205 0.8 0 0
0.109406 0.284698 0.933713 0.8 0 0
0.123514 0.067669 0.703538 0.8 0 0
0.104360 0.176427 0.261247 0.8 0 0
0.113572 0.225512 0.516327 0.8 0 0
0.069752 0.140259 0.501928 0.8 0 0
0.081772 0.176844 0.527741 0.8 0 0
0.119082 0.089848 0.424207 0.8 0 0
0.140141 0.096082 0.431929 0.8 0 0
0.092528 0.066848 0.678123 0.8 0 0
0.113731 0.067124 0.590823 0.8 0 0
0.144391 0.113711 0.761655 0.8 0 0
0.118063 0.068628 0.553385 0.8 0 0
0.211885 0.029883 0.616190 0.8 0 0
0.163081 0.167835 0.670577 0.8 0 0
0.165233 0.151017 0.689672 0.8 0 0
0.172951 0.132432 0.598367 0.8 0 0
0.105911 0.204098 0.585660 0.8 0 0
0.070255 0.168003 0.513332 0.8 0 0
0.112814 0.186790 0.167760 0.8 0 0
0.119765 0.275752 0.645178 0.8 0 0
0.133712 0.066917 0.598063 0.8 0 0
0.113735 0.282226 0.927065 0.8 0 0
0.209739 0.031777 0.639642 0.8 0 0
0.116502 0.274901 0.719033 0.8 0 0
0.143582 0.220789 0.549726 0.8 0 0
0.067988 0.163748 0.596184 0.8 0 0
0.105309 0.204098 0.574332 0.8 0 0
0.125994 0.184866 0.171412 0.8 0 0
0.124934 0.182654 0.118024 0.8 0 0
0.125446 0.158511 0.289533 0.8 0 0
0.074617 0.068816 0.628338 0.8 0 0
0.105916 0.281678 0.911491 0.8 0 0
0.144805 0.186682 0.625319 0.8 0 0
0.104954 0.274920 0.696978 0.8 0 0
0.128990 0.139449 0.389213 0.8 0 0
0.127796 0.281152 0.228040 0.8 0 0
0.057241 0.060215 0.638524 0.8 0 0
0.172939 0.141899 0.627709 0.8 0 0
0.109028 0.175272 0.202902 0.8 0 0
0.159890 0.175722 0.259132 0.8 0 0
0.095703 0.201951 0.603518 0.8 0 0
0.149829 0.202944 0.517449 0.8 0 0
0.122890 0.066180 0.623871 0.8 0 0
0.025000 0.030380 0.610492 0.8 0 0
0.109970 0.097862 0.412176 0.8 0 0
0.170827 0.157731 0.613413 0.8 0 0
0.110887 0.187077 0.331084 0.8 0 0
0.112976 0.190902 0.387950 0.8 0 0
0.134323 0.136862 0.395857 0.8 0 0
0.030840 0.031131 0.593902 0.8 0 0
0.119740 0.206027 0.418202 0.8 0 0
0.086541 0.196250 0.515959 0.8 0 0
0.154014 0.152290 0.446564 0.8 0 0
0.068365 0.093829 0.702951 0.8 0 0
0.164800 0.072055 0.569032 0.8 0 0
0.106768 0.066885 0.680023 0.8 0 0
0.108708 0.175040 0.212232 0.8 0 0
0.063934 0.117036 0.670536 0.8 0 0
0.081873 0.067698 0.669500 0.8 0 0
0.119280 0.204098 0.569874 0.8 0 0
0.143988 0.223662 0.509734 0.8 0 0
0.118966 0.225512 0.549469 0.8 0 0
0.211885 0.034764 0.529920 0.8 0 0
0.094708 0.176844 0.237937 0.8 0 0
0.172944 0.141856 0.563482 0.8 0 0
0.101524 0.111398 0.058983 0.8 0 0
0.066009 0.157890 0.548965 0.8 0 0
0.133474 0.171108 0.690670 0.8 0 0
0.076487 0.071149 0.551902 0.8 0 0
0.108579 0.070095 0.517225 0.8 0 0
0.121509 0.194428 0.124815 0.8 0 0
0.104816 0.275713 0.707196 0.8 0 0
0.105475 0.090654 0.425644 0.8 0 0
0.120199 0.278582 0.301006 0.8 0 0
0.104865 0.155666 0.098026 0.8 0 0
0.063934 0.112638 0.609082 0.8 0 0
0.102127 0.117597 0.054475 0.8 0 0
0.079153 0.088985 0.484965 0.8 0 0
0.065495 0.154289 0.616289 0.8 0 0
0.063934 0.132106 0.624992 0.8 0 0
0.169148 0.161090 0.604849 0.8 0 0
0.146947 0.069775 0.523502 0.8 0 0
0.131832 0.179028 0.335342 0.8 0 0
0.122702 0.282862 0.256040 0.8 0 0
0.103547 0.160861 0.362037 0.8 0 0
0.115387 0.284357 0.921615 0.8 0 0
0.099220 0.198993 0.082512 0.8 0 0
0.119274 0.277666 0.797558 0.8 0 0
0.124283 0.272045 0.530696 0.8 0 0
0.150872 0.065881 0.524721 0.8 0 0
0.135963 0.191806 0.096363 0.8 0 0
0.112808 0.065567 0.638217 0.8 0 0
0.106469 0.282433 0.932945 0.8 0 0
0.106376 0.168802 0.080329 0.8 0 0
0.140547 0.225359 0.530035 0.8 0 0
0.071269 0.152781 0.498530 0.8 0 0
0.168520 0.097265 0.713839 0.8 0 0
0.113137 0.061988 0.639099 0.8 0 0
0.158769 0.123603 0.469572 0.8 0 0
0.165661 0.150931 0.491652 0.8 0 0
0.143594 0.083932 0.454008 0.8 0 0
0.121670 0.282416 0.192118 0.8 0 0
0.063934 0.139988 0.680788 0.8 0 0
0.113463 0.279732 0.856241 0.8 0 0
0.208337 0.030840 0.673147 0.8 0 0
0.110379 0.184355 0.190209 0.8 0 0
0.154453 0.136030 0.449346 0.8 0 0
0.094205 0.215830 0.454537 0.8 0 0
0.168653 0.087139 0.543298 0.8 0 0
0.107035 0.178602 0.261473 0.8 0 0
0.172951 0.121669 0.584568 0.8 0 0
0.063934 0.122792 0.583652 0.8 0 0
0.128749 0.218189 0.447625 0.8 0 0
0.117121 0.160944 0.259599 0.8 0 0
0.069605 0.163641 0.643012 0.8 0 0
0.068301 0.158556 0.515762 0.8 0 0
0.172951 0.134999 0.596945 0.8 0 0
0.151492 0.157374 0.439006 0.8 0 0
0.077641 0.152011 0.468758 0.8 0 0
0.122928 0.278535 0.822235 0.8 0 0
0.172285 0.060953 0.641973 0.8 0 0
0.100204 0.254734 0.057144 0.8 0 0
0.122398 0.277344 0.597827 0.8 0 0
0.126916 0.285430 0.164885 0.8 0 0
0.171089 0.098840 0.680718 0.8 0 0
0.127743 0.280227 0.321886 0.8 0 0
0.147474 0.104924 0.444111 0.8 0 0
0.111145 0.189531 0.385210 0.8 0 0
0.066435 0.150630 0.522214 0.8 0 0
0.089085 0.201910 0.541613 0.8 0 0
0.203346 0.039232 0.527528 0.8 0 0
0.124737 0.189948 0.096317 0.8 0 0
0.072799 0.148546 0.694631 0.8 0 0
0.094479 0.068676 0.552621 0.8 0 0
0.154978 0.177616 0.598379 0.8 0 0
0.115813 0.284888 0.940453 0.8 0 0
0.154365 0.106196 0.760615 0.8 0 0
0.089448 0.067092 0.675617 0.8 0 0
0.096414 0.125085 0.737116 0.8 0 0
0.107752 0.082652 0.767822 0.8 0 0
0.172113 0.148505 0.616993 0.8 0 0
0.166614 0.168219 0.510073 0.8 0 0
0.207226 0.027827 0.603277 0.8 0 0
0.149643 0.089167 0.767490 0.8 0 0
0.129505 0.284700 0.189832 0.8 0 0
0.105856 0.160924 0.098866 0.8 0 0
0.155492 0.122533 0.730225 0.8 0 0
0.075187 0.173678 0.591411 0.8 0 0
0.084170 0.106109 0.765084 0.8 0 0
0.114208 0.195494 0.397136 0.8 0 0
0.064905 0.149571 0.563245 0.8 0 0
0.083453 0.177928 0.611881 0.8 0 0
0.106048 0.153297 0.093137 0.8 0 0
0.134016 0.199492 0.126215 0.8 0 0
0.163527 0.086003 0.731239 0.8 0 0
0.163557 0.174558 0.541252 0.8 0 0
0.136297 0.225512 0.553017 0.8 0 0
0.079237 0.175588 0.604434 0.8 0 0
0.074355 0.172035 0.590693 0.8 0 0
0.192968 0.053094 0.523512 0.8 0 0
0.129205 0.181655 0.269671 0.8 0 0
0.132069 0.283475 0.165476 0.8 0 0
0.134669 0.069775 0.525389 0.8 0 0
0.102574 0.233015 0.056850 0.8 0 0
0.125240 0.174127 0.167930 0.8 0 0
0.149159 0.066001 0.630149 0.8 0 0
0.127351 0.156930 0.712198 0.8 0 0
0.123301 0.184795 0.089656 0.8 0 0
0.091750 0.087568 0.448262 0.8 0 0
0.132141 0.206720 0.577080 0.8 0 0
0.108604 0.152435 0.357640 0.8 0 0
0.105841 0.280026 0.864585 0.8 0 0
0.211885 0.028149 0.640998 0.8 0 0
0.079971 0.175360 0.631790 0.8 0 0
0.157148 0.178022 0.579724 0.8 0 0
0.140773 0.230337 0.506287 0.8 0 0
0.148157 0.213260 0.500686 0.8 0 0
0.129287 0.177649 0.244946 0.8 0 0
0.106100 0.180075 0.354954 0.8 0 0
0.106823 0.280371 0.874380 0.8 0 0
0.128939 0.074705 0.750344 0.8 0 0
0.172951 0.124667 0.608848 0.8 0 0
0.162602 0.097944 0.492081 0.8 0 0
0.117570 0.281562 0.216398 0.8 0 0
0.087025 0.180695 0.500631 0.8 0 0
0.174249 0.174898 0.250398 0.8 0 0
0.114538 0.282974 0.252067 0.8 0 0
0.111576 0.179866 0.128752 0.8 0 0
0.072188 0.174898 0.255842 0.8 0 0
0.077402 0.135956 0.470449 0.8 0 0
0.112602 0.271347 0.508504 0.8 0 0
0.113606 0.165168 0.221982 0.8 0 0
0.077998 0.104647 0.475658 0.8 0 0
0.112028 0.282744 0.866002 0.8 0 0
0.210534 0.031904 0.513583 0.8 0 0
0.096154 0.167948 0.692848 0.8 0 0
0.107686 0.273986 0.694111 0.8 0 0
0.116868 0.276432 0.668988 0.8 0 0
0.065580 0.154964 0.642567 0.8 0 0
0.067757 0.077985 0.604888 0.8 0 0
0.124271 0.279912 0.861345 0.8 0 0
0.160244 0.137325 0.710534 0.8 0 0
0.210024 0.036519 0.488320 0.8 0 0
0.148027 0.071165 0.713129 0.8 0 0
0.157540 0.142187 0.457500 0.8 0 0
0.117427 0.283499 0.891151 0.8 0 0
0.143866 0.210585 0.457681 0.8 0 0
0.120203 0.067115 0.686906 0.8 0 0
0.118718 0.266394 0.592631 0.8 0 0
0.064842 0.149066 0.600377 0.8 0 0
0.172727 0.101617 0.537388 0.8 0 0
0.172951 0.126261 0.563105 0.8 0 0
0.123987 0.176638 0.129415 0.8 0 0
0.130136 0.180724 0.328048 0.8 0 0
0.069518 0.167636 0.538297 0.8 0 0
0.082934 0.176312 0.661680 0.8 0 0
0.137795 0.225512 0.543562 0.8 0 0
0.065440 0.101703 0.682797 0.8 0 0
0.104841 0.217017 0.095704 0.8 0 0
0.145095 0.210849 0.469141 0.8 0 0
0.063700 0.176844 0.234882 0.8 0 0
0.124283 0.271874 0.555610 0.8 0 0
0.102191 0.227672 0.090784 0.8 0 0
0.208986 0.027669 0.606748 0.8 0 0
0.064030 0.142569 0.553306 0.8 0 0
0.089408 0.086902 0.765420 0.8 0 0
0.135446 0.226283 0.500260 0.8 0 0
0.167249 0.093041 0.722753 0.8 0 0
0.127136 0.201282 0.628941 0.8 0 0
0.090149 0.098824 0.445653 0.8 0 0
0.069033 0.073946 0.607586 0.8 0 0
0.162794 0.111938 0.721992 0.8 0 0
0.112602 0.274272 0.472968 0.8 0 0
0.103402 0.185697 0.119670 0.8 0 0
0.118213 0.166874 0.206232 0.8 0 0
0.137876 0.225512 0.513954 0.8 0 0
0.111357 0.066197 0.659383 0.8 0 0
0.102222 0.219763 0.568785 0.8 0 0
0.142390 0.108423 0.773650 0.8 0 0
0.172951 0.110709 0.611940 0.8 0 0
0.063934 0.129367 0.622881 0.8 0 0
0.122928 0.283386 0.237447 0.8 0 0
0.104543 0.244578 0.053790 0.8 0 0
0.110272 0.185226 0.330936 0.8 0 0
0.168726 0.136575 0.503447 0.8 0 0
0.147391 0.195760 0.478119 0.8 0 0
0.030758 0.030865 0.666694 0.8 0 0
0.156829 0.177243 0.554577 0.8 0 0
0.063934 0.102603 0.581767 0.8 0 0
0.086859 0.067219 0.672816 0.8 0 0
0.169014 0.078302 0.574590 0.8 0 0
0.067127 0.065552 0.521414 0.8 0 0
0.209652 0.025192 0.661241 0.8 0 0
0.087045 0.191801 0.502537 0.8 0 0
0.121559 0.218747 0.454876 0.8 0 0
0.106125 0.106054 0.780770 0.8 0 0
0.134016 0.177434 0.044155 0.8 0 0
0.123774 0.073855 0.491183 0.8 0 0
0.123984 0.273190 0.675795 0.8 0 0
0.163808 0.069263 0.521414 0.8 0 0
0.065614 0.155239 0.645477 0.8 0 0
0.100117 0.139782 0.082660 0.8 0 0
0.110892 0.225512 0.585813 0.8 0 0
0.073641 0.158135 0.488406 0.8 0 0
0.103667 0.202471 0.412151 0.8 0 0
0.123878 0.283176 0.244913 0.8 0 0
0.124093 0.279721 0.757038 0.8 0 0
0.109605 0.165879 0.246987 0.8 0 0
0.086231 0.067205 0.587985 0.8 0 0
0.105609 0.141179 0.074935 0.8 0 0
0.081648 0.099982 0.762858 0.8 0 0
0.171691 0.103679 0.682928 0.8 0 0
0.168790 0.159648 0.515327 0.8 0 0
0.123920 0.186940 0.111908 0.8 0 0
0.129441 0.275705 0.382704 0.8 0 0
0.137228 0.077321 0.472125 0.8 0 0
0.149139 0.068686 0.552465 0.8 0 0
0.103261 0.163644 0.701820 0.8 0 0
0.116495 0.188263 0.057817 0.8 0 0
0.121138 0.275315 0.730810 0.8 0 0
0.094239 0.178634 0.255401 0.8 0 0
0.124283 0.271196 0.610628 0.8 0 0
0.206444 0.035834 0.519276 0.8 0 0
0.087348 0.069435 0.540480 0.8 0 0
0.063934 0.104128 0.589886 0.8 0 0
0.080434 0.175823 0.645564 0.8 0 0
0.067613 0.084681 0.551320 0.8 0 0
0.137396 0.067011 0.683776 0.8 0 0
0.030840 0.026354 0.647309 0.8 0 0
0.163141 0.175458 0.237728 0.8 0 0
0.133460 0.170372 0.366401 0.8 0 0
0.101570 0.211781 0.101403 0.8 0 0
0.117350 0.195408 0.182194 0.8 0 0
0.141031 0.157906 0.405061 0.8 0 0
0.148198 0.072775 0.498462 0.8 0 0
0.137678 0.116527 0.762753 0.8 0 0
0.134016 0.173782 0.050783 0.8 0 0
0.152765 0.179076 0.534036 0.8 0 0
0.064491 0.101300 0.653801 0.8 0 0
0.105106 0.204754 0.076560 0.8 0 0
0.086198 0.066076 0.627493 0.8 0 0
0.207750 0.031114 0.530971 0.8 0 0
0.081783 0.120237 0.729329 0.8 0 0
0.129341 0.281307 0.223636 0.8 0 0
0.104609 0.175590 0.332202 0.8 0 0
0.131503 0.068104 0.714914 0.8 0 0
0.148224 0.192117 0.481407 0.8 0 0
0.085377 0.074929 0.729288 0.8 0 0
0.105145 0.178700 0.316745 0.8 0 0
0.127016 0.091521 0.419188 0.8 0 0
0.144815 0.136540 0.725666 0.8 0 0
0.168613 0.076228 0.585622 0.8 0 0
0.065879 0.089257 0.577057 0.8 0 0
0.152372 0.180081 0.611661 0.8 0 0
0.110044 0.164369 0.256353 0.8 0 0
0.105697 0.143877 0.077837 0.8 0 0
0.107287 0.276334 0.759738 0.8 0 0
0.151471 0.155373 0.438434 0.8 0 0
0.120858 0.193426 0.078010 0.8 0 0
0.082189 0.087207 0.477179 0.8 0 0
0.083524 0.066927 0.597731 0.8 0 0
0.206045 0.028747 0.630359 0.8 0 0
0.137027 0.204197 0.556312 0.8 0 0
0.142774 0.111625 0.767685 0.8 0 0
0.118941 0.282515 0.856208 0.8 0 0
0.097743 0.067478 0.578447 0.8 0 0
0.140454 0.066032 0.629046 0.8 0 0
0.092171 0.147786 0.714815 0.8 0 0
0.112411 0.187684 0.234568 0.8 0 0
0.153648 0.115148 0.455396 0.8 0 0
0.154973 0.176844 0.535745 0.8 0 0
0.109591 0.168639 0.696305 0.8 0 0
0.154877 0.177474 0.601129 0.8 0 0
0.078208 0.178690 0.255856 0.8 0 0
0.154285 0.160164 0.449507 0.8 0 0
0.121021 0.277492 0.792623 0.8 0 0
0.113361 0.275196 0.397181 0.8 0 0
0.165302 0.075703 0.673183 0.8 0 0
0.084933 0.066245 0.660815 0.8 0 0
0.148727 0.066258 0.621141 0.8 0 0
0.087076 0.190538 0.553613 0.8 0 0
0.157610 0.074497 0.511190 0.8 0 0
0.095091 0.067643 0.572656 0.8 0 0
0.105612 0.138970 0.084627 0.8 0 0
0.058568 0.175524 0.258539 0.8 0 0
0.094823 0.077782 0.469584 0.8 0 0
0.072266 0.147736 0.491844 0.8 0 0
0.125434 0.185426 0.175628 0.8 0 0
0.105228 0.268811 0.049085 0.8 0 0
0.131730 0.069775 0.528988 0.8 0 0
0.083814 0.089652 0.470025 0.8 0 0
0.080803 0.178067 0.566988 0.8 0 0
0.065525 0.154528 0.565805 0.8 0 0
0.103199 0.172010 0.373149 0.8 0 0
0.029307 0.032495 0.644997 0.8 0 0
0.143307 0.208191 0.450937 0.8 0 0
0.075313 0.079342 0.709939 0.8 0 0
0.067005 0.082498 0.586335 0.8 0 0
0.087865 0.074796 0.734135 0.8 0 0
0.119765 0.283457 0.962025 0.8 0 0
0.146469 0.176191 0.438845 0.8 0 0
0.146943 0.181813 0.613669 0.8 0 0
0.125467 0.185394 0.229285 0.8 0 0
0.159949 0.088521 0.492203 0.8 0 0
0.168442 0.162502 0.613166 0.8 0 0
0.127196 0.073941 0.490714 0.8 0 0
0.104777 0.202040 0.620595 0.8 0 0
0.085956 0.077668 0.738580 0.8 0 0
0.100084 0.230473 0.063674 0.8 0 0
0.162948 0.069224 0.632314 0.8 0 0
0.123605 0.275155 0.398345 0.8 0 0
0.107465 0.181441 0.335646 0.8 0 0
0.111008 0.116669 0.400204 0.8 0 0
0.169157 0.097804 0.708425 0.8 0 0
0.155057 0.095231 0.763555 0.8 0 0
0.117875 0.281659 0.298771 0.8 0 0
0.074287 0.177961 0.259150 0.8 0 0
0.166580 0.145820 0.690927 0.8 0 0
0.042081 0.059602 0.526671 0.8 0 0
0.121939 0.275510 0.479593 0.8 0 0
0.149469 0.198558 0.513350 0.8 0 0
0.116853 0.193988 0.223682 0.8 0 0
0.077478 0.074733 0.697147 0.8 0 0
0.122970 0.282523 0.856495 0.8 0 0
0.172951 0.139625 0.622700 0.8 0 0
0.115410 0.195094 0.132015 0.8 0 0
0.146012 0.198457 0.598749 0.8 0 0
0.148459 0.186993 0.474015 0.8 0 0
0.122225 0.067161 0.589521 0.8 0 0
0.117475 0.275009 0.402471 0.8 0 0
0.103340 0.220608 0.479069 0.8 0 0
0.102809 0.282768 0.028024 0.8 0 0
0.117999 0.284291 0.205312 0.8 0 0
0.131482 0.124580 0.399669 0.8 0 0
0.064778 0.103200 0.669082 0.8 0 0
0.144911 0.068961 0.548059 0.8 0 0
0.165572 0.078712 0.532030 0.8 0 0
0.170618 0.086927 0.602026 0.8 0 0
0.118633 0.176852 0.677776 0.8 0 0
0.146764 0.067160 0.589554 0.8 0 0
0.172951 0.116278 0.630159 0.8 0 0
0.105422 0.163265 0.307384 0.8 0 0
0.171330 0.154770 0.593171 0.8 0 0
0.124283 0.274478 0.684336 0.8 0 0
0.118587 0.271247 0.631095 0.8 0 0
0.096136 0.129972 0.412039 0.8 0 0
0.088836 0.195988 0.483907 0.8 0 0
0.118012 0.279027 0.743456 0.8 0 0
0.143760 0.216297 0.547375 0.8 0 0
0.211885 0.026918 0.626406 0.8 0 0
0.184011 0.056932 0.644020 0.8 0 0
0.172073 0.096043 0.556177 0.8 0 0
0.102284 0.088417 0.773926 0.8 0 0
0.064029 0.142555 0.612986 0.8 0 0
0.166847 0.149418 0.687398 0.8 0 0
0.144689 0.215971 0.469820 0.8 0 0
0.068330 0.165254 0.526368 0.8 0 0
0.128936 0.139313 0.389268 0.8 0 0
0.128860 0.221141 0.486003 0.8 0 0
0.124181 0.128811 0.391253 0.8 0 0
0.127146 0.276899 0.418078 0.8 0 0
0.124270 0.276049 0.454198 0.8 0 0
0.068100 0.161634 0.648525 0.8 0 0
0.140876 0.184408 0.426246 0.8 0 0
0.138659 0.181253 0.651187 0.8 0 0
0.114801 0.081082 0.451437 0.8 0 0
0.063934 0.104847 0.536873 0.8 0 0
0.126644 0.162409 0.269044 0.8 0 0
0.066531 0.111288 0.517770 0.8 0 0
0.082132 0.063361 0.638217 0.8 0 0
0.099117 0.174342 0.095375 0.8 0 0
0.093727 0.066593 0.609394 0.8 0 0
0.151498 0.188668 0.529259 0.8 0 0
0.076951 0.100383 0.749481 0.8 0 0
0.145112 0.216116 0.473812 0.8 0 0
0.120850 0.161518 0.707929 0.8 0 0
0.134926 0.176844 0.230803 0.8 0 0
0.115207 0.225512 0.586380 0.8 0 0
0.172951 0.118299 0.597184 0.8 0 0
0.099038 0.152115 0.714677 0.8 0 0
0.168660 0.163662 0.600573 0.8 0 0
0.141733 0.153039 0.711508 0.8 0 0
0.123790 0.148540 0.371235 0.8 0 0
0.025000 0.033880 0.533695 0.8 0 0
0.098975 0.186915 0.105031 0.8 0 0
0.088629 0.068586 0.554064 0.8 0 0
0.206045 0.035147 0.510166 0.8 0 0
0.111559 0.068519 0.555131 0.8 0 0
0.124283 0.278155 0.702253 0.8 0 0
0.113237 0.225512 0.576997 0.8 0 0
0.122236 0.182585 0.084179 0.8 0 0
0.117077 0.280408 0.785309 0.8 0 0
0.146762 0.069775 0.523971 0.8 0 0
0.130288 0.218076 0.584953 0.8 0 0
0.086206 0.180520 0.599949 0.8 0 0
0.133435 0.176202 0.675860 0.8 0 0
0.043272 0.057745 0.523119 0.8 0 0
0.063934 0.104960 0.602521 0.8 0 0
0.104998 0.080480 0.454748 0.8 0 0
0.106457 0.167195 0.099347 0.8 0 0
0.118965 0.282771 0.259288 0.8 0 0
0.108266 0.171206 0.224850 0.8 0 0
0.115820 0.072927 0.745011 0.8 0 0
0.099347 0.215119 0.078157 0.8 0 0
0.118579 0.082963 0.444861 0.8 0 0
0.131403 0.072265 0.502038 0.8 0 0
0.138922 0.070480 0.514529 0.8 0 0
0.141463 0.222424 0.508021 0.8 0 0
0.071901 0.167857 0.639533 0.8 0 0
0.126349 0.069541 0.538782 0.8 0 0
0.099969 0.204432 0.103027 0.8 0 0
0.150899 0.066307 0.619419 0.8 0 0
0.088369 0.183434 0.470054 0.8 0 0
0.113514 0.109422 0.402832 0.8 0 0
0.109471 0.279741 0.787966 0.8 0 0
0.136322 0.112112 0.411990 0.8 0 0
0.114030 0.266394 0.597048 0.8 0 0
0.171311 0.154917 0.552789 0.8 0 0
0.113025 0.179949 0.667839 0.8 0 0
0.107847 0.278949 0.834003 0.8 0 0
0.137156 0.147188 0.395672 0.8 0 0
0.103191 0.174394 0.373583 0.8 0 0
0.030840 0.030544 0.667277 0.8 0 0
0.081626 0.087691 0.757705 0.8 0 0
0.155625 0.176844 0.508939 0.8 0 0
0.161888 0.076496 0.513283 0.8 0 0
0.080009 0.174753 0.620562 0.8 0 0
0.166347 0.132331 0.699561 0.8 0 0
0.172951 0.129674 0.583390 0.8 0 0
0.106829 0.281382 0.903089 0.8 0 0
0.172951 0.117264 0.586273 0.8 0 0
0.065037 0.150022 0.543445 0.8 0 0
0.089904 0.192267 0.471980 0.8 0 0
0.093004 0.194903 0.447466 0.8 0 0
0.164303 0.160171 0.490617 0.8 0 0
0.152335 0.133943 0.722937 0.8 0 0
0.134016 0.206205 0.121149 0.8 0 0
0.108354 0.182330 0.300759 0.8 0 0
0.085868 0.108833 0.763256 0.8 0 0
0.129030 0.273652 0.438159 0.8 0 0
0.110067 0.184043 0.255949 0.8 0 0
0.075533 0.105551 0.482112 0.8 0 0
0.128806 0.194780 0.093901 0.8 0 0
0.140797 0.220402 0.477764 0.8 0 0
0.134016 0.210055 0.147349 0.8 0 0
0.110972 0.183141 0.146570 0.8 0 0
0.115092 0.278732 0.400269 0.8 0 0
0.170878 0.117063 0.520053 0.8 0 0
0.065821 0.156893 0.568517 0.8 0 0
0.099721 0.231397 0.081379 0.8 0 0
0.169240 0.160906 0.613573 0.8 0 0
0.172023 0.095353 0.596695 0.8 0 0
0.159169 0.166688 0.684539 0.8 0 0
0.119667 0.178369 0.102774 0.8 0 0
0.066922 0.118415 0.515429 0.8 0 0
0.146438 0.178112 0.663438 0.8 0 0
0.071667 0.161569 0.676398 0.8 0 0
0.072321 0.171849 0.558454 0.8 0 0
0.072203 0.169095 0.632582 0.8 0 0
0.101108 0.065881 0.634482 0.8 0 0
0.072495 0.071071 0.573378 0.8 0 0
0.104559 0.170412 0.333239 0.8 0 0
0.096458 0.219009 0.552572 0.8 0 0
0.149474 0.189650 0.488017 0.8 0 0
0.172951 0.139189 0.545604 0.8 0 0
0.161430 0.089414 0.497004 0.8 0 0
0.077611 0.171548 0.668336 0.8 0 0
0.111442 0.178091 0.141327 0.8 0 0
0.112338 0.165461 0.224959 0.8 0 0
0.134016 0.172544 0.046218 0.8 0 0
0.130883 0.275394 0.391537 0.8 0 0
0.095643 0.155069 0.404986 0.8 0 0
0.075298 0.140869 0.476693 0.8 0 0
0.074801 0.117709 0.482533 0.8 0 0
0.065009 0.117395 0.524999 0.8 0 0
0.105077 0.277140 0.782626 0.8 0 0
0.100466 0.139199 0.066067 0.8 0 0
0.130862 0.071410 0.508020 0.8 0 0
0.098264 0.219635 0.560962 0.8 0 0
0.175540 0.062098 0.638217 0.8 0 0
0.118805 0.190612 0.387370 0.8 0 0
0.124829 0.191920 0.648133 0.8 0 0
0.124138 0.180478 0.099899 0.8 0 0
0.064058 0.142794 0.587112 0.8 0 0
0.172951 0.137369 0.562759 0.8 0 0
0.134698 0.204098 0.560424 0.8 0 0
0.063934 0.126524 0.620026 0.8 0 0
0.115509 0.190486 0.325931 0.8 0 0
0.120712 0.275947 0.649644 0.8 0 0
0.141360 0.120185 0.415183 0.8 0 0
0.080502 0.178736 0.256221 0.8 0 0
0.136686 0.208411 0.556177 0.8 0 0
0.093982 0.094404 0.439178 0.8 0 0
0.075947 0.172818 0.606752 0.8 0 0
0.114220 0.284009 0.215352 0.8 0 0
0.172926 0.142000 0.558054 0.8 0 0
0.172951 0.134393 0.660488 0.8 0 0
0.097980 0.120116 0.753148 0.8 0 0
0.130754 0.066620 0.608469 0.8 0 0
0.066656 0.113295 0.517035 0.8 0 0
0.136927 0.205082 0.422057 0.8 0 0
0.103709 0.110390 0.062349 0.8 0 0
0.149949 0.191041 0.495253 0.8 0 0
0.125815 0.069775 0.521055 0.8 0 0
0.130585 0.167964 0.282118 0.8 0 0
0.150083 0.170065 0.682968 0.8 0 0
0.136370 0.190928 0.411929 0.8 0 0
0.099403 0.151571 0.393881 0.8 0 0
0.138547 0.141086 0.725995 0.8 0 0
0.115058 0.172295 0.157441 0.8 0 0
0.131051 0.282441 0.249603 0.8 0 0
0.119838 0.173737 0.144463 0.8 0 0
0.154569 0.076454 0.496007 0.8 0 0
0.121502 0.190799 0.316789 0.8 0 0
0.079079 0.066139 0.633233 0.8 0 0
0.119744 0.281245 0.313441 0.8 0 0
0.080996 0.103532 0.467818 0.8 0 0
0.142826 0.202776 0.574752 0.8 0 0
0.104816 0.283618 0.920147 0.8 0 0
0.127552 0.181175 0.194450 0.8 0 0
0.066300 0.086731 0.574101 0.8 0 0
0.132357 0.075796 0.752340 0.8 0 0
0.102546 0.237730 0.083967 0.8 0 0
0.116485 0.266991 0.575325 0.8 0 0
0.150646 0.176389 0.232136 0.8 0 0
0.087972 0.197545 0.492641 0.8 0 0
0.122490 0.268340 0.564254 0.8 0 0
0.155744 0.065908 0.633384 0.8 0 0
0.172336 0.146719 0.569313 0.8 0 0
0.068005 0.083847 0.664034 0.8 0 0
0.157098 0.175410 0.660606 0.8 0 0
0.084551 0.074122 0.723570 0.8 0 0
0.096889 0.101674 0.779881 0.8 0 0
0.171259 0.176844 0.230272 0.8 0 0
0.066011 0.091704 0.654238 0.8 0 0
0.211885 0.032568 0.533732 0.8 0 0
0.119034 0.277414 0.790413 0.8 0 0
0.116310 0.082450 0.767469 0.8 0 0
0.089104 0.216149 0.504353 0.8 0 0
0.071962 0.126665 0.491458 0.8 0 0
0.119493 0.279712 0.855659 0.8 0 0
0.165031 0.085232 0.721252 0.8 0 0
0.156714 0.136241 0.457208 0.8 0 0
0.144976 0.200502 0.596241 0.8 0 0
0.063934 0.132502 0.684186 0.8 0 0
0.127882 0.285163 0.174359 0.8 0 0
0.115126 0.194310 0.141253 0.8 0 0
0.164886 0.078899 0.525338 0.8 0 0
0.103760 0.164256 0.356081 0.8 0 0
0.172072 0.095646 0.617606 0.8 0 0
0.124148 0.125677 0.743603 0.8 0 0
0.122397 0.211799 0.429745 0.8 0 0
0.073231 0.172554 0.568735 0.8 0 0
0.114584 0.090090 0.778468 0.8 0 0
0.125407 0.086696 0.433662 0.8 0 0
0.134059 0.176748 0.262213 0.8 0 0
0.156182 0.176280 0.651973 0.8 0 0
0.028974 0.025000 0.666440 0.8 0 0
0.169905 0.082651 0.605308 0.8 0 0
0.172951 0.139299 0.643118 0.8 0 0
0.071414 0.107710 0.717388 0.8 0 0
0.135860 0.137257 0.729876 0.8 0 0
0.126083 0.275011 0.482356 0.8 0 0
0.123241 0.199931 0.634780 0.8 0 0
0.118433 0.283686 0.968521 0.8 0 0
0.121540 0.285104 0.176477 0.8 0 0
0.088272 0.127876 0.434100 0.8 0 0
0.113116 0.067018 0.594524 0.8 0 0
0.130168 0.278739 0.296560 0.8 0 0
0.111668 0.185298 0.093109 0.8 0 0
0.117777 0.270287 0.582623 0.8 0 0
0.153980 0.100743 0.765491 0.8 0 0
0.079114 0.158929 0.464242 0.8 0 0
0.064989 0.094596 0.630498 0.8 0 0
0.086698 0.182417 0.510171 0.8 0 0
0.126858 0.180378 0.174142 0.8 0 0
0.094375 0.174898 0.248745 0.8 0 0
0.067828 0.162275 0.562407 0.8 0 0
0.112686 0.220344 0.475634 0.8 0 0
0.092374 0.214690 0.467094 0.8 0 0
0.182798 0.174898 0.245831 0.8 0 0
0.091693 0.235588 0.502740 0.8 0 0
0.069670 0.106756 0.707927 0.8 0 0
0.174452 0.178079 0.250963 0.8 0 0
0.169684 0.081324 0.624408 0.8 0 0
0.206045 0.034094 0.553090 0.8 0 0
0.115634 0.282007 0.838179 0.8 0 0
0.120459 0.273456 0.442690 0.8 0 0
0.119945 0.198258 0.097897 0.8 0 0
0.099614 0.227285 0.074081 0.8 0 0
0.105727 0.275970 0.749395 0.8 0 0
0.094522 0.067846 0.521414 0.8 0 0
0.093594 0.118013 0.421166 0.8 0 0
0.112602 0.276129 0.607041 0.8 0 0
0.076548 0.158794 0.475483 0.8 0 0
0.069447 0.163430 0.647167 0.8 0 0
0.075079 0.071825 0.666052 0.8 0 0
0.121568 0.177226 0.113057 0.8 0 0
0.067670 0.078507 0.628018 0.8 0 0
0.102415 0.070011 0.517811 0.8 0 0
0.206723 0.036409 0.502213 0.8 0 0
0.117500 0.076530 0.755820 0.8 0 0
0.169896 0.082592 0.640542 0.8 0 0
0.109102 0.225512 0.554892 0.8 0 0
0.115890 0.181514 0.083531 0.8 0 0
0.097378 0.200910 0.617453 0.8 0 0
0.172447 0.097901 0.627979 0.8 0 0
0.111005 0.186275 0.084163 0.8 0 0
0.075476 0.108825 0.731560 0.8 0 0
0.114482 0.188416 0.098177 0.8 0 0
0.113136 0.279713 0.855702 0.8 0 0
0.114250 0.186548 0.079938 0.8 0 0
0.118498 0.157150 0.293751 0.8 0 0
0.105306 0.154652 0.713563 0.8 0 0
0.091594 0.187629 0.617129 0.8 0 0
0.115972 0.270755 0.619784 0.8 0 0
0.099330 0.168046 0.088270 0.8 0 0
0.105466 0.135557 0.076181 0.8 0 0
0.115056 0.279565 0.767111 0.8 0 0
0.089611 0.085973 0.455950 0.8 0 0
0.029002 0.035795 0.520434 0.8 0 0
0.115962 0.227666 0.558608 0.8 0 0
0.132949 0.224759 0.581363 0.8 0 0
0.169729 0.090650 0.545810 0.8 0 0
0.135683 0.067146 0.590047 0.8 0 0
0.103973 0.287575 0.028447 0.8 0 0
0.063934 0.103501 0.584298 0.8 0 0
0.143070 0.204605 0.446643 0.8 0 0
0.121411 0.067828 0.718113 0.8 0 0
0.211885 0.032195 0.610143 0.8 0 0
0.125552 0.273681 0.500980 0.8 0 0
0.105499 0.065881 0.522004 0.8 0 0
0.171462 0.106699 0.689289 0.8 0 0
0.025000 0.027545 0.681824 0.8 0 0
0.109114 0.282830 0.944207 0.8 0 0
0.148916 0.161765 0.696803 0.8 0 0
0.106643 0.164298 0.275778 0.8 0 0
0.210815 0.032973 0.604157 0.8 0 0
0.103202 0.073691 0.492086 0.8 0 0
0.149856 0.065881 0.636474 0.8 0 0
0.072589 0.161402 0.494297 0.8 0 0
0.091867 0.174564 0.673929 0.8 0 0
0.109078 0.074575 0.487227 0.8 0 0
0.108128 0.174096 0.229140 0.8 0 0
0.139559 0.175652 0.236559 0.8 0 0
0.112743 0.129540 0.390584 0.8 0 0
0.066121 0.158339 0.551228 0.8 0 0
0.123997 0.186864 0.119229 0.8 0 0
0.123767 0.266394 0.595735 0.8 0 0
0.067828 0.162849 0.576177 0.8 0 0
0.105736 0.145198 0.078516 0.8 0 0
0.123544 0.281408 0.220768 0.8 0 0
0.159831 0.088044 0.492271 0.8 0 0
0.068205 0.076431 0.609268 0.8 0 0
0.113293 0.225512 0.566128 0.8 0 0
0.132268 0.186031 0.654309 0.8 0 0
0.068053 0.087003 0.546661 0.8 0 0
0.172785 0.134567 0.678674 0.8 0 0
0.103476 0.129979 0.058889 0.8 0 0
0.131192 0.203881 0.598034 0.8 0 0
0.101488 0.120850 0.057657 0.8 0 0
0.025000 0.034838 0.542674 0.8 0 0
0.028817 0.030846 0.667249 0.8 0 0
0.087514 0.087876 0.460192 0.8 0 0
0.150251 0.174898 0.249230 0.8 0 0
0.101009 0.258002 0.046863 0.8 0 0
0.083229 0.175682 0.469673 0.8 0 0
0.128982 0.225512 0.540598 0.8 0 0
0.094383 0.142913 0.411270 0.8 0 0
0.122451 0.274640 0.711626 0.8 0 0
0.081135 0.075327 0.711373 0.8 0 0
0.171378 0.174898 0.248430 0.8 0 0
0.082825 0.092943 0.765354 0.8 0 0
0.080268 0.176844 0.515799 0.8 0 0
0.163830 0.137772 0.481581 0.8 0 0
0.089138 0.197756 0.561508 0.8 0 0
0.104041 0.164580 0.347888 0.8 0 0
0.063934 0.123687 0.537742 0.8 0 0
0.143322 0.070094 0.517232 0.8 0 0
0.085916 0.181190 0.549565 0.8 0 0
0.131263 0.276309 0.423140 0.8 0 0
0.098975 0.198091 0.083938 0.8 0 0
0.109901 0.184206 0.333191 0.8 0 0
0.123397 0.193037 0.242357 0.8 0 0
0.098856 0.206781 0.546399 0.8 0 0
0.119627 0.285691 0.155639 0.8 0 0
0.037818 0.051197 0.524094 0.8 0 0
0.120113 0.204098 0.593360 0.8 0 0
0.130513 0.109482 0.777802 0.8 0 0
0.072192 0.126730 0.490735 0.8 0 0
0.107726 0.181701 0.303118 0.8 0 0
0.120747 0.067522 0.576914 0.8 0 0
0.119491 0.225512 0.578048 0.8 0 0
0.112497 0.192956 0.392060 0.8 0 0
0.102908 0.163706 0.380955 0.8 0 0
0.077620 0.173009 0.628393 0.8 0 0
0.064043 0.119017 0.679311 0.8 0 0
0.033466 0.046063 0.529201 0.8 0 0
0.134087 0.196365 0.095839 0.8 0 0
0.125227 0.273383 0.444349 0.8 0 0
0.141919 0.070449 0.514747 0.8 0 0
0.153958 0.068698 0.552270 0.8 0 0
0.113159 0.283501 0.963273 0.8 0 0
0.063934 0.127598 0.560167 0.8 0 0
0.122200 0.278074 0.576755 0.8 0 0
0.172341 0.146679 0.548488 0.8 0 0
0.064918 0.149630 0.546499 0.8 0 0
0.154923 0.128700 0.454221 0.8 0 0
0.068798 0.105145 0.507009 0.8 0 0
0.080231 0.083489 0.743565 0.8 0 0
0.126033 0.151082 0.356931 0.8 0 0
0.122209 0.190487 0.089682 0.8 0 0
0.088872 0.177465 0.457650 0.8 0 0
0.166831 0.166715 0.608469 0.8 0 0
0.125026 0.116321 0.769884 0.8 0 0
0.168164 0.074881 0.585121 0.8 0 0
0.139473 0.066246 0.621571 0.8 0 0
0.162024 0.067578 0.635617 0.8 0 0
0.166729 0.165326 0.632798 0.8 0 0
0.128847 0.282576 0.187579 0.8 0 0
0.117530 0.196925 0.137887 0.8 0 0
0.133670 0.123035 0.748808 0.8 0 0
0.068605 0.162307 0.634819 0.8 0 0
0.063934 0.139623 0.678702 0.8 0 0
0.063934 0.110598 0.568268 0.8 0 0
0.101448 0.111551 0.060413 0.8 0 0
0.096711 0.066608 0.608881 0.8 0 0
0.107040 0.119752 0.759301 0.8 0 0
0.136654 0.071199 0.509498 0.8 0 0
0.064289 0.098855 0.637076 0.8 0 0
0.109430 0.175676 0.191188 0.8 0 0
0.077841 0.095625 0.483164 0.8 0 0
0.103699 0.213632 0.572392 0.8 0 0
0.110395 0.216829 0.439805 0.8 0 0
0.124283 0.281146 0.874042 0.8 0 0
0.122014 0.279037 0.836492 0.8 0 0
0.088173 0.199733 0.514003 0.8 0 0
0.105899 0.080221 0.762974 0.8 0 0
0.117417 0.192056 0.280080 0.8 0 0
0.088553 0.065881 0.644511 0.8 0 0
0.172951 0.122398 0.658049 0.8 0 0
0.106762 0.183332 0.096412 0.8 0 0
0.105925 0.274381 0.685809 0.8 0 0
0.167345 0.072422 0.637533 0.8 0 0
0.161566 0.090666 0.496136 0.8 0 0
0.099377 0.165869 0.089954 0.8 0 0
0.107072 0.161730 0.293475 0.8 0 0
0.120926 0.279519 0.850193 0.8 0 0
0.073373 0.145844 0.486356 0.8 0 0
0.135959 0.071063 0.510448 0.8 0 0
0.106768 0.066563 0.610475 0.8 0 0
0.064968 0.094722 0.588839 0.8 0 0
0.101900 0.146573 0.094813 0.8 0 0
0.148719 0.200129 0.487163 0.8 0 0
0.114194 0.284556 0.195914 0.8 0 0
0.085998 0.182696 0.532722 0.8 0 0
0.147297 0.179182 0.450895 0.8 0 0
0.106170 0.166223 0.285744 0.8 0 0
0.099987 0.202606 0.104472 0.8 0 0
0.128861 0.278036 0.380933 0.8 0 0
0.106602 0.225512 0.546015 0.8 0 0
0.117500 0.193054 0.250936 0.8 0 0
0.137948 0.129085 0.407639 0.8 0 0
0.088588 0.203988 0.517858 0.8 0 0
0.116513 0.274854 0.500081 0.8 0 0
0.066265 0.159615 0.542731 0.8 0 0
0.120622 0.281745 0.913398 0.8 0 0
0.103968 0.284828 0.045461 0.8 0 0
0.126250 0.173837 0.179065 0.8 0 0
0.095470 0.175909 0.235021 0.8 0 0
0.082179 0.067616 0.573610 0.8 0 0
0.043211 0.052505 0.527034 0.8 0 0
0.147957 0.174998 0.670645 0.8 0 0
0.131478 0.162163 0.307736 0.8 0 0
0.104007 0.160278 0.348538 0.8 0 0
0.145572 0.142719 0.418009 0.8 0 0
0.063934 0.118061 0.530840 0.8 0 0
0.163805 0.096505 0.739041 0.8 0 0
0.131676 0.065881 0.642953 0.8 0 0
0.171795 0.110735 0.686799 0.8 0 0
0.172951 0.137840 0.640644 0.8 0 0
0.151306 0.128626 0.442321 0.8 0 0
0.133131 0.155784 0.358363 0.8 0 0
0.084947 0.176844 0.529412 0.8 0 0
0.150310 0.076920 0.485193 0.8 0 0
0.170060 0.124613 0.515564 0.8 0 0
0.143698 0.219309 0.474771 0.8 0 0
0.121853 0.277823 0.406874 0.8 0 0
0.127759 0.163551 0.267840 0.8 0 0
0.157813 0.176238 0.514445 0.8 0 0
0.126234 0.162211 0.262799 0.8 0 0
0.159566 0.152687 0.702404 0.8 0 0
0.107474 0.176844 0.234281 0.8 0 0
0.128445 0.280547 0.245208 0.8 0 0
0.132980 0.204070 0.582032 0.8 0 0
0.101587 0.225512 0.546537 0.8 0 0
0.123706 0.225512 0.564131 0.8 0 0
0.112290 0.181254 0.111895 0.8 0 0
0.152573 0.086057 0.471654 0.8 0 0
0.063980 0.133209 0.677811 0.8 0 0
0.140160 0.226383 0.509112 0.8 0 0
0.063934 0.136814 0.549723 0.8 0 0
0.153791 0.166504 0.449339 0.8 0 0
0.170171 0.088540 0.660124 0.8 0 0
0.149536 0.112833 0.757879 0.8 0 0
0.119830 0.180738 0.664898 0.8 0 0
0.065409 0.129419 0.522342 0.8 0 0
0.123181 0.283366 0.165164 0.8 0 0
0.120216 0.281286 0.224210 0.8 0 0
0.106725 0.199366 0.089951 0.8 0 0
0.117349 0.275419 0.516193 0.8 0 0
0.154450 0.079454 0.486671 0.8 0 0
0.125305 0.276664 0.355480 0.8 0 0
0.111912 0.186537 0.243068 0.8 0 0
0.099972 0.186053 0.652510 0.8 0 0
0.169381 0.098727 0.706525 0.8 0 0
0.122548 0.122329 0.394288 0.8 0 0
0.087605 0.186330 0.487491 0.8 0 0
0.088808 0.187595 0.594347 0.8 0 0
0.115542 0.157838 0.287557 0.8 0 0
0.172197 0.096400 0.616640 0.8 0 0
0.172385 0.104775 0.666810 0.8 0 0
0.046892 0.060497 0.522532 0.8 0 0
0.063934 0.114768 0.532386 0.8 0 0
0.120492 0.281920 0.835100 0.8 0 0
0.172951 0.108530 0.623700 0.8 0 0
0.182518 0.062789 0.527008 0.8 0 0
0.157133 0.176844 0.240128 0.8 0 0
0.025300 0.032718 0.611697 0.8 0 0
0.073262 0.177165 0.243656 0.8 0 0
0.094464 0.176183 0.424377 0.8 0 0
0.172951 0.135544 0.651065 0.8 0 0
0.148730 0.135224 0.724216 0.8 0 0
0.128882 0.184254 0.656994 0.8 0 0
0.106098 0.178707 0.255991 0.8 0 0
0.143646 0.067253 0.586321 0.8 0 0
0.104972 0.281487 0.906067 0.8 0 0
0.128468 0.153923 0.347050 0.8 0 0
0.101619 0.176164 0.077171 0.8 0 0
0.092840 0.155533 0.413359 0.8 0 0
0.158202 0.114025 0.734957 0.8 0 0
0.135521 0.066199 0.623195 0.8 0 0
0.099859 0.150876 0.071197 0.8 0 0
0.027302 0.034020 0.490462 0.8 0 0
0.170060 0.095596 0.526731 0.8 0 0
0.082698 0.176844 0.488203 0.8 0 0
0.099521 0.220210 0.473894 0.8 0 0
0.128793 0.180888 0.230682 0.8 0 0
0.164305 0.173685 0.526842 0.8 0 0
0.121218 0.172929 0.151735 0.8 0 0
0.129006 0.181855 0.358658 0.8 0 0
0.074249 0.174014 0.506877 0.8 0 0
0.140160 0.116627 0.759733 0.8 0 0
0.116496 0.246294 0.561671 0.8 0 0
0.167066 0.153954 0.501521 0.8 0 0
0.134764 0.220232 0.474188 0.8 0 0
0.132069 0.281577 0.262798 0.8 0 0
0.151032 0.163460 0.438920 0.8 0 0
0.116151 0.225512 0.524452 0.8 0 0
0.105756 0.216260 0.581379 0.8 0 0
0.145117 0.072633 0.499463 0.8 0 0
0.093653 0.117769 0.421076 0.8 0 0
0.123419 0.221072 0.485100 0.8 0 0
0.090764 0.220052 0.504463 0.8 0 0
0.149100 0.184491 0.476458 0.8 0 0
0.106951 0.225512 0.556974 0.8 0 0
0.124559 0.188939 0.267295 0.8 0 0
0.166022 0.067194 0.637344 0.8 0 0
0.103427 0.180738 0.659759 0.8 0 0
0.125858 0.285717 0.154719 0.8 0 0
0.103823 0.175339 0.355163 0.8 0 0
0.094835 0.190670 0.435692 0.8 0 0
0.102132 0.078497 0.465654 0.8 0 0
0.113684 0.066551 0.610887 0.8 0 0
0.156289 0.083283 0.743723 0.8 0 0
0.122753 0.282299 0.276035 0.8 0 0
0.172951 0.103663 0.572025 0.8 0 0
0.113838 0.189816 0.169695 0.8 0 0
0.130902 0.213110 0.432366 0.8 0 0
0.089199 0.155341 0.425234 0.8 0 0
0.122684 0.284781 0.936648 0.8 0 0
0.106326 0.186337 0.108362 0.8 0 0
0.030840 0.028192 0.599949 0.8 0 0
0.118247 0.278328 0.402783 0.8 0 0
0.071905 0.085113 0.719688 0.8 0 0
0.108777 0.283069 0.950999 0.8 0 0
0.025000 0.026415 0.668714 0.8 0 0
0.127074 0.183910 0.332532 0.8 0 0
0.063934 0.134482 0.581838 0.8 0 0
0.172951 0.112457 0.592098 0.8 0 0
0.104816 0.284444 0.974966 0.8 0 0
0.169346 0.133841 0.508296 0.8 0 0
0.025946 0.025616 0.651914 0.8 0 0
0.085815 0.119000 0.736187 0.8 0 0
0.104208 0.181911 0.079302 0.8 0 0
0.172951 0.140973 0.615465 0.8 0 0
0.116873 0.194975 0.194858 0.8 0 0
0.126878 0.183983 0.300560 0.8 0 0
0.169057 0.161874 0.572423 0.8 0 0
0.172951 0.122786 0.675510 0.8 0 0
0.149365 0.182871 0.477026 0.8 0 0
0.138020 0.067347 0.692106 0.8 0 0
0.100276 0.135720 0.074848 0.8 0 0
0.068547 0.130452 0.507292 0.8 0 0
0.069727 0.166318 0.606020 0.8 0 0
0.142029 0.068916 0.699888 0.8 0 0
0.105950 0.225512 0.560311 0.8 0 0
0.145034 0.186874 0.447086 0.8 0 0
0.117281 0.284838 0.938682 0.8 0 0
0.099354 0.214426 0.090120 0.8 0 0
0.098126 0.159112 0.398660 0.8 0 0
0.055965 0.067723 0.526138 0.8 0 0
0.143788 0.185516 0.439814 0.8 0 0
0.148066 0.082817 0.465574 0.8 0 0
0.172280 0.100649 0.531294 0.8 0 0
0.069776 0.062771 0.642112 0.8 0 0
0.106162 0.203365 0.102860 0.8 0 0
0.124221 0.279853 0.859675 0.8 0 0
0.132069 0.284400 0.168504 0.8 0 0
0.119368 0.284855 0.185284 0.8 0 0
0.030840 0.032669 0.606410 0.8 0 0
0.069727 0.162769 0.509623 0.8 0 0
0.123962 0.221569 0.491569 0.8 0 0
0.025000 0.029864 0.566045 0.8 0 0
0.119284 0.276051 0.751707 0.8 0 0
0.172508 0.106081 0.668024 0.8 0 0
0.171981 0.149561 0.638453 0.8 0 0
0.098377 0.091987 0.433061 0.8 0 0
0.084194 0.084383 0.473492 0.8 0 0
0.167302 0.072295 0.599280 0.8 0 0
0.104188 0.282870 0.046341 0.8 0 0
0.172951 0.136491 0.627417 0.8 0 0
0.117012 0.276612 0.459571 0.8 0 0
0.211491 0.035507 0.528963 0.8 0 0
0.165810 0.101550 0.728090 0.8 0 0
0.142661 0.118037 0.419164 0.8 0 0
0.135175 0.191499 0.408964 0.8 0 0
0.130666 0.280072 0.317963 0.8 0 0
0.103061 0.170173 0.377037 0.8 0 0
0.148641 0.182857 0.601783 0.8 0 0
0.174886 0.067875 0.521414 0.8 0 0
0.087370 0.172125 0.437797 0.8 0 0
0.110840 0.160493 0.275032 0.8 0 0
0.170309 0.088650 0.656623 0.8 0 0
0.211885 0.032055 0.551788 0.8 0 0
0.124283 0.277359 0.682584 0.8 0 0
0.127566 0.183295 0.277834 0.8 0 0
0.148883 0.107245 0.769434 0.8 0 0
0.122896 0.281181 0.897377 0.8 0 0
0.168293 0.080772 0.550724 0.8 0 0
0.117918 0.246866 0.560348 0.8 0 0
0.156505 0.121485 0.462964 0.8 0 0
0.160867 0.086470 0.741571 0.8 0 0
0.064434 0.101433 0.530652 0.8 0 0
0.084377 0.089420 0.764936 0.8 0 0
0.172674 0.144020 0.633931 0.8 0 0
0.136412 0.192937 0.642566 0.8 0 0
0.079798 0.171702 0.465232 0.8 0 0
0.105082 0.195341 0.401311 0.8 0 0
0.166094 0.137314 0.697031 0.8 0 0
0.066254 0.087004 0.617895 0.8 0 0
0.086757 0.189526 0.513111 0.8 0 0
0.126626 0.128296 0.739191 0.8 0 0
0.131260 0.225512 0.527051 0.8 0 0
0.153335 0.134020 0.446607 0.8 0 0
0.127461 0.284737 0.189477 0.8 0 0
0.068600 0.094500 0.520142 0.8 0 0
0.123519 0.166673 0.209893 0.8 0 0
0.172492 0.137192 0.526614 0.8 0 0
0.172951 0.110843 0.588922 0.8 0 0
0.143873 0.185116 0.631907 0.8 0 0
0.099012 0.066618 0.608527 0.8 0 0
0.134016 0.185097 0.063961 0.8 0 0
0.117836 0.075661 0.481251 0.8 0 0
0.067987 0.166754 0.575120 0.8 0 0
0.105525 0.136222 0.082554 0.8 0 0
0.026001 0.032077 0.509787 0.8 0 0
0.078366 0.149852 0.705868 0.8 0 0
0.116191 0.194890 0.197313 0.8 0 0
0.140029 0.189268 0.642991 0.8 0 0
0.119393 0.282034 0.202967 0.8 0 0
0.159134 0.071178 0.543867 0.8 0 0
0.105009 0.161222 0.319292 0.8 0 0
0.120173 0.074467 0.749631 0.8 0 0
0.128696 0.204658 0.592070 0.8 0 0
0.091118 0.212926 0.477061 0.8 0 0
0.116680 0.270462 0.613050 0.8 0 0
0.146900 0.201631 0.573044 0.8 0 0
0.101471 0.166050 0.386842 0.8 0 0
0.119704 0.195458 0.180728 0.8 0 0
0.118851 0.266394 0.590394 0.8 0 0
0.089809 0.207734 0.484577 0.8 0 0
0.155529 0.137913 0.452300 0.8 0 0
0.080065 0.173380 0.474267 0.8 0 0
0.127252 0.176948 0.185377 0.8 0 0
0.143448 0.176844 0.235852 0.8 0 0
0.103812 0.093101 0.780756 0.8 0 0
0.166432 0.159772 0.501814 0.8 0 0
0.073084 0.112354 0.487929 0.8 0 0
0.168648 0.102601 0.512419 0.8 0 0
0.147819 0.202257 0.556941 0.8 0 0
0.163385 0.170723 0.602181 0.8 0 0
0.111028 0.185004 0.236398 0.8 0 0
0.074593 0.138896 0.480684 0.8 0 0
0.106160 0.282091 0.923243 0.8 0 0
0.149135 0.180355 0.639503 0.8 0 0
0.113214 0.283333 0.239328 0.8 0 0
0.106114 0.228071 0.066205 0.8 0 0
0.025209 0.036680 0.493407 0.8 0 0
0.063934 0.107712 0.621877 0.8 0 0
0.171416 0.154084 0.614956 0.8 0 0
0.063934 0.136175 0.602555 0.8 0 0
0.124267 0.186691 0.195309 0.8 0 0
0.106638 0.181010 0.659345 0.8 0 0
0.077379 0.137617 0.712057 0.8 0 0
0.167867 0.095518 0.517118 0.8 0 0
0.149565 0.198579 0.521437 0.8 0 0
0.166420 0.161993 0.671909 0.8 0 0
0.029113 0.034513 0.558446 0.8 0 0
0.106789 0.180764 0.302017 0.8 0 0
0.104968 0.156739 0.098451 0.8 0 0
0.106686 0.157811 0.326253 0.8 0 0
0.172522 0.098349 0.611987 0.8 0 0
0.153926 0.068339 0.676796 0.8 0 0
0.115159 0.174686 0.135917 0.8 0 0
0.104619 0.224688 0.506435 0.8 0 0
0.167509 0.089878 0.701653 0.8 0 0
