0.434018 0.532146 0.179888 0.8 0 0
0.479999 0.370210 0.092275 0.8 0 0
0.439635 0.940180 0.199556 0.8 0 0
0.096988 0.351102 0.243886 0.8 0 0
0.451660 0.642597 0.196342 0.8 0 0
0.425091 0.489779 0.250891 0.8 0 0
0.441583 0.641072 0.159350 0.8 0 0
0.429367 0.117066 0.244306 0.8 0 0
0.443399 0.357677 0.243886 0.8 0 0
0.498915 0.433302 0.244447 0.8 0 0
0.435130 0.459064 0.147694 0.8 0 0
0.441260 0.623548 0.178478 0.8 0 0
0.441952 0.660798 0.201972 0.8 0 0
0.691319 0.814190 0.244306 0.8 0 0
0.317129 0.420238 0.244306 0.8 0 0
0.454530 0.491239 0.251025 0.8 0 0
0.581156 0.642165 0.244306 0.8 0 0
0.512726 0.399408 0.131789 0.8 0 0
0.432524 0.598141 0.205309 0.8 0 0
0.445003 0.586235 0.187725 0.8 0 0
0.195396 0.375046 0.244306 0.8 0 0
0.436185 0.031500 0.244306 0.8 0 0
0.377668 0.438179 0.183085 0.8 0 0
0.370085 0.950154 0.245166 0.8 0 0
0.290836 0.684649 0.243886 0.8 0 0
0.450445 0.535640 0.198475 0.8 0 0
0.474430 0.527424 0.244306 0.8 0 0
0.443421 0.913923 0.174834 0.8 0 0
0.568979 0.424032 0.243886 0.8 0 0
0.146549 0.352725 0.244306 0.8 0 0
0.451075 0.477023 0.201258 0.8 0 0
0.453874 0.528091 0.100920 0.8 0 0
0.355064 0.578012 0.244306 0.8 0 0
0.725637 0.379523 0.244447 0.8 0 0
0.481662 0.328260 0.164561 0.8 0 0
0.449924 0.391169 0.244306 0.8 0 0
0.482640 0.480479 0.096921 0.8 0 0
0.431834 0.057105 0.244306 0.8 0 0
0.701068 0.806376 0.244306 0.8 0 0
0.449590 0.422785 0.176645 0.8 0 0
0.483995 0.539656 0.142008 0.8 0 0
0.614430 0.678926 0.244306 0.8 0 0
0.424579 0.447883 0.076829 0.8 0 0
0.451639 0.499477 0.201258 0.8 0 0
0.452252 0.466007 0.215683 0.8 0 0
0.800271 0.332836 0.243886 0.8 0 0
0.502484 0.454183 0.110017 0.8 0 0
0.236565 0.745445 0.243886 0.8 0 0
0.515226 0.544674 0.244306 0.8 0 0
0.503360 0.409780 0.108339 0.8 0 0
0.417321 0.395810 0.079524 0.8 0 0
0.446068 0.569155 0.197674 0.8 0 0
0.417699 0.497301 0.201258 0.8 0 0
0.456378 0.340178 0.094808 0.8 0 0
0.419920 0.383201 0.081167 0.8 0 0
0.478746 0.467613 0.205395 0.8 0 0
0.457896 0.540280 0.108187 0.8 0 0
0.440775 0.054697 0.243886 0.8 0 0
0.469975 0.531861 0.110999 0.8 0 0
0.420704 0.425934 0.228302 0.8 0 0
0.430667 0.612770 0.196451 0.8 0 0
0.449590 0.441643 0.196025 0.8 0 0
0.450240 0.310647 0.130925 0.8 0 0
0.384166 0.428440 0.193399 0.8 0 0
0.379527 0.362655 0.123880 0.8 0 0
0.486705 0.450735 0.243886 0.8 0 0
0.481446 0.325984 0.158735 0.8 0 0
0.432753 0.620700 0.198992 0.8 0 0
0.498291 0.366502 0.112745 0.8 0 0
0.434839 0.544874 0.173488 0.8 0 0
0.505178 0.452385 0.181983 0.8 0 0
0.490663 0.400991 0.091946 0.8 0 0
0.371227 0.412089 0.125214 0.8 0 0
0.443421 0.946694 0.131470 0.8 0 0
0.547611 0.610034 0.243886 0.8 0 0
0.411379 0.568299 0.152676 0.8 0 0
0.489040 0.358584 0.190095 0.8 0 0
0.430336 0.472162 0.080687 0.8 0 0
0.616864 0.708917 0.244306 0.8 0 0
0.449162 0.602011 0.203030 0.8 0 0
0.371101 0.429902 0.167722 0.8 0 0
0.441917 0.635720 0.154265 0.8 0 0
0.452114 0.681222 0.193039 0.8 0 0
0.297287 0.420532 0.244306 0.8 0 0
0.415784 0.432949 0.224840 0.8 0 0
0.245273 0.724458 0.244306 0.8 0 0
0.404459 0.547393 0.132204 0.8 0 0
0.362092 0.407039 0.025850 0.8 0 0
0.506801 0.966588 0.253098 0.8 0 0
0.428728 0.519823 0.233649 0.8 0 0
0.420787 0.495430 0.089170 0.8 0 0
0.512876 0.428932 0.131870 0.8 0 0
0.524345 0.444940 0.028085 0.8 0 0
0.483244 0.454683 0.089456 0.8 0 0
0.439635 0.930445 0.215131 0.8 0 0
0.370085 0.938749 0.249260 0.8 0 0
0.461887 0.511498 0.199488 0.8 0 0
0.523476 0.332965 0.045636 0.8 0 0
0.499532 0.492459 0.170366 0.8 0 0
0.606649 0.686733 0.244306 0.8 0 0
0.435695 0.671016 0.181066 0.8 0 0
0.452592 0.588861 0.184279 0.8 0 0
0.444470 0.335214 0.244306 0.8 0 0
0.429867 0.210331 0.243886 0.8 0 0
0.472238 0.361564 0.090199 0.8 0 0
0.434121 0.490975 0.233649 0.8 0 0
0.455167 0.365137 0.212678 0.8 0 0
0.439842 0.408506 0.165061 0.8 0 0
0.481044 0.453382 0.087212 0.8 0 0
0.388329 0.517684 0.141654 0.8 0 0
0.503814 0.420064 0.109357 0.8 0 0
0.434042 0.392920 0.218935 0.8 0 0
0.401272 0.380896 0.090832 0.8 0 0
0.073303 0.332151 0.243886 0.8 0 0
0.450036 0.661590 0.183380 0.8 0 0
0.468756 0.324765 0.118246 0.8 0 0
0.401444 0.510253 0.243886 0.8 0 0
0.434209 0.770129 0.196025 0.8 0 0
0.374499 0.564632 0.244306 0.8 0 0
0.382253 0.439880 0.104436 0.8 0 0
0.473769 0.343823 0.194012 0.8 0 0
0.451386 0.111289 0.243886 0.8 0 0
0.439872 0.555476 0.199155 0.8 0 0
0.386871 0.448343 0.099633 0.8 0 0
0.362092 0.420880 0.027201 0.8 0 0
0.441361 0.456353 0.233649 0.8 0 0
0.361851 0.472059 0.028225 0.8 0 0
0.404836 0.333134 0.114792 0.8 0 0
0.631245 0.720043 0.243886 0.8 0 0
0.411365 0.437077 0.214372 0.8 0 0
0.435571 0.556217 0.189848 0.8 0 0
0.514574 0.426745 0.150005 0.8 0 0
0.430513 0.586359 0.210672 0.8 0 0
0.443421 0.934723 0.175405 0.8 0 0
0.440554 0.633506 0.178875 0.8 0 0
0.435810 0.518697 0.187872 0.8 0 0
0.506801 0.947616 0.269133 0.8 0 0
0.420158 0.480059 0.209746 0.8 0 0
0.372609 0.952660 0.238825 0.8 0 0
0.424641 0.325647 0.109813 0.8 0 0
0.446715 0.727523 0.182129 0.8 0 0
0.461368 0.361125 0.209948 0.8 0 0
0.278069 0.665784 0.243886 0.8 0 0
0.448033 0.537647 0.168726 0.8 0 0
0.440065 0.159691 0.243886 0.8 0 0
0.414689 0.493648 0.233577 0.8 0 0
0.348580 0.609293 0.244306 0.8 0 0
0.442799 0.042948 0.244306 0.8 0 0
0.433082 0.631306 0.142874 0.8 0 0
0.334754 0.422271 0.243886 0.8 0 0
0.424753 0.522115 0.195885 0.8 0 0
0.509307 0.458124 0.127471 0.8 0 0
0.506738 0.395531 0.117211 0.8 0 0
0.854655 0.328213 0.243886 0.8 0 0
0.467756 0.476110 0.253009 0.8 0 0
0.208326 0.768827 0.244306 0.8 0 0
0.448347 0.405699 0.244285 0.8 0 0
0.441210 0.179505 0.243886 0.8 0 0
0.433357 0.397395 0.219708 0.8 0 0
0.432724 0.425819 0.220310 0.8 0 0
0.359248 0.425122 0.244306 0.8 0 0
0.290323 0.687099 0.244306 0.8 0 0
0.437609 0.587838 0.176560 0.8 0 0
0.408846 0.428055 0.081883 0.8 0 0
0.445564 0.578020 0.122298 0.8 0 0
0.441521 0.862918 0.183489 0.8 0 0
0.459356 0.478608 0.256583 0.8 0 0
0.403179 0.485469 0.095578 0.8 0 0
0.493435 0.343302 0.126619 0.8 0 0
0.436092 0.564305 0.177157 0.8 0 0
0.373030 0.969528 0.260153 0.8 0 0
0.435649 0.325137 0.187895 0.8 0 0
0.163085 0.367627 0.243886 0.8 0 0
0.426966 0.331251 0.192437 0.8 0 0
0.526151 0.530652 0.025707 0.8 0 0
0.496892 0.346088 0.131674 0.8 0 0
0.379369 0.486975 0.131385 0.8 0 0
0.382810 0.505601 0.144950 0.8 0 0
0.767025 0.342940 0.244447 0.8 0 0
0.430515 0.359884 0.244306 0.8 0 0
0.658255 0.391276 0.244447 0.8 0 0
0.433451 0.497349 0.086482 0.8 0 0
0.501849 0.442437 0.107449 0.8 0 0
0.395417 0.441832 0.244306 0.8 0 0
0.451623 0.405687 0.074765 0.8 0 0
0.436549 0.408506 0.172527 0.8 0 0
0.452502 0.361284 0.083506 0.8 0 0
0.441393 0.638031 0.157089 0.8 0 0
0.473244 0.347198 0.098637 0.8 0 0
0.498713 0.553649 0.244306 0.8 0 0
0.433890 0.588012 0.233649 0.8 0 0
0.448500 0.416877 0.225724 0.8 0 0
0.425645 0.310325 0.138760 0.8 0 0
0.371416 0.939717 0.240879 0.8 0 0
0.435086 0.548703 0.173450 0.8 0 0
0.449590 0.424029 0.197652 0.8 0 0
0.642165 0.746303 0.244306 0.8 0 0
0.390636 0.395528 0.096235 0.8 0 0
0.403260 0.532240 0.120502 0.8 0 0
0.443421 0.945890 0.232032 0.8 0 0
0.434639 0.875874 0.189708 0.8 0 0
0.432764 0.446473 0.161021 0.8 0 0
0.473312 0.495715 0.201003 0.8 0 0
0.446617 0.560366 0.196926 0.8 0 0
0.424785 0.452566 0.259636 0.8 0 0
0.444462 0.594918 0.176858 0.8 0 0
0.295871 0.422965 0.244306 0.8 0 0
0.653727 0.749098 0.243886 0.8 0 0
0.439635 0.921130 0.152863 0.8 0 0
0.562446 0.613450 0.244306 0.8 0 0
0.454836 0.321912 0.181832 0.8 0 0
0.465706 0.476028 0.254396 0.8 0 0
0.513029 0.401447 0.131100 0.8 0 0
0.436246 0.480446 0.082319 0.8 0 0
0.449590 0.471862 0.188022 0.8 0 0
0.379835 0.462677 0.114693 0.8 0 0
0.436735 0.172600 0.244306 0.8 0 0
0.415970 0.314898 0.141530 0.8 0 0
0.399234 0.968054 0.263657 0.8 0 0
0.491044 0.405166 0.201833 0.8 0 0
0.421239 0.572161 0.167712 0.8 0 0
0.351311 0.573491 0.243886 0.8 0 0
0.448057 0.554803 0.183225 0.8 0 0
0.439197 0.077738 0.243886 0.8 0 0
0.449230 0.804827 0.193347 0.8 0 0
0.432888 0.580566 0.233649 0.8 0 0
0.482658 0.391706 0.089364 0.8 0 0
0.451368 0.308587 0.139144 0.8 0 0
0.445722 0.727688 0.199501 0.8 0 0
0.438392 0.599978 0.176224 0.8 0 0
0.613345 0.717876 0.243886 0.8 0 0
0.650106 0.392716 0.243886 0.8 0 0
0.496090 0.531124 0.243886 0.8 0 0
0.074919 0.351416 0.244306 0.8 0 0
0.406790 0.437591 0.212003 0.8 0 0
0.432595 0.768622 0.192570 0.8 0 0
0.443421 0.923124 0.150068 0.8 0 0
0.437721 0.399000 0.244306 0.8 0 0
0.199170 0.374518 0.243886 0.8 0 0
0.434352 0.537324 0.198656 0.8 0 0
0.405310 0.342948 0.191148 0.8 0 0
0.447242 0.347891 0.089176 0.8 0 0
0.431180 0.279241 0.244306 0.8 0 0
0.432764 0.428652 0.158926 0.8 0 0
0.461791 0.532994 0.211408 0.8 0 0
0.209426 0.801771 0.243886 0.8 0 0
0.603661 0.693235 0.244306 0.8 0 0
0.427064 0.471082 0.081144 0.8 0 0
0.371068 0.450068 0.165939 0.8 0 0
0.468308 0.434863 0.222401 0.8 0 0
0.453134 0.045193 0.243886 0.8 0 0
0.448687 0.348058 0.243886 0.8 0 0
0.513757 0.415343 0.136679 0.8 0 0
0.487400 0.455882 0.093310 0.8 0 0
0.603934 0.407775 0.244447 0.8 0 0
0.635185 0.405420 0.244447 0.8 0 0
0.470283 0.483246 0.205177 0.8 0 0
0.401812 0.324550 0.154568 0.8 0 0
0.415902 0.459467 0.213437 0.8 0 0
0.643692 0.391663 0.244447 0.8 0 0
0.441751 0.277409 0.243886 0.8 0 0
0.439208 0.612629 0.180185 0.8 0 0
0.677930 0.803935 0.243886 0.8 0 0
0.456679 0.940225 0.260673 0.8 0 0
0.445636 0.848533 0.196694 0.8 0 0
0.439635 0.934157 0.210919 0.8 0 0
0.452274 0.619237 0.196218 0.8 0 0
0.484240 0.505390 0.244306 0.8 0 0
0.451414 0.690416 0.186861 0.8 0 0
0.396457 0.536090 0.151498 0.8 0 0
0.471193 0.561015 0.132380 0.8 0 0
0.509325 0.946377 0.240395 0.8 0 0
0.465670 0.338385 0.195704 0.8 0 0
0.455869 0.611409 0.141542 0.8 0 0
0.465854 0.471662 0.255774 0.8 0 0
0.425003 0.481868 0.084495 0.8 0 0
0.450383 0.751322 0.187687 0.8 0 0
0.498777 0.961578 0.258889 0.8 0 0
0.501837 0.485627 0.169014 0.8 0 0
0.392749 0.437576 0.202381 0.8 0 0
0.656836 0.772783 0.244306 0.8 0 0
0.732824 0.353961 0.243886 0.8 0 0
0.601750 0.669275 0.243886 0.8 0 0
0.448805 0.541268 0.178745 0.8 0 0
0.641932 0.722349 0.244306 0.8 0 0
0.430731 0.600673 0.197052 0.8 0 0
0.485525 0.349230 0.107919 0.8 0 0
0.420904 0.481162 0.209718 0.8 0 0
0.141847 0.374594 0.243886 0.8 0 0
0.167662 0.381411 0.244306 0.8 0 0
0.450454 0.746527 0.187600 0.8 0 0
0.407378 0.374044 0.206806 0.8 0 0
0.442222 0.510473 0.201258 0.8 0 0
0.436944 0.776068 0.198278 0.8 0 0
0.855015 0.324985 0.244447 0.8 0 0
0.413076 0.484200 0.213234 0.8 0 0
0.381059 0.538710 0.243886 0.8 0 0
0.509604 0.445627 0.244447 0.8 0 0
0.311905 0.420138 0.243886 0.8 0 0
0.102993 0.348299 0.244306 0.8 0 0
0.443421 0.955192 0.255950 0.8 0 0
0.445059 0.585336 0.193586 0.8 0 0
0.449590 0.443497 0.167457 0.8 0 0
0.440558 0.963689 0.244819 0.8 0 0
0.372445 0.422640 0.173823 0.8 0 0
0.410699 0.945708 0.258889 0.8 0 0
0.462131 0.547762 0.181389 0.8 0 0
0.643716 0.392255 0.244447 0.8 0 0
0.258649 0.702558 0.244306 0.8 0 0
0.487009 0.491096 0.094384 0.8 0 0
0.427626 0.363277 0.212645 0.8 0 0
0.452705 0.222502 0.243886 0.8 0 0
0.434553 0.136799 0.244306 0.8 0 0
0.421787 0.550613 0.114848 0.8 0 0
0.442318 0.629284 0.170817 0.8 0 0
0.442035 0.327907 0.243886 0.8 0 0
0.443421 0.939179 0.201414 0.8 0 0
0.278889 0.692495 0.244306 0.8 0 0
0.370085 0.957959 0.244549 0.8 0 0
0.630246 0.723895 0.243886 0.8 0 0
0.499045 0.349957 0.163554 0.8 0 0
0.464342 0.491816 0.201258 0.8 0 0
0.444255 0.374049 0.079223 0.8 0 0
0.628063 0.407224 0.244447 0.8 0 0
0.431565 0.425204 0.248092 0.8 0 0
0.439635 0.950268 0.252928 0.8 0 0
0.370085 0.966531 0.250880 0.8 0 0
0.439635 0.935732 0.170157 0.8 0 0
0.279130 0.697592 0.244306 0.8 0 0
0.446273 0.368915 0.215044 0.8 0 0
0.236254 0.382793 0.244306 0.8 0 0
0.370891 0.446047 0.165543 0.8 0 0
0.458744 0.481891 0.084687 0.8 0 0
0.435584 0.556427 0.191880 0.8 0 0
0.429504 0.160539 0.244306 0.8 0 0
0.497955 0.946160 0.263657 0.8 0 0
0.443421 0.939935 0.171061 0.8 0 0
0.512212 0.413198 0.127757 0.8 0 0
0.481450 0.512793 0.109327 0.8 0 0
0.431930 0.457495 0.077113 0.8 0 0
0.441089 0.345310 0.243886 0.8 0 0
0.452288 0.681837 0.189724 0.8 0 0
0.600915 0.668620 0.244306 0.8 0 0
0.443421 0.941162 0.226823 0.8 0 0
0.570812 0.618461 0.243886 0.8 0 0
0.513737 0.421120 0.137705 0.8 0 0
0.509325 0.948795 0.253476 0.8 0 0
0.452302 0.311829 0.129346 0.8 0 0
0.378162 0.429337 0.184397 0.8 0 0
0.079695 0.348088 0.244306 0.8 0 0
0.447171 0.871684 0.194375 0.8 0 0
0.416556 0.475530 0.209657 0.8 0 0
0.397741 0.962934 0.263657 0.8 0 0
0.441638 0.468425 0.262726 0.8 0 0
0.419087 0.429311 0.217129 0.8 0 0
0.536360 0.600208 0.243886 0.8 0 0
0.449176 0.523135 0.191441 0.8 0 0
0.483058 0.501204 0.191577 0.8 0 0
0.440273 0.278231 0.243886 0.8 0 0
0.446866 0.445700 0.199155 0.8 0 0
0.661294 0.390776 0.244447 0.8 0 0
0.448955 0.809633 0.187450 0.8 0 0
0.475212 0.404938 0.082510 0.8 0 0
0.453234 0.628542 0.192850 0.8 0 0
0.426803 0.572154 0.123182 0.8 0 0
0.351932 0.421673 0.243886 0.8 0 0
0.445449 0.316832 0.118919 0.8 0 0
0.480500 0.510120 0.244306 0.8 0 0
0.454977 0.477426 0.201258 0.8 0 0
0.444689 0.591267 0.178911 0.8 0 0
0.357787 0.508401 0.028225 0.8 0 0
0.445995 0.872377 0.195786 0.8 0 0
0.038671 0.321172 0.243886 0.8 0 0
0.584241 0.404658 0.244447 0.8 0 0
0.432835 0.556029 0.112865 0.8 0 0
0.428935 0.534604 0.233649 0.8 0 0
0.449175 0.306751 0.146013 0.8 0 0
0.452491 0.587480 0.210253 0.8 0 0
0.445542 0.884463 0.185357 0.8 0 0
0.469907 0.438268 0.222067 0.8 0 0
0.450649 0.461153 0.078030 0.8 0 0
0.452786 0.391947 0.077106 0.8 0 0
0.455460 0.419330 0.209141 0.8 0 0
0.461790 0.311515 0.143919 0.8 0 0
0.444817 0.370653 0.079810 0.8 0 0
0.431098 0.533508 0.192596 0.8 0 0
0.433902 0.470964 0.261810 0.8 0 0
0.443875 0.604318 0.196367 0.8 0 0
0.439635 0.931971 0.164668 0.8 0 0
0.613604 0.690609 0.244306 0.8 0 0
0.454891 0.343082 0.202290 0.8 0 0
0.494021 0.511813 0.129834 0.8 0 0
0.539227 0.600676 0.243886 0.8 0 0
0.420213 0.489990 0.243886 0.8 0 0
0.139053 0.370048 0.244306 0.8 0 0
0.450782 0.436883 0.219995 0.8 0 0
0.439691 0.750146 0.181167 0.8 0 0
0.486679 0.511031 0.114888 0.8 0 0
0.586854 0.679115 0.244306 0.8 0 0
0.424894 0.479784 0.248092 0.8 0 0
0.411808 0.960085 0.258889 0.8 0 0
0.385036 0.401732 0.194646 0.8 0 0
0.474876 0.394317 0.211220 0.8 0 0
0.434387 0.644562 0.154168 0.8 0 0
0.430896 0.681035 0.187975 0.8 0 0
0.384607 0.556906 0.244306 0.8 0 0
0.417278 0.475204 0.201258 0.8 0 0
0.387567 0.508903 0.167883 0.8 0 0
0.443097 0.492368 0.201258 0.8 0 0
0.455449 0.354676 0.207966 0.8 0 0
0.434080 0.135770 0.243886 0.8 0 0
0.213472 0.774667 0.244306 0.8 0 0
0.438382 0.457272 0.147694 0.8 0 0
0.369441 0.430027 0.133617 0.8 0 0
0.415712 0.342805 0.097444 0.8 0 0
0.432764 0.449977 0.176348 0.8 0 0
0.408786 0.447865 0.202803 0.8 0 0
0.498054 0.426231 0.101518 0.8 0 0
0.323148 0.431470 0.243886 0.8 0 0
0.449590 0.457716 0.191065 0.8 0 0
0.444748 0.573730 0.199155 0.8 0 0
0.433850 0.222957 0.244306 0.8 0 0
0.421089 0.522988 0.233649 0.8 0 0
0.438850 0.497973 0.209017 0.8 0 0
0.449590 0.428928 0.168656 0.8 0 0
0.348621 0.582141 0.244306 0.8 0 0
0.441595 0.424929 0.249038 0.8 0 0
0.463042 0.511938 0.201258 0.8 0 0
0.520963 0.349306 0.026106 0.8 0 0
0.501855 0.489662 0.128819 0.8 0 0
0.823058 0.325398 0.244447 0.8 0 0
0.449441 0.397523 0.243886 0.8 0 0
0.448449 0.959095 0.263657 0.8 0 0
0.333090 0.626915 0.243886 0.8 0 0
0.434427 0.575235 0.179539 0.8 0 0
0.444716 0.883012 0.196405 0.8 0 0
0.441405 0.612331 0.178237 0.8 0 0
0.508430 0.571800 0.244306 0.8 0 0
0.440806 0.911296 0.162883 0.8 0 0
0.452569 0.085646 0.243886 0.8 0 0
0.641236 0.731332 0.244306 0.8 0 0
0.370085 0.953027 0.243876 0.8 0 0
0.530032 0.568688 0.244306 0.8 0 0
0.389433 0.360102 0.108415 0.8 0 0
0.380830 0.356067 0.163518 0.8 0 0
0.610458 0.681958 0.244306 0.8 0 0
0.430417 0.419369 0.201258 0.8 0 0
0.682677 0.802196 0.243886 0.8 0 0
0.445876 0.572236 0.185930 0.8 0 0
0.512518 0.447690 0.161940 0.8 0 0
0.411875 0.443956 0.214371 0.8 0 0
0.414801 0.450160 0.254185 0.8 0 0
0.514058 0.450085 0.146587 0.8 0 0
0.458232 0.484539 0.254246 0.8 0 0
0.260763 0.693335 0.244306 0.8 0 0
0.430915 0.098517 0.243886 0.8 0 0
0.446930 0.319118 0.243886 0.8 0 0
0.283740 0.672823 0.244306 0.8 0 0
0.240564 0.738526 0.243886 0.8 0 0
0.421451 0.419789 0.077118 0.8 0 0
0.118699 0.363070 0.243886 0.8 0 0
0.556507 0.637585 0.243886 0.8 0 0
0.848559 0.323134 0.243886 0.8 0 0
0.504521 0.455448 0.181661 0.8 0 0
0.445233 0.457864 0.263188 0.8 0 0
0.440738 0.636360 0.169642 0.8 0 0
0.452987 0.234225 0.243886 0.8 0 0
0.405248 0.444262 0.210818 0.8 0 0
0.455212 0.542835 0.189706 0.8 0 0
0.498223 0.384796 0.188437 0.8 0 0
0.362092 0.405564 0.027175 0.8 0 0
0.506141 0.413827 0.182892 0.8 0 0
0.434703 0.621921 0.180522 0.8 0 0
0.220768 0.785310 0.244306 0.8 0 0
0.498089 0.535450 0.243886 0.8 0 0
0.481827 0.438124 0.086767 0.8 0 0
0.357363 0.450414 0.028225 0.8 0 0
0.409320 0.462196 0.229157 0.8 0 0
0.326560 0.599417 0.244306 0.8 0 0
0.477105 0.545391 0.128168 0.8 0 0
0.430715 0.587540 0.214062 0.8 0 0
0.367902 0.416510 0.152112 0.8 0 0
0.500120 0.350171 0.137752 0.8 0 0
0.501710 0.359226 0.168988 0.8 0 0
0.504386 0.424977 0.110342 0.8 0 0
0.362086 0.372463 0.025140 0.8 0 0
0.483042 0.363386 0.096475 0.8 0 0
0.448419 0.568823 0.179177 0.8 0 0
0.440681 0.616521 0.202795 0.8 0 0
0.432507 0.166177 0.244306 0.8 0 0
0.460155 0.422655 0.216201 0.8 0 0
0.438923 0.468549 0.079322 0.8 0 0
0.436175 0.941718 0.258889 0.8 0 0
0.393571 0.511548 0.176668 0.8 0 0
0.437477 0.880713 0.185105 0.8 0 0
0.441775 0.859080 0.197806 0.8 0 0
0.477580 0.544204 0.167016 0.8 0 0
0.396146 0.346638 0.110940 0.8 0 0
0.489598 0.527907 0.144425 0.8 0 0
0.465098 0.433680 0.233649 0.8 0 0
0.373229 0.386501 0.129234 0.8 0 0
0.444877 0.421290 0.243886 0.8 0 0
0.440470 0.632206 0.163544 0.8 0 0
0.514057 0.434703 0.243886 0.8 0 0
0.489003 0.396146 0.093545 0.8 0 0
0.410122 0.448437 0.243886 0.8 0 0
0.485657 0.537401 0.147697 0.8 0 0
0.472228 0.348375 0.198057 0.8 0 0
0.407467 0.547519 0.168131 0.8 0 0
0.494600 0.489641 0.113369 0.8 0 0
0.452798 0.511742 0.093181 0.8 0 0
0.458420 0.606225 0.144904 0.8 0 0
0.443421 0.941107 0.240340 0.8 0 0
0.066618 0.327918 0.244306 0.8 0 0
0.600843 0.688667 0.243886 0.8 0 0
0.500460 0.483971 0.173574 0.8 0 0
0.443413 0.054854 0.244306 0.8 0 0
0.447705 0.866922 0.193570 0.8 0 0
0.348281 0.585769 0.243886 0.8 0 0
0.267552 0.720963 0.244306 0.8 0 0
0.532461 0.574866 0.244306 0.8 0 0
0.436634 0.572717 0.180892 0.8 0 0
0.249163 0.705639 0.244306 0.8 0 0
0.477541 0.516518 0.187130 0.8 0 0
0.429802 0.597021 0.195629 0.8 0 0
0.449165 0.519503 0.174024 0.8 0 0
0.447870 0.548818 0.178441 0.8 0 0
0.746864 0.370733 0.243886 0.8 0 0
0.369131 0.436179 0.244306 0.8 0 0
0.472504 0.559230 0.161434 0.8 0 0
0.617455 0.712969 0.244306 0.8 0 0
0.443773 0.577696 0.199155 0.8 0 0
0.439619 0.559145 0.177199 0.8 0 0
0.435786 0.424920 0.074667 0.8 0 0
0.404521 0.536607 0.173072 0.8 0 0
0.493900 0.448556 0.244447 0.8 0 0
0.448493 0.087087 0.244306 0.8 0 0
0.510343 0.491096 0.055101 0.8 0 0
0.492204 0.493620 0.086781 0.8 0 0
0.437647 0.468489 0.262525 0.8 0 0
0.572736 0.427977 0.244447 0.8 0 0
0.425091 0.517963 0.201258 0.8 0 0
0.501345 0.446756 0.243886 0.8 0 0
0.435307 0.537983 0.199155 0.8 0 0
0.467577 0.956959 0.263657 0.8 0 0
0.382085 0.351025 0.136362 0.8 0 0
0.442121 0.033475 0.244306 0.8 0 0
0.502072 0.435099 0.107461 0.8 0 0
0.536699 0.574906 0.243886 0.8 0 0
0.278424 0.400136 0.244306 0.8 0 0
0.444332 0.503837 0.201258 0.8 0 0
0.506801 0.954180 0.278204 0.8 0 0
0.444129 0.539387 0.147694 0.8 0 0
0.438498 0.459901 0.263504 0.8 0 0
0.453331 0.572783 0.122298 0.8 0 0
0.512490 0.454321 0.140280 0.8 0 0
0.524091 0.442444 0.244447 0.8 0 0
0.428675 0.592237 0.189770 0.8 0 0
0.450077 0.532094 0.196975 0.8 0 0
0.432764 0.433138 0.164698 0.8 0 0
0.444875 0.518227 0.200604 0.8 0 0
0.470083 0.514544 0.243886 0.8 0 0
0.698173 0.366017 0.243886 0.8 0 0
0.416932 0.330970 0.107646 0.8 0 0
0.556685 0.622002 0.244306 0.8 0 0
0.325460 0.416460 0.244306 0.8 0 0
0.495657 0.352211 0.120210 0.8 0 0
0.338355 0.440416 0.244306 0.8 0 0
0.485661 0.500760 0.105771 0.8 0 0
0.452382 0.151334 0.243886 0.8 0 0
0.353936 0.420040 0.243886 0.8 0 0
0.447451 0.672819 0.181200 0.8 0 0
0.626449 0.397101 0.243886 0.8 0 0
0.432794 0.601861 0.199604 0.8 0 0
0.543556 0.600985 0.244306 0.8 0 0
0.432700 0.315313 0.244306 0.8 0 0
0.460269 0.330324 0.189572 0.8 0 0
0.540905 0.435443 0.243886 0.8 0 0
0.458529 0.363465 0.083678 0.8 0 0
0.439182 0.113755 0.243886 0.8 0 0
0.437330 0.583502 0.181504 0.8 0 0
0.506968 0.390287 0.174824 0.8 0 0
0.420864 0.529552 0.201258 0.8 0 0
0.432764 0.473381 0.151543 0.8 0 0
0.449590 0.419068 0.163709 0.8 0 0
0.250620 0.721841 0.244306 0.8 0 0
0.489676 0.469613 0.099452 0.8 0 0
0.434264 0.357211 0.243886 0.8 0 0
0.523896 0.556784 0.243886 0.8 0 0
0.521410 0.422466 0.025000 0.8 0 0
0.358731 0.459759 0.025140 0.8 0 0
0.501463 0.357940 0.167925 0.8 0 0
0.447356 0.452848 0.147694 0.8 0 0
0.432872 0.768578 0.187726 0.8 0 0
0.403538 0.488129 0.096103 0.8 0 0
0.449023 0.839240 0.190123 0.8 0 0
0.435954 0.592204 0.178919 0.8 0 0
0.483484 0.327604 0.157480 0.8 0 0
0.422716 0.482806 0.248092 0.8 0 0
0.415354 0.353885 0.203801 0.8 0 0
0.432764 0.449789 0.156878 0.8 0 0
0.394149 0.371910 0.098928 0.8 0 0
0.124776 0.355779 0.243886 0.8 0 0
0.451098 0.313536 0.243886 0.8 0 0
0.443421 0.942137 0.226387 0.8 0 0
0.447329 0.548946 0.174870 0.8 0 0
0.422324 0.538382 0.229559 0.8 0 0
0.388420 0.518328 0.244306 0.8 0 0
0.441654 0.521404 0.183354 0.8 0 0
0.463815 0.318552 0.170030 0.8 0 0
0.450631 0.691010 0.196061 0.8 0 0
0.309582 0.634487 0.243886 0.8 0 0
0.453052 0.940225 0.261880 0.8 0 0
0.316919 0.417405 0.243886 0.8 0 0
0.379151 0.429315 0.109356 0.8 0 0
0.397004 0.468099 0.200445 0.8 0 0
0.438982 0.536588 0.103247 0.8 0 0
0.438393 0.460575 0.199155 0.8 0 0
0.451061 0.273099 0.243886 0.8 0 0
0.454475 0.495142 0.248441 0.8 0 0
0.415639 0.568883 0.132195 0.8 0 0
0.437284 0.048847 0.244306 0.8 0 0
0.445866 0.734760 0.199270 0.8 0 0
0.427310 0.565141 0.176250 0.8 0 0
0.681141 0.804603 0.243886 0.8 0 0
0.449590 0.463731 0.174850 0.8 0 0
0.448095 0.348479 0.089054 0.8 0 0
0.455798 0.379085 0.215175 0.8 0 0
0.481423 0.390117 0.206509 0.8 0 0
0.432483 0.310765 0.130321 0.8 0 0
0.440909 0.241452 0.244306 0.8 0 0
0.447442 0.616257 0.201265 0.8 0 0
0.439978 0.842440 0.183106 0.8 0 0
0.386531 0.510230 0.161345 0.8 0 0
0.759768 0.353600 0.243886 0.8 0 0
0.401814 0.431802 0.208955 0.8 0 0
0.465602 0.430301 0.201258 0.8 0 0
0.432764 0.498048 0.150909 0.8 0 0
0.373638 0.403617 0.177043 0.8 0 0
0.483583 0.403393 0.207939 0.8 0 0
0.279375 0.398892 0.244306 0.8 0 0
0.439803 0.126683 0.243886 0.8 0 0
0.447853 0.158567 0.244306 0.8 0 0
0.080981 0.353748 0.244306 0.8 0 0
0.442289 0.584712 0.147694 0.8 0 0
0.301354 0.636156 0.244306 0.8 0 0
0.369966 0.410181 0.129796 0.8 0 0
0.292742 0.414174 0.243886 0.8 0 0
0.220045 0.389796 0.244306 0.8 0 0
0.128580 0.349623 0.244306 0.8 0 0
0.445067 0.558196 0.199155 0.8 0 0
0.435357 0.769095 0.197255 0.8 0 0
0.440288 0.855154 0.197850 0.8 0 0
0.487825 0.525659 0.131181 0.8 0 0
0.370085 0.964279 0.286845 0.8 0 0
0.547635 0.423668 0.244447 0.8 0 0
0.447017 0.337538 0.200918 0.8 0 0
0.506801 0.949517 0.234582 0.8 0 0
0.301795 0.428967 0.244306 0.8 0 0
0.370434 0.493620 0.048661 0.8 0 0
0.389463 0.505220 0.120088 0.8 0 0
0.535869 0.591988 0.244306 0.8 0 0
0.370851 0.547532 0.243886 0.8 0 0
0.448768 0.395340 0.219529 0.8 0 0
0.497267 0.526208 0.243886 0.8 0 0
0.621073 0.699898 0.243886 0.8 0 0
0.387332 0.958079 0.263657 0.8 0 0
0.452203 0.120921 0.243886 0.8 0 0
0.385994 0.506915 0.130125 0.8 0 0
0.262493 0.411873 0.243886 0.8 0 0
0.388650 0.534163 0.244306 0.8 0 0
0.440791 0.897507 0.184206 0.8 0 0
0.384647 0.509980 0.152599 0.8 0 0
0.449617 0.467635 0.201258 0.8 0 0
0.449590 0.427965 0.190715 0.8 0 0
0.381284 0.380751 0.112848 0.8 0 0
0.428324 0.453915 0.248092 0.8 0 0
0.451328 0.517202 0.095410 0.8 0 0
0.227840 0.739454 0.243886 0.8 0 0
0.434570 0.582779 0.201559 0.8 0 0
0.431824 0.365076 0.243886 0.8 0 0
0.500092 0.434943 0.190659 0.8 0 0
0.370085 0.943961 0.238467 0.8 0 0
0.497533 0.473020 0.184669 0.8 0 0
0.473105 0.381868 0.209497 0.8 0 0
0.414087 0.972476 0.259229 0.8 0 0
0.780822 0.362837 0.244447 0.8 0 0
0.065127 0.348851 0.243886 0.8 0 0
0.558515 0.412913 0.244447 0.8 0 0
0.421146 0.329723 0.188777 0.8 0 0
0.429816 0.454724 0.218642 0.8 0 0
0.546708 0.424104 0.243886 0.8 0 0
0.431756 0.492940 0.250884 0.8 0 0
0.106440 0.342161 0.243886 0.8 0 0
0.424874 0.553319 0.225646 0.8 0 0
0.481895 0.357391 0.099345 0.8 0 0
0.435270 0.294062 0.244306 0.8 0 0
0.492889 0.529768 0.243886 0.8 0 0
0.429936 0.077810 0.243886 0.8 0 0
0.462539 0.441383 0.248092 0.8 0 0
0.446336 0.563687 0.178059 0.8 0 0
0.443421 0.947541 0.148428 0.8 0 0
0.441699 0.554291 0.199155 0.8 0 0
0.438140 0.596060 0.159160 0.8 0 0
0.443421 0.932134 0.212194 0.8 0 0
0.431875 0.593795 0.233649 0.8 0 0
0.288971 0.665438 0.243886 0.8 0 0
0.509566 0.402897 0.055899 0.8 0 0
0.447191 0.030309 0.244306 0.8 0 0
0.252186 0.736131 0.243886 0.8 0 0
0.480269 0.353249 0.194660 0.8 0 0
0.495565 0.438394 0.196582 0.8 0 0
0.447293 0.745515 0.182943 0.8 0 0
0.425219 0.410589 0.075696 0.8 0 0
0.431677 0.555588 0.182301 0.8 0 0
0.450459 0.621835 0.156561 0.8 0 0
0.458793 0.550561 0.217884 0.8 0 0
0.443421 0.909852 0.167310 0.8 0 0
0.378548 0.957362 0.263657 0.8 0 0
0.413569 0.408089 0.079332 0.8 0 0
0.638468 0.738476 0.244306 0.8 0 0
0.432764 0.494315 0.161774 0.8 0 0
0.168327 0.363505 0.243886 0.8 0 0
0.463699 0.455919 0.201258 0.8 0 0
0.443882 0.476960 0.201258 0.8 0 0
0.223538 0.754161 0.243886 0.8 0 0
0.443421 0.951782 0.217786 0.8 0 0
0.485816 0.535613 0.152480 0.8 0 0
0.729863 0.355818 0.243886 0.8 0 0
0.476503 0.433053 0.083760 0.8 0 0
0.511061 0.385213 0.140496 0.8 0 0
0.443504 0.460091 0.199155 0.8 0 0
0.491065 0.368903 0.101950 0.8 0 0
0.447670 0.543469 0.193148 0.8 0 0
0.478675 0.510304 0.243886 0.8 0 0
0.440098 0.334360 0.244306 0.8 0 0
0.433572 0.147065 0.244306 0.8 0 0
0.152645 0.377812 0.244306 0.8 0 0
0.440973 0.392260 0.243886 0.8 0 0
0.435758 0.426271 0.201258 0.8 0 0
0.200234 0.789795 0.243886 0.8 0 0
0.432764 0.419895 0.185229 0.8 0 0
0.455873 0.483606 0.084490 0.8 0 0
0.427642 0.452975 0.201258 0.8 0 0
0.539751 0.582839 0.244306 0.8 0 0
0.484714 0.500706 0.104956 0.8 0 0
0.447752 0.441740 0.220452 0.8 0 0
0.795433 0.343209 0.244447 0.8 0 0
0.164188 0.376231 0.244306 0.8 0 0
0.445397 0.579919 0.166165 0.8 0 0
0.443458 0.420321 0.201258 0.8 0 0
0.451094 0.310080 0.162130 0.8 0 0
0.370085 0.960718 0.263645 0.8 0 0
0.506127 0.535394 0.244306 0.8 0 0
0.440567 0.459319 0.201258 0.8 0 0
0.459460 0.452984 0.233649 0.8 0 0
0.422941 0.946533 0.258889 0.8 0 0
0.442545 0.625652 0.149249 0.8 0 0
0.395525 0.508724 0.182136 0.8 0 0
0.442580 0.485807 0.233649 0.8 0 0
0.667633 0.766465 0.243886 0.8 0 0
0.391466 0.956784 0.258889 0.8 0 0
0.524161 0.572585 0.244306 0.8 0 0
0.425015 0.437100 0.254135 0.8 0 0
0.372017 0.951535 0.285455 0.8 0 0
0.478237 0.530367 0.118115 0.8 0 0
0.400580 0.327192 0.161131 0.8 0 0
0.428581 0.538474 0.201258 0.8 0 0
0.376953 0.481761 0.159428 0.8 0 0
0.436857 0.626727 0.156066 0.8 0 0
0.444998 0.586311 0.156869 0.8 0 0
0.394916 0.538489 0.243886 0.8 0 0
0.509325 0.944767 0.237364 0.8 0 0
0.407092 0.952071 0.258889 0.8 0 0
0.445090 0.475978 0.233649 0.8 0 0
0.805985 0.334614 0.244447 0.8 0 0
0.656764 0.755873 0.244306 0.8 0 0
0.392802 0.332503 0.152854 0.8 0 0
0.484949 0.505304 0.187092 0.8 0 0
0.378803 0.554938 0.243886 0.8 0 0
0.431579 0.729283 0.190766 0.8 0 0
0.489614 0.375416 0.196308 0.8 0 0
0.449590 0.502538 0.148201 0.8 0 0
0.466241 0.570661 0.162651 0.8 0 0
0.413288 0.360954 0.088577 0.8 0 0
0.447242 0.720517 0.198816 0.8 0 0
0.513576 0.434185 0.139048 0.8 0 0
0.450592 0.609286 0.133998 0.8 0 0
0.549011 0.596390 0.243886 0.8 0 0
0.448555 0.343011 0.244306 0.8 0 0
0.424921 0.449635 0.259080 0.8 0 0
0.482515 0.438756 0.207772 0.8 0 0
0.389424 0.498644 0.180444 0.8 0 0
0.430765 0.663196 0.194232 0.8 0 0
0.443878 0.841010 0.197752 0.8 0 0
0.467511 0.440474 0.201258 0.8 0 0
0.445341 0.436968 0.220993 0.8 0 0
0.406353 0.527479 0.243886 0.8 0 0
0.509659 0.458575 0.128681 0.8 0 0
0.462873 0.315377 0.163461 0.8 0 0
0.193793 0.812514 0.243886 0.8 0 0
0.357109 0.511744 0.025140 0.8 0 0
0.443536 0.609763 0.158370 0.8 0 0
0.526151 0.405895 0.026402 0.8 0 0
0.441708 0.639068 0.177523 0.8 0 0
0.484775 0.388044 0.091981 0.8 0 0
0.442807 0.621446 0.174130 0.8 0 0
0.710639 0.379790 0.244447 0.8 0 0
0.410904 0.563082 0.135182 0.8 0 0
0.430884 0.952277 0.263657 0.8 0 0
0.445632 0.544146 0.233649 0.8 0 0
0.420388 0.472528 0.257102 0.8 0 0
0.384725 0.410664 0.194562 0.8 0 0
0.542581 0.585757 0.244306 0.8 0 0
0.479542 0.329048 0.170948 0.8 0 0
0.524195 0.363618 0.025000 0.8 0 0
0.399006 0.517457 0.115087 0.8 0 0
0.459613 0.550382 0.181209 0.8 0 0
0.448431 0.079845 0.244306 0.8 0 0
0.432294 0.169024 0.244306 0.8 0 0
0.450104 0.777992 0.188691 0.8 0 0
0.431439 0.328602 0.244306 0.8 0 0
0.443421 0.919486 0.164452 0.8 0 0
0.455158 0.457534 0.078117 0.8 0 0
0.443357 0.951978 0.123856 0.8 0 0
0.449136 0.307018 0.143619 0.8 0 0
0.494567 0.401156 0.079604 0.8 0 0
0.419952 0.457840 0.248092 0.8 0 0
0.423126 0.543078 0.205565 0.8 0 0
0.439626 0.619110 0.156286 0.8 0 0
0.424220 0.960144 0.263657 0.8 0 0
0.424321 0.424416 0.076321 0.8 0 0
0.372599 0.467016 0.146236 0.8 0 0
0.474430 0.497838 0.095540 0.8 0 0
0.460260 0.541966 0.229926 0.8 0 0
0.450703 0.625248 0.147767 0.8 0 0
0.653389 0.736855 0.244306 0.8 0 0
0.489168 0.449923 0.202116 0.8 0 0
0.440721 0.636093 0.177438 0.8 0 0
0.503012 0.432301 0.186832 0.8 0 0
0.450435 0.631247 0.198496 0.8 0 0
0.506801 0.947552 0.270397 0.8 0 0
0.440636 0.450682 0.262196 0.8 0 0
0.416339 0.434439 0.248404 0.8 0 0
0.444596 0.787000 0.182473 0.8 0 0
0.400182 0.525941 0.175194 0.8 0 0
0.394709 0.380226 0.199231 0.8 0 0
0.422159 0.552820 0.115790 0.8 0 0
0.531498 0.596652 0.243886 0.8 0 0
0.372609 0.949064 0.249746 0.8 0 0
0.723346 0.362739 0.244447 0.8 0 0
0.628354 0.701066 0.244306 0.8 0 0
0.432764 0.475292 0.186770 0.8 0 0
0.501837 0.958606 0.258889 0.8 0 0
0.536446 0.593911 0.243886 0.8 0 0
0.446357 0.654409 0.200897 0.8 0 0
0.489643 0.449942 0.244447 0.8 0 0
0.418746 0.463006 0.201258 0.8 0 0
0.471655 0.468388 0.233649 0.8 0 0
0.435616 0.520642 0.199069 0.8 0 0
0.508724 0.466736 0.160914 0.8 0 0
0.420185 0.446624 0.256398 0.8 0 0
0.427679 0.435150 0.201258 0.8 0 0
0.667163 0.393002 0.243886 0.8 0 0
0.369875 0.404764 0.165168 0.8 0 0
0.421030 0.963649 0.258889 0.8 0 0
0.476800 0.503015 0.195549 0.8 0 0
0.441812 0.604675 0.151195 0.8 0 0
0.527487 0.402892 0.028265 0.8 0 0
0.448534 0.518465 0.199155 0.8 0 0
0.248157 0.739706 0.243886 0.8 0 0
0.560360 0.431470 0.244447 0.8 0 0
0.724104 0.382160 0.243886 0.8 0 0
0.432243 0.746703 0.193027 0.8 0 0
0.484088 0.328690 0.135398 0.8 0 0
0.448364 0.532352 0.151284 0.8 0 0
0.444549 0.385476 0.218371 0.8 0 0
0.413625 0.487416 0.206975 0.8 0 0
0.432764 0.504554 0.188940 0.8 0 0
0.391177 0.380310 0.195408 0.8 0 0
0.443421 0.927581 0.165522 0.8 0 0
0.414184 0.436359 0.220432 0.8 0 0
0.509354 0.493620 0.056220 0.8 0 0
0.445958 0.073223 0.244306 0.8 0 0
0.372204 0.967819 0.248479 0.8 0 0
0.503812 0.460849 0.114993 0.8 0 0
0.463152 0.389603 0.215684 0.8 0 0
0.494544 0.430542 0.198205 0.8 0 0
0.479695 0.414941 0.084916 0.8 0 0
0.659000 0.395300 0.243886 0.8 0 0
0.434694 0.423142 0.147694 0.8 0 0
0.378097 0.490240 0.145313 0.8 0 0
0.500350 0.373905 0.113276 0.8 0 0
0.410521 0.380396 0.210257 0.8 0 0
0.438122 0.574932 0.147694 0.8 0 0
0.443421 0.943698 0.218633 0.8 0 0
0.553766 0.595850 0.243886 0.8 0 0
0.442641 0.231436 0.243886 0.8 0 0
0.449403 0.728865 0.196462 0.8 0 0
0.245104 0.408313 0.243886 0.8 0 0
0.474633 0.462843 0.086483 0.8 0 0
0.382935 0.388647 0.106852 0.8 0 0
0.472945 0.337120 0.190447 0.8 0 0
0.374691 0.365739 0.141744 0.8 0 0
0.424646 0.551986 0.223774 0.8 0 0
0.229667 0.748184 0.243886 0.8 0 0
0.508202 0.444427 0.119461 0.8 0 0
0.433743 0.794665 0.187139 0.8 0 0
0.443421 0.945416 0.222639 0.8 0 0
0.717940 0.367814 0.243886 0.8 0 0
0.463699 0.521821 0.229675 0.8 0 0
0.088133 0.333491 0.244226 0.8 0 0
0.513065 0.414339 0.130433 0.8 0 0
0.484873 0.383826 0.202187 0.8 0 0
0.358646 0.405388 0.025140 0.8 0 0
0.615464 0.392885 0.243886 0.8 0 0
0.454988 0.612844 0.140293 0.8 0 0
0.444035 0.837249 0.183341 0.8 0 0
0.506801 0.953730 0.264872 0.8 0 0
0.432815 0.123342 0.244306 0.8 0 0
0.444442 0.422304 0.147694 0.8 0 0
0.464752 0.368209 0.084684 0.8 0 0
0.479884 0.511267 0.188293 0.8 0 0
0.359020 0.516781 0.025140 0.8 0 0
0.421695 0.504927 0.203033 0.8 0 0
0.440774 0.585227 0.124065 0.8 0 0
0.411283 0.317517 0.147927 0.8 0 0
0.398787 0.476537 0.095882 0.8 0 0
0.428199 0.621413 0.147182 0.8 0 0
0.415566 0.455284 0.201258 0.8 0 0
0.496446 0.350386 0.124743 0.8 0 0
0.561084 0.606214 0.243886 0.8 0 0
0.528670 0.562039 0.243886 0.8 0 0
0.260785 0.722627 0.244306 0.8 0 0
0.498648 0.403276 0.193642 0.8 0 0
0.443421 0.951222 0.232051 0.8 0 0
0.449642 0.417279 0.219657 0.8 0 0
0.378480 0.537102 0.244306 0.8 0 0
0.482056 0.447728 0.243886 0.8 0 0
0.106031 0.359790 0.243886 0.8 0 0
0.041959 0.337361 0.244306 0.8 0 0
0.375196 0.944421 0.263657 0.8 0 0
0.393768 0.465489 0.197930 0.8 0 0
0.623793 0.408810 0.244447 0.8 0 0
0.436125 0.318382 0.244306 0.8 0 0
0.459253 0.581156 0.164858 0.8 0 0
0.502292 0.488446 0.129157 0.8 0 0
0.449590 0.446212 0.171753 0.8 0 0
0.375222 0.478513 0.152394 0.8 0 0
0.435032 0.445079 0.233649 0.8 0 0
0.434381 0.537773 0.152424 0.8 0 0
0.140980 0.372409 0.243886 0.8 0 0
0.449590 0.424591 0.191219 0.8 0 0
0.439596 0.618641 0.192488 0.8 0 0
0.443421 0.932560 0.150375 0.8 0 0
0.500886 0.450035 0.188991 0.8 0 0
0.509497 0.377796 0.155683 0.8 0 0
0.552532 0.432338 0.244447 0.8 0 0
0.547670 0.598634 0.244306 0.8 0 0
0.397269 0.358582 0.101365 0.8 0 0
0.197830 0.802948 0.244306 0.8 0 0
0.425713 0.466064 0.201258 0.8 0 0
0.372571 0.455762 0.167182 0.8 0 0
0.403598 0.323727 0.137040 0.8 0 0
0.424317 0.959174 0.263657 0.8 0 0
0.464642 0.413934 0.077617 0.8 0 0
0.575376 0.421522 0.244447 0.8 0 0
0.445179 0.583417 0.180504 0.8 0 0
0.444985 0.879470 0.184898 0.8 0 0
0.422291 0.575910 0.166354 0.8 0 0
0.549186 0.424006 0.243886 0.8 0 0
0.454873 0.970492 0.258889 0.8 0 0
0.479506 0.429700 0.210297 0.8 0 0
0.474514 0.450063 0.233649 0.8 0 0
0.415332 0.404501 0.078684 0.8 0 0
0.680751 0.781704 0.244306 0.8 0 0
0.457756 0.531840 0.191250 0.8 0 0
0.441212 0.462068 0.233649 0.8 0 0
0.178704 0.371517 0.244306 0.8 0 0
0.506877 0.452405 0.117412 0.8 0 0
0.446147 0.567892 0.170209 0.8 0 0
0.497627 0.370125 0.110688 0.8 0 0
0.446141 0.567993 0.172659 0.8 0 0
0.661133 0.750403 0.243886 0.8 0 0
0.699057 0.384156 0.244447 0.8 0 0
0.639132 0.732455 0.243886 0.8 0 0
0.442266 0.630118 0.183475 0.8 0 0
0.457286 0.514912 0.095514 0.8 0 0
0.432764 0.461941 0.196114 0.8 0 0
0.432663 0.663922 0.183580 0.8 0 0
0.444776 0.589874 0.183998 0.8 0 0
0.383608 0.486213 0.119243 0.8 0 0
0.402009 0.548120 0.145449 0.8 0 0
0.449590 0.496179 0.156691 0.8 0 0
0.556975 0.638846 0.243886 0.8 0 0
0.399052 0.536740 0.244306 0.8 0 0
0.665663 0.772230 0.243886 0.8 0 0
0.440568 0.915079 0.203571 0.8 0 0
0.505731 0.469907 0.125919 0.8 0 0
0.609852 0.686329 0.243886 0.8 0 0
0.219372 0.399078 0.244306 0.8 0 0
0.308875 0.628303 0.243886 0.8 0 0
0.629828 0.405196 0.243886 0.8 0 0
0.449590 0.421253 0.153668 0.8 0 0
0.803226 0.355926 0.243886 0.8 0 0
0.511682 0.419674 0.168673 0.8 0 0
0.457837 0.349909 0.205144 0.8 0 0
0.442788 0.414864 0.211833 0.8 0 0
0.418611 0.428872 0.206379 0.8 0 0
0.487608 0.958931 0.263657 0.8 0 0
0.462251 0.448218 0.077963 0.8 0 0
0.452303 0.352819 0.087731 0.8 0 0
0.446773 0.090847 0.243886 0.8 0 0
0.433478 0.180529 0.243886 0.8 0 0
0.512006 0.450777 0.129702 0.8 0 0
0.460698 0.577018 0.165376 0.8 0 0
0.453089 0.638440 0.188822 0.8 0 0
0.191943 0.812216 0.243886 0.8 0 0
0.473477 0.464530 0.207539 0.8 0 0
0.447367 0.849105 0.186221 0.8 0 0
0.438738 0.818168 0.198140 0.8 0 0
0.371568 0.971823 0.271876 0.8 0 0
0.498551 0.348434 0.162615 0.8 0 0
0.452545 0.629245 0.194947 0.8 0 0
0.463224 0.364970 0.210621 0.8 0 0
0.443055 0.504765 0.201258 0.8 0 0
0.474538 0.438103 0.212364 0.8 0 0
0.148777 0.358309 0.243886 0.8 0 0
0.394440 0.461220 0.200145 0.8 0 0
0.444877 0.443770 0.147694 0.8 0 0
0.655728 0.765787 0.243886 0.8 0 0
0.440639 0.958093 0.256365 0.8 0 0
0.330668 0.631211 0.244306 0.8 0 0
0.439221 0.481344 0.213020 0.8 0 0
0.424011 0.346507 0.202860 0.8 0 0
0.382161 0.557698 0.244306 0.8 0 0
0.299422 0.673579 0.244306 0.8 0 0
0.494933 0.429807 0.197715 0.8 0 0
0.657621 0.386340 0.243886 0.8 0 0
0.430504 0.548664 0.198784 0.8 0 0
0.181969 0.370307 0.243886 0.8 0 0
0.463866 0.418286 0.217791 0.8 0 0
0.336068 0.612114 0.243886 0.8 0 0
0.451704 0.552436 0.181839 0.8 0 0
0.427355 0.524150 0.233649 0.8 0 0
0.601013 0.662734 0.243886 0.8 0 0
0.332174 0.631184 0.243886 0.8 0 0
0.464957 0.426759 0.078123 0.8 0 0
0.213099 0.777475 0.244306 0.8 0 0
0.426933 0.614202 0.152304 0.8 0 0
0.430928 0.637043 0.185483 0.8 0 0
0.449323 0.516965 0.166190 0.8 0 0
0.444930 0.574869 0.120722 0.8 0 0
0.498655 0.358681 0.175914 0.8 0 0
0.452633 0.555812 0.183194 0.8 0 0
0.449590 0.478008 0.151184 0.8 0 0
0.370317 0.392210 0.136051 0.8 0 0
0.273409 0.677457 0.244306 0.8 0 0
0.496496 0.350308 0.170385 0.8 0 0
0.144946 0.378147 0.244099 0.8 0 0
0.432764 0.457010 0.196853 0.8 0 0
0.393641 0.332700 0.157471 0.8 0 0
0.419710 0.480493 0.209488 0.8 0 0
0.043854 0.324651 0.244306 0.8 0 0
0.507372 0.366410 0.139219 0.8 0 0
0.437619 0.632028 0.201880 0.8 0 0
0.326644 0.636163 0.244306 0.8 0 0
0.367838 0.413100 0.149797 0.8 0 0
0.284698 0.692301 0.244306 0.8 0 0
0.366549 0.558084 0.243886 0.8 0 0
0.442083 0.467742 0.262839 0.8 0 0
0.520991 0.562352 0.244306 0.8 0 0
0.442383 0.438466 0.244306 0.8 0 0
0.439635 0.928949 0.149869 0.8 0 0
0.384398 0.449211 0.244306 0.8 0 0
0.502562 0.524141 0.244306 0.8 0 0
0.418235 0.367786 0.210474 0.8 0 0
0.385538 0.344409 0.136052 0.8 0 0
0.486017 0.429127 0.090053 0.8 0 0
0.622804 0.703936 0.243886 0.8 0 0
0.201988 0.371612 0.243886 0.8 0 0
0.502256 0.499300 0.143843 0.8 0 0
0.460820 0.534899 0.201258 0.8 0 0
0.212726 0.382381 0.243886 0.8 0 0
0.417646 0.510971 0.231787 0.8 0 0
0.446612 0.635357 0.156804 0.8 0 0
0.459956 0.543431 0.184486 0.8 0 0
0.474144 0.345763 0.100309 0.8 0 0
0.421135 0.425922 0.077369 0.8 0 0
0.449551 0.753313 0.195291 0.8 0 0
0.393528 0.498566 0.186143 0.8 0 0
0.152665 0.368241 0.243886 0.8 0 0
0.462406 0.480424 0.254318 0.8 0 0
0.393118 0.398314 0.092875 0.8 0 0
0.445303 0.506140 0.206071 0.8 0 0
0.232426 0.406027 0.243886 0.8 0 0
0.524666 0.503569 0.028085 0.8 0 0
0.443054 0.966192 0.251130 0.8 0 0
0.434768 0.883242 0.190456 0.8 0 0
0.453764 0.476882 0.248092 0.8 0 0
0.428767 0.539375 0.187186 0.8 0 0
0.371495 0.563036 0.244306 0.8 0 0
0.294525 0.409820 0.243886 0.8 0 0
0.462181 0.943735 0.258889 0.8 0 0
0.433767 0.132867 0.244306 0.8 0 0
0.441305 0.454139 0.262844 0.8 0 0
0.451497 0.492760 0.201258 0.8 0 0
0.467369 0.332113 0.188176 0.8 0 0
0.494282 0.527837 0.243886 0.8 0 0
0.450441 0.505585 0.089887 0.8 0 0
0.447169 0.551505 0.194319 0.8 0 0
0.442113 0.578956 0.122173 0.8 0 0
0.453197 0.341927 0.093333 0.8 0 0
0.469058 0.415693 0.215457 0.8 0 0
0.605564 0.399170 0.244447 0.8 0 0
0.416739 0.963008 0.258889 0.8 0 0
0.440390 0.630964 0.183357 0.8 0 0
0.482632 0.523987 0.243886 0.8 0 0
0.432764 0.492554 0.170722 0.8 0 0
0.373834 0.472267 0.147797 0.8 0 0
0.383207 0.961683 0.258889 0.8 0 0
0.432435 0.701832 0.195818 0.8 0 0
0.372559 0.966534 0.240974 0.8 0 0
0.447303 0.181527 0.244306 0.8 0 0
0.211799 0.783139 0.244306 0.8 0 0
0.424665 0.363037 0.083824 0.8 0 0
0.528009 0.587133 0.243886 0.8 0 0
0.502717 0.461729 0.113386 0.8 0 0
0.470627 0.471770 0.233649 0.8 0 0
0.434947 0.767797 0.196877 0.8 0 0
0.441924 0.635599 0.156170 0.8 0 0
0.440728 0.930440 0.226134 0.8 0 0
0.448317 0.848302 0.188014 0.8 0 0
0.686686 0.780064 0.244306 0.8 0 0
0.433803 0.575777 0.121898 0.8 0 0
0.459450 0.434665 0.233649 0.8 0 0
0.638436 0.727562 0.243886 0.8 0 0
0.688777 0.371943 0.244447 0.8 0 0
0.626835 0.712250 0.244306 0.8 0 0
0.442412 0.519102 0.095144 0.8 0 0
0.448275 0.157815 0.243886 0.8 0 0
0.372102 0.440610 0.124404 0.8 0 0
0.509925 0.466689 0.151951 0.8 0 0
0.492284 0.376166 0.193659 0.8 0 0
0.506801 0.948932 0.233397 0.8 0 0
0.413493 0.395266 0.080846 0.8 0 0
0.408560 0.457739 0.214421 0.8 0 0
0.658139 0.403421 0.244447 0.8 0 0
0.416834 0.314710 0.139314 0.8 0 0
0.433637 0.129721 0.243886 0.8 0 0
0.447953 0.600973 0.165305 0.8 0 0
0.431905 0.728073 0.188015 0.8 0 0
0.436548 0.424638 0.199155 0.8 0 0
0.726571 0.367395 0.244447 0.8 0 0
0.854510 0.324051 0.243886 0.8 0 0
0.497249 0.435582 0.100779 0.8 0 0
0.443421 0.942595 0.235233 0.8 0 0
0.429080 0.577940 0.186589 0.8 0 0
0.649678 0.754715 0.243886 0.8 0 0
0.411925 0.528362 0.109175 0.8 0 0
0.452170 0.566717 0.118706 0.8 0 0
0.437743 0.589906 0.168194 0.8 0 0
0.443421 0.913681 0.162386 0.8 0 0
0.453396 0.096747 0.244306 0.8 0 0
0.439228 0.384029 0.243886 0.8 0 0
0.405319 0.538934 0.172334 0.8 0 0
0.398647 0.522132 0.175979 0.8 0 0
0.413630 0.492644 0.204324 0.8 0 0
0.466676 0.485353 0.248092 0.8 0 0
0.672928 0.783681 0.244306 0.8 0 0
0.454890 0.520385 0.233649 0.8 0 0
0.441982 0.634680 0.152971 0.8 0 0
0.508042 0.452805 0.174644 0.8 0 0
0.370085 0.956912 0.272272 0.8 0 0
0.441168 0.340406 0.092709 0.8 0 0
0.385161 0.557586 0.244306 0.8 0 0
0.464962 0.514417 0.212196 0.8 0 0
0.233480 0.382741 0.243886 0.8 0 0
0.517405 0.493620 0.041775 0.8 0 0
0.433241 0.520086 0.175332 0.8 0 0
0.571210 0.639639 0.244306 0.8 0 0
0.468993 0.569908 0.137966 0.8 0 0
0.463666 0.971402 0.258889 0.8 0 0
0.644308 0.729107 0.244306 0.8 0 0
0.440308 0.629697 0.156984 0.8 0 0
0.439635 0.941541 0.140533 0.8 0 0
0.432764 0.473156 0.193006 0.8 0 0
0.521391 0.504705 0.028085 0.8 0 0
0.466727 0.549684 0.118734 0.8 0 0
0.433282 0.520722 0.191503 0.8 0 0
0.413111 0.333083 0.107450 0.8 0 0
0.447397 0.485036 0.083187 0.8 0 0
0.371002 0.385648 0.139289 0.8 0 0
0.326565 0.605081 0.244306 0.8 0 0
0.509325 0.964294 0.252592 0.8 0 0
0.400736 0.499328 0.101742 0.8 0 0
0.507006 0.365011 0.156281 0.8 0 0
0.345276 0.601994 0.243886 0.8 0 0
0.465182 0.470888 0.256337 0.8 0 0
0.373795 0.452587 0.120511 0.8 0 0
0.452142 0.157506 0.244306 0.8 0 0
0.450759 0.540305 0.200354 0.8 0 0
0.499299 0.504758 0.137249 0.8 0 0
0.510678 0.403448 0.123239 0.8 0 0
0.494632 0.361841 0.185302 0.8 0 0
0.431511 0.592203 0.220004 0.8 0 0
0.439522 0.308370 0.135135 0.8 0 0
0.462053 0.425319 0.208473 0.8 0 0
0.377904 0.945309 0.263657 0.8 0 0
0.425072 0.554477 0.213841 0.8 0 0
0.410738 0.465085 0.248092 0.8 0 0
0.691312 0.369200 0.244447 0.8 0 0
0.439635 0.929539 0.196162 0.8 0 0
0.456762 0.394586 0.217922 0.8 0 0
0.435915 0.561561 0.168392 0.8 0 0
0.507525 0.425310 0.178687 0.8 0 0
0.463602 0.588106 0.143587 0.8 0 0
0.441809 0.273521 0.243886 0.8 0 0
0.405185 0.940843 0.263657 0.8 0 0
0.388638 0.426362 0.096918 0.8 0 0
0.468093 0.556582 0.170902 0.8 0 0
0.447644 0.723960 0.182669 0.8 0 0
0.439635 0.932248 0.162683 0.8 0 0
0.451258 0.218761 0.244306 0.8 0 0
0.466320 0.406630 0.078214 0.8 0 0
0.354562 0.443264 0.243886 0.8 0 0
0.265806 0.396003 0.244306 0.8 0 0
0.408807 0.443391 0.243886 0.8 0 0
0.431382 0.591447 0.215940 0.8 0 0
0.666234 0.763265 0.244306 0.8 0 0
0.416191 0.432267 0.213745 0.8 0 0
0.497650 0.357490 0.118136 0.8 0 0
0.432764 0.462189 0.149305 0.8 0 0
0.324705 0.617573 0.244306 0.8 0 0
0.459847 0.593828 0.137500 0.8 0 0
0.510420 0.561275 0.243886 0.8 0 0
0.523730 0.484964 0.028085 0.8 0 0
0.672149 0.790314 0.244306 0.8 0 0
0.217930 0.396311 0.244306 0.8 0 0
0.431765 0.514516 0.201258 0.8 0 0
0.479754 0.502581 0.244306 0.8 0 0
0.449261 0.822369 0.189346 0.8 0 0
0.375464 0.453256 0.177231 0.8 0 0
0.453095 0.607986 0.186402 0.8 0 0
0.441490 0.446727 0.199155 0.8 0 0
0.419348 0.499296 0.201258 0.8 0 0
0.608649 0.408585 0.243886 0.8 0 0
0.422133 0.537261 0.218190 0.8 0 0
0.502125 0.429853 0.188124 0.8 0 0
0.370509 0.423557 0.165853 0.8 0 0
0.449529 0.133941 0.244306 0.8 0 0
0.441664 0.558100 0.112828 0.8 0 0
0.503578 0.462968 0.179214 0.8 0 0
0.523544 0.509939 0.028085 0.8 0 0
0.466939 0.314582 0.147642 0.8 0 0
0.437790 0.902411 0.188038 0.8 0 0
0.473173 0.541022 0.175862 0.8 0 0
0.391590 0.442821 0.244306 0.8 0 0
0.452198 0.550051 0.233649 0.8 0 0
0.443093 0.532888 0.179665 0.8 0 0
0.442390 0.435105 0.233649 0.8 0 0
0.425706 0.558195 0.223103 0.8 0 0
0.457110 0.512949 0.201258 0.8 0 0
0.435496 0.529422 0.198489 0.8 0 0
0.427499 0.971754 0.263657 0.8 0 0
0.463495 0.312932 0.154150 0.8 0 0
0.490175 0.463291 0.197517 0.8 0 0
0.394877 0.453979 0.092183 0.8 0 0
0.410534 0.560610 0.161342 0.8 0 0
0.479475 0.451941 0.243886 0.8 0 0
0.441625 0.455132 0.075947 0.8 0 0
0.457004 0.554107 0.180524 0.8 0 0
0.433268 0.520503 0.162438 0.8 0 0
0.267614 0.696621 0.243886 0.8 0 0
0.503448 0.493462 0.142201 0.8 0 0
0.674587 0.762882 0.244306 0.8 0 0
0.453362 0.272036 0.243886 0.8 0 0
0.432919 0.783073 0.192631 0.8 0 0
0.439413 0.942618 0.263657 0.8 0 0
0.378973 0.483357 0.129459 0.8 0 0
0.495967 0.496955 0.118299 0.8 0 0
0.219540 0.776317 0.243886 0.8 0 0
0.460408 0.541099 0.210896 0.8 0 0
0.671273 0.393855 0.244447 0.8 0 0
0.338401 0.604916 0.243886 0.8 0 0
0.439635 0.942158 0.141340 0.8 0 0
0.399640 0.328457 0.162933 0.8 0 0
0.379005 0.947820 0.263657 0.8 0 0
0.266929 0.416878 0.244306 0.8 0 0
0.430225 0.526590 0.201258 0.8 0 0
0.408814 0.505770 0.244306 0.8 0 0
0.430456 0.293420 0.243886 0.8 0 0
0.432282 0.644175 0.150800 0.8 0 0
0.429859 0.598553 0.131634 0.8 0 0
0.479876 0.534375 0.243886 0.8 0 0
0.414009 0.533237 0.184732 0.8 0 0
0.440213 0.523809 0.182616 0.8 0 0
0.378699 0.418454 0.185880 0.8 0 0
0.448741 0.317416 0.118679 0.8 0 0
0.370085 0.950244 0.269399 0.8 0 0
0.453532 0.581381 0.218741 0.8 0 0
0.449729 0.426192 0.220412 0.8 0 0
0.384956 0.965306 0.263657 0.8 0 0
0.508804 0.561242 0.243886 0.8 0 0
0.055887 0.330593 0.243886 0.8 0 0
0.437242 0.582146 0.194857 0.8 0 0
0.414924 0.316082 0.156985 0.8 0 0
0.678854 0.800648 0.244306 0.8 0 0
0.435496 0.443879 0.147694 0.8 0 0
0.205214 0.788334 0.243886 0.8 0 0
0.327916 0.424269 0.243886 0.8 0 0
0.429004 0.588234 0.193576 0.8 0 0
0.398436 0.400969 0.097006 0.8 0 0
0.397706 0.493704 0.103018 0.8 0 0
0.509325 0.961855 0.277753 0.8 0 0
0.673327 0.378651 0.244447 0.8 0 0
0.523645 0.443677 0.025000 0.8 0 0
0.270069 0.698947 0.244306 0.8 0 0
0.630936 0.400168 0.244447 0.8 0 0
0.312225 0.650179 0.244306 0.8 0 0
0.367954 0.415855 0.143229 0.8 0 0
0.472768 0.518652 0.189724 0.8 0 0
0.429115 0.487955 0.210672 0.8 0 0
0.457074 0.489511 0.209114 0.8 0 0
0.436035 0.635272 0.201215 0.8 0 0
0.406792 0.370445 0.089693 0.8 0 0
0.405133 0.972476 0.261716 0.8 0 0
0.447858 0.540461 0.168475 0.8 0 0
0.315626 0.641044 0.244306 0.8 0 0
0.436103 0.602011 0.216099 0.8 0 0
0.405848 0.321059 0.149729 0.8 0 0
0.467410 0.500079 0.203656 0.8 0 0
0.430704 0.326663 0.244306 0.8 0 0
0.430799 0.624039 0.141311 0.8 0 0
0.436324 0.726445 0.199113 0.8 0 0
0.432764 0.486138 0.192816 0.8 0 0
0.439951 0.624155 0.195706 0.8 0 0
0.434653 0.541991 0.175541 0.8 0 0
0.523544 0.472436 0.028085 0.8 0 0
0.460071 0.422538 0.226207 0.8 0 0
0.440752 0.439606 0.258462 0.8 0 0
0.441464 0.642987 0.177760 0.8 0 0
0.768722 0.347816 0.243886 0.8 0 0
0.449548 0.434461 0.233649 0.8 0 0
0.389537 0.379565 0.193442 0.8 0 0
0.784313 0.363119 0.244444 0.8 0 0
0.439635 0.950557 0.239227 0.8 0 0
0.232906 0.400055 0.244306 0.8 0 0
0.402002 0.327933 0.128473 0.8 0 0
0.449590 0.431745 0.154000 0.8 0 0
0.230331 0.765957 0.244306 0.8 0 0
0.387386 0.349876 0.173044 0.8 0 0
0.480574 0.526150 0.118101 0.8 0 0
0.414808 0.360969 0.207263 0.8 0 0
0.418660 0.480784 0.248092 0.8 0 0
0.439599 0.662822 0.179366 0.8 0 0
0.674009 0.380199 0.243886 0.8 0 0
0.377147 0.430791 0.182450 0.8 0 0
0.440190 0.518336 0.184459 0.8 0 0
0.449590 0.430760 0.167613 0.8 0 0
0.553705 0.610567 0.244306 0.8 0 0
0.457459 0.475592 0.082912 0.8 0 0
0.545857 0.608813 0.243886 0.8 0 0
0.367366 0.551091 0.244306 0.8 0 0
0.440495 0.943331 0.193497 0.8 0 0
0.503235 0.442505 0.186128 0.8 0 0
0.526039 0.487429 0.025000 0.8 0 0
0.437067 0.757096 0.198838 0.8 0 0
0.432400 0.617493 0.158752 0.8 0 0
0.433059 0.797965 0.189286 0.8 0 0
0.377970 0.490246 0.152227 0.8 0 0
