0.441081 0.121293 0.465236 0.8 0 0
0.473982 0.253898 0.328915 0.8 0 0
0.717339 0.284831 0.469552 0.8 0 0
0.411575 0.284667 0.237595 0.8 0 0
0.557617 0.223751 0.452154 0.8 0 0
0.491713 0.082035 0.441712 0.8 0 0
0.516679 0.091746 0.632591 0.8 0 0
0.494309 0.313132 0.431510 0.8 0 0
0.689967 0.281918 0.455047 0.8 0 0
0.608059 0.142810 0.824246 0.8 0 0
0.389847 0.228349 0.815414 0.8 0 0
0.544752 0.189653 0.685441 0.8 0 0
0.542975 0.192995 0.687223 0.8 0 0
0.446360 0.120279 0.270155 0.8 0 0
0.467691 0.255187 0.534656 0.8 0 0
0.481696 0.233776 0.375594 0.8 0 0
0.560651 0.220696 0.416221 0.8 0 0
0.388849 0.143778 0.853866 0.8 0 0
0.463022 0.168105 0.227046 0.8 0 0
0.723375 0.379967 0.034263 0.8 0 0
0.448590 0.093646 0.522205 0.8 0 0
0.075901 0.378403 0.471038 0.8 0 0
0.391318 0.052656 0.517415 0.8 0 0
0.184979 0.375388 0.451442 0.8 0 0
0.449862 0.207220 0.354200 0.8 0 0
0.493976 0.298773 0.443328 0.8 0 0
0.515772 0.237290 0.368001 0.8 0 0
0.557885 0.226724 0.406080 0.8 0 0
0.609105 0.381226 0.634468 0.8 0 0
0.493891 0.111455 0.252292 0.8 0 0
0.506538 0.321644 0.424046 0.8 0 0
0.941392 0.281728 0.452366 0.8 0 0
0.463718 0.140363 0.282117 0.8 0 0
0.541183 0.101146 0.246889 0.8 0 0
0.516692 0.206714 0.672832 0.8 0 0
0.503722 0.294479 0.437977 0.8 0 0
0.552267 0.094309 0.424974 0.8 0 0
0.545516 0.198820 0.587972 0.8 0 0
0.510731 0.168975 0.788418 0.8 0 0
0.311113 0.285580 0.735090 0.8 0 0
0.615792 0.380860 0.636478 0.8 0 0
0.444238 0.161740 0.433333 0.8 0 0
0.540513 0.098078 0.242843 0.8 0 0
0.327021 0.379579 0.460320 0.8 0 0
0.511132 0.262767 0.424974 0.8 0 0
0.557840 0.143169 0.370197 0.8 0 0
0.607703 0.218238 0.825804 0.8 0 0
0.505041 0.096839 0.233451 0.8 0 0
0.511530 0.143749 0.213475 0.8 0 0
0.538752 0.261202 0.372504 0.8 0 0
0.553575 0.186190 0.322524 0.8 0 0
0.413300 0.107322 0.496956 0.8 0 0
0.545943 0.198362 0.523837 0.8 0 0
0.610408 0.176185 0.827452 0.8 0 0
0.748630 0.378575 0.824774 0.8 0 0
0.566145 0.082446 0.486450 0.8 0 0
0.448313 0.185704 0.496703 0.8 0 0
0.512548 0.229970 0.343701 0.8 0 0
0.721468 0.282294 0.460143 0.8 0 0
0.493678 0.106955 0.504362 0.8 0 0
0.514408 0.291362 0.435233 0.8 0 0
0.553941 0.175711 0.251909 0.8 0 0
0.485786 0.109537 0.219503 0.8 0 0
0.598277 0.191225 0.832851 0.8 0 0
0.716723 0.378135 0.761241 0.8 0 0
0.445143 0.168243 0.418985 0.8 0 0
0.556672 0.175568 0.269440 0.8 0 0
0.653169 0.287481 0.445168 0.8 0 0
0.829113 0.281873 0.454271 0.8 0 0
0.608424 0.196056 0.794608 0.8 0 0
0.442951 0.145381 0.621460 0.8 0 0
0.667415 0.376725 0.104635 0.8 0 0
0.098965 0.377664 0.474988 0.8 0 0
0.243588 0.376869 0.471785 0.8 0 0
0.607264 0.073530 0.515725 0.8 0 0
0.524031 0.241147 0.374485 0.8 0 0
0.551256 0.081936 0.325185 0.8 0 0
0.463151 0.261530 0.373904 0.8 0 0
0.508064 0.367302 0.452211 0.8 0 0
0.423216 0.286922 0.584746 0.8 0 0
0.450837 0.253522 0.366504 0.8 0 0
0.468674 0.243570 0.360720 0.8 0 0
0.505934 0.093048 0.246374 0.8 0 0
0.527657 0.237204 0.352599 0.8 0 0
0.651909 0.380672 0.188511 0.8 0 0
0.565238 0.108775 0.456263 0.8 0 0
0.480631 0.266805 0.480757 0.8 0 0
0.697318 0.284725 0.438144 0.8 0 0
0.525440 0.135214 0.682914 0.8 0 0
0.792273 0.282150 0.439640 0.8 0 0
0.388882 0.175256 0.833434 0.8 0 0
0.568632 0.087263 0.395948 0.8 0 0
0.542839 0.158940 0.229967 0.8 0 0
0.429153 0.081468 0.490491 0.8 0 0
0.440375 0.140360 0.281922 0.8 0 0
0.524901 0.144992 0.708088 0.8 0 0
0.607002 0.216414 0.812706 0.8 0 0
0.445392 0.098553 0.540736 0.8 0 0
0.465475 0.177203 0.230748 0.8 0 0
0.515511 0.093499 0.247025 0.8 0 0
0.530836 0.261749 0.460307 0.8 0 0
0.402180 0.285235 0.232004 0.8 0 0
0.552722 0.189488 0.284956 0.8 0 0
0.538660 0.378170 0.319506 0.8 0 0
0.534781 0.231732 0.432776 0.8 0 0
0.462121 0.280959 0.378989 0.8 0 0
0.441126 0.132518 0.447203 0.8 0 0
0.389920 0.098033 0.513319 0.8 0 0
0.541968 0.213280 0.426644 0.8 0 0
0.310962 0.283005 0.128473 0.8 0 0
0.639267 0.375863 0.658788 0.8 0 0
0.458217 0.108069 0.235613 0.8 0 0
0.450139 0.196380 0.536349 0.8 0 0
0.442131 0.111362 0.432417 0.8 0 0
0.461245 0.199367 0.685591 0.8 0 0
0.468862 0.199413 0.811917 0.8 0 0
0.541211 0.202124 0.553911 0.8 0 0
0.603406 0.208761 0.786149 0.8 0 0
0.498585 0.286946 0.461741 0.8 0 0
0.340523 0.284288 0.660600 0.8 0 0
0.496739 0.212989 0.673761 0.8 0 0
0.488596 0.286243 0.475526 0.8 0 0
0.607217 0.207031 0.784125 0.8 0 0
0.436390 0.281920 0.312260 0.8 0 0
0.670790 0.378310 0.684950 0.8 0 0
0.524266 0.082567 0.340487 0.8 0 0
0.472691 0.263041 0.396024 0.8 0 0
0.270089 0.281522 0.832018 0.8 0 0
0.441469 0.034203 0.330715 0.8 0 0
0.503529 0.144525 0.228391 0.8 0 0
0.249903 0.282670 0.836696 0.8 0 0
0.928817 0.281680 0.451733 0.8 0 0
0.456810 0.170072 0.700129 0.8 0 0
0.745189 0.378822 0.823458 0.8 0 0
0.676835 0.375099 0.131490 0.8 0 0
0.571560 0.089628 0.436183 0.8 0 0
0.362650 0.375254 0.449807 0.8 0 0
0.394417 0.210137 0.801128 0.8 0 0
0.474056 0.194082 0.758568 0.8 0 0
0.552145 0.094142 0.447008 0.8 0 0
0.514522 0.220721 0.317752 0.8 0 0
0.527281 0.106955 0.245508 0.8 0 0
0.482618 0.283514 0.427717 0.8 0 0
0.511853 0.256557 0.543569 0.8 0 0
0.548257 0.089962 0.552632 0.8 0 0
0.523584 0.326473 0.452655 0.8 0 0
0.440957 0.074405 0.324903 0.8 0 0
0.498007 0.106955 0.524203 0.8 0 0
0.723465 0.380544 0.818156 0.8 0 0
0.535103 0.210503 0.328641 0.8 0 0
0.510303 0.372393 0.414105 0.8 0 0
0.504950 0.277786 0.449771 0.8 0 0
0.462090 0.198208 0.696520 0.8 0 0
0.442548 0.225115 0.466564 0.8 0 0
0.610587 0.147597 0.846364 0.8 0 0
0.328554 0.281423 0.733362 0.8 0 0
0.720088 0.380569 0.050378 0.8 0 0
0.377728 0.283074 0.179782 0.8 0 0
0.552430 0.210402 0.354792 0.8 0 0
0.442489 0.140355 0.429726 0.8 0 0
0.683651 0.380352 0.745498 0.8 0 0
0.512671 0.230974 0.345759 0.8 0 0
0.461823 0.201854 0.278223 0.8 0 0
0.364420 0.287471 0.681371 0.8 0 0
0.521452 0.211559 0.632694 0.8 0 0
0.200839 0.379380 0.461869 0.8 0 0
0.499552 0.175066 0.812503 0.8 0 0
0.441961 0.149713 0.524323 0.8 0 0
0.472916 0.106955 0.382833 0.8 0 0
0.507145 0.106955 0.538677 0.8 0 0
0.456902 0.284149 0.308957 0.8 0 0
0.554401 0.174838 0.452611 0.8 0 0
0.524086 0.291781 0.446547 0.8 0 0
0.435643 0.136002 0.420678 0.8 0 0
0.459565 0.381030 0.438669 0.8 0 0
0.603860 0.055691 0.515444 0.8 0 0
0.478292 0.178033 0.776069 0.8 0 0
0.382966 0.047957 0.510390 0.8 0 0
0.410577 0.191568 0.835638 0.8 0 0
0.503859 0.081978 0.400932 0.8 0 0
0.311953 0.284114 0.057745 0.8 0 0
0.441606 0.092670 0.474421 0.8 0 0
0.506557 0.272681 0.450859 0.8 0 0
0.501874 0.303652 0.430842 0.8 0 0
0.486291 0.094442 0.243465 0.8 0 0
0.610499 0.141504 0.827620 0.8 0 0
0.449513 0.094354 0.306825 0.8 0 0
0.385090 0.159022 0.864935 0.8 0 0
0.532035 0.208199 0.507730 0.8 0 0
0.550170 0.233730 0.412201 0.8 0 0
0.513246 0.115189 0.279265 0.8 0 0
0.480574 0.196925 0.836300 0.8 0 0
0.839761 0.286793 0.451271 0.8 0 0
0.628842 0.377985 0.160980 0.8 0 0
0.470278 0.083259 0.350581 0.8 0 0
0.558508 0.088310 0.502541 0.8 0 0
0.459565 0.378720 0.436739 0.8 0 0
0.530784 0.259563 0.497055 0.8 0 0
0.443822 0.235793 0.354584 0.8 0 0
0.550615 0.106955 0.560219 0.8 0 0
0.546073 0.207290 0.474746 0.8 0 0
0.482142 0.285525 0.424671 0.8 0 0
0.545405 0.214551 0.470215 0.8 0 0
0.509415 0.255134 0.560090 0.8 0 0
0.355253 0.286161 0.168107 0.8 0 0
0.425368 0.086395 0.506762 0.8 0 0
0.510655 0.157899 0.225654 0.8 0 0
0.458465 0.086386 0.594315 0.8 0 0
0.460440 0.228044 0.372263 0.8 0 0
0.283516 0.285982 0.790446 0.8 0 0
0.828428 0.286785 0.451376 0.8 0 0
0.558897 0.135270 0.278863 0.8 0 0
0.475151 0.087641 0.277838 0.8 0 0
0.365099 0.283017 0.222254 0.8 0 0
0.490629 0.106723 0.253229 0.8 0 0
0.336713 0.285027 0.114675 0.8 0 0
0.503432 0.205795 0.849497 0.8 0 0
0.705597 0.376560 0.043068 0.8 0 0
0.441438 0.126027 0.469820 0.8 0 0
0.530884 0.374356 0.380898 0.8 0 0
0.520217 0.261833 0.458106 0.8 0 0
0.446841 0.188497 0.530393 0.8 0 0
0.482903 0.149795 0.215049 0.8 0 0
0.155131 0.375154 0.448360 0.8 0 0
0.414934 0.286512 0.571627 0.8 0 0
0.394776 0.101952 0.517376 0.8 0 0
0.471779 0.260257 0.360713 0.8 0 0
0.446528 0.262163 0.428411 0.8 0 0
0.494683 0.317343 0.420383 0.8 0 0
0.488972 0.173568 0.223066 0.8 0 0
0.536517 0.372022 0.393666 0.8 0 0
0.469508 0.206841 0.586162 0.8 0 0
0.505305 0.164566 0.218413 0.8 0 0
0.448736 0.132939 0.651261 0.8 0 0
0.550385 0.106955 0.567716 0.8 0 0
0.322050 0.375523 0.453371 0.8 0 0
0.480600 0.140265 0.289475 0.8 0 0
0.570764 0.107722 0.367356 0.8 0 0
0.645418 0.285274 0.465619 0.8 0 0
0.614453 0.206726 0.856763 0.8 0 0
0.547941 0.378261 0.305166 0.8 0 0
0.380475 0.038402 0.518213 0.8 0 0
0.550006 0.106955 0.618810 0.8 0 0
0.542601 0.086675 0.328456 0.8 0 0
0.470212 0.199372 0.728781 0.8 0 0
0.462910 0.084701 0.333371 0.8 0 0
0.451398 0.026165 0.331546 0.8 0 0
0.495404 0.373479 0.443277 0.8 0 0
0.480524 0.189438 0.800628 0.8 0 0
0.555612 0.167202 0.257240 0.8 0 0
0.421624 0.199502 0.809486 0.8 0 0
0.443936 0.158804 0.335178 0.8 0 0
0.482423 0.215915 0.342119 0.8 0 0
0.457994 0.282015 0.526108 0.8 0 0
0.526588 0.213380 0.355074 0.8 0 0
0.457881 0.222214 0.420046 0.8 0 0
0.558432 0.112304 0.543938 0.8 0 0
0.380475 0.044084 0.513483 0.8 0 0
0.528188 0.166809 0.746858 0.8 0 0
0.740951 0.375749 0.844768 0.8 0 0
0.544338 0.243628 0.379392 0.8 0 0
0.444115 0.160561 0.432746 0.8 0 0
0.558510 0.230011 0.444959 0.8 0 0
0.818760 0.284445 0.473181 0.8 0 0
0.494982 0.106955 0.498554 0.8 0 0
0.557021 0.167310 0.330600 0.8 0 0
0.332196 0.284722 0.101121 0.8 0 0
0.742666 0.379430 0.830507 0.8 0 0
0.443209 0.151482 0.392552 0.8 0 0
0.511801 0.214443 0.320936 0.8 0 0
0.522527 0.106955 0.567037 0.8 0 0
0.493607 0.147419 0.219649 0.8 0 0
0.537143 0.262586 0.412501 0.8 0 0
0.585756 0.104438 0.494977 0.8 0 0
0.506364 0.082007 0.332811 0.8 0 0
0.668292 0.381118 0.149785 0.8 0 0
0.537653 0.106955 0.376763 0.8 0 0
0.554037 0.084646 0.375206 0.8 0 0
0.467964 0.151144 0.245458 0.8 0 0
0.427529 0.099699 0.419650 0.8 0 0
0.505736 0.232208 0.321991 0.8 0 0
0.545812 0.198531 0.483655 0.8 0 0
0.449266 0.209615 0.368183 0.8 0 0
0.441780 0.121638 0.500703 0.8 0 0
0.457810 0.201845 0.323303 0.8 0 0
0.480087 0.142949 0.710171 0.8 0 0
0.474732 0.145437 0.216439 0.8 0 0
0.096111 0.379457 0.461137 0.8 0 0
0.558207 0.128116 0.259220 0.8 0 0
0.611258 0.172710 0.832915 0.8 0 0
0.461479 0.154091 0.697842 0.8 0 0
0.506988 0.087104 0.273231 0.8 0 0
0.500794 0.263042 0.436277 0.8 0 0
0.755506 0.281145 0.444894 0.8 0 0
0.602902 0.184162 0.781652 0.8 0 0
0.583666 0.192380 0.841199 0.8 0 0
0.493335 0.147553 0.735819 0.8 0 0
0.603511 0.222309 0.779892 0.8 0 0
0.442012 0.112611 0.353162 0.8 0 0
0.495781 0.318016 0.449071 0.8 0 0
0.507204 0.204905 0.705081 0.8 0 0
0.554143 0.096867 0.384170 0.8 0 0
0.516487 0.082225 0.578190 0.8 0 0
0.493981 0.280626 0.431829 0.8 0 0
0.529451 0.127488 0.217691 0.8 0 0
0.448776 0.187604 0.396892 0.8 0 0
0.488948 0.319448 0.439079 0.8 0 0
0.559336 0.135161 0.355121 0.8 0 0
0.454254 0.106955 0.470726 0.8 0 0
0.606809 0.214438 0.810720 0.8 0 0
0.322794 0.283093 0.085152 0.8 0 0
0.520701 0.082406 0.377253 0.8 0 0
0.548898 0.090492 0.386322 0.8 0 0
0.447891 0.183966 0.328551 0.8 0 0
0.461058 0.141054 0.296724 0.8 0 0
0.560169 0.250037 0.447631 0.8 0 0
0.338616 0.375760 0.456755 0.8 0 0
0.607954 0.378828 0.211868 0.8 0 0
0.489738 0.280626 0.439387 0.8 0 0
0.437880 0.369757 0.447343 0.8 0 0
0.530914 0.106955 0.535035 0.8 0 0
0.500975 0.314786 0.428729 0.8 0 0
0.551970 0.249320 0.357769 0.8 0 0
0.395044 0.182505 0.794622 0.8 0 0
0.648219 0.281555 0.450195 0.8 0 0
0.380756 0.044305 0.498705 0.8 0 0
0.498568 0.182691 0.835431 0.8 0 0
0.555260 0.099158 0.371730 0.8 0 0
0.558389 0.119174 0.290551 0.8 0 0
0.483466 0.120279 0.305137 0.8 0 0
0.396458 0.148656 0.778723 0.8 0 0
0.494303 0.358728 0.455944 0.8 0 0
0.650484 0.374961 0.702055 0.8 0 0
0.623394 0.043753 0.513352 0.8 0 0
0.638877 0.287482 0.445138 0.8 0 0
0.453762 0.106955 0.466654 0.8 0 0
0.526751 0.212881 0.459123 0.8 0 0
0.436317 0.085539 0.386994 0.8 0 0
0.550942 0.092501 0.427081 0.8 0 0
0.634426 0.380538 0.219464 0.8 0 0
0.569139 0.127673 0.411906 0.8 0 0
0.930102 0.287220 0.447136 0.8 0 0
0.590045 0.376932 0.231388 0.8 0 0
0.468233 0.211607 0.604993 0.8 0 0
0.404359 0.135330 0.503416 0.8 0 0
0.772810 0.282148 0.457898 0.8 0 0
0.550768 0.243776 0.326411 0.8 0 0
0.389324 0.223905 0.830347 0.8 0 0
0.467595 0.192497 0.734761 0.8 0 0
0.440644 0.144746 0.581334 0.8 0 0
0.387726 0.219069 0.864446 0.8 0 0
0.462760 0.252925 0.520803 0.8 0 0
0.472436 0.112135 0.221682 0.8 0 0
0.442794 0.110933 0.613775 0.8 0 0
0.578499 0.109118 0.517002 0.8 0 0
0.451884 0.092868 0.300557 0.8 0 0
0.526636 0.155488 0.729795 0.8 0 0
0.470592 0.106955 0.561771 0.8 0 0
0.480097 0.213833 0.327672 0.8 0 0
0.610282 0.198442 0.826786 0.8 0 0
0.390327 0.176576 0.810467 0.8 0 0
0.309205 0.286357 0.752972 0.8 0 0
0.497634 0.106955 0.349920 0.8 0 0
0.519260 0.150652 0.215477 0.8 0 0
0.549387 0.253848 0.461461 0.8 0 0
0.490588 0.106955 0.469432 0.8 0 0
0.502376 0.309340 0.430190 0.8 0 0
0.455886 0.140187 0.269185 0.8 0 0
0.550411 0.191097 0.451378 0.8 0 0
0.521778 0.082452 0.378784 0.8 0 0
0.395980 0.285397 0.224324 0.8 0 0
0.544472 0.197374 0.647027 0.8 0 0
0.512709 0.377090 0.455739 0.8 0 0
0.393082 0.240504 0.786128 0.8 0 0
0.592369 0.375960 0.254393 0.8 0 0
0.494246 0.106955 0.638067 0.8 0 0
0.607094 0.379701 0.229457 0.8 0 0
0.530113 0.197484 0.735818 0.8 0 0
0.491229 0.109498 0.218840 0.8 0 0
0.536394 0.197551 0.254488 0.8 0 0
0.449732 0.113479 0.292710 0.8 0 0
0.396283 0.199462 0.810890 0.8 0 0
0.288043 0.281177 0.079049 0.8 0 0
0.541387 0.204571 0.370438 0.8 0 0
0.506727 0.083769 0.301086 0.8 0 0
0.552582 0.250171 0.407355 0.8 0 0
0.436544 0.175257 0.490354 0.8 0 0
0.347368 0.377025 0.474234 0.8 0 0
0.586049 0.376227 0.555243 0.8 0 0
0.436461 0.281420 0.326266 0.8 0 0
0.356551 0.282987 0.641997 0.8 0 0
0.558371 0.131539 0.521394 0.8 0 0
0.514480 0.233365 0.609228 0.8 0 0
0.532949 0.144525 0.238048 0.8 0 0
0.475673 0.108776 0.653825 0.8 0 0
0.555283 0.084646 0.398150 0.8 0 0
0.482170 0.072543 0.243759 0.8 0 0
0.551816 0.213187 0.477008 0.8 0 0
0.514295 0.221230 0.340167 0.8 0 0
0.394682 0.166381 0.774332 0.8 0 0
0.463034 0.199493 0.695700 0.8 0 0
0.389084 0.233219 0.820543 0.8 0 0
0.557779 0.141695 0.605107 0.8 0 0
0.536985 0.202453 0.279830 0.8 0 0
0.527752 0.242572 0.368632 0.8 0 0
0.522647 0.259294 0.508398 0.8 0 0
0.521807 0.203170 0.746497 0.8 0 0
0.550974 0.092545 0.402812 0.8 0 0
0.362816 0.285177 0.162728 0.8 0 0
0.500469 0.081938 0.577209 0.8 0 0
0.452097 0.197509 0.621474 0.8 0 0
0.501336 0.376259 0.470042 0.8 0 0
0.453989 0.225119 0.514443 0.8 0 0
0.453663 0.089164 0.322324 0.8 0 0
0.458287 0.124363 0.225417 0.8 0 0
0.543963 0.380488 0.376463 0.8 0 0
0.412238 0.281421 0.284424 0.8 0 0
0.495657 0.262894 0.417405 0.8 0 0
0.443889 0.158399 0.407535 0.8 0 0
0.571730 0.113484 0.416141 0.8 0 0
0.612953 0.141628 0.849295 0.8 0 0
0.784658 0.282598 0.464087 0.8 0 0
0.424892 0.281141 0.575548 0.8 0 0
0.495442 0.336383 0.450046 0.8 0 0
0.497950 0.081962 0.571445 0.8 0 0
0.519924 0.210443 0.391616 0.8 0 0
0.529126 0.129577 0.235017 0.8 0 0
0.430913 0.106723 0.483122 0.8 0 0
0.534139 0.244476 0.442010 0.8 0 0
0.500851 0.379823 0.468706 0.8 0 0
0.344188 0.379447 0.461569 0.8 0 0
0.558457 0.201893 0.826644 0.8 0 0
0.919960 0.281866 0.454181 0.8 0 0
0.445899 0.032024 0.321060 0.8 0 0
0.690131 0.375151 0.107063 0.8 0 0
0.385978 0.177073 0.873175 0.8 0 0
0.500707 0.154978 0.758337 0.8 0 0
0.061146 0.380695 0.449512 0.8 0 0
0.533930 0.204730 0.609581 0.8 0 0
0.558586 0.116647 0.383186 0.8 0 0
0.504817 0.131385 0.212512 0.8 0 0
0.285756 0.282157 0.788125 0.8 0 0
0.515067 0.257996 0.526842 0.8 0 0
0.627324 0.381228 0.224734 0.8 0 0
0.546199 0.140187 0.285888 0.8 0 0
0.576532 0.379644 0.281014 0.8 0 0
0.730063 0.376509 0.799074 0.8 0 0
0.498116 0.152635 0.219932 0.8 0 0
0.373982 0.376530 0.467687 0.8 0 0
0.512145 0.213496 0.629756 0.8 0 0
0.450767 0.198311 0.614945 0.8 0 0
0.603858 0.134269 0.791199 0.8 0 0
0.506467 0.094716 0.640168 0.8 0 0
0.487794 0.073586 0.238133 0.8 0 0
0.423196 0.287451 0.574406 0.8 0 0
0.509071 0.206545 0.744032 0.8 0 0
0.486901 0.191267 0.237255 0.8 0 0
0.534221 0.217471 0.437366 0.8 0 0
0.904794 0.284656 0.471194 0.8 0 0
0.452790 0.106955 0.502017 0.8 0 0
0.611465 0.233302 0.815148 0.8 0 0
0.447574 0.187084 0.275524 0.8 0 0
0.519133 0.279973 0.447072 0.8 0 0
0.574595 0.380749 0.562630 0.8 0 0
0.504926 0.203938 0.724105 0.8 0 0
0.481560 0.234293 0.372824 0.8 0 0
0.448566 0.104480 0.626603 0.8 0 0
0.443328 0.123946 0.251921 0.8 0 0
0.772894 0.282327 0.460359 0.8 0 0
0.513215 0.319816 0.448388 0.8 0 0
0.614293 0.052708 0.529945 0.8 0 0
0.495069 0.127051 0.245306 0.8 0 0
0.525847 0.344762 0.436357 0.8 0 0
0.491071 0.207307 0.675733 0.8 0 0
0.275016 0.281163 0.832541 0.8 0 0
0.491538 0.168494 0.789511 0.8 0 0
0.394989 0.198273 0.795311 0.8 0 0
0.526470 0.227873 0.610423 0.8 0 0
0.612047 0.242394 0.845558 0.8 0 0
0.405122 0.375369 0.447795 0.8 0 0
0.468480 0.381103 0.438286 0.8 0 0
0.446893 0.184067 0.548617 0.8 0 0
0.451922 0.209706 0.476523 0.8 0 0
0.486253 0.221468 0.372972 0.8 0 0
0.609920 0.236800 0.809762 0.8 0 0
0.437876 0.198265 0.825340 0.8 0 0
0.558702 0.123572 0.298461 0.8 0 0
0.640119 0.375088 0.195376 0.8 0 0
0.487030 0.285230 0.483592 0.8 0 0
0.591754 0.105058 0.498021 0.8 0 0
0.444601 0.228136 0.437826 0.8 0 0
0.540190 0.230206 0.359356 0.8 0 0
0.417302 0.282884 0.538450 0.8 0 0
0.448801 0.366755 0.441552 0.8 0 0
0.445420 0.098478 0.506345 0.8 0 0
0.471809 0.237467 0.358932 0.8 0 0
0.244899 0.283302 0.836774 0.8 0 0
0.497525 0.322146 0.421654 0.8 0 0
0.704933 0.380228 0.070227 0.8 0 0
0.509488 0.370560 0.468899 0.8 0 0
0.538745 0.236805 0.584785 0.8 0 0
0.463515 0.140651 0.259838 0.8 0 0
0.499999 0.082214 0.296957 0.8 0 0
0.274688 0.376254 0.463338 0.8 0 0
0.472689 0.205967 0.626039 0.8 0 0
0.467266 0.083626 0.524393 0.8 0 0
0.538630 0.166428 0.226490 0.8 0 0
0.633074 0.286778 0.452008 0.8 0 0
0.459018 0.111277 0.249343 0.8 0 0
0.395479 0.171043 0.772870 0.8 0 0
0.533313 0.203200 0.272702 0.8 0 0
0.509702 0.088441 0.625994 0.8 0 0
0.451172 0.191972 0.290046 0.8 0 0
0.385834 0.029644 0.502641 0.8 0 0
0.545571 0.194062 0.790143 0.8 0 0
0.443944 0.102607 0.325508 0.8 0 0
0.436510 0.106455 0.497775 0.8 0 0
0.442500 0.123109 0.308668 0.8 0 0
0.468457 0.273079 0.503634 0.8 0 0
0.533988 0.365722 0.497479 0.8 0 0
0.453638 0.088688 0.349994 0.8 0 0
0.440550 0.154776 0.262827 0.8 0 0
0.617776 0.378408 0.186955 0.8 0 0
0.452186 0.234721 0.367398 0.8 0 0
0.541903 0.258355 0.437054 0.8 0 0
0.729323 0.377957 0.854325 0.8 0 0
0.507319 0.262948 0.392320 0.8 0 0
0.397895 0.199242 0.814213 0.8 0 0
0.422863 0.195781 0.791102 0.8 0 0
0.572776 0.098658 0.406675 0.8 0 0
0.713722 0.376220 0.037974 0.8 0 0
0.446476 0.102473 0.287336 0.8 0 0
0.470719 0.135462 0.251897 0.8 0 0
0.554118 0.063166 0.312615 0.8 0 0
0.491479 0.192840 0.851731 0.8 0 0
0.705202 0.376193 0.764365 0.8 0 0
0.453667 0.198336 0.519674 0.8 0 0
0.615212 0.168042 0.867469 0.8 0 0
0.478935 0.192800 0.843447 0.8 0 0
0.469720 0.248004 0.581765 0.8 0 0
0.606439 0.150365 0.776939 0.8 0 0
0.605185 0.244311 0.787255 0.8 0 0
0.383546 0.375179 0.441659 0.8 0 0
0.548697 0.261327 0.422136 0.8 0 0
0.420089 0.286650 0.288525 0.8 0 0
0.721298 0.380976 0.055942 0.8 0 0
0.547298 0.084646 0.401044 0.8 0 0
0.546633 0.211892 0.470487 0.8 0 0
0.551930 0.120642 0.641138 0.8 0 0
0.325746 0.379890 0.457500 0.8 0 0
0.536969 0.097144 0.253059 0.8 0 0
0.545236 0.144525 0.239411 0.8 0 0
0.799540 0.283466 0.474695 0.8 0 0
0.462364 0.380972 0.435069 0.8 0 0
0.467572 0.223175 0.598792 0.8 0 0
0.875958 0.286399 0.454835 0.8 0 0
0.603101 0.203636 0.783591 0.8 0 0
0.386517 0.233591 0.860323 0.8 0 0
0.542204 0.245176 0.511103 0.8 0 0
0.525468 0.205374 0.675071 0.8 0 0
0.460889 0.085206 0.474506 0.8 0 0
0.389854 0.207704 0.848449 0.8 0 0
0.406596 0.196118 0.841825 0.8 0 0
0.502003 0.171645 0.803029 0.8 0 0
0.444589 0.164509 0.369923 0.8 0 0
0.553583 0.220555 0.496452 0.8 0 0
0.541635 0.174654 0.232855 0.8 0 0
0.532057 0.148908 0.218737 0.8 0 0
0.482150 0.106955 0.384252 0.8 0 0
0.393825 0.190675 0.779206 0.8 0 0
0.555641 0.166388 0.464050 0.8 0 0
0.532043 0.208199 0.507678 0.8 0 0
0.412416 0.284734 0.240307 0.8 0 0
0.548094 0.214241 0.513091 0.8 0 0
0.445098 0.085737 0.449222 0.8 0 0
0.444164 0.069532 0.326794 0.8 0 0
0.442898 0.147054 0.400756 0.8 0 0
0.542311 0.199541 0.808081 0.8 0 0
0.442801 0.125814 0.524323 0.8 0 0
0.534397 0.380610 0.511550 0.8 0 0
0.484314 0.218177 0.659600 0.8 0 0
0.499114 0.287305 0.432180 0.8 0 0
0.472717 0.262064 0.452921 0.8 0 0
0.532878 0.120279 0.259046 0.8 0 0
0.551614 0.381216 0.353475 0.8 0 0
0.386908 0.375089 0.442111 0.8 0 0
0.604738 0.175290 0.789379 0.8 0 0
0.463116 0.204119 0.605760 0.8 0 0
0.393745 0.197072 0.779949 0.8 0 0
0.857749 0.284030 0.474905 0.8 0 0
0.560492 0.374840 0.339154 0.8 0 0
0.346158 0.282608 0.138596 0.8 0 0
0.459042 0.106955 0.380626 0.8 0 0
0.555976 0.164035 0.595416 0.8 0 0
0.441834 0.117819 0.480162 0.8 0 0
0.541343 0.106955 0.369636 0.8 0 0
0.747270 0.377076 0.813796 0.8 0 0
0.489685 0.257809 0.528991 0.8 0 0
0.182188 0.381150 0.442563 0.8 0 0
0.070582 0.379310 0.462519 0.8 0 0
0.517672 0.185685 0.794600 0.8 0 0
0.172498 0.379201 0.463541 0.8 0 0
0.601683 0.074049 0.508952 0.8 0 0
0.497648 0.204403 0.279435 0.8 0 0
0.498590 0.314872 0.461642 0.8 0 0
0.388897 0.189525 0.858510 0.8 0 0
0.312792 0.375588 0.454230 0.8 0 0
0.395409 0.233608 0.790689 0.8 0 0
0.557708 0.145056 0.381094 0.8 0 0
0.472177 0.165576 0.744499 0.8 0 0
0.495793 0.258664 0.517603 0.8 0 0
0.442620 0.141822 0.611602 0.8 0 0
0.559162 0.377967 0.534120 0.8 0 0
0.499826 0.322558 0.450656 0.8 0 0
0.568699 0.087298 0.430242 0.8 0 0
0.812747 0.286308 0.455749 0.8 0 0
0.832683 0.281123 0.444656 0.8 0 0
0.677667 0.378473 0.084429 0.8 0 0
0.644804 0.380809 0.686118 0.8 0 0
0.270212 0.376312 0.464137 0.8 0 0
0.301702 0.375369 0.451188 0.8 0 0
0.499017 0.106955 0.244217 0.8 0 0
0.442383 0.138008 0.388071 0.8 0 0
0.170276 0.378455 0.470546 0.8 0 0
0.570636 0.380664 0.309619 0.8 0 0
0.473467 0.383363 0.451981 0.8 0 0
0.456453 0.087112 0.416518 0.8 0 0
0.520917 0.262835 0.388013 0.8 0 0
0.386338 0.169602 0.851714 0.8 0 0
0.544540 0.215271 0.334484 0.8 0 0
0.541981 0.106955 0.399067 0.8 0 0
0.552419 0.249543 0.470366 0.8 0 0
0.773789 0.282125 0.457599 0.8 0 0
0.390915 0.043954 0.505821 0.8 0 0
0.466691 0.178871 0.733012 0.8 0 0
0.955073 0.284703 0.470753 0.8 0 0
0.506945 0.258162 0.524947 0.8 0 0
0.548783 0.179283 0.242338 0.8 0 0
0.610463 0.223610 0.815468 0.8 0 0
0.470804 0.246927 0.377679 0.8 0 0
0.558239 0.134485 0.391681 0.8 0 0
0.452604 0.097086 0.277367 0.8 0 0
0.460219 0.106955 0.409425 0.8 0 0
0.451733 0.031522 0.334512 0.8 0 0
0.518114 0.106955 0.547385 0.8 0 0
0.478863 0.209281 0.646038 0.8 0 0
0.519403 0.082350 0.402945 0.8 0 0
0.499157 0.081947 0.472691 0.8 0 0
0.465048 0.286164 0.494272 0.8 0 0
0.495981 0.203938 0.706045 0.8 0 0
0.440974 0.134945 0.261442 0.8 0 0
0.687552 0.381083 0.773469 0.8 0 0
0.515238 0.082172 0.584761 0.8 0 0
0.447203 0.056261 0.325182 0.8 0 0
0.721071 0.374907 0.829142 0.8 0 0
0.549958 0.213008 0.330742 0.8 0 0
0.483187 0.140544 0.707745 0.8 0 0
0.608554 0.215549 0.796018 0.8 0 0
0.558361 0.135229 0.272529 0.8 0 0
0.568234 0.282848 0.449986 0.8 0 0
0.460586 0.084646 0.403984 0.8 0 0
0.452468 0.239066 0.362457 0.8 0 0
0.525175 0.116890 0.218334 0.8 0 0
0.610933 0.379292 0.215451 0.8 0 0
0.478630 0.267318 0.481770 0.8 0 0
0.461848 0.161757 0.229450 0.8 0 0
0.464660 0.175184 0.729738 0.8 0 0
0.642517 0.377013 0.632015 0.8 0 0
0.550207 0.210355 0.431180 0.8 0 0
0.519484 0.185837 0.788349 0.8 0 0
0.541178 0.104225 0.240512 0.8 0 0
0.498558 0.081954 0.502459 0.8 0 0
0.443523 0.154900 0.371029 0.8 0 0
0.311212 0.281268 0.767492 0.8 0 0
0.517753 0.094599 0.244276 0.8 0 0
0.681289 0.286469 0.454676 0.8 0 0
0.558049 0.138698 0.501484 0.8 0 0
0.611164 0.163968 0.824433 0.8 0 0
0.459752 0.214551 0.505601 0.8 0 0
0.519353 0.232045 0.379468 0.8 0 0
0.502070 0.133150 0.715685 0.8 0 0
0.914578 0.283287 0.473062 0.8 0 0
0.776475 0.281477 0.449047 0.8 0 0
0.440387 0.137715 0.522542 0.8 0 0
0.532097 0.215258 0.434487 0.8 0 0
0.529924 0.209344 0.293254 0.8 0 0
0.469488 0.241401 0.601353 0.8 0 0
0.469992 0.243421 0.597377 0.8 0 0
0.540759 0.263250 0.427135 0.8 0 0
0.450666 0.027930 0.323175 0.8 0 0
0.538568 0.382501 0.384263 0.8 0 0
0.152699 0.376233 0.462586 0.8 0 0
0.558150 0.136453 0.527488 0.8 0 0
0.556406 0.160103 0.351253 0.8 0 0
0.481905 0.283189 0.428156 0.8 0 0
0.356437 0.287498 0.194750 0.8 0 0
0.509746 0.311999 0.454420 0.8 0 0
0.537072 0.111593 0.226989 0.8 0 0
0.531233 0.106955 0.593502 0.8 0 0
0.425787 0.283642 0.328223 0.8 0 0
0.491017 0.186638 0.232476 0.8 0 0
0.662607 0.377795 0.664970 0.8 0 0
0.436615 0.135004 0.413348 0.8 0 0
0.547856 0.192630 0.377893 0.8 0 0
0.647960 0.375037 0.183134 0.8 0 0
0.392683 0.171669 0.819262 0.8 0 0
0.556069 0.241641 0.367975 0.8 0 0
0.530633 0.083349 0.392355 0.8 0 0
0.568706 0.090999 0.454930 0.8 0 0
0.558872 0.127374 0.466205 0.8 0 0
0.460353 0.106955 0.397668 0.8 0 0
0.457653 0.198301 0.661929 0.8 0 0
0.433553 0.372661 0.452230 0.8 0 0
0.466892 0.262044 0.443886 0.8 0 0
0.581949 0.191989 0.792350 0.8 0 0
0.495419 0.346372 0.422990 0.8 0 0
0.610433 0.221330 0.815163 0.8 0 0
0.278522 0.376829 0.471396 0.8 0 0
0.534926 0.140404 0.279022 0.8 0 0
0.462278 0.173315 0.720962 0.8 0 0
0.540167 0.190051 0.821787 0.8 0 0
0.519766 0.127077 0.673871 0.8 0 0
0.493261 0.208075 0.728704 0.8 0 0
0.697964 0.376674 0.738748 0.8 0 0
0.427843 0.104143 0.394663 0.8 0 0
0.602950 0.376681 0.572041 0.8 0 0
0.529133 0.237625 0.358563 0.8 0 0
0.713255 0.375483 0.797078 0.8 0 0
0.462737 0.103897 0.236529 0.8 0 0
0.572287 0.105591 0.399232 0.8 0 0
0.520429 0.251424 0.328973 0.8 0 0
0.395974 0.168497 0.785099 0.8 0 0
0.411864 0.076220 0.503235 0.8 0 0
0.513498 0.283934 0.449649 0.8 0 0
0.499567 0.087889 0.624899 0.8 0 0
0.463096 0.106955 0.465479 0.8 0 0
0.626678 0.379768 0.196964 0.8 0 0
0.515632 0.106955 0.410296 0.8 0 0
0.666981 0.380935 0.160732 0.8 0 0
0.511471 0.082068 0.498930 0.8 0 0
0.460725 0.112689 0.313212 0.8 0 0
0.432880 0.374219 0.436408 0.8 0 0
0.547190 0.092131 0.298392 0.8 0 0
0.556348 0.140635 0.635097 0.8 0 0
0.605438 0.156967 0.773023 0.8 0 0
0.552524 0.190202 0.298045 0.8 0 0
0.527573 0.082973 0.571968 0.8 0 0
0.477387 0.367100 0.426448 0.8 0 0
0.534366 0.203895 0.637438 0.8 0 0
0.508335 0.201666 0.858940 0.8 0 0
0.555491 0.192249 0.485624 0.8 0 0
0.890882 0.281149 0.444939 0.8 0 0
0.442508 0.140783 0.469003 0.8 0 0
0.462878 0.256145 0.512252 0.8 0 0
0.605485 0.120084 0.513263 0.8 0 0
0.480145 0.106955 0.599880 0.8 0 0
0.467090 0.210321 0.327235 0.8 0 0
0.391517 0.214777 0.797916 0.8 0 0
0.558605 0.117197 0.557113 0.8 0 0
0.538886 0.084646 0.349822 0.8 0 0
0.471207 0.252642 0.563278 0.8 0 0
0.547894 0.105131 0.253059 0.8 0 0
0.652979 0.285709 0.461649 0.8 0 0
0.544405 0.144525 0.229389 0.8 0 0
0.464097 0.281468 0.376603 0.8 0 0
0.342080 0.287026 0.161087 0.8 0 0
0.551481 0.093237 0.382753 0.8 0 0
0.537601 0.281667 0.453222 0.8 0 0
0.666206 0.379824 0.705438 0.8 0 0
0.726130 0.378811 0.065096 0.8 0 0
0.607100 0.247909 0.801063 0.8 0 0
0.521352 0.205451 0.706119 0.8 0 0
0.455057 0.160278 0.242437 0.8 0 0
0.484157 0.194527 0.848175 0.8 0 0
0.505346 0.082667 0.600317 0.8 0 0
0.551040 0.188213 0.529433 0.8 0 0
0.556046 0.067295 0.323393 0.8 0 0
0.450346 0.284030 0.332898 0.8 0 0
0.391336 0.052561 0.517904 0.8 0 0
0.571174 0.121365 0.406581 0.8 0 0
0.444535 0.220175 0.388870 0.8 0 0
0.369276 0.286184 0.681043 0.8 0 0
0.465452 0.252231 0.426673 0.8 0 0
0.331381 0.381189 0.443012 0.8 0 0
0.490806 0.106955 0.354830 0.8 0 0
0.468022 0.195422 0.790683 0.8 0 0
0.556914 0.222615 0.408756 0.8 0 0
0.490804 0.086739 0.621092 0.8 0 0
0.537859 0.084801 0.414187 0.8 0 0
0.476126 0.141659 0.294654 0.8 0 0
0.592796 0.376007 0.252353 0.8 0 0
0.466237 0.083869 0.373881 0.8 0 0
0.387928 0.286455 0.229645 0.8 0 0
0.550640 0.092090 0.488434 0.8 0 0
0.689549 0.375427 0.123176 0.8 0 0
0.506758 0.106955 0.226384 0.8 0 0
0.442397 0.109708 0.592069 0.8 0 0
0.514444 0.283700 0.420123 0.8 0 0
0.469409 0.171778 0.243225 0.8 0 0
0.511783 0.170967 0.791275 0.8 0 0
0.614422 0.218680 0.865318 0.8 0 0
0.389377 0.074790 0.517755 0.8 0 0
0.722673 0.375126 0.822810 0.8 0 0
0.611460 0.380568 0.237635 0.8 0 0
0.608105 0.233219 0.823927 0.8 0 0
0.486675 0.082312 0.327375 0.8 0 0
0.457156 0.260244 0.394318 0.8 0 0
0.555250 0.106955 0.458934 0.8 0 0
0.531053 0.234511 0.613839 0.8 0 0
0.443091 0.149802 0.393414 0.8 0 0
0.444363 0.162931 0.509153 0.8 0 0
0.591490 0.376894 0.545946 0.8 0 0
0.454450 0.094135 0.620373 0.8 0 0
0.125400 0.375108 0.447746 0.8 0 0
0.494305 0.206659 0.758172 0.8 0 0
0.807860 0.287506 0.444605 0.8 0 0
0.555086 0.094149 0.507255 0.8 0 0
0.437224 0.283066 0.281895 0.8 0 0
0.872841 0.282509 0.462657 0.8 0 0
0.460745 0.085242 0.366266 0.8 0 0
0.471811 0.168775 0.232344 0.8 0 0
0.230918 0.381205 0.443355 0.8 0 0
0.495527 0.082456 0.598386 0.8 0 0
0.947122 0.283247 0.472372 0.8 0 0
0.620223 0.058012 0.515998 0.8 0 0
0.050698 0.381176 0.442734 0.8 0 0
0.622384 0.376414 0.613644 0.8 0 0
0.555398 0.168229 0.597081 0.8 0 0
0.555792 0.165293 0.394795 0.8 0 0
0.448816 0.224722 0.506046 0.8 0 0
0.521520 0.382701 0.397804 0.8 0 0
0.505388 0.319309 0.454733 0.8 0 0
0.390248 0.200185 0.834194 0.8 0 0
0.442109 0.133069 0.312947 0.8 0 0
0.499271 0.126720 0.682308 0.8 0 0
0.441438 0.134445 0.277094 0.8 0 0
0.556748 0.156814 0.342702 0.8 0 0
0.558564 0.230511 0.445116 0.8 0 0
0.353919 0.379165 0.464160 0.8 0 0
0.499466 0.070261 0.246933 0.8 0 0
0.552393 0.096052 0.606963 0.8 0 0
0.395514 0.176493 0.773453 0.8 0 0
0.750082 0.281728 0.440641 0.8 0 0
0.499018 0.185509 0.851868 0.8 0 0
0.397391 0.123140 0.512161 0.8 0 0
0.454816 0.199715 0.335520 0.8 0 0
0.488536 0.231906 0.599752 0.8 0 0
0.483715 0.261524 0.466553 0.8 0 0
0.615816 0.064453 0.511621 0.8 0 0
0.506716 0.106955 0.447748 0.8 0 0
0.750272 0.283270 0.473634 0.8 0 0
0.509527 0.206242 0.760782 0.8 0 0
0.525844 0.370018 0.504324 0.8 0 0
0.393972 0.281545 0.616795 0.8 0 0
0.541003 0.108082 0.236536 0.8 0 0
0.457566 0.098934 0.224661 0.8 0 0
0.522499 0.361419 0.485186 0.8 0 0
0.807839 0.286701 0.452195 0.8 0 0
0.593806 0.381203 0.283868 0.8 0 0
0.457810 0.135562 0.666575 0.8 0 0
0.522756 0.261703 0.461710 0.8 0 0
0.430978 0.085421 0.510352 0.8 0 0
0.550619 0.106955 0.450061 0.8 0 0
0.474259 0.082774 0.381924 0.8 0 0
0.482871 0.324780 0.456943 0.8 0 0
0.449943 0.248897 0.412336 0.8 0 0
0.524776 0.224940 0.379468 0.8 0 0
0.515528 0.085402 0.287204 0.8 0 0
0.375086 0.281741 0.211595 0.8 0 0
0.558717 0.120836 0.558562 0.8 0 0
0.489762 0.129181 0.212924 0.8 0 0
0.524608 0.133296 0.677849 0.8 0 0
0.503914 0.356503 0.439403 0.8 0 0
0.551326 0.188964 0.371003 0.8 0 0
0.540517 0.373619 0.390112 0.8 0 0
0.518193 0.259995 0.496903 0.8 0 0
0.511903 0.207086 0.688255 0.8 0 0
0.445117 0.228719 0.326805 0.8 0 0
0.719697 0.376817 0.075524 0.8 0 0
0.687450 0.378674 0.071266 0.8 0 0
0.441895 0.116442 0.404489 0.8 0 0
0.393489 0.282530 0.221855 0.8 0 0
0.546306 0.156026 0.677378 0.8 0 0
0.609631 0.041505 0.523298 0.8 0 0
0.523157 0.206510 0.315695 0.8 0 0
0.603396 0.380607 0.272877 0.8 0 0
0.552509 0.172768 0.242613 0.8 0 0
0.441751 0.120508 0.422838 0.8 0 0
0.472612 0.210530 0.331426 0.8 0 0
0.557611 0.146442 0.524897 0.8 0 0
0.924921 0.286107 0.457572 0.8 0 0
0.514451 0.212607 0.664047 0.8 0 0
0.326220 0.375154 0.448353 0.8 0 0
0.450862 0.091033 0.511913 0.8 0 0
0.430791 0.127122 0.371592 0.8 0 0
0.044158 0.375296 0.441098 0.8 0 0
0.544107 0.205383 0.453799 0.8 0 0
0.350773 0.287383 0.699387 0.8 0 0
0.419152 0.093267 0.511274 0.8 0 0
0.570941 0.124494 0.419139 0.8 0 0
0.489059 0.259429 0.506433 0.8 0 0
0.374127 0.281439 0.217927 0.8 0 0
0.420256 0.199454 0.802227 0.8 0 0
0.466137 0.211048 0.590714 0.8 0 0
0.748934 0.376699 0.841204 0.8 0 0
0.349590 0.281295 0.708704 0.8 0 0
0.386964 0.281898 0.228034 0.8 0 0
0.473395 0.284431 0.436565 0.8 0 0
0.622774 0.285697 0.461844 0.8 0 0
0.557399 0.105430 0.391311 0.8 0 0
0.453716 0.121960 0.650476 0.8 0 0
0.495275 0.244060 0.618791 0.8 0 0
0.462504 0.192180 0.714179 0.8 0 0
0.445425 0.046612 0.322422 0.8 0 0
0.316689 0.375351 0.450959 0.8 0 0
0.045411 0.379831 0.457631 0.8 0 0
0.380011 0.047664 0.524437 0.8 0 0
0.548997 0.196528 0.322004 0.8 0 0
0.535793 0.106955 0.427569 0.8 0 0
0.552328 0.248627 0.475497 0.8 0 0
0.476983 0.214935 0.645306 0.8 0 0
0.474959 0.211215 0.322778 0.8 0 0
0.555624 0.226232 0.336434 0.8 0 0
0.524719 0.190236 0.238618 0.8 0 0
0.488774 0.308910 0.453306 0.8 0 0
0.525943 0.347438 0.433830 0.8 0 0
0.460282 0.085358 0.408284 0.8 0 0
0.521350 0.185960 0.781917 0.8 0 0
0.541203 0.270254 0.443297 0.8 0 0
0.481797 0.233392 0.358387 0.8 0 0
0.478233 0.383138 0.440420 0.8 0 0
0.460298 0.187699 0.711376 0.8 0 0
0.558540 0.115266 0.444213 0.8 0 0
0.469014 0.226544 0.412284 0.8 0 0
0.752727 0.376847 0.829409 0.8 0 0
0.474172 0.189737 0.818410 0.8 0 0
0.443441 0.154118 0.397457 0.8 0 0
0.557202 0.104224 0.548303 0.8 0 0
0.442772 0.145640 0.604799 0.8 0 0
0.535478 0.370095 0.380594 0.8 0 0
0.385515 0.380979 0.441707 0.8 0 0
0.529707 0.083235 0.548453 0.8 0 0
0.120345 0.376351 0.464136 0.8 0 0
0.556805 0.147684 0.627303 0.8 0 0
0.733863 0.285038 0.467610 0.8 0 0
0.473749 0.206010 0.634651 0.8 0 0
0.558712 0.120226 0.515286 0.8 0 0
0.433382 0.286735 0.312940 0.8 0 0
0.391259 0.072987 0.516809 0.8 0 0
0.582495 0.105851 0.516776 0.8 0 0
0.445346 0.169614 0.497774 0.8 0 0
0.511679 0.180848 0.227719 0.8 0 0
0.685141 0.375763 0.740978 0.8 0 0
0.351992 0.284612 0.713414 0.8 0 0
0.463656 0.106955 0.491916 0.8 0 0
0.102662 0.380011 0.439400 0.8 0 0
0.385317 0.186506 0.865293 0.8 0 0
0.536401 0.222446 0.371716 0.8 0 0
0.534366 0.229981 0.379468 0.8 0 0
0.543474 0.375564 0.361079 0.8 0 0
0.728208 0.282898 0.468543 0.8 0 0
0.623980 0.059808 0.510975 0.8 0 0
0.545846 0.261157 0.416893 0.8 0 0
0.286484 0.375684 0.455438 0.8 0 0
0.446301 0.363283 0.443518 0.8 0 0
0.543140 0.090699 0.615652 0.8 0 0
0.032327 0.376652 0.463059 0.8 0 0
0.580374 0.091472 0.484846 0.8 0 0
0.570128 0.126142 0.430311 0.8 0 0
0.558425 0.130140 0.411048 0.8 0 0
0.604622 0.244374 0.796356 0.8 0 0
0.738434 0.285797 0.460600 0.8 0 0
0.566561 0.380586 0.315218 0.8 0 0
0.430107 0.095111 0.365890 0.8 0 0
0.431777 0.281831 0.306837 0.8 0 0
0.699655 0.375985 0.760249 0.8 0 0
0.552442 0.175513 0.389569 0.8 0 0
0.444237 0.101621 0.492597 0.8 0 0
0.551312 0.074119 0.326329 0.8 0 0
0.488488 0.262856 0.420065 0.8 0 0
0.605015 0.066434 0.513157 0.8 0 0
0.499386 0.385826 0.445212 0.8 0 0
0.500367 0.287520 0.452541 0.8 0 0
0.584099 0.376055 0.265912 0.8 0 0
0.438713 0.285203 0.562815 0.8 0 0
0.471869 0.120279 0.250869 0.8 0 0
0.444797 0.179123 0.577167 0.8 0 0
0.545757 0.155340 0.300105 0.8 0 0
0.661721 0.285164 0.466573 0.8 0 0
0.539396 0.246858 0.365814 0.8 0 0
0.485633 0.219585 0.660459 0.8 0 0
0.497141 0.212780 0.840129 0.8 0 0
0.271628 0.282448 0.804918 0.8 0 0
0.477619 0.211498 0.633026 0.8 0 0
0.445238 0.106955 0.566262 0.8 0 0
0.544530 0.243431 0.365828 0.8 0 0
0.490457 0.288464 0.449515 0.8 0 0
0.442288 0.135911 0.425583 0.8 0 0
0.536372 0.216435 0.355088 0.8 0 0
0.454055 0.241502 0.355740 0.8 0 0
0.608229 0.144740 0.792575 0.8 0 0
0.428923 0.109352 0.368455 0.8 0 0
0.515205 0.294637 0.428744 0.8 0 0
0.577178 0.198041 0.827597 0.8 0 0
0.474515 0.317185 0.445041 0.8 0 0
0.443656 0.116280 0.268876 0.8 0 0
0.622199 0.375881 0.205476 0.8 0 0
0.535279 0.213734 0.430780 0.8 0 0
0.395736 0.134161 0.778350 0.8 0 0
0.320666 0.282823 0.088754 0.8 0 0
0.329712 0.281570 0.137509 0.8 0 0
0.950629 0.283361 0.473919 0.8 0 0
0.533184 0.211558 0.469305 0.8 0 0
0.460986 0.113594 0.649902 0.8 0 0
0.454009 0.120279 0.300927 0.8 0 0
0.539423 0.203388 0.462654 0.8 0 0
0.512746 0.137650 0.219117 0.8 0 0
0.510283 0.156152 0.245458 0.8 0 0
0.513649 0.220786 0.637380 0.8 0 0
0.885721 0.282695 0.465099 0.8 0 0
0.466728 0.262732 0.433489 0.8 0 0
0.453782 0.248139 0.416528 0.8 0 0
0.453275 0.241808 0.412182 0.8 0 0
0.483118 0.096248 0.238122 0.8 0 0
0.489899 0.106955 0.341460 0.8 0 0
0.534401 0.212432 0.374931 0.8 0 0
0.548033 0.253440 0.420265 0.8 0 0
0.446459 0.176540 0.443347 0.8 0 0
0.512049 0.082075 0.364770 0.8 0 0
0.430121 0.199536 0.808270 0.8 0 0
0.536093 0.210627 0.320407 0.8 0 0
0.494158 0.082006 0.429001 0.8 0 0
0.555541 0.167106 0.535146 0.8 0 0
0.575562 0.375640 0.553446 0.8 0 0
0.459500 0.159960 0.229355 0.8 0 0
0.523592 0.210790 0.391759 0.8 0 0
0.510816 0.258755 0.516271 0.8 0 0
0.504666 0.222972 0.663480 0.8 0 0
0.610973 0.146605 0.832731 0.8 0 0
0.461522 0.144525 0.237817 0.8 0 0
0.482250 0.202646 0.768768 0.8 0 0
0.631747 0.374963 0.213104 0.8 0 0
0.547504 0.175585 0.684873 0.8 0 0
0.661189 0.375334 0.152380 0.8 0 0
0.557683 0.107169 0.455506 0.8 0 0
0.455298 0.106955 0.478262 0.8 0 0
0.493261 0.204722 0.710571 0.8 0 0
0.470112 0.075066 0.257148 0.8 0 0
0.728602 0.375069 0.042586 0.8 0 0
0.460412 0.372479 0.446065 0.8 0 0
0.445931 0.038660 0.330739 0.8 0 0
0.502979 0.300365 0.437999 0.8 0 0
0.529200 0.382877 0.390950 0.8 0 0
0.528875 0.209793 0.287974 0.8 0 0
0.545882 0.256609 0.407665 0.8 0 0
0.475643 0.384979 0.441000 0.8 0 0
0.517569 0.377291 0.427129 0.8 0 0
0.475124 0.203497 0.722753 0.8 0 0
0.537291 0.252865 0.324473 0.8 0 0
0.450199 0.091594 0.431098 0.8 0 0
0.294457 0.285493 0.050257 0.8 0 0
0.505292 0.275949 0.430497 0.8 0 0
0.573467 0.197058 0.835388 0.8 0 0
0.727550 0.380652 0.827267 0.8 0 0
0.444881 0.099042 0.513297 0.8 0 0
0.544002 0.200361 0.451792 0.8 0 0
0.519108 0.213658 0.629648 0.8 0 0
0.482221 0.120279 0.263145 0.8 0 0
0.487838 0.120406 0.233388 0.8 0 0
0.301018 0.286389 0.078477 0.8 0 0
0.554225 0.220388 0.414397 0.8 0 0
0.487982 0.149967 0.229335 0.8 0 0
0.410550 0.282717 0.245883 0.8 0 0
0.549770 0.091215 0.504686 0.8 0 0
0.354509 0.376465 0.466681 0.8 0 0
0.457140 0.260236 0.394252 0.8 0 0
0.340685 0.287053 0.159181 0.8 0 0
0.456419 0.120279 0.272047 0.8 0 0
0.610515 0.199073 0.816018 0.8 0 0
0.314173 0.284556 0.066765 0.8 0 0
0.327626 0.286357 0.720984 0.8 0 0
0.459335 0.167055 0.707464 0.8 0 0
0.520496 0.082397 0.356947 0.8 0 0
0.572527 0.102192 0.448171 0.8 0 0
0.655212 0.287175 0.448343 0.8 0 0
0.555651 0.166311 0.468474 0.8 0 0
0.520994 0.377199 0.493519 0.8 0 0
0.345862 0.380114 0.455519 0.8 0 0
0.397173 0.168511 0.775264 0.8 0 0
0.569108 0.126992 0.452928 0.8 0 0
0.557286 0.133711 0.292523 0.8 0 0
0.532681 0.248057 0.576528 0.8 0 0
0.479525 0.267183 0.404566 0.8 0 0
0.443057 0.140942 0.302781 0.8 0 0
0.613578 0.228402 0.865516 0.8 0 0
0.370085 0.378060 0.474169 0.8 0 0
0.506186 0.257206 0.535890 0.8 0 0
0.429088 0.121785 0.386415 0.8 0 0
0.481179 0.207096 0.315167 0.8 0 0
0.562907 0.113469 0.475820 0.8 0 0
0.465612 0.260792 0.469467 0.8 0 0
0.266778 0.286854 0.835810 0.8 0 0
0.559703 0.137071 0.323392 0.8 0 0
0.453027 0.144525 0.232179 0.8 0 0
0.399045 0.073233 0.509748 0.8 0 0
0.519138 0.214790 0.353332 0.8 0 0
0.495227 0.132919 0.697580 0.8 0 0
0.553467 0.095944 0.559098 0.8 0 0
0.479402 0.345975 0.425740 0.8 0 0
0.475948 0.199586 0.806487 0.8 0 0
0.718877 0.376413 0.782247 0.8 0 0
0.435008 0.085447 0.490683 0.8 0 0
0.441894 0.116030 0.453734 0.8 0 0
0.471827 0.217463 0.628764 0.8 0 0
0.610215 0.202843 0.812878 0.8 0 0
0.474051 0.222996 0.378717 0.8 0 0
0.526643 0.378054 0.385470 0.8 0 0
0.558212 0.234878 0.404372 0.8 0 0
0.489110 0.082065 0.386711 0.8 0 0
0.471010 0.221500 0.368773 0.8 0 0
0.434421 0.283286 0.270975 0.8 0 0
0.607442 0.233533 0.786599 0.8 0 0
0.611051 0.239730 0.832621 0.8 0 0
0.577387 0.379191 0.271353 0.8 0 0
0.524944 0.212993 0.297425 0.8 0 0
0.492370 0.258181 0.524669 0.8 0 0
0.519951 0.198622 0.821716 0.8 0 0
0.539554 0.213809 0.364437 0.8 0 0
0.557091 0.120859 0.280940 0.8 0 0
0.510900 0.242262 0.624279 0.8 0 0
0.523809 0.348542 0.437054 0.8 0 0
0.578747 0.108519 0.519589 0.8 0 0
0.446765 0.065330 0.318074 0.8 0 0
0.572027 0.109285 0.439367 0.8 0 0
0.486993 0.253379 0.576153 0.8 0 0
0.503818 0.203637 0.256227 0.8 0 0
0.333691 0.287451 0.154344 0.8 0 0
0.479157 0.260398 0.490079 0.8 0 0
0.610404 0.163968 0.829535 0.8 0 0
0.533400 0.211906 0.392148 0.8 0 0
0.558678 0.123498 0.310046 0.8 0 0
0.552597 0.215312 0.354496 0.8 0 0
0.530231 0.205609 0.581654 0.8 0 0
0.474216 0.235997 0.357273 0.8 0 0
0.512359 0.378789 0.433617 0.8 0 0
0.476392 0.224498 0.597338 0.8 0 0
0.550474 0.055901 0.301494 0.8 0 0
0.521668 0.196012 0.775127 0.8 0 0
0.444970 0.120244 0.268575 0.8 0 0
0.550150 0.234098 0.373919 0.8 0 0
0.535014 0.190211 0.823465 0.8 0 0
0.431569 0.087304 0.448540 0.8 0 0
0.959686 0.285267 0.465464 0.8 0 0
0.441780 0.121059 0.306865 0.8 0 0
0.442383 0.138414 0.315819 0.8 0 0
0.555506 0.099783 0.454788 0.8 0 0
0.628704 0.282557 0.464275 0.8 0 0
0.518041 0.152659 0.245458 0.8 0 0
0.506285 0.184712 0.835248 0.8 0 0
0.385092 0.164618 0.871217 0.8 0 0
0.469633 0.140479 0.273408 0.8 0 0
0.422286 0.190358 0.796278 0.8 0 0
0.380746 0.034890 0.528493 0.8 0 0
0.552862 0.246918 0.479509 0.8 0 0
0.523300 0.106955 0.638316 0.8 0 0
0.460448 0.212061 0.335824 0.8 0 0
0.456959 0.106955 0.380788 0.8 0 0
0.539060 0.203235 0.468922 0.8 0 0
0.548840 0.172304 0.237561 0.8 0 0
0.442487 0.198006 0.827879 0.8 0 0
0.610546 0.144523 0.816298 0.8 0 0
0.446901 0.250257 0.410638 0.8 0 0
0.549806 0.192460 0.469235 0.8 0 0
0.447607 0.109358 0.260130 0.8 0 0
0.496556 0.085527 0.616706 0.8 0 0
0.558631 0.123274 0.432176 0.8 0 0
0.552270 0.183142 0.526590 0.8 0 0
0.425257 0.281957 0.292178 0.8 0 0
0.549914 0.234745 0.320927 0.8 0 0
0.569149 0.087533 0.446467 0.8 0 0
0.444340 0.231290 0.338799 0.8 0 0
0.491775 0.308608 0.434121 0.8 0 0
0.519690 0.214260 0.318382 0.8 0 0
0.555009 0.117186 0.267733 0.8 0 0
0.469532 0.093074 0.258760 0.8 0 0
0.400590 0.282454 0.626933 0.8 0 0
0.443730 0.119504 0.630033 0.8 0 0
0.615652 0.380401 0.627850 0.8 0 0
0.508917 0.082038 0.400941 0.8 0 0
0.512160 0.319440 0.443184 0.8 0 0
0.491032 0.206750 0.729584 0.8 0 0
0.441192 0.152538 0.543128 0.8 0 0
0.710170 0.376394 0.767659 0.8 0 0
0.552705 0.183529 0.515552 0.8 0 0
0.436443 0.085508 0.395816 0.8 0 0
0.515481 0.236202 0.363372 0.8 0 0
0.890598 0.286643 0.452544 0.8 0 0
0.819487 0.281164 0.443540 0.8 0 0
0.556352 0.160617 0.540895 0.8 0 0
0.534272 0.083944 0.486084 0.8 0 0
0.450454 0.234134 0.504777 0.8 0 0
0.392548 0.186791 0.787398 0.8 0 0
0.519390 0.211203 0.269475 0.8 0 0
0.576442 0.380952 0.582226 0.8 0 0
0.496385 0.106955 0.379085 0.8 0 0
0.517848 0.082284 0.489366 0.8 0 0
0.461412 0.211708 0.375119 0.8 0 0
0.442620 0.143111 0.446728 0.8 0 0
0.504430 0.237157 0.448432 0.8 0 0
0.683742 0.374907 0.127925 0.8 0 0
0.551100 0.165217 0.236373 0.8 0 0
0.512781 0.123716 0.243072 0.8 0 0
0.452237 0.216670 0.522882 0.8 0 0
0.547063 0.244454 0.318971 0.8 0 0
0.393788 0.179127 0.807738 0.8 0 0
0.558649 0.117720 0.477742 0.8 0 0
0.524147 0.291781 0.445885 0.8 0 0
0.530477 0.243391 0.597727 0.8 0 0
0.610095 0.166321 0.836247 0.8 0 0
0.439763 0.125587 0.535153 0.8 0 0
0.544645 0.084646 0.417484 0.8 0 0
0.506441 0.068938 0.264436 0.8 0 0
0.499486 0.207498 0.683474 0.8 0 0
0.497815 0.084059 0.610132 0.8 0 0
0.603242 0.215551 0.783108 0.8 0 0
0.446748 0.178538 0.454145 0.8 0 0
0.253348 0.285342 0.830680 0.8 0 0
0.500966 0.081944 0.345661 0.8 0 0
0.509940 0.132974 0.270063 0.8 0 0
0.471809 0.253278 0.324599 0.8 0 0
0.393216 0.135768 0.810950 0.8 0 0
0.441421 0.150980 0.524323 0.8 0 0
0.455841 0.190445 0.687674 0.8 0 0
0.649226 0.381195 0.705259 0.8 0 0
0.500958 0.320643 0.467817 0.8 0 0
0.687829 0.282620 0.464863 0.8 0 0
0.521945 0.144525 0.230602 0.8 0 0
0.468506 0.215631 0.365070 0.8 0 0
0.714189 0.376841 0.762454 0.8 0 0
0.488079 0.288933 0.429169 0.8 0 0
0.484795 0.187860 0.803352 0.8 0 0
0.496746 0.106955 0.542557 0.8 0 0
0.561872 0.381225 0.552665 0.8 0 0
0.523066 0.283733 0.437572 0.8 0 0
0.706090 0.378450 0.748745 0.8 0 0
0.492505 0.341274 0.455972 0.8 0 0
0.377048 0.056697 0.511235 0.8 0 0
0.546061 0.106955 0.561810 0.8 0 0
0.551184 0.144555 0.657684 0.8 0 0
0.460308 0.283509 0.525544 0.8 0 0
0.519883 0.174796 0.243817 0.8 0 0
0.714378 0.379018 0.773762 0.8 0 0
0.441073 0.189150 0.809827 0.8 0 0
0.558568 0.125357 0.369698 0.8 0 0
0.724266 0.380447 0.817716 0.8 0 0
0.883689 0.285689 0.461494 0.8 0 0
0.479240 0.195741 0.843833 0.8 0 0
0.496785 0.261031 0.478282 0.8 0 0
0.361590 0.282892 0.635860 0.8 0 0
0.533081 0.110533 0.314504 0.8 0 0
0.497360 0.120279 0.268659 0.8 0 0
0.603149 0.380379 0.248522 0.8 0 0
0.460411 0.203713 0.417230 0.8 0 0
0.474313 0.247713 0.331048 0.8 0 0
0.481393 0.106955 0.391208 0.8 0 0
0.127622 0.378530 0.469846 0.8 0 0
0.493806 0.261467 0.467899 0.8 0 0
0.441559 0.154595 0.272202 0.8 0 0
0.502719 0.206802 0.759972 0.8 0 0
0.406243 0.282785 0.236634 0.8 0 0
0.445773 0.142594 0.647931 0.8 0 0
0.571921 0.090106 0.383413 0.8 0 0
0.594460 0.378499 0.556152 0.8 0 0
0.485293 0.286293 0.487454 0.8 0 0
0.503119 0.227659 0.656226 0.8 0 0
0.464848 0.219596 0.427343 0.8 0 0
0.603732 0.380078 0.242072 0.8 0 0
0.604023 0.166276 0.776743 0.8 0 0
0.528886 0.212418 0.360325 0.8 0 0
0.370072 0.284996 0.231718 0.8 0 0
0.487453 0.260090 0.495296 0.8 0 0
0.614903 0.181300 0.870390 0.8 0 0
0.560959 0.109415 0.457372 0.8 0 0
0.444285 0.126427 0.290953 0.8 0 0
0.611345 0.216042 0.832820 0.8 0 0
0.542489 0.250420 0.511955 0.8 0 0
0.493531 0.175674 0.809598 0.8 0 0
0.485916 0.232423 0.366336 0.8 0 0
0.616917 0.070805 0.511746 0.8 0 0
0.488187 0.110871 0.254909 0.8 0 0
0.483676 0.204999 0.748559 0.8 0 0
0.441890 0.126185 0.277880 0.8 0 0
0.524133 0.105823 0.650643 0.8 0 0
0.551030 0.211490 0.407058 0.8 0 0
0.500852 0.266025 0.534901 0.8 0 0
0.518090 0.256630 0.358297 0.8 0 0
0.512781 0.125246 0.248843 0.8 0 0
0.463273 0.176474 0.725470 0.8 0 0
0.450712 0.198205 0.630246 0.8 0 0
0.128633 0.375623 0.454543 0.8 0 0
0.558241 0.134386 0.561937 0.8 0 0
0.503701 0.265542 0.604268 0.8 0 0
0.526163 0.219374 0.638585 0.8 0 0
0.619691 0.052881 0.527403 0.8 0 0
0.546094 0.247015 0.513569 0.8 0 0
0.534986 0.252365 0.546629 0.8 0 0
0.447469 0.190411 0.586415 0.8 0 0
0.613460 0.234201 0.849298 0.8 0 0
0.541745 0.199437 0.811592 0.8 0 0
0.327091 0.286481 0.154214 0.8 0 0
0.452905 0.237412 0.360547 0.8 0 0
0.536942 0.375531 0.372573 0.8 0 0
0.419404 0.096783 0.515719 0.8 0 0
0.600200 0.380617 0.257898 0.8 0 0
0.547926 0.195707 0.488231 0.8 0 0
0.530339 0.221242 0.373830 0.8 0 0
0.862678 0.284242 0.474433 0.8 0 0
0.436892 0.085395 0.369292 0.8 0 0
0.572776 0.375739 0.294082 0.8 0 0
0.552300 0.375509 0.361430 0.8 0 0
0.495807 0.106955 0.226498 0.8 0 0
0.445430 0.182451 0.536008 0.8 0 0
0.630968 0.282456 0.462855 0.8 0 0
0.526664 0.107190 0.224625 0.8 0 0
0.430255 0.286134 0.296686 0.8 0 0
0.630768 0.286003 0.459049 0.8 0 0
0.508833 0.127802 0.681227 0.8 0 0
0.447536 0.168758 0.241116 0.8 0 0
0.451275 0.197509 0.645683 0.8 0 0
0.550142 0.379167 0.317797 0.8 0 0
0.547889 0.085636 0.468243 0.8 0 0
0.614228 0.053769 0.500192 0.8 0 0
0.559823 0.163918 0.255251 0.8 0 0
0.458250 0.200127 0.282509 0.8 0 0
0.443027 0.229830 0.368084 0.8 0 0
0.548602 0.212761 0.323804 0.8 0 0
0.614531 0.150611 0.858534 0.8 0 0
0.607662 0.205925 0.819539 0.8 0 0
0.500810 0.106800 0.230297 0.8 0 0
0.649084 0.380911 0.708506 0.8 0 0
0.452300 0.100086 0.626892 0.8 0 0
0.386895 0.210769 0.868156 0.8 0 0
0.573021 0.095193 0.428795 0.8 0 0
0.665015 0.376180 0.123391 0.8 0 0
0.403649 0.282537 0.572180 0.8 0 0
0.522851 0.285686 0.450200 0.8 0 0
0.444087 0.102020 0.429481 0.8 0 0
0.356850 0.286415 0.671115 0.8 0 0
0.557713 0.116476 0.616955 0.8 0 0
0.719626 0.380572 0.812043 0.8 0 0
0.485674 0.106955 0.577397 0.8 0 0
0.565905 0.216997 0.445373 0.8 0 0
0.494727 0.251360 0.589400 0.8 0 0
0.554844 0.375643 0.357799 0.8 0 0
0.535126 0.148766 0.697096 0.8 0 0
0.391088 0.038311 0.511276 0.8 0 0
0.460217 0.246613 0.533164 0.8 0 0
0.548049 0.249918 0.337721 0.8 0 0
0.517888 0.082285 0.412133 0.8 0 0
0.538077 0.159671 0.709213 0.8 0 0
0.437006 0.263750 0.427912 0.8 0 0
0.597827 0.376662 0.225571 0.8 0 0
0.524210 0.215439 0.391634 0.8 0 0
0.915653 0.281341 0.447264 0.8 0 0
0.460052 0.215967 0.418804 0.8 0 0
0.460145 0.106955 0.613951 0.8 0 0
0.471967 0.268963 0.487611 0.8 0 0
0.478385 0.271781 0.479710 0.8 0 0
0.547681 0.169983 0.682407 0.8 0 0
0.442683 0.144008 0.464226 0.8 0 0
0.561322 0.129441 0.457266 0.8 0 0
