0.309376 0.132158 0.850556 0.8 0 0
0.430927 0.154848 0.322298 0.8 0 0
0.363809 0.079394 0.423708 0.8 0 0
0.210097 0.195984 0.332032 0.8 0 0
0.567204 0.071507 0.478714 0.8 0 0
0.423591 0.092548 0.237446 0.8 0 0
0.468491 0.179158 0.462346 0.8 0 0
0.515739 0.070205 0.475318 0.8 0 0
0.872020 0.208159 0.477542 0.8 0 0
0.424298 0.067401 0.571460 0.8 0 0
0.352650 0.080767 0.457758 0.8 0 0
0.433390 0.187250 0.493266 0.8 0 0
0.411805 0.096792 0.277595 0.8 0 0
0.405567 0.061151 0.228541 0.8 0 0
0.391900 0.101885 0.526766 0.8 0 0
0.439406 0.173896 0.888354 0.8 0 0
0.270740 0.078045 0.514277 0.8 0 0
0.560957 0.173186 0.076835 0.8 0 0
0.437326 0.190854 0.474604 0.8 0 0
0.301404 0.066924 0.451582 0.8 0 0
0.407525 0.109838 0.647167 0.8 0 0
0.809153 0.210814 0.480869 0.8 0 0
0.253292 0.087025 0.452168 0.8 0 0
0.619843 0.079689 0.497904 0.8 0 0
0.395713 0.183108 0.503744 0.8 0 0
0.352719 0.078831 0.471498 0.8 0 0
0.360953 0.081724 0.516825 0.8 0 0
0.383633 0.125625 0.507891 0.8 0 0
0.413455 0.093759 0.655482 0.8 0 0
0.182638 0.224672 0.668736 0.8 0 0
0.426909 0.026463 0.337702 0.8 0 0
0.406624 0.132274 0.596730 0.8 0 0
0.413308 0.097011 0.675899 0.8 0 0
0.324059 0.100793 0.484936 0.8 0 0
0.411856 0.069200 0.542216 0.8 0 0
0.426436 0.098444 0.185341 0.8 0 0
0.459177 0.179535 0.518297 0.8 0 0
0.653257 0.209177 0.484924 0.8 0 0
0.424836 0.040064 0.320391 0.8 0 0
0.404023 0.213402 0.508488 0.8 0 0
0.405485 0.136831 0.564682 0.8 0 0
0.368368 0.126810 0.822855 0.8 0 0
0.426341 0.218932 0.936693 0.8 0 0
0.393155 0.160827 0.465461 0.8 0 0
0.407883 0.094467 0.258990 0.8 0 0
0.424923 0.033512 0.292253 0.8 0 0
0.412867 0.065147 0.505480 0.8 0 0
0.473557 0.197336 0.350660 0.8 0 0
0.421174 0.100760 0.205216 0.8 0 0
0.469511 0.072027 0.392285 0.8 0 0
0.426284 0.198941 0.904402 0.8 0 0
0.405594 0.093421 0.255663 0.8 0 0
0.554514 0.068139 0.448393 0.8 0 0
0.531009 0.127412 0.827561 0.8 0 0
0.404699 0.114893 0.343704 0.8 0 0
0.435251 0.083170 0.637747 0.8 0 0
0.254333 0.065110 0.486757 0.8 0 0
0.568220 0.242082 0.871971 0.8 0 0
0.487065 0.129323 0.830527 0.8 0 0
0.129427 0.227255 0.685761 0.8 0 0
0.173553 0.192458 0.294646 0.8 0 0
0.431337 0.151235 0.304284 0.8 0 0
0.627992 0.208025 0.471502 0.8 0 0
0.364348 0.082693 0.451748 0.8 0 0
0.419088 0.108496 0.798914 0.8 0 0
0.474119 0.080625 0.389195 0.8 0 0
0.467155 0.094807 0.268457 0.8 0 0
0.437456 0.213001 0.450706 0.8 0 0
0.412457 0.141623 0.683204 0.8 0 0
0.437454 0.059537 0.464961 0.8 0 0
0.483111 0.161919 0.440349 0.8 0 0
0.395669 0.153800 0.532161 0.8 0 0
0.411221 0.151147 0.364103 0.8 0 0
0.447343 0.132401 0.246910 0.8 0 0
0.276640 0.093492 0.494069 0.8 0 0
0.404170 0.065682 0.444336 0.8 0 0
0.456120 0.102420 0.322612 0.8 0 0
0.259131 0.052509 0.493328 0.8 0 0
0.439243 0.124198 0.344016 0.8 0 0
0.436657 0.106902 0.327919 0.8 0 0
0.425248 0.158830 0.953545 0.8 0 0
0.397297 0.157493 0.366075 0.8 0 0
0.452075 0.160757 0.554056 0.8 0 0
0.434536 0.218996 0.473236 0.8 0 0
0.263289 0.091190 0.492275 0.8 0 0
0.534504 0.177532 0.136154 0.8 0 0
0.394040 0.122177 0.534566 0.8 0 0
0.426925 0.141233 0.952957 0.8 0 0
0.383045 0.106575 0.503626 0.8 0 0
0.351848 0.106804 0.465265 0.8 0 0
0.416166 0.143613 0.756144 0.8 0 0
0.508135 0.091012 0.472676 0.8 0 0
0.443179 0.100849 0.282178 0.8 0 0
0.406053 0.167476 0.539662 0.8 0 0
0.364872 0.076720 0.514445 0.8 0 0
0.430353 0.032702 0.295146 0.8 0 0
0.504421 0.081668 0.506061 0.8 0 0
0.446091 0.112601 0.774344 0.8 0 0
0.433022 0.043084 0.164610 0.8 0 0
0.425761 0.053057 0.202525 0.8 0 0
0.088485 0.231108 0.743326 0.8 0 0
0.448761 0.123376 0.750733 0.8 0 0
0.482950 0.097445 0.431003 0.8 0 0
0.411226 0.207193 0.448639 0.8 0 0
0.458932 0.189327 0.441083 0.8 0 0
0.420988 0.148820 0.814390 0.8 0 0
0.265054 0.077930 0.519830 0.8 0 0
0.559654 0.096145 0.445719 0.8 0 0
0.487407 0.197689 0.335458 0.8 0 0
0.446385 0.183232 0.480642 0.8 0 0
0.574254 0.245378 0.903457 0.8 0 0
0.403050 0.098095 0.213563 0.8 0 0
0.102747 0.189201 0.236361 0.8 0 0
0.449864 0.099041 0.225133 0.8 0 0
0.451007 0.116240 0.226354 0.8 0 0
0.572440 0.094721 0.477604 0.8 0 0
0.426256 0.135031 0.250634 0.8 0 0
0.431365 0.088474 0.704711 0.8 0 0
0.454493 0.118621 0.271172 0.8 0 0
0.346256 0.105011 0.424319 0.8 0 0
0.347893 0.073404 0.499404 0.8 0 0
0.297544 0.219064 0.575471 0.8 0 0
0.446766 0.058582 0.178409 0.8 0 0
0.577309 0.206963 0.470218 0.8 0 0
0.509340 0.089860 0.511495 0.8 0 0
0.436328 0.070531 0.136787 0.8 0 0
0.416658 0.142873 0.821996 0.8 0 0
0.505463 0.092490 0.495347 0.8 0 0
0.571898 0.095814 0.495157 0.8 0 0
0.380027 0.153571 0.483949 0.8 0 0
0.460935 0.067195 0.481198 0.8 0 0
0.414027 0.166409 0.481131 0.8 0 0
0.380946 0.113655 0.399854 0.8 0 0
0.347943 0.091149 0.476734 0.8 0 0
0.394839 0.079097 0.293800 0.8 0 0
0.415663 0.091423 0.166190 0.8 0 0
0.353846 0.107146 0.465209 0.8 0 0
0.546394 0.097973 0.429541 0.8 0 0
0.499063 0.068188 0.468552 0.8 0 0
0.503057 0.070563 0.506392 0.8 0 0
0.150891 0.190567 0.272431 0.8 0 0
0.445229 0.146327 0.650068 0.8 0 0
0.458166 0.104174 0.563977 0.8 0 0
0.448393 0.138597 0.262647 0.8 0 0
0.383538 0.120333 0.381636 0.8 0 0
0.450795 0.127549 0.693820 0.8 0 0
0.477581 0.090683 0.489765 0.8 0 0
0.476147 0.200282 0.362640 0.8 0 0
0.408767 0.102682 0.330495 0.8 0 0
0.372848 0.109378 0.483398 0.8 0 0
0.504214 0.077801 0.477635 0.8 0 0
0.531312 0.103089 0.478955 0.8 0 0
0.378976 0.102511 0.451594 0.8 0 0
0.474277 0.082825 0.487782 0.8 0 0
0.422916 0.182746 0.887876 0.8 0 0
0.427153 0.145264 0.954396 0.8 0 0
0.616216 0.069858 0.456014 0.8 0 0
0.415852 0.128107 0.836006 0.8 0 0
0.451907 0.165780 0.417887 0.8 0 0
0.441699 0.072456 0.582271 0.8 0 0
0.397591 0.073026 0.502840 0.8 0 0
0.499943 0.091688 0.477049 0.8 0 0
0.425427 0.150556 0.627351 0.8 0 0
0.540901 0.181559 0.146324 0.8 0 0
0.406974 0.124770 0.616324 0.8 0 0
0.551446 0.099078 0.502011 0.8 0 0
0.426788 0.167227 0.549194 0.8 0 0
0.570412 0.076145 0.522375 0.8 0 0
0.408895 0.206737 0.504899 0.8 0 0
0.485213 0.226342 0.660630 0.8 0 0
0.443798 0.138859 0.839961 0.8 0 0
0.389241 0.109337 0.323833 0.8 0 0
0.447625 0.203389 0.419720 0.8 0 0
0.393900 0.211284 0.503666 0.8 0 0
0.249934 0.058392 0.501659 0.8 0 0
0.445059 0.144096 0.720876 0.8 0 0
0.414977 0.132516 0.802177 0.8 0 0
0.390817 0.123720 0.349833 0.8 0 0
0.406650 0.096821 0.235393 0.8 0 0
0.476567 0.196110 0.321482 0.8 0 0
0.304605 0.097298 0.502926 0.8 0 0
0.154159 0.226359 0.681112 0.8 0 0
0.393099 0.076700 0.357508 0.8 0 0
0.214492 0.222577 0.650917 0.8 0 0
0.458023 0.153714 0.333087 0.8 0 0
0.249524 0.066793 0.503767 0.8 0 0
0.466058 0.094749 0.266391 0.8 0 0
0.308888 0.057517 0.471578 0.8 0 0
0.320084 0.101169 0.457764 0.8 0 0
0.381469 0.110536 0.392156 0.8 0 0
0.476624 0.081519 0.455853 0.8 0 0
0.438035 0.078421 0.613791 0.8 0 0
0.335115 0.214936 0.562651 0.8 0 0
0.427176 0.108279 0.824047 0.8 0 0
0.469651 0.154681 0.370299 0.8 0 0
0.435701 0.131447 0.945076 0.8 0 0
0.403235 0.102690 0.333798 0.8 0 0
0.337703 0.102458 0.437934 0.8 0 0
0.380721 0.135036 0.861562 0.8 0 0
0.359113 0.077725 0.512335 0.8 0 0
0.227217 0.082258 0.459317 0.8 0 0
0.446806 0.057227 0.185662 0.8 0 0
0.187815 0.193306 0.316057 0.8 0 0
0.459666 0.210341 0.503724 0.8 0 0
0.469965 0.151547 0.525192 0.8 0 0
0.475806 0.119362 0.518128 0.8 0 0
0.297675 0.200600 0.372351 0.8 0 0
0.100941 0.187793 0.252181 0.8 0 0
0.546417 0.071925 0.497420 0.8 0 0
0.476050 0.162852 0.427073 0.8 0 0
0.300237 0.076760 0.442461 0.8 0 0
0.453051 0.141403 0.267783 0.8 0 0
0.625935 0.085290 0.504900 0.8 0 0
0.429256 0.031995 0.320619 0.8 0 0
0.401715 0.098130 0.293716 0.8 0 0
0.481117 0.166797 0.431620 0.8 0 0
0.493772 0.080954 0.479901 0.8 0 0
0.444560 0.203984 0.427135 0.8 0 0
0.557065 0.097497 0.435097 0.8 0 0
0.407451 0.120903 0.635442 0.8 0 0
0.385835 0.149669 0.391139 0.8 0 0
0.536439 0.184356 0.182182 0.8 0 0
0.523929 0.235881 0.767740 0.8 0 0
0.366712 0.086669 0.422605 0.8 0 0
0.266656 0.068546 0.446012 0.8 0 0
0.439801 0.147584 0.676985 0.8 0 0
0.468224 0.130999 0.838503 0.8 0 0
0.500008 0.228364 0.680119 0.8 0 0
0.398449 0.072884 0.208818 0.8 0 0
0.445779 0.056402 0.235455 0.8 0 0
0.390333 0.077155 0.468559 0.8 0 0
0.393302 0.147599 0.527670 0.8 0 0
0.425970 0.167833 0.435962 0.8 0 0
0.442832 0.186499 0.496733 0.8 0 0
0.518165 0.234155 0.747709 0.8 0 0
0.475180 0.127790 0.828675 0.8 0 0
0.568247 0.095463 0.477170 0.8 0 0
0.447687 0.185946 0.445206 0.8 0 0
0.411284 0.090197 0.167870 0.8 0 0
0.092339 0.189689 0.238563 0.8 0 0
0.570716 0.075733 0.444033 0.8 0 0
0.411564 0.096133 0.277579 0.8 0 0
0.269002 0.200673 0.364225 0.8 0 0
0.444921 0.125084 0.350543 0.8 0 0
0.217155 0.194574 0.311168 0.8 0 0
0.364346 0.069875 0.501888 0.8 0 0
0.424341 0.102507 0.294707 0.8 0 0
0.435195 0.222140 0.956245 0.8 0 0
0.397615 0.188687 0.481803 0.8 0 0
0.415516 0.095234 0.273553 0.8 0 0
0.336435 0.103596 0.431073 0.8 0 0
0.410925 0.190801 0.483626 0.8 0 0
0.380191 0.127559 0.419252 0.8 0 0
0.414854 0.143825 0.700610 0.8 0 0
0.422018 0.096917 0.250235 0.8 0 0
0.390798 0.121760 0.348133 0.8 0 0
0.459746 0.096741 0.277187 0.8 0 0
0.506407 0.107439 0.438516 0.8 0 0
0.552546 0.067841 0.462704 0.8 0 0
0.596615 0.072627 0.460802 0.8 0 0
0.309811 0.075858 0.456684 0.8 0 0
0.463422 0.107714 0.334053 0.8 0 0
0.295136 0.084661 0.477801 0.8 0 0
0.433650 0.030444 0.311175 0.8 0 0
0.470862 0.087794 0.510815 0.8 0 0
0.571519 0.094886 0.477897 0.8 0 0
0.398357 0.133684 0.270136 0.8 0 0
0.438732 0.146771 0.282790 0.8 0 0
0.430538 0.097623 0.255970 0.8 0 0
0.608020 0.089330 0.506518 0.8 0 0
0.418382 0.199821 0.482692 0.8 0 0
0.425311 0.039233 0.287236 0.8 0 0
0.444400 0.166895 0.410578 0.8 0 0
0.602173 0.210969 0.489686 0.8 0 0
0.349150 0.090426 0.496093 0.8 0 0
0.399252 0.183736 0.462278 0.8 0 0
0.500455 0.076284 0.432628 0.8 0 0
0.519287 0.082469 0.434582 0.8 0 0
0.458733 0.091713 0.241864 0.8 0 0
0.149015 0.228550 0.684037 0.8 0 0
0.597867 0.169895 0.037894 0.8 0 0
0.449491 0.094607 0.265252 0.8 0 0
0.485663 0.130260 0.834544 0.8 0 0
0.454367 0.154705 0.365274 0.8 0 0
0.281487 0.094261 0.497388 0.8 0 0
0.397412 0.183040 0.442609 0.8 0 0
0.352726 0.084212 0.497257 0.8 0 0
0.430619 0.057204 0.423133 0.8 0 0
0.553840 0.099128 0.469902 0.8 0 0
0.463268 0.077078 0.236417 0.8 0 0
0.477082 0.136082 0.369662 0.8 0 0
0.450702 0.108737 0.701742 0.8 0 0
0.156149 0.227886 0.691503 0.8 0 0
0.406323 0.061890 0.189144 0.8 0 0
0.410208 0.123848 0.349900 0.8 0 0
0.351186 0.084561 0.436139 0.8 0 0
0.437032 0.155314 0.325568 0.8 0 0
0.249951 0.071490 0.442276 0.8 0 0
0.411992 0.097821 0.285824 0.8 0 0
0.895897 0.210390 0.477969 0.8 0 0
0.453560 0.094983 0.602202 0.8 0 0
0.438964 0.167631 0.484373 0.8 0 0
0.467875 0.079954 0.313190 0.8 0 0
0.420237 0.106189 0.340712 0.8 0 0
0.393848 0.144494 0.331951 0.8 0 0
0.474082 0.137268 0.356046 0.8 0 0
0.507326 0.066332 0.505260 0.8 0 0
0.230117 0.085349 0.499989 0.8 0 0
0.503789 0.076149 0.482637 0.8 0 0
0.483621 0.133588 0.852959 0.8 0 0
0.434444 0.156870 0.589556 0.8 0 0
0.053054 0.184234 0.207149 0.8 0 0
0.488767 0.115928 0.455122 0.8 0 0
0.463427 0.093486 0.259428 0.8 0 0
0.402281 0.098486 0.211877 0.8 0 0
0.393959 0.072573 0.479430 0.8 0 0
0.414693 0.180916 0.521751 0.8 0 0
0.431591 0.082041 0.637767 0.8 0 0
0.436880 0.138751 0.890420 0.8 0 0
0.407879 0.141646 0.260043 0.8 0 0
0.302351 0.058681 0.467997 0.8 0 0
0.392792 0.102572 0.329604 0.8 0 0
0.314757 0.084938 0.496813 0.8 0 0
0.406881 0.065291 0.467334 0.8 0 0
0.425756 0.106985 0.211603 0.8 0 0
0.415217 0.160238 0.566300 0.8 0 0
0.320429 0.133590 0.857671 0.8 0 0
0.505388 0.083090 0.447022 0.8 0 0
0.228539 0.197030 0.326374 0.8 0 0
0.586529 0.092240 0.481477 0.8 0 0
0.432704 0.099725 0.309838 0.8 0 0
0.476817 0.093239 0.351223 0.8 0 0
0.573979 0.093050 0.433858 0.8 0 0
0.560156 0.064077 0.526766 0.8 0 0
0.154613 0.193746 0.284920 0.8 0 0
0.340348 0.104293 0.497479 0.8 0 0
0.432477 0.169052 0.951559 0.8 0 0
0.079707 0.232117 0.748650 0.8 0 0
0.443020 0.167082 0.397649 0.8 0 0
0.430676 0.103287 0.300605 0.8 0 0
0.401523 0.117769 0.554768 0.8 0 0
0.173833 0.194954 0.298599 0.8 0 0
0.453885 0.116607 0.648453 0.8 0 0
0.515884 0.082875 0.497036 0.8 0 0
0.406592 0.110141 0.627717 0.8 0 0
0.346369 0.089933 0.510529 0.8 0 0
0.851994 0.209757 0.492801 0.8 0 0
0.186366 0.223136 0.644311 0.8 0 0
0.449545 0.189276 0.440806 0.8 0 0
0.250196 0.196713 0.342913 0.8 0 0
0.505403 0.092464 0.462845 0.8 0 0
0.622636 0.066522 0.499791 0.8 0 0
0.436068 0.147856 0.652060 0.8 0 0
0.429495 0.160513 0.899706 0.8 0 0
0.479340 0.176666 0.468027 0.8 0 0
0.551590 0.243112 0.850399 0.8 0 0
0.463284 0.115217 0.270282 0.8 0 0
0.493676 0.227143 0.691176 0.8 0 0
0.454697 0.144658 0.577002 0.8 0 0
0.406859 0.135547 0.596800 0.8 0 0
0.488936 0.226256 0.657077 0.8 0 0
0.483789 0.162862 0.472613 0.8 0 0
0.456970 0.102615 0.582473 0.8 0 0
0.588738 0.091847 0.497313 0.8 0 0
0.451654 0.060512 0.375004 0.8 0 0
0.117796 0.228771 0.715762 0.8 0 0
0.416271 0.162245 0.368297 0.8 0 0
0.302152 0.082839 0.456788 0.8 0 0
0.256888 0.089629 0.510436 0.8 0 0
0.409817 0.190799 0.483642 0.8 0 0
0.561870 0.062706 0.443455 0.8 0 0
0.366907 0.086307 0.441260 0.8 0 0
0.458767 0.139362 0.277820 0.8 0 0
0.225968 0.083498 0.496493 0.8 0 0
0.387939 0.114342 0.338790 0.8 0 0
0.433741 0.185042 0.512392 0.8 0 0
0.561036 0.080991 0.499845 0.8 0 0
0.440644 0.056904 0.347378 0.8 0 0
0.470878 0.101482 0.301425 0.8 0 0
0.512584 0.105250 0.499150 0.8 0 0
0.336962 0.102674 0.421775 0.8 0 0
0.332236 0.129162 0.836128 0.8 0 0
0.458446 0.097889 0.230455 0.8 0 0
0.513739 0.068631 0.501633 0.8 0 0
0.438918 0.030731 0.385758 0.8 0 0
0.524747 0.133704 0.853669 0.8 0 0
0.422405 0.213519 0.452332 0.8 0 0
0.254002 0.088730 0.515784 0.8 0 0
0.424897 0.138698 0.890456 0.8 0 0
0.357580 0.078781 0.454533 0.8 0 0
0.469603 0.217940 0.569937 0.8 0 0
0.432361 0.112255 0.907255 0.8 0 0
0.411892 0.132918 0.718767 0.8 0 0
0.528828 0.182843 0.184526 0.8 0 0
0.611686 0.210941 0.490075 0.8 0 0
0.388491 0.096298 0.510392 0.8 0 0
0.400619 0.141738 0.288112 0.8 0 0
0.367809 0.213051 0.529065 0.8 0 0
0.479364 0.221431 0.625367 0.8 0 0
0.442792 0.143593 0.874888 0.8 0 0
0.435608 0.219001 0.473487 0.8 0 0
0.539764 0.099542 0.437277 0.8 0 0
0.556442 0.176391 0.110248 0.8 0 0
0.349193 0.091795 0.479332 0.8 0 0
0.454801 0.061325 0.270013 0.8 0 0
0.858745 0.206769 0.470961 0.8 0 0
0.377730 0.124658 0.440623 0.8 0 0
0.383659 0.163119 0.498772 0.8 0 0
0.446987 0.186035 0.429446 0.8 0 0
0.460309 0.071334 0.262551 0.8 0 0
0.456061 0.126813 0.350762 0.8 0 0
0.349596 0.081777 0.429090 0.8 0 0
0.426705 0.131308 0.347787 0.8 0 0
0.278070 0.201254 0.370827 0.8 0 0
0.443486 0.134759 0.264284 0.8 0 0
0.554430 0.080190 0.451113 0.8 0 0
0.438571 0.099161 0.302049 0.8 0 0
0.461454 0.071903 0.214725 0.8 0 0
0.261955 0.078665 0.501036 0.8 0 0
0.395439 0.152981 0.362292 0.8 0 0
0.356947 0.093012 0.503637 0.8 0 0
0.436080 0.150461 0.834933 0.8 0 0
0.476100 0.129733 0.837474 0.8 0 0
0.300770 0.060444 0.485191 0.8 0 0
0.442108 0.027832 0.355195 0.8 0 0
0.554132 0.059676 0.449549 0.8 0 0
0.148675 0.225464 0.672421 0.8 0 0
0.448831 0.201057 0.478561 0.8 0 0
0.560667 0.096044 0.447726 0.8 0 0
0.393887 0.074529 0.362802 0.8 0 0
0.434898 0.058543 0.455103 0.8 0 0
0.384668 0.139022 0.389558 0.8 0 0
0.347939 0.070284 0.485217 0.8 0 0
0.461004 0.086673 0.210500 0.8 0 0
0.393803 0.080567 0.301720 0.8 0 0
0.356004 0.081955 0.454618 0.8 0 0
0.350675 0.086575 0.472628 0.8 0 0
0.408807 0.121094 0.667334 0.8 0 0
0.513333 0.074279 0.426597 0.8 0 0
0.551157 0.084549 0.481528 0.8 0 0
0.385430 0.160994 0.428801 0.8 0 0
0.463109 0.093390 0.250380 0.8 0 0
0.434886 0.054409 0.305694 0.8 0 0
0.071969 0.186071 0.225102 0.8 0 0
0.395554 0.080757 0.267861 0.8 0 0
0.608406 0.089451 0.498906 0.8 0 0
0.461906 0.095886 0.223143 0.8 0 0
0.411639 0.155469 0.364606 0.8 0 0
0.478592 0.088424 0.413455 0.8 0 0
0.460087 0.103680 0.332694 0.8 0 0
0.426746 0.148248 0.356770 0.8 0 0
0.508198 0.068887 0.500479 0.8 0 0
0.321445 0.081319 0.453117 0.8 0 0
0.456361 0.072259 0.534415 0.8 0 0
0.431777 0.189774 0.445442 0.8 0 0
0.580776 0.209487 0.489961 0.8 0 0
0.351730 0.066624 0.487297 0.8 0 0
0.467381 0.187362 0.477033 0.8 0 0
0.500240 0.210518 0.476025 0.8 0 0
0.450404 0.133484 0.856807 0.8 0 0
0.488096 0.124111 0.470700 0.8 0 0
0.424136 0.102473 0.323038 0.8 0 0
0.385354 0.109092 0.512289 0.8 0 0
0.478826 0.136952 0.382863 0.8 0 0
0.468274 0.095892 0.528855 0.8 0 0
0.392369 0.101240 0.278589 0.8 0 0
0.341635 0.204938 0.413844 0.8 0 0
0.487210 0.107641 0.447163 0.8 0 0
0.489738 0.225031 0.665919 0.8 0 0
0.431476 0.073572 0.603298 0.8 0 0
0.426355 0.158574 0.367287 0.8 0 0
0.413245 0.133598 0.857472 0.8 0 0
0.438961 0.158552 0.362234 0.8 0 0
0.330128 0.201920 0.402065 0.8 0 0
0.467479 0.124518 0.348662 0.8 0 0
0.428226 0.150040 0.827208 0.8 0 0
0.387279 0.180781 0.460032 0.8 0 0
0.678902 0.210716 0.491661 0.8 0 0
0.438174 0.201846 0.922757 0.8 0 0
0.392932 0.084327 0.290249 0.8 0 0
0.074270 0.186927 0.234838 0.8 0 0
0.617534 0.078414 0.509572 0.8 0 0
0.466588 0.167860 0.523610 0.8 0 0
0.515732 0.089232 0.498135 0.8 0 0
0.460920 0.190901 0.465603 0.8 0 0
0.347466 0.105836 0.432930 0.8 0 0
0.395321 0.127733 0.828088 0.8 0 0
0.384912 0.151581 0.504903 0.8 0 0
0.449009 0.074785 0.571699 0.8 0 0
0.405279 0.190790 0.463956 0.8 0 0
0.464619 0.094207 0.262020 0.8 0 0
0.513862 0.073258 0.465865 0.8 0 0
0.551849 0.066629 0.460052 0.8 0 0
0.458935 0.100349 0.306047 0.8 0 0
0.423693 0.062912 0.150006 0.8 0 0
0.197364 0.192625 0.296696 0.8 0 0
0.366315 0.075400 0.478769 0.8 0 0
0.501673 0.068687 0.499500 0.8 0 0
0.353790 0.066346 0.505685 0.8 0 0
0.453305 0.201172 0.397651 0.8 0 0
0.354964 0.093239 0.493578 0.8 0 0
0.342492 0.104501 0.499937 0.8 0 0
0.426210 0.035368 0.326397 0.8 0 0
0.268553 0.217990 0.587349 0.8 0 0
0.401795 0.100576 0.280117 0.8 0 0
0.465200 0.182664 0.486605 0.8 0 0
0.509927 0.069196 0.444357 0.8 0 0
0.465426 0.145675 0.359562 0.8 0 0
0.262553 0.055354 0.502355 0.8 0 0
0.473981 0.221951 0.607409 0.8 0 0
0.460080 0.148887 0.357109 0.8 0 0
0.451458 0.092352 0.615359 0.8 0 0
0.402524 0.126456 0.822098 0.8 0 0
0.386341 0.164234 0.461285 0.8 0 0
0.441328 0.100460 0.195333 0.8 0 0
0.420618 0.058944 0.406663 0.8 0 0
0.433759 0.056784 0.404164 0.8 0 0
0.465767 0.070385 0.344982 0.8 0 0
0.407955 0.185134 0.468128 0.8 0 0
0.430489 0.040888 0.335125 0.8 0 0
0.467350 0.179755 0.496896 0.8 0 0
0.105049 0.228909 0.703704 0.8 0 0
0.455149 0.094724 0.269432 0.8 0 0
0.435652 0.213817 0.929523 0.8 0 0
0.417117 0.069416 0.144633 0.8 0 0
0.392996 0.082600 0.506259 0.8 0 0
0.320855 0.073702 0.485317 0.8 0 0
0.509082 0.074232 0.494685 0.8 0 0
0.416124 0.215770 0.461329 0.8 0 0
0.460247 0.122712 0.247649 0.8 0 0
0.456626 0.213412 0.536787 0.8 0 0
0.393175 0.075884 0.364678 0.8 0 0
0.464496 0.098586 0.541851 0.8 0 0
0.377342 0.137433 0.465940 0.8 0 0
0.393007 0.178468 0.481491 0.8 0 0
0.424888 0.096799 0.235491 0.8 0 0
0.219795 0.196498 0.320192 0.8 0 0
0.536398 0.184345 0.181942 0.8 0 0
0.355180 0.105550 0.433390 0.8 0 0
0.547916 0.084967 0.467782 0.8 0 0
0.619114 0.067055 0.497927 0.8 0 0
0.412203 0.125994 0.742107 0.8 0 0
0.262964 0.056342 0.492878 0.8 0 0
0.508086 0.066434 0.475976 0.8 0 0
0.483646 0.114659 0.496670 0.8 0 0
0.473091 0.136641 0.351751 0.8 0 0
0.458943 0.190537 0.499718 0.8 0 0
0.452113 0.058626 0.225019 0.8 0 0
0.507935 0.091524 0.480990 0.8 0 0
0.452439 0.113646 0.273295 0.8 0 0
0.608730 0.069238 0.470598 0.8 0 0
0.426935 0.033861 0.296136 0.8 0 0
0.262240 0.067958 0.454556 0.8 0 0
0.481115 0.162572 0.425748 0.8 0 0
0.329490 0.102824 0.450579 0.8 0 0
0.441533 0.171502 0.496896 0.8 0 0
0.406960 0.139565 0.592757 0.8 0 0
0.451787 0.063279 0.177030 0.8 0 0
0.490543 0.197139 0.338564 0.8 0 0
0.427094 0.100402 0.306472 0.8 0 0
0.439111 0.157496 0.920072 0.8 0 0
0.512817 0.189983 0.243475 0.8 0 0
0.577868 0.173669 0.067863 0.8 0 0
0.348554 0.090128 0.449600 0.8 0 0
0.395147 0.160557 0.528292 0.8 0 0
0.478380 0.107502 0.356251 0.8 0 0
0.322489 0.079797 0.498864 0.8 0 0
0.427484 0.058132 0.440825 0.8 0 0
0.484901 0.133946 0.427518 0.8 0 0
0.416519 0.098880 0.294294 0.8 0 0
0.468906 0.216541 0.574625 0.8 0 0
0.407015 0.110498 0.272213 0.8 0 0
0.450340 0.132434 0.694056 0.8 0 0
0.419347 0.096484 0.246719 0.8 0 0
0.407002 0.154019 0.359830 0.8 0 0
0.436922 0.206093 0.474823 0.8 0 0
0.441384 0.057246 0.353155 0.8 0 0
0.543494 0.100924 0.460890 0.8 0 0
0.504263 0.191829 0.288121 0.8 0 0
0.448429 0.135586 0.730826 0.8 0 0
0.512767 0.087522 0.449099 0.8 0 0
0.456050 0.063403 0.250052 0.8 0 0
0.394077 0.139259 0.357919 0.8 0 0
0.237469 0.222681 0.632865 0.8 0 0
0.553607 0.210490 0.491466 0.8 0 0
0.345652 0.089379 0.485999 0.8 0 0
0.399008 0.100011 0.275378 0.8 0 0
0.424459 0.073986 0.153968 0.8 0 0
0.233458 0.196138 0.324501 0.8 0 0
0.347693 0.088734 0.491773 0.8 0 0
0.415097 0.096465 0.280263 0.8 0 0
0.513093 0.089451 0.458358 0.8 0 0
0.443840 0.112031 0.794660 0.8 0 0
0.635547 0.083142 0.478822 0.8 0 0
0.412345 0.091381 0.630833 0.8 0 0
0.062925 0.232194 0.753598 0.8 0 0
0.390343 0.091025 0.300087 0.8 0 0
0.385640 0.136693 0.378680 0.8 0 0
0.422048 0.104510 0.789660 0.8 0 0
0.423451 0.066869 0.142084 0.8 0 0
0.282703 0.200561 0.366095 0.8 0 0
0.628221 0.084060 0.468717 0.8 0 0
0.570861 0.083962 0.460966 0.8 0 0
0.593533 0.171369 0.030322 0.8 0 0
0.406462 0.119815 0.614998 0.8 0 0
0.227050 0.083698 0.501156 0.8 0 0
0.442591 0.053677 0.147581 0.8 0 0
0.410655 0.116535 0.720268 0.8 0 0
0.418045 0.149254 0.880704 0.8 0 0
0.286664 0.201966 0.383413 0.8 0 0
0.405885 0.115044 0.339162 0.8 0 0
0.542348 0.131052 0.845156 0.8 0 0
0.473336 0.155817 0.426193 0.8 0 0
0.621215 0.086109 0.505749 0.8 0 0
0.678748 0.209209 0.485406 0.8 0 0
0.487623 0.196940 0.323071 0.8 0 0
0.306437 0.135105 0.866507 0.8 0 0
0.437112 0.046762 0.147932 0.8 0 0
0.503243 0.080571 0.486166 0.8 0 0
0.431738 0.057826 0.164239 0.8 0 0
0.412340 0.056090 0.200530 0.8 0 0
0.458170 0.147160 0.304511 0.8 0 0
0.453215 0.216402 0.562646 0.8 0 0
0.350936 0.092531 0.491872 0.8 0 0
0.438810 0.181717 0.889407 0.8 0 0
0.505298 0.083303 0.432864 0.8 0 0
0.504366 0.066404 0.432746 0.8 0 0
0.514685 0.072740 0.468127 0.8 0 0
0.482696 0.220470 0.607660 0.8 0 0
0.427403 0.039174 0.275422 0.8 0 0
0.364191 0.206723 0.442440 0.8 0 0
0.442053 0.190864 0.490978 0.8 0 0
0.390160 0.122878 0.328425 0.8 0 0
0.616658 0.068918 0.493167 0.8 0 0
0.233489 0.084778 0.510790 0.8 0 0
0.415725 0.099986 0.311947 0.8 0 0
0.472846 0.135517 0.348947 0.8 0 0
0.391826 0.077407 0.379485 0.8 0 0
0.415237 0.131316 0.813167 0.8 0 0
0.259210 0.073617 0.472840 0.8 0 0
0.361264 0.078845 0.509364 0.8 0 0
0.225758 0.083462 0.504580 0.8 0 0
0.310562 0.074437 0.457252 0.8 0 0
0.300233 0.084404 0.511582 0.8 0 0
0.421918 0.099213 0.305700 0.8 0 0
0.396194 0.078508 0.272243 0.8 0 0
0.417925 0.150360 0.863950 0.8 0 0
0.392686 0.119814 0.298355 0.8 0 0
0.507436 0.073390 0.513932 0.8 0 0
0.469604 0.106653 0.326033 0.8 0 0
0.435112 0.167676 0.959833 0.8 0 0
0.865312 0.211046 0.485956 0.8 0 0
0.371419 0.212212 0.521232 0.8 0 0
0.444780 0.141364 0.802624 0.8 0 0
0.389954 0.086350 0.330040 0.8 0 0
0.435636 0.067456 0.573345 0.8 0 0
0.361970 0.072009 0.484325 0.8 0 0
0.424413 0.038815 0.270170 0.8 0 0
0.463017 0.080089 0.217945 0.8 0 0
0.424580 0.151487 0.362555 0.8 0 0
0.424136 0.136686 0.252943 0.8 0 0
0.441100 0.112395 0.342418 0.8 0 0
0.294337 0.094617 0.432356 0.8 0 0
0.428937 0.100033 0.309090 0.8 0 0
0.448823 0.185801 0.494463 0.8 0 0
0.507432 0.081948 0.428547 0.8 0 0
0.627330 0.077116 0.463466 0.8 0 0
0.596042 0.091644 0.467657 0.8 0 0
0.519857 0.103766 0.451262 0.8 0 0
0.607866 0.068224 0.489960 0.8 0 0
0.466136 0.074334 0.325446 0.8 0 0
0.501455 0.090374 0.465975 0.8 0 0
0.582730 0.208306 0.478142 0.8 0 0
0.441680 0.170546 0.542631 0.8 0 0
0.416486 0.130952 0.849680 0.8 0 0
0.322671 0.078075 0.510148 0.8 0 0
0.476497 0.111363 0.345508 0.8 0 0
0.421172 0.055259 0.293603 0.8 0 0
0.469969 0.106153 0.322256 0.8 0 0
0.401785 0.091853 0.240440 0.8 0 0
0.055313 0.231755 0.739137 0.8 0 0
0.104140 0.189700 0.240488 0.8 0 0
0.466051 0.098705 0.298365 0.8 0 0
0.453064 0.205621 0.450447 0.8 0 0
0.368394 0.077766 0.478598 0.8 0 0
0.447969 0.061207 0.421193 0.8 0 0
0.421039 0.074058 0.132391 0.8 0 0
0.347615 0.090896 0.435423 0.8 0 0
0.429676 0.055852 0.141264 0.8 0 0
0.436235 0.119627 0.346143 0.8 0 0
0.463013 0.103656 0.303389 0.8 0 0
0.409423 0.130092 0.663154 0.8 0 0
0.579571 0.093424 0.503002 0.8 0 0
0.347466 0.106054 0.472282 0.8 0 0
0.523493 0.237060 0.787757 0.8 0 0
0.404573 0.101311 0.319420 0.8 0 0
0.414546 0.097652 0.293093 0.8 0 0
0.410245 0.121067 0.702519 0.8 0 0
0.256379 0.053671 0.518948 0.8 0 0
0.489705 0.194054 0.311745 0.8 0 0
0.498864 0.084350 0.480187 0.8 0 0
0.894854 0.209340 0.487064 0.8 0 0
0.431788 0.207362 0.513128 0.8 0 0
0.349428 0.078575 0.477810 0.8 0 0
0.456251 0.097812 0.291144 0.8 0 0
0.222725 0.079363 0.491460 0.8 0 0
0.603906 0.066525 0.461823 0.8 0 0
0.404787 0.132937 0.562372 0.8 0 0
0.481898 0.092991 0.464794 0.8 0 0
0.070900 0.233769 0.743324 0.8 0 0
0.433140 0.060866 0.520642 0.8 0 0
0.173653 0.223927 0.655353 0.8 0 0
0.312124 0.072668 0.511165 0.8 0 0
0.383606 0.149712 0.408958 0.8 0 0
0.434689 0.173763 0.888283 0.8 0 0
0.407516 0.145377 0.280721 0.8 0 0
0.452135 0.099635 0.202183 0.8 0 0
0.420428 0.038712 0.386002 0.8 0 0
0.342610 0.078696 0.474612 0.8 0 0
0.527883 0.180754 0.167937 0.8 0 0
0.448471 0.157372 0.568565 0.8 0 0
0.422686 0.042733 0.360972 0.8 0 0
0.307671 0.057201 0.501935 0.8 0 0
0.458568 0.189779 0.501487 0.8 0 0
0.232777 0.085772 0.482136 0.8 0 0
0.444578 0.166871 0.417015 0.8 0 0
0.494707 0.076266 0.422549 0.8 0 0
0.294544 0.217615 0.586110 0.8 0 0
0.828006 0.207095 0.472743 0.8 0 0
0.422718 0.047005 0.168192 0.8 0 0
0.401086 0.153757 0.340150 0.8 0 0
0.341689 0.078798 0.514979 0.8 0 0
0.424559 0.213420 0.451633 0.8 0 0
0.783431 0.210993 0.483821 0.8 0 0
0.436704 0.149936 0.362792 0.8 0 0
0.265648 0.218277 0.590587 0.8 0 0
0.367900 0.131133 0.839259 0.8 0 0
0.398415 0.213347 0.472427 0.8 0 0
0.241874 0.075053 0.517126 0.8 0 0
0.400465 0.094081 0.264237 0.8 0 0
0.301134 0.083868 0.477615 0.8 0 0
0.472626 0.092176 0.317547 0.8 0 0
0.471876 0.116192 0.326093 0.8 0 0
0.463326 0.188164 0.497497 0.8 0 0
0.488877 0.127422 0.827387 0.8 0 0
0.438638 0.030425 0.334805 0.8 0 0
0.504956 0.136593 0.874580 0.8 0 0
0.498901 0.106910 0.429892 0.8 0 0
0.229541 0.223766 0.628461 0.8 0 0
0.342628 0.077578 0.422549 0.8 0 0
0.411130 0.093593 0.260295 0.8 0 0
0.421955 0.097035 0.216805 0.8 0 0
0.792857 0.207790 0.475785 0.8 0 0
0.434860 0.187182 0.433668 0.8 0 0
0.262856 0.067320 0.458486 0.8 0 0
0.557191 0.136899 0.874012 0.8 0 0
0.408614 0.099507 0.210556 0.8 0 0
0.518431 0.078278 0.516825 0.8 0 0
0.436775 0.036153 0.338714 0.8 0 0
0.438557 0.043754 0.158475 0.8 0 0
0.559282 0.175059 0.094915 0.8 0 0
0.403118 0.098890 0.213184 0.8 0 0
0.414757 0.140289 0.770533 0.8 0 0
0.271165 0.198375 0.361273 0.8 0 0
0.412014 0.063580 0.465781 0.8 0 0
0.474153 0.143081 0.516936 0.8 0 0
0.304914 0.059718 0.520631 0.8 0 0
0.425872 0.053095 0.246006 0.8 0 0
0.394538 0.076260 0.328442 0.8 0 0
0.345240 0.104147 0.445580 0.8 0 0
0.302439 0.134266 0.857847 0.8 0 0
0.425109 0.037722 0.335074 0.8 0 0
0.290063 0.199454 0.373746 0.8 0 0
0.690177 0.207379 0.473993 0.8 0 0
0.236804 0.086492 0.482804 0.8 0 0
0.496239 0.088903 0.501706 0.8 0 0
0.378367 0.145546 0.479188 0.8 0 0
0.389104 0.101269 0.313408 0.8 0 0
0.353606 0.091955 0.462796 0.8 0 0
0.484189 0.136929 0.424628 0.8 0 0
0.267701 0.221740 0.604327 0.8 0 0
0.379508 0.149366 0.448421 0.8 0 0
0.208170 0.224691 0.640099 0.8 0 0
0.467978 0.160444 0.526497 0.8 0 0
0.160766 0.225163 0.668816 0.8 0 0
0.467952 0.161444 0.496456 0.8 0 0
0.424081 0.103085 0.785870 0.8 0 0
0.454008 0.100993 0.320084 0.8 0 0
0.403289 0.215172 0.471306 0.8 0 0
0.420102 0.057392 0.357117 0.8 0 0
0.494330 0.109416 0.426993 0.8 0 0
0.305808 0.057187 0.483127 0.8 0 0
0.392811 0.103272 0.329431 0.8 0 0
0.435506 0.058429 0.448054 0.8 0 0
0.428647 0.097370 0.761279 0.8 0 0
0.293478 0.096509 0.486326 0.8 0 0
0.450549 0.097947 0.191174 0.8 0 0
0.414823 0.126403 0.812333 0.8 0 0
0.414938 0.106124 0.322036 0.8 0 0
0.458552 0.187322 0.430304 0.8 0 0
0.421897 0.094241 0.230158 0.8 0 0
0.447705 0.157362 0.572582 0.8 0 0
0.447973 0.093955 0.259978 0.8 0 0
0.482493 0.150897 0.489289 0.8 0 0
0.462687 0.064905 0.391684 0.8 0 0
0.393934 0.076657 0.338305 0.8 0 0
0.484743 0.207367 0.473030 0.8 0 0
0.141759 0.190251 0.257911 0.8 0 0
0.456510 0.098645 0.301112 0.8 0 0
0.408408 0.121422 0.656834 0.8 0 0
0.431299 0.217056 0.971807 0.8 0 0
0.468231 0.122260 0.535344 0.8 0 0
0.543062 0.237694 0.813211 0.8 0 0
0.405174 0.098210 0.288934 0.8 0 0
0.290759 0.079682 0.463955 0.8 0 0
0.334186 0.101813 0.438306 0.8 0 0
0.070050 0.187525 0.215756 0.8 0 0
0.428638 0.127214 0.350051 0.8 0 0
0.236107 0.195881 0.333279 0.8 0 0
0.458058 0.131730 0.255656 0.8 0 0
0.466980 0.083398 0.281914 0.8 0 0
0.385526 0.102472 0.344794 0.8 0 0
0.401450 0.113231 0.271095 0.8 0 0
0.399380 0.126888 0.824175 0.8 0 0
0.496117 0.108349 0.498988 0.8 0 0
0.447193 0.099463 0.703817 0.8 0 0
0.555430 0.078027 0.488328 0.8 0 0
0.429441 0.160579 0.363728 0.8 0 0
0.405502 0.184821 0.436921 0.8 0 0
0.303526 0.059000 0.450166 0.8 0 0
0.529732 0.185211 0.188712 0.8 0 0
0.425960 0.128217 0.351493 0.8 0 0
0.253110 0.069618 0.472752 0.8 0 0
0.299005 0.199091 0.371060 0.8 0 0
0.397753 0.183254 0.491650 0.8 0 0
0.429875 0.140227 0.943683 0.8 0 0
0.707469 0.209517 0.490533 0.8 0 0
0.526182 0.102863 0.487987 0.8 0 0
0.433215 0.050030 0.351521 0.8 0 0
0.396373 0.072804 0.323176 0.8 0 0
0.420457 0.025668 0.363705 0.8 0 0
0.407157 0.165308 0.496342 0.8 0 0
0.513557 0.127828 0.827173 0.8 0 0
0.473883 0.103383 0.327748 0.8 0 0
0.320273 0.100995 0.494477 0.8 0 0
0.358966 0.106952 0.468124 0.8 0 0
0.467029 0.068436 0.376679 0.8 0 0
0.467469 0.222241 0.624402 0.8 0 0
0.341745 0.081041 0.434765 0.8 0 0
0.401486 0.184233 0.466971 0.8 0 0
0.428429 0.174230 0.496896 0.8 0 0
0.424748 0.031477 0.341231 0.8 0 0
0.487080 0.125237 0.480346 0.8 0 0
0.262613 0.218257 0.589297 0.8 0 0
0.362891 0.108721 0.474006 0.8 0 0
0.557953 0.248801 0.938420 0.8 0 0
0.488068 0.191382 0.279561 0.8 0 0
0.501154 0.107823 0.495916 0.8 0 0
0.402857 0.095120 0.226373 0.8 0 0
0.630108 0.211087 0.487391 0.8 0 0
0.426574 0.056957 0.398640 0.8 0 0
0.437067 0.119099 0.925314 0.8 0 0
0.473815 0.124462 0.346844 0.8 0 0
0.380536 0.132806 0.497488 0.8 0 0
0.293806 0.094687 0.449757 0.8 0 0
0.434728 0.129232 0.351091 0.8 0 0
0.404122 0.150267 0.554314 0.8 0 0
0.418525 0.167019 0.476530 0.8 0 0
0.472165 0.219857 0.606649 0.8 0 0
0.449730 0.129206 0.828895 0.8 0 0
0.416239 0.063698 0.501792 0.8 0 0
0.637027 0.083293 0.518246 0.8 0 0
0.083033 0.229890 0.723375 0.8 0 0
0.392872 0.132637 0.354473 0.8 0 0
0.302972 0.058610 0.515518 0.8 0 0
0.452552 0.082033 0.168152 0.8 0 0
0.245917 0.198389 0.340483 0.8 0 0
0.400969 0.143284 0.292533 0.8 0 0
0.465556 0.113585 0.542685 0.8 0 0
0.444184 0.141619 0.820910 0.8 0 0
0.426558 0.048152 0.145016 0.8 0 0
0.463515 0.132652 0.852089 0.8 0 0
0.570877 0.207292 0.470614 0.8 0 0
0.349435 0.078584 0.476196 0.8 0 0
0.396546 0.071661 0.490374 0.8 0 0
0.443085 0.129754 0.264335 0.8 0 0
0.462068 0.097036 0.284878 0.8 0 0
0.478258 0.156495 0.438220 0.8 0 0
0.546812 0.241987 0.837709 0.8 0 0
0.494160 0.085935 0.483296 0.8 0 0
0.433970 0.059029 0.471761 0.8 0 0
0.437814 0.050645 0.145093 0.8 0 0
0.483760 0.125984 0.411159 0.8 0 0
0.596672 0.072009 0.497930 0.8 0 0
0.444544 0.190868 0.482958 0.8 0 0
0.393365 0.102304 0.293174 0.8 0 0
0.395249 0.101004 0.255004 0.8 0 0
0.440331 0.168684 0.886173 0.8 0 0
0.473401 0.221298 0.623771 0.8 0 0
0.432095 0.063091 0.561920 0.8 0 0
0.343371 0.105108 0.488550 0.8 0 0
0.483102 0.145969 0.423830 0.8 0 0
0.572760 0.095167 0.508045 0.8 0 0
0.407170 0.100192 0.607761 0.8 0 0
0.541778 0.136420 0.873976 0.8 0 0
0.441473 0.092420 0.708960 0.8 0 0
0.424469 0.200088 0.950477 0.8 0 0
0.437980 0.026154 0.347820 0.8 0 0
0.485817 0.118059 0.487755 0.8 0 0
0.302747 0.058348 0.497629 0.8 0 0
0.309148 0.078618 0.479813 0.8 0 0
0.344687 0.081767 0.429571 0.8 0 0
0.404787 0.142249 0.357796 0.8 0 0
0.458663 0.095532 0.272725 0.8 0 0
0.483842 0.224863 0.665533 0.8 0 0
0.342223 0.083720 0.491341 0.8 0 0
0.620053 0.079786 0.511060 0.8 0 0
0.507721 0.093043 0.423673 0.8 0 0
0.502572 0.089416 0.433730 0.8 0 0
0.408667 0.092839 0.254202 0.8 0 0
0.382833 0.127306 0.826516 0.8 0 0
0.410899 0.185509 0.474407 0.8 0 0
0.477892 0.162301 0.409579 0.8 0 0
0.347644 0.106004 0.480859 0.8 0 0
0.379391 0.152748 0.480971 0.8 0 0
0.597718 0.169570 0.032954 0.8 0 0
0.457851 0.127632 0.823187 0.8 0 0
0.445098 0.213821 0.454911 0.8 0 0
0.146443 0.190660 0.273191 0.8 0 0
0.467418 0.102956 0.277376 0.8 0 0
0.326218 0.217989 0.561251 0.8 0 0
0.485935 0.198070 0.339600 0.8 0 0
0.435542 0.096538 0.220265 0.8 0 0
0.419845 0.127157 0.350022 0.8 0 0
0.435658 0.167413 0.489038 0.8 0 0
0.420611 0.186655 0.466664 0.8 0 0
0.311983 0.067987 0.508420 0.8 0 0
0.423827 0.147818 0.784790 0.8 0 0
0.358841 0.066708 0.458361 0.8 0 0
0.424068 0.042572 0.366230 0.8 0 0
0.519814 0.136290 0.869269 0.8 0 0
0.423848 0.204454 0.942837 0.8 0 0
0.433858 0.098326 0.298538 0.8 0 0
0.404545 0.097782 0.563751 0.8 0 0
0.466775 0.162248 0.424706 0.8 0 0
0.126697 0.227561 0.695696 0.8 0 0
0.467957 0.101102 0.278648 0.8 0 0
0.362620 0.135554 0.864739 0.8 0 0
0.600390 0.079302 0.494224 0.8 0 0
0.470807 0.102723 0.301545 0.8 0 0
0.305414 0.097355 0.464569 0.8 0 0
0.773693 0.210909 0.490106 0.8 0 0
0.409577 0.119610 0.689655 0.8 0 0
0.255039 0.052201 0.512866 0.8 0 0
0.289342 0.095752 0.466469 0.8 0 0
0.399793 0.203709 0.468409 0.8 0 0
0.505250 0.083420 0.451676 0.8 0 0
0.382865 0.165286 0.493242 0.8 0 0
0.246442 0.220581 0.624556 0.8 0 0
0.417369 0.063607 0.506551 0.8 0 0
0.279384 0.218581 0.596546 0.8 0 0
0.256419 0.065031 0.452680 0.8 0 0
0.443954 0.166956 0.475891 0.8 0 0
0.240675 0.072760 0.470384 0.8 0 0
0.125216 0.229627 0.714578 0.8 0 0
0.412534 0.073295 0.564977 0.8 0 0
0.531925 0.181963 0.174564 0.8 0 0
0.419788 0.114462 0.270591 0.8 0 0
0.181439 0.224693 0.671676 0.8 0 0
0.441475 0.112098 0.817615 0.8 0 0
0.436737 0.202323 0.951769 0.8 0 0
0.349415 0.213898 0.532221 0.8 0 0
0.546641 0.084746 0.489118 0.8 0 0
0.504084 0.083897 0.501841 0.8 0 0
0.250218 0.074296 0.441900 0.8 0 0
0.443948 0.103075 0.333673 0.8 0 0
0.382352 0.162168 0.492141 0.8 0 0
0.296652 0.085010 0.513880 0.8 0 0
0.466452 0.150474 0.350085 0.8 0 0
0.358666 0.071892 0.509139 0.8 0 0
0.468746 0.178817 0.484952 0.8 0 0
0.557239 0.176915 0.093113 0.8 0 0
0.390297 0.157906 0.465510 0.8 0 0
0.439547 0.094981 0.263105 0.8 0 0
0.244952 0.087566 0.511744 0.8 0 0
0.474791 0.224182 0.644648 0.8 0 0
0.642918 0.206807 0.471167 0.8 0 0
0.455991 0.110707 0.342382 0.8 0 0
0.415921 0.157383 0.585143 0.8 0 0
0.405512 0.112110 0.604251 0.8 0 0
0.456631 0.066483 0.183866 0.8 0 0
0.474807 0.177831 0.431281 0.8 0 0
0.416750 0.062273 0.476867 0.8 0 0
0.418624 0.092425 0.240744 0.8 0 0
0.412642 0.096745 0.248842 0.8 0 0
0.355157 0.066175 0.466429 0.8 0 0
0.504328 0.232093 0.735442 0.8 0 0
0.452504 0.096363 0.245735 0.8 0 0
0.373546 0.205505 0.445625 0.8 0 0
0.473581 0.116592 0.338840 0.8 0 0
0.426287 0.211565 0.474556 0.8 0 0
0.207217 0.195279 0.308824 0.8 0 0
0.272308 0.090853 0.454930 0.8 0 0
0.418315 0.215464 0.459198 0.8 0 0
0.293321 0.094952 0.458326 0.8 0 0
0.501176 0.068580 0.468162 0.8 0 0
0.387813 0.128973 0.833853 0.8 0 0
0.449796 0.215523 0.541790 0.8 0 0
0.560069 0.057687 0.455649 0.8 0 0
0.432234 0.094868 0.267361 0.8 0 0
0.507949 0.069886 0.509858 0.8 0 0
0.540114 0.099331 0.434077 0.8 0 0
0.540006 0.101525 0.456505 0.8 0 0
0.499337 0.074475 0.503476 0.8 0 0
0.501601 0.067039 0.483928 0.8 0 0
0.435229 0.130132 0.351555 0.8 0 0
0.387206 0.154145 0.409160 0.8 0 0
0.433413 0.033650 0.288230 0.8 0 0
0.504566 0.070295 0.469827 0.8 0 0
0.266497 0.090429 0.471712 0.8 0 0
0.354367 0.092450 0.428020 0.8 0 0
0.445436 0.101946 0.290468 0.8 0 0
0.434019 0.213238 0.450774 0.8 0 0
0.321185 0.074134 0.480688 0.8 0 0
0.342828 0.074448 0.422549 0.8 0 0
0.410260 0.077841 0.563384 0.8 0 0
0.349717 0.068589 0.446521 0.8 0 0
0.535486 0.132620 0.852456 0.8 0 0
0.442545 0.107272 0.273533 0.8 0 0
0.307583 0.216704 0.580596 0.8 0 0
0.456615 0.097388 0.573843 0.8 0 0
0.430881 0.102221 0.321025 0.8 0 0
0.439204 0.107587 0.333094 0.8 0 0
0.563027 0.172638 0.055386 0.8 0 0
0.425141 0.121459 0.934912 0.8 0 0
0.352745 0.066487 0.497610 0.8 0 0
0.412191 0.092655 0.244497 0.8 0 0
0.500924 0.092103 0.492621 0.8 0 0
0.550147 0.180828 0.159408 0.8 0 0
0.480018 0.126182 0.820718 0.8 0 0
0.572047 0.094612 0.466536 0.8 0 0
0.512933 0.084172 0.439170 0.8 0 0
0.452771 0.064085 0.466706 0.8 0 0
0.375253 0.205315 0.450924 0.8 0 0
0.498144 0.068897 0.483896 0.8 0 0
0.459452 0.131787 0.842986 0.8 0 0
0.498988 0.087311 0.503128 0.8 0 0
0.347798 0.085141 0.494980 0.8 0 0
0.477922 0.094026 0.358926 0.8 0 0
0.305320 0.070480 0.487665 0.8 0 0
0.434082 0.177822 0.947142 0.8 0 0
0.448637 0.096280 0.221377 0.8 0 0
0.433419 0.154473 0.319805 0.8 0 0
0.304763 0.070363 0.460266 0.8 0 0
0.530154 0.102723 0.431433 0.8 0 0
0.436718 0.210958 0.933135 0.8 0 0
0.459671 0.074144 0.527555 0.8 0 0
0.269118 0.070012 0.520657 0.8 0 0
0.517027 0.071870 0.482550 0.8 0 0
0.386617 0.084741 0.455276 0.8 0 0
0.884421 0.208521 0.479280 0.8 0 0
0.516729 0.071484 0.461994 0.8 0 0
0.557775 0.210750 0.478833 0.8 0 0
0.301567 0.097728 0.445897 0.8 0 0
0.283805 0.094562 0.501140 0.8 0 0
0.425231 0.167933 0.547773 0.8 0 0
0.409490 0.128145 0.668560 0.8 0 0
0.231995 0.195987 0.323235 0.8 0 0
0.368622 0.128980 0.834339 0.8 0 0
0.496368 0.081565 0.450493 0.8 0 0
0.380881 0.143654 0.428664 0.8 0 0
0.444866 0.144468 0.716365 0.8 0 0
0.377920 0.108901 0.408522 0.8 0 0
0.401173 0.135467 0.262482 0.8 0 0
0.482112 0.094659 0.437579 0.8 0 0
0.459850 0.102615 0.329953 0.8 0 0
0.425184 0.036201 0.342783 0.8 0 0
0.384858 0.130540 0.380124 0.8 0 0
0.425583 0.103015 0.206771 0.8 0 0
0.505222 0.084480 0.510162 0.8 0 0
0.518193 0.085637 0.457273 0.8 0 0
0.450914 0.128625 0.351705 0.8 0 0
0.465778 0.157583 0.368282 0.8 0 0
0.468813 0.085438 0.294964 0.8 0 0
0.839019 0.208248 0.477951 0.8 0 0
0.428929 0.058504 0.175003 0.8 0 0
0.312317 0.072523 0.507369 0.8 0 0
0.437023 0.067908 0.572699 0.8 0 0
0.154251 0.227262 0.673568 0.8 0 0
0.405945 0.098851 0.586443 0.8 0 0
0.407395 0.129537 0.618066 0.8 0 0
0.289820 0.094756 0.479947 0.8 0 0
0.608355 0.064021 0.483326 0.8 0 0
0.474454 0.105456 0.333084 0.8 0 0
0.147954 0.189583 0.262823 0.8 0 0
0.548917 0.085070 0.513054 0.8 0 0
0.476784 0.195161 0.317161 0.8 0 0
0.434419 0.203465 0.968607 0.8 0 0
0.395869 0.092274 0.249632 0.8 0 0
0.428996 0.030792 0.316843 0.8 0 0
0.472611 0.105214 0.322646 0.8 0 0
0.401727 0.089044 0.192585 0.8 0 0
0.354613 0.092537 0.458677 0.8 0 0
0.423581 0.085275 0.643883 0.8 0 0
0.554136 0.058288 0.510620 0.8 0 0
0.384574 0.166340 0.500040 0.8 0 0
0.743935 0.209209 0.485511 0.8 0 0
0.427726 0.032720 0.300450 0.8 0 0
0.168719 0.225592 0.674160 0.8 0 0
0.429879 0.095154 0.269667 0.8 0 0
0.432229 0.102367 0.293653 0.8 0 0
0.293666 0.083952 0.479592 0.8 0 0
0.441805 0.147692 0.667839 0.8 0 0
0.721898 0.210517 0.492532 0.8 0 0
0.242302 0.077663 0.503831 0.8 0 0
0.606543 0.061798 0.504363 0.8 0 0
0.268852 0.079289 0.475876 0.8 0 0
0.412674 0.083634 0.603894 0.8 0 0
0.460677 0.080343 0.199041 0.8 0 0
0.435634 0.116891 0.902753 0.8 0 0
0.415680 0.167413 0.482963 0.8 0 0
0.421450 0.143830 0.358611 0.8 0 0
0.417409 0.100810 0.318605 0.8 0 0
0.412421 0.102839 0.698718 0.8 0 0
0.521378 0.207723 0.474522 0.8 0 0
0.410347 0.185439 0.478763 0.8 0 0
0.431734 0.119997 0.943831 0.8 0 0
0.425412 0.188625 0.903055 0.8 0 0
0.272836 0.092806 0.459579 0.8 0 0
0.403805 0.099446 0.223263 0.8 0 0
0.077623 0.231319 0.739343 0.8 0 0
0.464295 0.163330 0.441177 0.8 0 0
0.473659 0.171680 0.435197 0.8 0 0
0.396910 0.080119 0.516523 0.8 0 0
0.390632 0.102573 0.329616 0.8 0 0
0.402437 0.095964 0.242493 0.8 0 0
0.564257 0.066223 0.463725 0.8 0 0
0.451844 0.113310 0.692764 0.8 0 0
0.467730 0.115333 0.537467 0.8 0 0
0.077977 0.188339 0.224271 0.8 0 0
0.403785 0.100397 0.312037 0.8 0 0
0.420636 0.054757 0.255593 0.8 0 0
0.477826 0.128413 0.368458 0.8 0 0
0.403225 0.126444 0.822023 0.8 0 0
0.392205 0.128947 0.833638 0.8 0 0
0.630005 0.084550 0.489294 0.8 0 0
0.382506 0.139344 0.409893 0.8 0 0
0.272510 0.071591 0.485674 0.8 0 0
0.705293 0.207278 0.473557 0.8 0 0
0.189358 0.224175 0.669823 0.8 0 0
0.427689 0.096813 0.222040 0.8 0 0
0.394061 0.147015 0.339986 0.8 0 0
0.455695 0.118897 0.605478 0.8 0 0
0.512977 0.089726 0.500602 0.8 0 0
0.522009 0.236544 0.780195 0.8 0 0
0.513391 0.075350 0.490784 0.8 0 0
0.419705 0.059071 0.401750 0.8 0 0
0.440678 0.205218 0.426860 0.8 0 0
0.258679 0.061134 0.524435 0.8 0 0
0.382405 0.173491 0.479288 0.8 0 0
0.443344 0.100082 0.203685 0.8 0 0
0.301742 0.073163 0.500849 0.8 0 0
0.111216 0.190197 0.258887 0.8 0 0
0.387419 0.108592 0.337126 0.8 0 0
0.535597 0.184371 0.181131 0.8 0 0
0.485199 0.140750 0.437453 0.8 0 0
0.477629 0.157435 0.504474 0.8 0 0
0.447538 0.202191 0.411212 0.8 0 0
0.411057 0.119209 0.726607 0.8 0 0
0.433135 0.155398 0.598379 0.8 0 0
0.466224 0.132223 0.849733 0.8 0 0
0.363732 0.069400 0.487673 0.8 0 0
0.410759 0.096156 0.281004 0.8 0 0
0.449934 0.107748 0.709558 0.8 0 0
0.429391 0.185981 0.489897 0.8 0 0
0.345006 0.073067 0.427202 0.8 0 0
0.379720 0.123955 0.419772 0.8 0 0
0.436715 0.175055 0.879102 0.8 0 0
0.406489 0.060452 0.253592 0.8 0 0
0.245819 0.198872 0.344401 0.8 0 0
0.417347 0.190815 0.471924 0.8 0 0
0.467028 0.070816 0.485097 0.8 0 0
0.398956 0.100591 0.307987 0.8 0 0
0.507143 0.208734 0.479620 0.8 0 0
0.453791 0.140672 0.602515 0.8 0 0
0.494978 0.224446 0.662922 0.8 0 0
0.409328 0.093169 0.256870 0.8 0 0
0.579539 0.246140 0.903497 0.8 0 0
0.403651 0.062711 0.340917 0.8 0 0
0.622375 0.079096 0.450073 0.8 0 0
0.444162 0.133295 0.354815 0.8 0 0
0.251579 0.088015 0.498472 0.8 0 0
0.449168 0.205364 0.417837 0.8 0 0
0.452976 0.100823 0.309837 0.8 0 0
0.412721 0.190805 0.469512 0.8 0 0
0.455680 0.064051 0.188989 0.8 0 0
0.424037 0.091508 0.243450 0.8 0 0
0.449085 0.112957 0.738823 0.8 0 0
0.460008 0.093762 0.235046 0.8 0 0
0.454641 0.101108 0.284136 0.8 0 0
0.393214 0.097132 0.265437 0.8 0 0
0.435650 0.053891 0.249267 0.8 0 0
0.404693 0.127119 0.563326 0.8 0 0
0.465457 0.120468 0.275809 0.8 0 0
0.518304 0.085374 0.470628 0.8 0 0
0.514369 0.090309 0.482253 0.8 0 0
0.555720 0.245835 0.892070 0.8 0 0
0.253952 0.053714 0.517283 0.8 0 0
0.640600 0.209083 0.483609 0.8 0 0
0.486838 0.113118 0.481771 0.8 0 0
0.509226 0.190345 0.270985 0.8 0 0
0.365244 0.081704 0.455470 0.8 0 0
0.482961 0.155928 0.484397 0.8 0 0
0.240969 0.075328 0.492771 0.8 0 0
0.487362 0.133318 0.451424 0.8 0 0
0.266092 0.066465 0.461872 0.8 0 0
0.467161 0.143237 0.327068 0.8 0 0
0.429499 0.170373 0.940478 0.8 0 0
0.359758 0.067096 0.506427 0.8 0 0
0.416719 0.104213 0.307598 0.8 0 0
0.301004 0.131965 0.846774 0.8 0 0
0.427207 0.106506 0.324924 0.8 0 0
0.090814 0.230401 0.739871 0.8 0 0
0.429538 0.146914 0.932622 0.8 0 0
0.415581 0.166621 0.490316 0.8 0 0
0.563941 0.249066 0.941188 0.8 0 0
0.427871 0.119244 0.345946 0.8 0 0
0.513960 0.127013 0.825265 0.8 0 0
0.400016 0.071131 0.193588 0.8 0 0
0.415760 0.075592 0.586205 0.8 0 0
0.428377 0.093784 0.234951 0.8 0 0
0.487275 0.131243 0.447859 0.8 0 0
0.484967 0.155715 0.461709 0.8 0 0
0.420517 0.128635 0.264793 0.8 0 0
0.457046 0.095558 0.227389 0.8 0 0
0.501994 0.080503 0.444334 0.8 0 0
0.720422 0.209666 0.492178 0.8 0 0
0.437292 0.128689 0.266875 0.8 0 0
0.413006 0.214023 0.457437 0.8 0 0
0.489301 0.208258 0.476119 0.8 0 0
0.810533 0.209426 0.489247 0.8 0 0
0.427769 0.041032 0.280600 0.8 0 0
0.401283 0.099523 0.308208 0.8 0 0
0.405610 0.094180 0.256693 0.8 0 0
0.337879 0.102961 0.451020 0.8 0 0
0.435431 0.091311 0.715517 0.8 0 0
0.410620 0.131804 0.847393 0.8 0 0
0.435162 0.055147 0.337823 0.8 0 0
0.421305 0.076030 0.600014 0.8 0 0
0.278134 0.093575 0.501659 0.8 0 0
0.481075 0.199523 0.358506 0.8 0 0
0.352828 0.084133 0.469094 0.8 0 0
0.376080 0.121570 0.457874 0.8 0 0
0.309996 0.057993 0.461839 0.8 0 0
0.459394 0.067685 0.209319 0.8 0 0
0.435303 0.037339 0.341763 0.8 0 0
0.441112 0.098171 0.297287 0.8 0 0
0.427396 0.116861 0.885416 0.8 0 0
0.377916 0.142527 0.478405 0.8 0 0
0.342640 0.078641 0.464835 0.8 0 0
0.498520 0.230483 0.714234 0.8 0 0
0.449933 0.166096 0.483933 0.8 0 0
0.345437 0.082509 0.474492 0.8 0 0
0.437180 0.143122 0.260454 0.8 0 0
0.496423 0.127146 0.824215 0.8 0 0
0.434835 0.094644 0.268784 0.8 0 0
0.407240 0.141091 0.263832 0.8 0 0
0.419704 0.029457 0.347308 0.8 0 0
0.508390 0.080279 0.514394 0.8 0 0
0.401135 0.096213 0.209419 0.8 0 0
0.555517 0.134398 0.862494 0.8 0 0
0.447444 0.096318 0.680689 0.8 0 0
0.548827 0.071512 0.497377 0.8 0 0
0.507763 0.104761 0.416670 0.8 0 0
0.404217 0.097989 0.258945 0.8 0 0
0.321916 0.132989 0.854325 0.8 0 0
0.405492 0.108845 0.603324 0.8 0 0
0.407838 0.157359 0.340785 0.8 0 0
0.532192 0.239528 0.819449 0.8 0 0
0.245902 0.088096 0.479671 0.8 0 0
0.446172 0.100607 0.316966 0.8 0 0
0.547313 0.078675 0.528906 0.8 0 0
0.505412 0.093165 0.445736 0.8 0 0
0.486223 0.198321 0.350874 0.8 0 0
0.407071 0.128767 0.826920 0.8 0 0
0.563787 0.067374 0.513036 0.8 0 0
0.474781 0.219311 0.586713 0.8 0 0
0.355321 0.066851 0.464004 0.8 0 0
0.509395 0.076138 0.427779 0.8 0 0
0.427671 0.039586 0.330948 0.8 0 0
0.412135 0.062672 0.430453 0.8 0 0
0.447860 0.103819 0.716914 0.8 0 0
0.406197 0.125274 0.241482 0.8 0 0
0.627035 0.070097 0.451317 0.8 0 0
0.437327 0.058735 0.443179 0.8 0 0
0.345066 0.082611 0.458928 0.8 0 0
0.470009 0.159762 0.419613 0.8 0 0
0.512125 0.072628 0.508050 0.8 0 0
0.450573 0.135011 0.861734 0.8 0 0
0.319322 0.100387 0.504094 0.8 0 0
0.545612 0.099363 0.463913 0.8 0 0
0.248112 0.086744 0.466756 0.8 0 0
0.431130 0.041387 0.273195 0.8 0 0
0.432255 0.147219 0.747378 0.8 0 0
0.422602 0.100853 0.315715 0.8 0 0
0.252724 0.218978 0.596176 0.8 0 0
0.345013 0.086463 0.438063 0.8 0 0
0.562749 0.245417 0.876076 0.8 0 0
0.551884 0.136501 0.874619 0.8 0 0
0.516426 0.235311 0.776282 0.8 0 0
0.386588 0.173536 0.428985 0.8 0 0
0.413502 0.126577 0.775644 0.8 0 0
0.423810 0.035653 0.278092 0.8 0 0
0.533951 0.182437 0.155756 0.8 0 0
0.475563 0.199723 0.354024 0.8 0 0
0.049852 0.185312 0.188971 0.8 0 0
0.487305 0.134269 0.452022 0.8 0 0
0.486158 0.226948 0.670185 0.8 0 0
0.462896 0.071150 0.302529 0.8 0 0
0.151307 0.225639 0.674551 0.8 0 0
0.479347 0.152243 0.419097 0.8 0 0
0.789426 0.210282 0.493186 0.8 0 0
0.499607 0.108697 0.464841 0.8 0 0
0.376537 0.108808 0.476697 0.8 0 0
0.464042 0.096106 0.277364 0.8 0 0
0.431919 0.148913 0.293137 0.8 0 0
0.439627 0.117253 0.853499 0.8 0 0
0.578254 0.173583 0.067729 0.8 0 0
0.351642 0.075421 0.436752 0.8 0 0
0.355933 0.134695 0.859317 0.8 0 0
0.423287 0.186248 0.509539 0.8 0 0
0.517867 0.105493 0.470646 0.8 0 0
0.440581 0.056623 0.333768 0.8 0 0
0.402780 0.099551 0.271639 0.8 0 0
0.476307 0.161916 0.414302 0.8 0 0
0.316823 0.133673 0.858206 0.8 0 0
0.419593 0.132007 0.348157 0.8 0 0
0.551872 0.175488 0.103599 0.8 0 0
0.291225 0.075495 0.476807 0.8 0 0
0.456041 0.138172 0.567771 0.8 0 0
0.251302 0.078700 0.476243 0.8 0 0
0.345482 0.076612 0.493032 0.8 0 0
0.450620 0.096505 0.280586 0.8 0 0
0.422208 0.124747 0.348780 0.8 0 0
0.472199 0.074927 0.433139 0.8 0 0
0.435992 0.032417 0.275418 0.8 0 0
0.487626 0.108990 0.428760 0.8 0 0
0.415740 0.097361 0.232894 0.8 0 0
0.435538 0.192830 0.964776 0.8 0 0
0.392588 0.124980 0.304171 0.8 0 0
0.265323 0.091033 0.510429 0.8 0 0
0.508268 0.082194 0.458136 0.8 0 0
0.379660 0.132507 0.428944 0.8 0 0
0.323779 0.100587 0.459538 0.8 0 0
0.380046 0.148394 0.441654 0.8 0 0
0.509346 0.070192 0.492348 0.8 0 0
0.355243 0.073772 0.505849 0.8 0 0
0.493381 0.210686 0.480120 0.8 0 0
0.479455 0.168807 0.492039 0.8 0 0
0.396323 0.205394 0.478346 0.8 0 0
0.093186 0.189539 0.243954 0.8 0 0
0.469319 0.117361 0.344976 0.8 0 0
0.505927 0.076922 0.454343 0.8 0 0
0.436786 0.060917 0.502657 0.8 0 0
0.431511 0.101809 0.317725 0.8 0 0
0.453584 0.069530 0.534035 0.8 0 0
0.518609 0.105365 0.471766 0.8 0 0
0.515033 0.080720 0.494038 0.8 0 0
0.521944 0.181753 0.181618 0.8 0 0
0.419704 0.027586 0.354336 0.8 0 0
0.466970 0.151034 0.364045 0.8 0 0
