0.500150 0.519576 0.187701 0.8 0 0
0.570002 0.451544 0.126935 0.8 0 0
0.381120 0.723463 0.125170 0.8 0 0
0.427646 0.258683 0.074521 0.8 0 0
0.453543 0.825547 0.171150 0.8 0 0
0.538154 0.608664 0.133035 0.8 0 0
0.750873 0.814739 0.134953 0.8 0 0
0.486101 0.591432 0.066986 0.8 0 0
0.736950 0.779566 0.167528 0.8 0 0
0.518368 0.240844 0.145497 0.8 0 0
0.406512 0.266263 0.112319 0.8 0 0
0.522763 0.587915 0.079786 0.8 0 0
0.414637 0.720474 0.062954 0.8 0 0
0.383820 0.365136 0.096589 0.8 0 0
0.485178 0.423938 0.097401 0.8 0 0
0.448933 0.888628 0.163763 0.8 0 0
0.389744 0.703227 0.122865 0.8 0 0
0.549343 0.578299 0.138527 0.8 0 0
0.442408 0.034966 0.106905 0.8 0 0
0.453339 0.624758 0.156145 0.8 0 0
0.140172 0.772637 0.132011 0.8 0 0
0.581783 0.726676 0.153562 0.8 0 0
0.513384 0.812971 0.175641 0.8 0 0
0.544298 0.419783 0.061361 0.8 0 0
0.466232 0.496015 0.179928 0.8 0 0
0.559129 0.521942 0.098093 0.8 0 0
0.451818 0.806463 0.178552 0.8 0 0
0.499446 0.598608 0.156463 0.8 0 0
0.721042 0.802642 0.164288 0.8 0 0
0.416990 0.448553 0.162547 0.8 0 0
0.528592 0.771227 0.188148 0.8 0 0
0.435441 0.272053 0.070204 0.8 0 0
0.535792 0.596617 0.092335 0.8 0 0
0.473684 0.538611 0.173855 0.8 0 0
0.522509 0.401398 0.160232 0.8 0 0
0.713149 0.771610 0.144755 0.8 0 0
0.493091 0.425958 0.085800 0.8 0 0
0.372491 0.728568 0.150234 0.8 0 0
0.465627 0.622680 0.154327 0.8 0 0
0.394625 0.507850 0.093077 0.8 0 0
0.851940 0.774624 0.122749 0.8 0 0
0.374808 0.783248 0.180521 0.8 0 0
0.432455 0.043978 0.050306 0.8 0 0
0.501582 0.742954 0.046627 0.8 0 0
0.536094 0.725287 0.052744 0.8 0 0
0.534436 0.368862 0.065397 0.8 0 0
0.308732 0.766543 0.131042 0.8 0 0
0.503177 0.180337 0.106204 0.8 0 0
0.523706 0.242139 0.079306 0.8 0 0
0.537780 0.811261 0.105131 0.8 0 0
0.492665 0.937701 0.076380 0.8 0 0
0.460196 0.484506 0.084537 0.8 0 0
0.499928 0.502591 0.186780 0.8 0 0
0.514301 0.942179 0.135625 0.8 0 0
0.574067 0.802829 0.175209 0.8 0 0
0.405955 0.271293 0.092353 0.8 0 0
0.474408 0.437749 0.112227 0.8 0 0
0.571795 0.428736 0.121914 0.8 0 0
0.387472 0.352530 0.107874 0.8 0 0
0.296175 0.796142 0.164382 0.8 0 0
0.463393 0.751430 0.050273 0.8 0 0
0.410737 0.525672 0.174126 0.8 0 0
0.462929 0.878220 0.075482 0.8 0 0
0.566662 0.493648 0.131672 0.8 0 0
0.405606 0.045365 0.126171 0.8 0 0
0.551898 0.425764 0.158632 0.8 0 0
0.327260 0.803244 0.170435 0.8 0 0
0.410602 0.550477 0.165590 0.8 0 0
0.522660 0.217837 0.084086 0.8 0 0
0.530199 0.766881 0.063238 0.8 0 0
0.431819 0.554553 0.074564 0.8 0 0
0.438409 0.046096 0.144371 0.8 0 0
0.470618 0.972230 0.142619 0.8 0 0
0.496869 0.932600 0.075462 0.8 0 0
0.434583 0.891521 0.125382 0.8 0 0
0.551893 0.235041 0.102769 0.8 0 0
0.186476 0.801511 0.161027 0.8 0 0
0.453074 0.303086 0.096200 0.8 0 0
0.514003 0.947359 0.118492 0.8 0 0
0.449241 0.919349 0.170662 0.8 0 0
0.452673 0.412646 0.157882 0.8 0 0
0.477190 0.502123 0.164680 0.8 0 0
0.141902 0.795083 0.119304 0.8 0 0
0.446965 0.055194 0.094548 0.8 0 0
0.387083 0.380176 0.080676 0.8 0 0
0.875895 0.779068 0.144155 0.8 0 0
0.581489 0.733063 0.157326 0.8 0 0
0.574401 0.417032 0.107301 0.8 0 0
0.302500 0.789493 0.108412 0.8 0 0
0.545762 0.142196 0.126538 0.8 0 0
0.419356 0.064501 0.090735 0.8 0 0
0.486769 0.481360 0.118115 0.8 0 0
0.468781 0.558222 0.168641 0.8 0 0
0.573134 0.432690 0.101328 0.8 0 0
0.454271 0.944593 0.082533 0.8 0 0
0.399473 0.512860 0.088943 0.8 0 0
0.488754 0.374401 0.110676 0.8 0 0
0.478694 0.516346 0.065683 0.8 0 0
0.520191 0.188200 0.144158 0.8 0 0
0.261103 0.809897 0.128498 0.8 0 0
0.885565 0.784835 0.106439 0.8 0 0
0.413372 0.135837 0.131577 0.8 0 0
0.413241 0.131264 0.130656 0.8 0 0
0.368223 0.747832 0.142911 0.8 0 0
0.714600 0.791416 0.168848 0.8 0 0
0.454426 0.864604 0.111197 0.8 0 0
0.062210 0.783203 0.136735 0.8 0 0
0.347368 0.777477 0.119542 0.8 0 0
0.446985 0.933521 0.087182 0.8 0 0
0.451608 0.300277 0.094950 0.8 0 0
0.519137 0.174836 0.139813 0.8 0 0
0.454773 0.816622 0.174506 0.8 0 0
0.228726 0.793024 0.123430 0.8 0 0
0.388358 0.707555 0.162708 0.8 0 0
0.681598 0.806347 0.112434 0.8 0 0
0.534209 0.586701 0.151555 0.8 0 0
0.480303 0.916478 0.181847 0.8 0 0
0.559639 0.532045 0.105287 0.8 0 0
0.462678 0.489039 0.090231 0.8 0 0
0.559536 0.764749 0.083919 0.8 0 0
0.497005 0.556932 0.173356 0.8 0 0
0.539116 0.250216 0.079715 0.8 0 0
0.628628 0.824504 0.127284 0.8 0 0
0.533560 0.598573 0.146387 0.8 0 0
0.484297 0.395820 0.114836 0.8 0 0
0.490559 0.580626 0.160654 0.8 0 0
0.393649 0.486610 0.087529 0.8 0 0
0.548099 0.295250 0.096846 0.8 0 0
0.451057 0.283865 0.101080 0.8 0 0
0.570256 0.736099 0.168349 0.8 0 0
0.435336 0.445442 0.162083 0.8 0 0
0.475117 0.482239 0.127066 0.8 0 0
0.508877 0.928685 0.085350 0.8 0 0
0.421713 0.627138 0.095265 0.8 0 0
0.680763 0.813219 0.149717 0.8 0 0
0.423889 0.324517 0.132154 0.8 0 0
0.256167 0.799190 0.115360 0.8 0 0
0.528258 0.538416 0.074421 0.8 0 0
0.436536 0.564014 0.074518 0.8 0 0
0.487764 0.477013 0.105449 0.8 0 0
0.468212 0.881394 0.172202 0.8 0 0
0.892646 0.777545 0.139663 0.8 0 0
0.556055 0.180116 0.111758 0.8 0 0
0.521381 0.381364 0.068971 0.8 0 0
0.457669 0.426403 0.156345 0.8 0 0
0.885691 0.791421 0.134835 0.8 0 0
0.392627 0.803563 0.171124 0.8 0 0
0.478821 0.873266 0.070573 0.8 0 0
0.553690 0.170714 0.124061 0.8 0 0
0.548190 0.790052 0.176789 0.8 0 0
0.500968 0.577016 0.162832 0.8 0 0
0.447367 0.903000 0.081541 0.8 0 0
0.433899 0.584602 0.156938 0.8 0 0
0.256698 0.776749 0.157907 0.8 0 0
0.471962 0.403499 0.124484 0.8 0 0
0.464353 0.468793 0.145717 0.8 0 0
0.459591 0.851539 0.158500 0.8 0 0
0.530604 0.267319 0.070382 0.8 0 0
0.532862 0.249969 0.078033 0.8 0 0
0.280732 0.789498 0.107392 0.8 0 0
0.511408 0.312942 0.072000 0.8 0 0
0.440966 0.164516 0.095854 0.8 0 0
0.417062 0.782387 0.181993 0.8 0 0
0.407522 0.670997 0.113933 0.8 0 0
0.868362 0.776465 0.119439 0.8 0 0
0.462722 0.854356 0.103558 0.8 0 0
0.093861 0.792392 0.107656 0.8 0 0
0.570667 0.483407 0.118579 0.8 0 0
0.582827 0.827577 0.124451 0.8 0 0
0.438910 0.777438 0.068690 0.8 0 0
0.566811 0.470194 0.090822 0.8 0 0
0.458384 0.961433 0.156126 0.8 0 0
0.504621 0.585770 0.159020 0.8 0 0
0.451158 0.846789 0.118972 0.8 0 0
0.413589 0.328082 0.070733 0.8 0 0
0.550066 0.030725 0.073778 0.8 0 0
0.544345 0.815313 0.118963 0.8 0 0
0.507800 0.166937 0.102201 0.8 0 0
0.411019 0.120354 0.123558 0.8 0 0
0.511703 0.213188 0.092284 0.8 0 0
0.280664 0.769083 0.117092 0.8 0 0
0.506611 0.026133 0.068375 0.8 0 0
0.440394 0.057421 0.137154 0.8 0 0
0.908086 0.789093 0.109806 0.8 0 0
0.450947 0.883310 0.163088 0.8 0 0
0.408266 0.250721 0.135648 0.8 0 0
0.279499 0.807175 0.158814 0.8 0 0
0.550600 0.259041 0.095384 0.8 0 0
0.450767 0.865399 0.103228 0.8 0 0
0.499698 0.578722 0.162033 0.8 0 0
0.538333 0.532114 0.179015 0.8 0 0
0.537380 0.306670 0.124668 0.8 0 0
0.450995 0.859547 0.147842 0.8 0 0
0.440254 0.147696 0.132422 0.8 0 0
0.043364 0.772294 0.148732 0.8 0 0
0.549797 0.306712 0.104590 0.8 0 0
0.544819 0.122565 0.123002 0.8 0 0
0.911807 0.777744 0.132411 0.8 0 0
0.428177 0.030866 0.044900 0.8 0 0
0.500677 0.475882 0.175329 0.8 0 0
0.456747 0.473386 0.172091 0.8 0 0
0.508605 0.870586 0.145574 0.8 0 0
0.479102 0.716116 0.057736 0.8 0 0
0.385155 0.485685 0.122749 0.8 0 0
0.424920 0.199021 0.149546 0.8 0 0
0.071125 0.785652 0.105863 0.8 0 0
0.534675 0.219585 0.084168 0.8 0 0
0.511742 0.814094 0.175459 0.8 0 0
0.517169 0.599445 0.079548 0.8 0 0
0.503663 0.667468 0.165208 0.8 0 0
0.537955 0.579673 0.152245 0.8 0 0
0.502418 0.585515 0.073384 0.8 0 0
0.313680 0.803792 0.170925 0.8 0 0
0.488244 0.432299 0.145686 0.8 0 0
0.388806 0.444486 0.134773 0.8 0 0
0.441896 0.325124 0.068754 0.8 0 0
0.537483 0.550859 0.081572 0.8 0 0
0.510722 0.757042 0.192196 0.8 0 0
0.813098 0.772091 0.138933 0.8 0 0
0.447698 0.045018 0.054904 0.8 0 0
0.532707 0.731245 0.183533 0.8 0 0
0.542772 0.227174 0.149594 0.8 0 0
0.437971 0.094787 0.132454 0.8 0 0
0.384206 0.420420 0.122215 0.8 0 0
0.424925 0.275108 0.067616 0.8 0 0
0.541190 0.025463 0.067934 0.8 0 0
0.377937 0.736197 0.164629 0.8 0 0
0.176027 0.805446 0.124571 0.8 0 0
0.440744 0.159310 0.096357 0.8 0 0
0.395709 0.513189 0.143166 0.8 0 0
0.490178 0.868543 0.164958 0.8 0 0
0.392225 0.766616 0.173800 0.8 0 0
0.506161 0.326637 0.073672 0.8 0 0
0.418774 0.127081 0.098285 0.8 0 0
0.514803 0.172337 0.094776 0.8 0 0
0.451755 0.314110 0.083969 0.8 0 0
0.731831 0.781455 0.168429 0.8 0 0
0.543440 0.640188 0.127277 0.8 0 0
0.389702 0.385679 0.124605 0.8 0 0
0.491320 0.972398 0.129933 0.8 0 0
0.442959 0.660675 0.160455 0.8 0 0
0.569602 0.786964 0.096599 0.8 0 0
0.439381 0.135319 0.132508 0.8 0 0
0.453453 0.878523 0.083089 0.8 0 0
0.195948 0.773397 0.158737 0.8 0 0
0.481930 0.739569 0.185235 0.8 0 0
0.413022 0.219083 0.089550 0.8 0 0
0.502375 0.374477 0.143449 0.8 0 0
0.669825 0.815442 0.133471 0.8 0 0
0.455263 0.477063 0.176059 0.8 0 0
0.471335 0.398186 0.109013 0.8 0 0
0.493701 0.870954 0.077502 0.8 0 0
0.449622 0.623694 0.076508 0.8 0 0
0.409278 0.777914 0.079536 0.8 0 0
0.510995 0.112918 0.112979 0.8 0 0
0.388054 0.741372 0.112109 0.8 0 0
0.429223 0.296077 0.070771 0.8 0 0
0.551550 0.687382 0.107316 0.8 0 0
0.451993 0.782158 0.069933 0.8 0 0
0.531897 0.670888 0.156945 0.8 0 0
0.486331 0.463044 0.141944 0.8 0 0
0.472355 0.456776 0.106329 0.8 0 0
0.395341 0.523174 0.100756 0.8 0 0
0.367151 0.792976 0.095385 0.8 0 0
0.399695 0.712300 0.098754 0.8 0 0
0.842263 0.794140 0.117909 0.8 0 0
0.433962 0.173862 0.090420 0.8 0 0
0.223126 0.766605 0.147545 0.8 0 0
0.127448 0.777516 0.143951 0.8 0 0
0.471718 0.431577 0.137736 0.8 0 0
0.488297 0.458137 0.147689 0.8 0 0
0.606827 0.769156 0.163073 0.8 0 0
0.555955 0.798286 0.101339 0.8 0 0
0.495888 0.561647 0.067770 0.8 0 0
0.497485 0.578136 0.162272 0.8 0 0
0.810108 0.803277 0.125476 0.8 0 0
0.363282 0.780526 0.179167 0.8 0 0
0.313236 0.768177 0.126734 0.8 0 0
0.516588 0.054734 0.073655 0.8 0 0
0.448529 0.032030 0.040350 0.8 0 0
0.425122 0.626591 0.143765 0.8 0 0
0.096091 0.773330 0.115872 0.8 0 0
0.461286 0.529421 0.184806 0.8 0 0
0.410260 0.284813 0.117944 0.8 0 0
0.409373 0.357158 0.145017 0.8 0 0
0.700928 0.771028 0.133226 0.8 0 0
0.421338 0.709532 0.073247 0.8 0 0
0.475741 0.639103 0.153534 0.8 0 0
0.534107 0.477676 0.067951 0.8 0 0
0.434266 0.763433 0.059031 0.8 0 0
0.388428 0.777319 0.094821 0.8 0 0
0.502255 0.326308 0.081338 0.8 0 0
0.518465 0.026222 0.081657 0.8 0 0
0.419669 0.131874 0.097094 0.8 0 0
0.525996 0.341796 0.140197 0.8 0 0
0.648917 0.770549 0.166761 0.8 0 0
0.524478 0.738511 0.048936 0.8 0 0
0.528286 0.293890 0.122412 0.8 0 0
0.465675 0.879273 0.169777 0.8 0 0
0.538292 0.623012 0.132285 0.8 0 0
0.412458 0.497780 0.174893 0.8 0 0
0.457666 0.944066 0.171644 0.8 0 0
0.413752 0.602921 0.115635 0.8 0 0
0.522400 0.464582 0.168815 0.8 0 0
0.388686 0.750153 0.171127 0.8 0 0
0.487749 0.380338 0.106230 0.8 0 0
0.406258 0.280235 0.090096 0.8 0 0
0.428852 0.213194 0.083737 0.8 0 0
0.512926 0.840705 0.149933 0.8 0 0
0.399705 0.194217 0.139922 0.8 0 0
0.688408 0.796572 0.108964 0.8 0 0
0.562964 0.744338 0.088739 0.8 0 0
0.564732 0.817829 0.164304 0.8 0 0
0.402947 0.711175 0.171664 0.8 0 0
0.572931 0.721168 0.123654 0.8 0 0
0.898051 0.782236 0.137099 0.8 0 0
0.550345 0.469305 0.073398 0.8 0 0
0.424031 0.082294 0.099119 0.8 0 0
0.522821 0.572393 0.163697 0.8 0 0
0.441103 0.931439 0.114178 0.8 0 0
0.411128 0.126513 0.125169 0.8 0 0
0.533322 0.428694 0.162975 0.8 0 0
0.518291 0.894919 0.126804 0.8 0 0
0.485696 0.435393 0.094874 0.8 0 0
0.419888 0.730502 0.050569 0.8 0 0
0.402500 0.778766 0.175385 0.8 0 0
0.640223 0.817739 0.120207 0.8 0 0
0.544909 0.026189 0.064378 0.8 0 0
0.451103 0.500835 0.187673 0.8 0 0
0.196697 0.800250 0.164109 0.8 0 0
0.400834 0.222871 0.141366 0.8 0 0
0.727058 0.791391 0.173543 0.8 0 0
0.437404 0.813458 0.110170 0.8 0 0
0.458227 0.346168 0.090305 0.8 0 0
0.447603 0.238532 0.138206 0.8 0 0
0.445905 0.318050 0.071330 0.8 0 0
0.827354 0.774032 0.136827 0.8 0 0
0.523412 0.542970 0.183456 0.8 0 0
0.121675 0.787600 0.144172 0.8 0 0
0.605986 0.769184 0.160033 0.8 0 0
0.045071 0.772155 0.147201 0.8 0 0
0.445601 0.378572 0.075318 0.8 0 0
0.516660 0.908692 0.118324 0.8 0 0
0.491993 0.568605 0.067032 0.8 0 0
0.494007 0.775802 0.063790 0.8 0 0
0.406445 0.061294 0.111202 0.8 0 0
0.497495 0.216767 0.111115 0.8 0 0
0.744035 0.811193 0.158229 0.8 0 0
0.453487 0.173310 0.116165 0.8 0 0
0.399873 0.510956 0.087786 0.8 0 0
0.506691 0.941055 0.086005 0.8 0 0
0.476913 0.484798 0.138434 0.8 0 0
0.451987 0.955277 0.093654 0.8 0 0
0.456182 0.549697 0.068716 0.8 0 0
0.547021 0.758908 0.177938 0.8 0 0
0.462553 0.971439 0.130027 0.8 0 0
0.565162 0.416337 0.075613 0.8 0 0
0.400442 0.424083 0.154469 0.8 0 0
0.434475 0.449469 0.161774 0.8 0 0
0.643380 0.769976 0.118730 0.8 0 0
0.558150 0.717321 0.171556 0.8 0 0
0.526344 0.749806 0.053270 0.8 0 0
0.653708 0.777316 0.108648 0.8 0 0
0.860516 0.793874 0.135251 0.8 0 0
0.423271 0.341287 0.065724 0.8 0 0
0.439011 0.213440 0.148862 0.8 0 0
0.410240 0.726846 0.061309 0.8 0 0
0.549531 0.057953 0.109497 0.8 0 0
0.443143 0.084742 0.116160 0.8 0 0
0.524949 0.147328 0.092723 0.8 0 0
0.507382 0.922272 0.080833 0.8 0 0
0.468207 0.543897 0.177015 0.8 0 0
0.680237 0.806503 0.112478 0.8 0 0
0.449533 0.551207 0.180236 0.8 0 0
0.382473 0.381825 0.094965 0.8 0 0
0.456288 0.227400 0.130126 0.8 0 0
0.492114 0.884214 0.172355 0.8 0 0
0.438112 0.830442 0.169475 0.8 0 0
0.345300 0.809321 0.171759 0.8 0 0
0.511605 0.408946 0.072044 0.8 0 0
0.548025 0.045642 0.133864 0.8 0 0
0.494100 0.616274 0.070327 0.8 0 0
0.514047 0.946989 0.116990 0.8 0 0
0.547416 0.277499 0.096578 0.8 0 0
0.557464 0.801656 0.170387 0.8 0 0
0.425826 0.405691 0.060489 0.8 0 0
0.403513 0.250060 0.104995 0.8 0 0
0.565758 0.749488 0.100059 0.8 0 0
0.540232 0.027422 0.091571 0.8 0 0
0.533569 0.563022 0.167218 0.8 0 0
0.523726 0.681551 0.077777 0.8 0 0
0.393094 0.412742 0.136693 0.8 0 0
0.526688 0.283175 0.068194 0.8 0 0
0.494979 0.341453 0.099169 0.8 0 0
0.516264 0.902859 0.151939 0.8 0 0
0.466954 0.389607 0.095367 0.8 0 0
0.553245 0.571074 0.136722 0.8 0 0
0.698506 0.786163 0.165658 0.8 0 0
0.561117 0.688958 0.126416 0.8 0 0
0.265455 0.795943 0.165129 0.8 0 0
0.500135 0.386801 0.082323 0.8 0 0
0.469512 0.393034 0.125292 0.8 0 0
0.385827 0.420581 0.125502 0.8 0 0
0.391462 0.332454 0.101700 0.8 0 0
0.630309 0.815974 0.110913 0.8 0 0
0.054963 0.792581 0.104321 0.8 0 0
0.414402 0.627416 0.116570 0.8 0 0
0.405644 0.201508 0.146667 0.8 0 0
0.458199 0.601383 0.071155 0.8 0 0
0.451133 0.653510 0.074923 0.8 0 0
0.467625 0.774735 0.062609 0.8 0 0
0.534129 0.550502 0.079215 0.8 0 0
0.520614 0.449307 0.064176 0.8 0 0
0.146049 0.788697 0.118072 0.8 0 0
0.536698 0.198302 0.149376 0.8 0 0
0.225901 0.774076 0.160174 0.8 0 0
0.418994 0.270605 0.070950 0.8 0 0
0.388614 0.388015 0.123583 0.8 0 0
0.343856 0.827717 0.139304 0.8 0 0
0.400081 0.675611 0.148030 0.8 0 0
0.728975 0.813206 0.145124 0.8 0 0
0.583127 0.802091 0.096636 0.8 0 0
0.415022 0.539756 0.082789 0.8 0 0
0.217478 0.793109 0.172218 0.8 0 0
0.540381 0.268761 0.073331 0.8 0 0
0.540962 0.693805 0.168069 0.8 0 0
0.535368 0.028503 0.053381 0.8 0 0
0.537402 0.110081 0.135158 0.8 0 0
0.397771 0.485685 0.082641 0.8 0 0
0.402512 0.336751 0.072111 0.8 0 0
0.531995 0.041926 0.054288 0.8 0 0
0.419571 0.491821 0.179575 0.8 0 0
0.457052 0.184685 0.117186 0.8 0 0
0.509062 0.523124 0.189083 0.8 0 0
0.132281 0.781319 0.116712 0.8 0 0
0.555690 0.236712 0.126408 0.8 0 0
0.507293 0.462232 0.159476 0.8 0 0
0.295795 0.807492 0.162183 0.8 0 0
0.407022 0.228424 0.095846 0.8 0 0
0.543784 0.753546 0.062365 0.8 0 0
0.316511 0.818096 0.120014 0.8 0 0
0.360332 0.802442 0.178404 0.8 0 0
0.502131 0.923503 0.174728 0.8 0 0
0.496680 0.319094 0.103900 0.8 0 0
0.873403 0.777522 0.143704 0.8 0 0
0.494776 0.805124 0.088527 0.8 0 0
0.407103 0.254832 0.131030 0.8 0 0
0.524635 0.734844 0.185943 0.8 0 0
0.507095 0.856060 0.142238 0.8 0 0
0.440657 0.436144 0.067616 0.8 0 0
0.869563 0.794978 0.128260 0.8 0 0
0.543128 0.638717 0.122629 0.8 0 0
0.474439 0.713477 0.057659 0.8 0 0
0.480675 0.892390 0.061209 0.8 0 0
0.450760 0.939027 0.083385 0.8 0 0
0.540976 0.775482 0.181052 0.8 0 0
0.430631 0.566471 0.076223 0.8 0 0
0.644285 0.766555 0.134284 0.8 0 0
0.458726 0.480791 0.080254 0.8 0 0
0.467366 0.383794 0.123793 0.8 0 0
0.485264 0.430184 0.096493 0.8 0 0
0.555820 0.425729 0.067085 0.8 0 0
0.545289 0.538176 0.169475 0.8 0 0
0.508835 0.849638 0.129562 0.8 0 0
0.457410 0.211648 0.109741 0.8 0 0
0.438303 0.840807 0.147973 0.8 0 0
0.426755 0.108976 0.138833 0.8 0 0
0.417344 0.221397 0.151684 0.8 0 0
0.411884 0.598601 0.124815 0.8 0 0
0.466347 0.902058 0.073178 0.8 0 0
0.414952 0.613125 0.121219 0.8 0 0
0.056425 0.776786 0.148079 0.8 0 0
0.541080 0.487092 0.070852 0.8 0 0
0.572144 0.452256 0.114313 0.8 0 0
0.510906 0.599590 0.154299 0.8 0 0
0.518905 0.155004 0.094142 0.8 0 0
0.161555 0.808829 0.140647 0.8 0 0
0.398308 0.722754 0.172931 0.8 0 0
0.473300 0.440497 0.132263 0.8 0 0
0.511465 0.414661 0.161235 0.8 0 0
0.522425 0.634620 0.151956 0.8 0 0
0.541070 0.207618 0.150539 0.8 0 0
0.506294 0.159834 0.106814 0.8 0 0
0.437193 0.034521 0.044922 0.8 0 0
0.486752 0.414041 0.094665 0.8 0 0
0.517271 0.077687 0.131416 0.8 0 0
0.569146 0.457404 0.093786 0.8 0 0
0.385277 0.806942 0.104218 0.8 0 0
0.496672 0.895289 0.174741 0.8 0 0
0.725678 0.776779 0.127648 0.8 0 0
0.418041 0.200507 0.150072 0.8 0 0
0.922564 0.782986 0.115170 0.8 0 0
0.564320 0.340908 0.082490 0.8 0 0
0.450431 0.630352 0.074614 0.8 0 0
0.452558 0.857504 0.150684 0.8 0 0
0.474750 0.734554 0.183664 0.8 0 0
0.421279 0.213525 0.152206 0.8 0 0
0.388339 0.467628 0.090893 0.8 0 0
0.569178 0.435526 0.087136 0.8 0 0
0.526951 0.306532 0.072299 0.8 0 0
0.392063 0.798925 0.172940 0.8 0 0
0.412230 0.336451 0.136483 0.8 0 0
0.333332 0.802387 0.100685 0.8 0 0
0.398909 0.343636 0.072910 0.8 0 0
0.506639 0.921453 0.170787 0.8 0 0
0.426820 0.131854 0.094634 0.8 0 0
0.527731 0.413355 0.162328 0.8 0 0
0.667263 0.799622 0.109393 0.8 0 0
0.476870 0.485764 0.152065 0.8 0 0
0.538802 0.028840 0.131511 0.8 0 0
0.183394 0.766823 0.140453 0.8 0 0
0.520650 0.173874 0.140103 0.8 0 0
0.403679 0.738898 0.066186 0.8 0 0
0.525740 0.480466 0.180882 0.8 0 0
0.529168 0.296588 0.070177 0.8 0 0
0.551783 0.163211 0.121567 0.8 0 0
0.546411 0.692269 0.090433 0.8 0 0
0.670643 0.814270 0.146026 0.8 0 0
0.405722 0.035398 0.059696 0.8 0 0
0.422310 0.341166 0.140231 0.8 0 0
0.455045 0.807229 0.090294 0.8 0 0
0.487343 0.892462 0.067072 0.8 0 0
0.549716 0.253271 0.091406 0.8 0 0
0.778211 0.773097 0.153192 0.8 0 0
0.451662 0.275425 0.106462 0.8 0 0
0.305064 0.816185 0.141602 0.8 0 0
0.434120 0.120268 0.097238 0.8 0 0
0.392082 0.743933 0.101548 0.8 0 0
0.552978 0.312069 0.081484 0.8 0 0
0.396318 0.451767 0.150433 0.8 0 0
0.468043 0.562839 0.066338 0.8 0 0
0.483883 0.763157 0.188323 0.8 0 0
0.424105 0.598900 0.147753 0.8 0 0
0.403238 0.305210 0.093929 0.8 0 0
0.598068 0.822214 0.161350 0.8 0 0
0.435040 0.157334 0.137206 0.8 0 0
0.392840 0.479704 0.087173 0.8 0 0
0.514338 0.715353 0.050750 0.8 0 0
0.382218 0.739914 0.167637 0.8 0 0
0.509786 0.123876 0.117189 0.8 0 0
0.488570 0.823393 0.099717 0.8 0 0
0.180755 0.812442 0.148380 0.8 0 0
0.529463 0.415741 0.060242 0.8 0 0
0.571423 0.446754 0.099318 0.8 0 0
0.389669 0.768134 0.092636 0.8 0 0
0.422425 0.234601 0.081097 0.8 0 0
0.445581 0.890910 0.093827 0.8 0 0
0.421054 0.040321 0.040589 0.8 0 0
0.444863 0.537983 0.073419 0.8 0 0
0.506489 0.726984 0.186164 0.8 0 0
0.193342 0.767000 0.133810 0.8 0 0
0.472733 0.898977 0.179976 0.8 0 0
0.410721 0.536224 0.171421 0.8 0 0
0.472231 0.433681 0.101123 0.8 0 0
0.533738 0.648447 0.091995 0.8 0 0
0.454469 0.865289 0.112463 0.8 0 0
0.531703 0.331443 0.068068 0.8 0 0
0.340678 0.823399 0.150398 0.8 0 0
0.526242 0.175222 0.141948 0.8 0 0
0.481592 0.570238 0.164524 0.8 0 0
0.829551 0.785575 0.145979 0.8 0 0
0.536320 0.772373 0.069639 0.8 0 0
0.526961 0.532623 0.185391 0.8 0 0
0.482030 0.458120 0.127894 0.8 0 0
0.430023 0.766411 0.061811 0.8 0 0
0.440937 0.232482 0.085237 0.8 0 0
0.154821 0.798255 0.120944 0.8 0 0
0.508502 0.138060 0.110344 0.8 0 0
0.246022 0.772901 0.151122 0.8 0 0
0.461759 0.718500 0.051458 0.8 0 0
0.420754 0.716635 0.061376 0.8 0 0
0.552507 0.796039 0.098395 0.8 0 0
0.382745 0.771068 0.098036 0.8 0 0
0.524637 0.906204 0.128908 0.8 0 0
0.267808 0.812323 0.152994 0.8 0 0
0.482340 0.902536 0.066575 0.8 0 0
0.337065 0.827690 0.135553 0.8 0 0
0.453253 0.254156 0.108900 0.8 0 0
0.517761 0.810181 0.096354 0.8 0 0
0.845644 0.795170 0.136406 0.8 0 0
0.409630 0.031417 0.104781 0.8 0 0
0.484744 0.774691 0.065581 0.8 0 0
0.525697 0.605246 0.147115 0.8 0 0
0.469781 0.654458 0.073898 0.8 0 0
0.530471 0.182804 0.144519 0.8 0 0
0.437861 0.911817 0.113754 0.8 0 0
0.424639 0.788043 0.080478 0.8 0 0
0.488601 0.538737 0.180257 0.8 0 0
0.413940 0.196716 0.091852 0.8 0 0
0.409200 0.304675 0.119292 0.8 0 0
0.635988 0.789634 0.171998 0.8 0 0
0.627339 0.811058 0.105464 0.8 0 0
0.499096 0.503544 0.077657 0.8 0 0
0.388698 0.702338 0.125736 0.8 0 0
0.537585 0.393574 0.157545 0.8 0 0
0.502545 0.173264 0.120517 0.8 0 0
0.519535 0.888671 0.119724 0.8 0 0
0.437674 0.517009 0.190030 0.8 0 0
0.408231 0.736368 0.178719 0.8 0 0
0.720070 0.774496 0.156469 0.8 0 0
0.585818 0.829824 0.132766 0.8 0 0
0.520649 0.370360 0.150712 0.8 0 0
0.486694 0.923521 0.181106 0.8 0 0
0.722283 0.807856 0.156745 0.8 0 0
0.805575 0.785171 0.153976 0.8 0 0
0.334206 0.818651 0.109372 0.8 0 0
0.661491 0.805544 0.112084 0.8 0 0
0.549777 0.032812 0.067248 0.8 0 0
0.545665 0.823172 0.140544 0.8 0 0
0.401561 0.389749 0.066079 0.8 0 0
0.399188 0.371671 0.134674 0.8 0 0
0.469276 0.925693 0.181053 0.8 0 0
0.393994 0.214510 0.127826 0.8 0 0
0.468573 0.902045 0.179818 0.8 0 0
0.425004 0.028564 0.087859 0.8 0 0
0.405676 0.546222 0.095643 0.8 0 0
0.529777 0.509106 0.071528 0.8 0 0
0.065258 0.781010 0.146984 0.8 0 0
0.057690 0.786969 0.115180 0.8 0 0
0.513494 0.038426 0.101856 0.8 0 0
0.406042 0.299361 0.096071 0.8 0 0
0.518360 0.649593 0.079896 0.8 0 0
0.435351 0.770824 0.190343 0.8 0 0
0.098771 0.774153 0.102195 0.8 0 0
0.746953 0.808255 0.123360 0.8 0 0
0.422295 0.446444 0.062847 0.8 0 0
0.597992 0.815110 0.169966 0.8 0 0
0.190076 0.770196 0.127326 0.8 0 0
0.112860 0.796412 0.122265 0.8 0 0
0.747333 0.790685 0.119310 0.8 0 0
0.307577 0.773036 0.167715 0.8 0 0
0.194963 0.810305 0.127193 0.8 0 0
0.443215 0.722108 0.045351 0.8 0 0
0.414262 0.025700 0.077641 0.8 0 0
0.549287 0.307407 0.108031 0.8 0 0
0.417929 0.212583 0.151997 0.8 0 0
0.547818 0.063423 0.109518 0.8 0 0
0.517074 0.027512 0.086873 0.8 0 0
0.534176 0.397418 0.060438 0.8 0 0
0.442849 0.590974 0.077552 0.8 0 0
0.537735 0.031660 0.036179 0.8 0 0
0.428586 0.030912 0.041520 0.8 0 0
0.501815 0.174469 0.113641 0.8 0 0
0.428251 0.705794 0.071203 0.8 0 0
0.525268 0.094442 0.138446 0.8 0 0
0.402537 0.567333 0.141115 0.8 0 0
0.483925 0.828469 0.168028 0.8 0 0
0.337949 0.770194 0.137430 0.8 0 0
0.355332 0.813438 0.101828 0.8 0 0
0.568539 0.420994 0.127875 0.8 0 0
0.471863 0.504152 0.178770 0.8 0 0
0.275629 0.811228 0.117399 0.8 0 0
0.144656 0.798457 0.148749 0.8 0 0
0.435792 0.274444 0.069949 0.8 0 0
0.457168 0.317712 0.114519 0.8 0 0
0.458494 0.967799 0.112498 0.8 0 0
0.506348 0.853216 0.145823 0.8 0 0
0.516208 0.897111 0.149582 0.8 0 0
0.466951 0.765842 0.056932 0.8 0 0
0.444259 0.847935 0.141019 0.8 0 0
0.383438 0.455955 0.112556 0.8 0 0
0.516623 0.054746 0.073659 0.8 0 0
0.532919 0.332329 0.135955 0.8 0 0
0.526662 0.032005 0.097705 0.8 0 0
0.508503 0.053303 0.087866 0.8 0 0
0.075857 0.781576 0.107487 0.8 0 0
0.431365 0.453162 0.162149 0.8 0 0
0.805830 0.779777 0.152157 0.8 0 0
0.371003 0.829598 0.142591 0.8 0 0
0.458656 0.319831 0.110920 0.8 0 0
0.552345 0.569887 0.140821 0.8 0 0
0.457801 0.625248 0.070953 0.8 0 0
0.540983 0.552117 0.169250 0.8 0 0
0.413558 0.784759 0.179981 0.8 0 0
0.417280 0.160005 0.094251 0.8 0 0
0.437998 0.724603 0.045480 0.8 0 0
0.206267 0.795767 0.118791 0.8 0 0
0.537039 0.322655 0.072450 0.8 0 0
0.507618 0.850019 0.126358 0.8 0 0
0.506727 0.192666 0.099827 0.8 0 0
0.460228 0.336781 0.100653 0.8 0 0
0.535426 0.406586 0.160455 0.8 0 0
0.545591 0.675150 0.154384 0.8 0 0
0.495552 0.741106 0.046972 0.8 0 0
0.327497 0.789410 0.172246 0.8 0 0
0.468773 0.775600 0.064366 0.8 0 0
0.404468 0.401735 0.155107 0.8 0 0
0.443741 0.608152 0.152832 0.8 0 0
0.423839 0.728281 0.182956 0.8 0 0
0.394520 0.726929 0.104177 0.8 0 0
0.447342 0.266189 0.097211 0.8 0 0
0.452524 0.826640 0.170751 0.8 0 0
0.870779 0.795714 0.122400 0.8 0 0
0.775576 0.812521 0.137946 0.8 0 0
0.479093 0.527805 0.065925 0.8 0 0
0.294510 0.814847 0.145466 0.8 0 0
0.394920 0.697383 0.118232 0.8 0 0
0.178661 0.799052 0.120874 0.8 0 0
0.383003 0.438188 0.119296 0.8 0 0
0.481863 0.664796 0.069355 0.8 0 0
0.446883 0.725767 0.185787 0.8 0 0
0.572160 0.374998 0.105806 0.8 0 0
0.459252 0.320849 0.109377 0.8 0 0
0.509021 0.528491 0.188466 0.8 0 0
0.513643 0.044494 0.047700 0.8 0 0
0.433996 0.546908 0.181995 0.8 0 0
0.548345 0.290368 0.094256 0.8 0 0
0.443623 0.201631 0.144937 0.8 0 0
0.437551 0.431395 0.162801 0.8 0 0
0.382753 0.704892 0.151589 0.8 0 0
0.390384 0.700416 0.160215 0.8 0 0
0.393482 0.767343 0.173892 0.8 0 0
0.435127 0.412956 0.161935 0.8 0 0
0.419917 0.820387 0.140202 0.8 0 0
0.421488 0.120807 0.137876 0.8 0 0
0.469061 0.683362 0.065797 0.8 0 0
0.404551 0.490491 0.163758 0.8 0 0
0.520332 0.498914 0.069262 0.8 0 0
0.338860 0.768559 0.147558 0.8 0 0
0.485552 0.872284 0.167457 0.8 0 0
0.463007 0.709335 0.057356 0.8 0 0
0.473596 0.970843 0.148202 0.8 0 0
0.558289 0.225550 0.121048 0.8 0 0
0.234499 0.778040 0.161922 0.8 0 0
0.524178 0.042045 0.036760 0.8 0 0
0.450613 0.542096 0.070900 0.8 0 0
0.422717 0.594531 0.149214 0.8 0 0
0.478483 0.859752 0.163496 0.8 0 0
0.252375 0.773920 0.153983 0.8 0 0
0.437399 0.894113 0.118442 0.8 0 0
0.397336 0.425265 0.148520 0.8 0 0
0.530576 0.592504 0.084120 0.8 0 0
0.534943 0.641141 0.144699 0.8 0 0
0.824552 0.773674 0.137313 0.8 0 0
0.536661 0.660912 0.149239 0.8 0 0
0.660212 0.805804 0.162292 0.8 0 0
0.422768 0.454859 0.063799 0.8 0 0
0.447866 0.566681 0.168495 0.8 0 0
0.530314 0.626456 0.088581 0.8 0 0
0.528555 0.662501 0.085812 0.8 0 0
0.759972 0.811850 0.156094 0.8 0 0
0.442764 0.444586 0.068672 0.8 0 0
0.529201 0.280127 0.067298 0.8 0 0
0.106628 0.781072 0.107441 0.8 0 0
0.440650 0.495242 0.069751 0.8 0 0
0.478463 0.487215 0.152736 0.8 0 0
0.453915 0.229539 0.133706 0.8 0 0
0.289607 0.791824 0.107670 0.8 0 0
0.693368 0.787973 0.166500 0.8 0 0
0.408344 0.517685 0.169936 0.8 0 0
0.518983 0.030347 0.093461 0.8 0 0
0.500137 0.950702 0.165215 0.8 0 0
0.513233 0.885009 0.114483 0.8 0 0
0.442499 0.105553 0.125302 0.8 0 0
0.547539 0.823899 0.139609 0.8 0 0
0.419271 0.026499 0.068477 0.8 0 0
0.534173 0.695463 0.078095 0.8 0 0
0.438615 0.463564 0.166671 0.8 0 0
0.546747 0.545669 0.164337 0.8 0 0
0.343581 0.769560 0.144620 0.8 0 0
0.494074 0.927522 0.073710 0.8 0 0
0.514841 0.212552 0.148197 0.8 0 0
0.446017 0.441370 0.160664 0.8 0 0
0.512296 0.741925 0.189801 0.8 0 0
0.479332 0.579057 0.160346 0.8 0 0
0.427931 0.519991 0.187078 0.8 0 0
0.539223 0.225310 0.151210 0.8 0 0
0.242845 0.772686 0.149991 0.8 0 0
0.508604 0.054787 0.091125 0.8 0 0
0.527322 0.068295 0.142822 0.8 0 0
0.487181 0.862327 0.074166 0.8 0 0
0.522344 0.198381 0.148111 0.8 0 0
0.547714 0.201127 0.147519 0.8 0 0
0.387405 0.824845 0.157104 0.8 0 0
0.425672 0.030767 0.040647 0.8 0 0
0.613290 0.775925 0.121422 0.8 0 0
0.505159 0.513375 0.189195 0.8 0 0
0.477786 0.501691 0.154594 0.8 0 0
0.546299 0.553804 0.161700 0.8 0 0
0.785160 0.768086 0.141857 0.8 0 0
0.409320 0.128840 0.108009 0.8 0 0
0.418203 0.627504 0.136342 0.8 0 0
0.531436 0.234457 0.150608 0.8 0 0
0.434871 0.319558 0.129509 0.8 0 0
0.504785 0.327293 0.075684 0.8 0 0
0.557989 0.492116 0.084406 0.8 0 0
0.461248 0.551855 0.067592 0.8 0 0
0.509660 0.870851 0.141783 0.8 0 0
0.537027 0.771982 0.183832 0.8 0 0
0.492234 0.469632 0.146941 0.8 0 0
0.464574 0.971328 0.116150 0.8 0 0
0.390851 0.494720 0.094111 0.8 0 0
0.375113 0.789699 0.095443 0.8 0 0
0.545275 0.030459 0.099248 0.8 0 0
0.444545 0.280754 0.086601 0.8 0 0
0.174405 0.780822 0.120062 0.8 0 0
0.569379 0.465352 0.098034 0.8 0 0
0.384770 0.432551 0.124396 0.8 0 0
0.506533 0.047586 0.064281 0.8 0 0
0.537024 0.830949 0.160953 0.8 0 0
0.497576 0.760296 0.192404 0.8 0 0
0.506620 0.405462 0.076671 0.8 0 0
0.429570 0.691779 0.076257 0.8 0 0
0.547653 0.532851 0.165248 0.8 0 0
0.792789 0.793659 0.156920 0.8 0 0
0.536195 0.525162 0.181979 0.8 0 0
0.237523 0.794520 0.169326 0.8 0 0
0.375477 0.743807 0.127424 0.8 0 0
0.613889 0.792485 0.101058 0.8 0 0
0.522142 0.694794 0.074035 0.8 0 0
0.788498 0.809903 0.138769 0.8 0 0
0.556388 0.457639 0.155535 0.8 0 0
0.520023 0.650822 0.080242 0.8 0 0
0.455980 0.450506 0.156022 0.8 0 0
0.549343 0.047464 0.128092 0.8 0 0
0.467168 0.470202 0.139858 0.8 0 0
0.450684 0.848436 0.120188 0.8 0 0
0.422355 0.465079 0.167086 0.8 0 0
0.542861 0.585957 0.096344 0.8 0 0
0.549671 0.036997 0.119163 0.8 0 0
0.488129 0.477327 0.135885 0.8 0 0
0.173623 0.809137 0.129404 0.8 0 0
0.906800 0.786864 0.102165 0.8 0 0
0.464702 0.615709 0.070196 0.8 0 0
0.522737 0.371880 0.151467 0.8 0 0
0.481113 0.696977 0.173664 0.8 0 0
0.423041 0.127956 0.138120 0.8 0 0
0.456072 0.707741 0.058039 0.8 0 0
0.392608 0.346972 0.078464 0.8 0 0
0.404169 0.578923 0.132513 0.8 0 0
0.401509 0.802060 0.170992 0.8 0 0
0.429489 0.681502 0.077904 0.8 0 0
0.530573 0.832778 0.143671 0.8 0 0
0.540515 0.357731 0.146519 0.8 0 0
0.303723 0.803377 0.166560 0.8 0 0
0.464091 0.848003 0.104063 0.8 0 0
0.534811 0.297542 0.071056 0.8 0 0
0.455257 0.325632 0.088099 0.8 0 0
0.561460 0.370386 0.126008 0.8 0 0
0.407039 0.279282 0.079037 0.8 0 0
0.726310 0.789044 0.124457 0.8 0 0
0.545799 0.278013 0.101184 0.8 0 0
0.444566 0.485656 0.184212 0.8 0 0
0.481234 0.488199 0.166551 0.8 0 0
0.733366 0.794826 0.121285 0.8 0 0
0.505790 0.686665 0.172833 0.8 0 0
0.473611 0.847643 0.097061 0.8 0 0
0.896164 0.793954 0.119441 0.8 0 0
0.499994 0.217331 0.106621 0.8 0 0
0.542069 0.104313 0.106330 0.8 0 0
0.771215 0.777403 0.159268 0.8 0 0
0.537292 0.036084 0.035444 0.8 0 0
0.451838 0.521193 0.188394 0.8 0 0
0.438023 0.049537 0.063398 0.8 0 0
0.554357 0.315880 0.080950 0.8 0 0
0.511525 0.354221 0.141955 0.8 0 0
0.388175 0.417984 0.129855 0.8 0 0
0.515915 0.276058 0.123346 0.8 0 0
0.450753 0.397435 0.078846 0.8 0 0
0.426592 0.278823 0.125586 0.8 0 0
0.287602 0.814967 0.137440 0.8 0 0
0.429538 0.100943 0.138518 0.8 0 0
0.425789 0.031483 0.034845 0.8 0 0
0.113755 0.795306 0.119419 0.8 0 0
0.534682 0.368981 0.065389 0.8 0 0
0.487973 0.645101 0.073164 0.8 0 0
0.095803 0.773378 0.106082 0.8 0 0
0.569847 0.444323 0.090676 0.8 0 0
0.231161 0.793211 0.123958 0.8 0 0
0.549732 0.040465 0.123042 0.8 0 0
0.501161 0.493760 0.075268 0.8 0 0
0.459289 0.777089 0.065038 0.8 0 0
0.409247 0.060882 0.129476 0.8 0 0
0.473406 0.690421 0.171950 0.8 0 0
0.450343 0.700182 0.062232 0.8 0 0
0.082400 0.780352 0.100503 0.8 0 0
0.690633 0.767142 0.135075 0.8 0 0
0.512021 0.376875 0.073858 0.8 0 0
0.396933 0.497007 0.086373 0.8 0 0
0.628522 0.806663 0.103849 0.8 0 0
0.444918 0.115402 0.114501 0.8 0 0
0.466528 0.441516 0.147065 0.8 0 0
0.535596 0.351766 0.144717 0.8 0 0
0.413399 0.566026 0.089252 0.8 0 0
0.388626 0.382484 0.077257 0.8 0 0
0.417480 0.627139 0.105109 0.8 0 0
0.544474 0.279052 0.105469 0.8 0 0
0.430664 0.339525 0.065538 0.8 0 0
0.422605 0.040473 0.041761 0.8 0 0
0.452658 0.289668 0.101353 0.8 0 0
0.242010 0.779231 0.128093 0.8 0 0
0.136633 0.773186 0.139057 0.8 0 0
0.459656 0.471820 0.166547 0.8 0 0
0.448135 0.151211 0.119384 0.8 0 0
0.799210 0.803209 0.123987 0.8 0 0
0.464383 0.381047 0.092757 0.8 0 0
0.487484 0.488016 0.081377 0.8 0 0
0.447124 0.663139 0.077092 0.8 0 0
0.676030 0.770615 0.154247 0.8 0 0
0.434397 0.451423 0.161705 0.8 0 0
0.589925 0.766850 0.164014 0.8 0 0
0.457461 0.448602 0.155171 0.8 0 0
0.501962 0.370779 0.080707 0.8 0 0
0.409795 0.680929 0.158856 0.8 0 0
0.448756 0.196652 0.099426 0.8 0 0
0.535188 0.265798 0.072660 0.8 0 0
0.694876 0.783575 0.112995 0.8 0 0
0.500985 0.427594 0.158424 0.8 0 0
0.531327 0.242693 0.079212 0.8 0 0
0.405000 0.340278 0.127582 0.8 0 0
0.417011 0.029604 0.039584 0.8 0 0
0.465342 0.689462 0.173958 0.8 0 0
0.531886 0.387425 0.061544 0.8 0 0
0.529819 0.255531 0.075875 0.8 0 0
0.821680 0.799365 0.143239 0.8 0 0
0.461800 0.702385 0.179251 0.8 0 0
0.399726 0.378005 0.139336 0.8 0 0
0.500141 0.742210 0.046642 0.8 0 0
0.382567 0.388021 0.091654 0.8 0 0
0.366811 0.774211 0.113090 0.8 0 0
0.438876 0.599244 0.152911 0.8 0 0
0.492652 0.559896 0.169804 0.8 0 0
0.311467 0.798257 0.170382 0.8 0 0
0.595000 0.811552 0.100558 0.8 0 0
0.408973 0.142848 0.124954 0.8 0 0
0.774201 0.806515 0.156576 0.8 0 0
0.387923 0.768859 0.174847 0.8 0 0
0.448490 0.948972 0.091508 0.8 0 0
0.434118 0.590852 0.079672 0.8 0 0
0.491562 0.464277 0.087540 0.8 0 0
0.564091 0.339797 0.082570 0.8 0 0
0.742332 0.777014 0.165362 0.8 0 0
0.525308 0.209676 0.084637 0.8 0 0
0.411241 0.285037 0.105239 0.8 0 0
0.129076 0.801244 0.130144 0.8 0 0
0.452414 0.310631 0.090346 0.8 0 0
0.533569 0.123757 0.137921 0.8 0 0
0.469480 0.680497 0.169661 0.8 0 0
0.840495 0.775242 0.124889 0.8 0 0
0.432637 0.798056 0.088098 0.8 0 0
0.514599 0.227944 0.147053 0.8 0 0
0.443447 0.176877 0.096548 0.8 0 0
0.427271 0.434009 0.061851 0.8 0 0
0.516218 0.688706 0.172058 0.8 0 0
0.626527 0.766202 0.155794 0.8 0 0
0.510119 0.896754 0.085593 0.8 0 0
0.407705 0.417682 0.062737 0.8 0 0
0.440184 0.493490 0.187046 0.8 0 0
0.384000 0.371235 0.106805 0.8 0 0
0.480925 0.434536 0.124758 0.8 0 0
0.688207 0.801080 0.110021 0.8 0 0
0.674178 0.812448 0.154921 0.8 0 0
0.407033 0.707182 0.086752 0.8 0 0
0.456372 0.406536 0.154191 0.8 0 0
0.507024 0.477588 0.179335 0.8 0 0
0.416610 0.113029 0.101888 0.8 0 0
0.535222 0.079356 0.100619 0.8 0 0
0.476262 0.605158 0.070029 0.8 0 0
0.556926 0.404240 0.145089 0.8 0 0
0.359151 0.819761 0.109456 0.8 0 0
0.453752 0.560721 0.069800 0.8 0 0
0.518628 0.034987 0.144064 0.8 0 0
0.478545 0.489446 0.155155 0.8 0 0
0.373952 0.750645 0.128079 0.8 0 0
0.410405 0.127380 0.123546 0.8 0 0
0.448941 0.638714 0.158142 0.8 0 0
0.414164 0.104456 0.128552 0.8 0 0
0.496757 0.449522 0.154300 0.8 0 0
0.402317 0.368256 0.068737 0.8 0 0
0.395096 0.206825 0.136571 0.8 0 0
0.387935 0.478540 0.134476 0.8 0 0
0.516910 0.447564 0.161393 0.8 0 0
0.556477 0.412735 0.149394 0.8 0 0
0.237787 0.770537 0.140866 0.8 0 0
0.603356 0.828872 0.127760 0.8 0 0
0.402726 0.338745 0.071672 0.8 0 0
0.496804 0.851849 0.158006 0.8 0 0
0.387167 0.498813 0.126684 0.8 0 0
0.486746 0.854061 0.094705 0.8 0 0
0.458158 0.535089 0.069445 0.8 0 0
0.442879 0.568881 0.167572 0.8 0 0
0.542371 0.572256 0.153928 0.8 0 0
0.396500 0.684274 0.153037 0.8 0 0
0.522016 0.189723 0.145276 0.8 0 0
0.507454 0.144541 0.111209 0.8 0 0
0.477695 0.719666 0.178878 0.8 0 0
0.463351 0.823433 0.100832 0.8 0 0
0.564862 0.714591 0.114141 0.8 0 0
0.654405 0.777448 0.167136 0.8 0 0
0.530052 0.067620 0.144387 0.8 0 0
0.449725 0.735710 0.188655 0.8 0 0
0.528706 0.395180 0.158958 0.8 0 0
0.083747 0.786102 0.097400 0.8 0 0
0.522170 0.542005 0.184090 0.8 0 0
0.404198 0.510457 0.083068 0.8 0 0
0.469794 0.734342 0.050962 0.8 0 0
0.567811 0.396567 0.124586 0.8 0 0
0.505998 0.331216 0.073531 0.8 0 0
0.464426 0.500495 0.182917 0.8 0 0
0.386157 0.383556 0.117992 0.8 0 0
0.568693 0.404653 0.080558 0.8 0 0
0.467260 0.716734 0.181803 0.8 0 0
0.445011 0.219829 0.145240 0.8 0 0
0.164126 0.789637 0.158420 0.8 0 0
0.430063 0.654178 0.153200 0.8 0 0
0.426533 0.812440 0.115017 0.8 0 0
0.213413 0.780126 0.120562 0.8 0 0
0.453182 0.875055 0.159970 0.8 0 0
0.400498 0.737577 0.072293 0.8 0 0
0.473481 0.969510 0.150868 0.8 0 0
0.651403 0.815763 0.148708 0.8 0 0
0.499054 0.849271 0.155603 0.8 0 0
0.565822 0.463854 0.139344 0.8 0 0
0.491310 0.855436 0.087890 0.8 0 0
0.421186 0.581255 0.083052 0.8 0 0
0.528588 0.502501 0.186006 0.8 0 0
0.400054 0.481864 0.154596 0.8 0 0
0.329406 0.768018 0.144790 0.8 0 0
0.546155 0.308875 0.077249 0.8 0 0
0.442160 0.890545 0.113065 0.8 0 0
0.410057 0.702216 0.083762 0.8 0 0
0.434915 0.291604 0.121727 0.8 0 0
0.341835 0.772101 0.131781 0.8 0 0
0.415470 0.052122 0.077172 0.8 0 0
0.387220 0.463819 0.133321 0.8 0 0
0.121924 0.774977 0.128975 0.8 0 0
0.430935 0.432731 0.163331 0.8 0 0
0.497452 0.205167 0.110971 0.8 0 0
0.535100 0.333685 0.067453 0.8 0 0
0.412396 0.096995 0.125163 0.8 0 0
0.413819 0.752470 0.060689 0.8 0 0
0.506470 0.174800 0.102622 0.8 0 0
0.409624 0.654241 0.137294 0.8 0 0
0.500218 0.304205 0.112419 0.8 0 0
0.423839 0.558724 0.077932 0.8 0 0
0.543946 0.382979 0.153426 0.8 0 0
0.544741 0.208020 0.149785 0.8 0 0
0.513647 0.324406 0.130220 0.8 0 0
0.858747 0.782484 0.096628 0.8 0 0
0.842390 0.790496 0.140132 0.8 0 0
0.477488 0.503865 0.162224 0.8 0 0
0.466963 0.920399 0.072203 0.8 0 0
0.405447 0.485149 0.164151 0.8 0 0
0.505309 0.645737 0.159194 0.8 0 0
0.518550 0.790927 0.185862 0.8 0 0
0.472840 0.777218 0.186365 0.8 0 0
0.315549 0.766789 0.138405 0.8 0 0
0.494287 0.788587 0.075731 0.8 0 0
0.543996 0.078915 0.109247 0.8 0 0
0.415417 0.125428 0.100934 0.8 0 0
0.547479 0.187404 0.142568 0.8 0 0
0.874597 0.779864 0.129934 0.8 0 0
0.682998 0.775946 0.111442 0.8 0 0
0.386385 0.700107 0.154226 0.8 0 0
0.465059 0.676679 0.066174 0.8 0 0
0.507356 0.352955 0.073236 0.8 0 0
0.431157 0.667714 0.158349 0.8 0 0
0.697055 0.768180 0.141000 0.8 0 0
0.545567 0.026497 0.073265 0.8 0 0
0.386742 0.506115 0.117587 0.8 0 0
0.207758 0.804215 0.120227 0.8 0 0
0.477090 0.491345 0.155607 0.8 0 0
0.417939 0.120482 0.135438 0.8 0 0
0.509295 0.150681 0.124321 0.8 0 0
0.487319 0.383498 0.119917 0.8 0 0
0.436315 0.477629 0.067986 0.8 0 0
0.548905 0.029117 0.076789 0.8 0 0
0.446914 0.522862 0.189035 0.8 0 0
0.090247 0.784430 0.142655 0.8 0 0
0.691210 0.768487 0.146384 0.8 0 0
0.895918 0.783037 0.118570 0.8 0 0
0.557403 0.550766 0.128944 0.8 0 0
0.499798 0.600463 0.072882 0.8 0 0
0.438583 0.112643 0.101450 0.8 0 0
0.510187 0.630590 0.156207 0.8 0 0
0.441182 0.797688 0.182973 0.8 0 0
0.557638 0.715033 0.102001 0.8 0 0
0.592618 0.825619 0.155750 0.8 0 0
0.437243 0.496177 0.187805 0.8 0 0
0.481079 0.966107 0.093425 0.8 0 0
0.547725 0.563180 0.155197 0.8 0 0
0.444594 0.039227 0.126631 0.8 0 0
0.529927 0.694821 0.171736 0.8 0 0
0.532688 0.142915 0.138227 0.8 0 0
0.524935 0.769608 0.189393 0.8 0 0
0.509411 0.937570 0.089334 0.8 0 0
0.419885 0.590761 0.086878 0.8 0 0
0.458631 0.477107 0.174033 0.8 0 0
0.515307 0.787292 0.076843 0.8 0 0
0.503223 0.890523 0.168363 0.8 0 0
0.266689 0.804712 0.113556 0.8 0 0
0.511933 0.112389 0.109102 0.8 0 0
0.538019 0.596968 0.141977 0.8 0 0
0.524565 0.417083 0.062571 0.8 0 0
0.476864 0.562078 0.066000 0.8 0 0
0.542466 0.804212 0.099425 0.8 0 0
0.434943 0.230538 0.082020 0.8 0 0
0.424818 0.029317 0.037933 0.8 0 0
0.906763 0.772828 0.145866 0.8 0 0
0.564829 0.409936 0.132395 0.8 0 0
0.527529 0.449925 0.162476 0.8 0 0
0.518257 0.167745 0.137468 0.8 0 0
0.530504 0.042274 0.053669 0.8 0 0
0.565377 0.405762 0.075354 0.8 0 0
0.398841 0.676008 0.143597 0.8 0 0
0.546124 0.565425 0.094641 0.8 0 0
0.544665 0.746078 0.059828 0.8 0 0
0.420509 0.029444 0.116925 0.8 0 0
0.514955 0.098909 0.104749 0.8 0 0
0.551548 0.258016 0.106915 0.8 0 0
0.558118 0.537148 0.132473 0.8 0 0
0.444904 0.056868 0.123338 0.8 0 0
0.416219 0.062272 0.092138 0.8 0 0
0.522258 0.497207 0.069020 0.8 0 0
0.449095 0.651763 0.075930 0.8 0 0
0.507942 0.787672 0.075736 0.8 0 0
0.445924 0.054840 0.082876 0.8 0 0
0.394448 0.827658 0.136933 0.8 0 0
0.413046 0.427071 0.061378 0.8 0 0
0.041749 0.776682 0.147724 0.8 0 0
0.478377 0.930725 0.181292 0.8 0 0
0.425918 0.461973 0.163876 0.8 0 0
0.542947 0.185268 0.094136 0.8 0 0
0.435424 0.468478 0.174675 0.8 0 0
0.416239 0.042726 0.063685 0.8 0 0
0.550270 0.158180 0.123201 0.8 0 0
0.465227 0.730896 0.186194 0.8 0 0
0.547499 0.586702 0.131731 0.8 0 0
0.199459 0.811135 0.127717 0.8 0 0
0.450578 0.034469 0.031997 0.8 0 0
0.452948 0.288167 0.110576 0.8 0 0
0.458800 0.327666 0.098508 0.8 0 0
0.411683 0.189534 0.145022 0.8 0 0
0.434695 0.258725 0.074983 0.8 0 0
0.408419 0.545504 0.163767 0.8 0 0
0.503658 0.779173 0.190721 0.8 0 0
0.513940 0.664273 0.081028 0.8 0 0
0.570942 0.476527 0.107342 0.8 0 0
0.446391 0.295308 0.081925 0.8 0 0
0.412207 0.681965 0.092380 0.8 0 0
0.804938 0.772756 0.127921 0.8 0 0
0.532141 0.581398 0.081221 0.8 0 0
0.401403 0.169861 0.117719 0.8 0 0
0.635247 0.802343 0.106281 0.8 0 0
0.517228 0.135132 0.097945 0.8 0 0
0.457257 0.696380 0.059526 0.8 0 0
0.465349 0.611764 0.154777 0.8 0 0
0.449586 0.231249 0.138867 0.8 0 0
0.545723 0.082420 0.116341 0.8 0 0
0.401777 0.482198 0.157438 0.8 0 0
0.548666 0.433299 0.064636 0.8 0 0
0.516993 0.600415 0.152492 0.8 0 0
0.440050 0.414767 0.067926 0.8 0 0
0.401916 0.433159 0.157946 0.8 0 0
0.645656 0.763643 0.153810 0.8 0 0
0.466548 0.449444 0.090050 0.8 0 0
0.510096 0.120437 0.116550 0.8 0 0
0.376273 0.731344 0.159579 0.8 0 0
0.482618 0.683695 0.066612 0.8 0 0
0.568661 0.414873 0.081537 0.8 0 0
0.042551 0.785639 0.101731 0.8 0 0
0.526386 0.784949 0.076713 0.8 0 0
0.486382 0.399261 0.132293 0.8 0 0
0.556501 0.231658 0.130654 0.8 0 0
0.380749 0.750335 0.168615 0.8 0 0
0.487479 0.488044 0.081305 0.8 0 0
0.552974 0.344504 0.126513 0.8 0 0
0.384010 0.750698 0.115373 0.8 0 0
0.241759 0.805900 0.159359 0.8 0 0
0.485710 0.388875 0.109061 0.8 0 0
0.585338 0.742486 0.149212 0.8 0 0
0.426330 0.301215 0.123427 0.8 0 0
0.407244 0.412888 0.062701 0.8 0 0
0.510962 0.036862 0.109639 0.8 0 0
0.437354 0.543002 0.184547 0.8 0 0
0.428654 0.554415 0.176504 0.8 0 0
0.457166 0.325024 0.116670 0.8 0 0
0.474728 0.637585 0.074576 0.8 0 0
0.579887 0.747051 0.164046 0.8 0 0
0.541616 0.039951 0.061136 0.8 0 0
0.428108 0.069023 0.090161 0.8 0 0
0.705274 0.802758 0.161576 0.8 0 0
0.530090 0.348033 0.065515 0.8 0 0
0.607409 0.828657 0.127571 0.8 0 0
0.240532 0.782324 0.164799 0.8 0 0
0.396049 0.741636 0.172963 0.8 0 0
0.420873 0.169607 0.091062 0.8 0 0
0.548345 0.045903 0.132855 0.8 0 0
0.591878 0.830079 0.135063 0.8 0 0
0.840898 0.798724 0.131710 0.8 0 0
0.446398 0.671164 0.165287 0.8 0 0
0.539315 0.621248 0.110700 0.8 0 0
0.466839 0.879026 0.170103 0.8 0 0
0.444192 0.033146 0.028646 0.8 0 0
0.927979 0.783425 0.116289 0.8 0 0
0.504128 0.863128 0.151028 0.8 0 0
0.456520 0.182815 0.120648 0.8 0 0
0.503541 0.244344 0.098684 0.8 0 0
0.542737 0.507749 0.176632 0.8 0 0
0.073611 0.792735 0.132406 0.8 0 0
0.389593 0.500245 0.133223 0.8 0 0
0.678056 0.814669 0.142474 0.8 0 0
0.314092 0.808860 0.168671 0.8 0 0
0.542344 0.117766 0.128339 0.8 0 0
0.235845 0.808599 0.153997 0.8 0 0
0.440802 0.906597 0.157807 0.8 0 0
0.425917 0.599343 0.148270 0.8 0 0
0.558771 0.543830 0.118100 0.8 0 0
0.464696 0.391314 0.137263 0.8 0 0
0.450272 0.866190 0.149755 0.8 0 0
0.494663 0.383382 0.086777 0.8 0 0
0.179850 0.769361 0.130169 0.8 0 0
0.187382 0.785504 0.165127 0.8 0 0
0.443418 0.098346 0.120506 0.8 0 0
0.611396 0.777447 0.118364 0.8 0 0
0.431671 0.771490 0.189601 0.8 0 0
0.799938 0.771775 0.130019 0.8 0 0
0.515536 0.793867 0.083005 0.8 0 0
0.543847 0.034616 0.045196 0.8 0 0
0.461337 0.705544 0.180306 0.8 0 0
0.548483 0.488599 0.167539 0.8 0 0
0.835792 0.774943 0.135449 0.8 0 0
0.093330 0.777895 0.092742 0.8 0 0
0.509426 0.049088 0.099794 0.8 0 0
0.409481 0.129592 0.107297 0.8 0 0
0.625739 0.783052 0.171707 0.8 0 0
0.549088 0.343564 0.138090 0.8 0 0
0.451256 0.646533 0.159464 0.8 0 0
0.529893 0.377577 0.064451 0.8 0 0
0.544449 0.097708 0.120483 0.8 0 0
0.541878 0.812748 0.111691 0.8 0 0
0.538783 0.446012 0.063430 0.8 0 0
0.535372 0.380361 0.154270 0.8 0 0
0.440214 0.898419 0.125778 0.8 0 0
0.559622 0.512588 0.143701 0.8 0 0
0.526714 0.095475 0.139078 0.8 0 0
0.078684 0.782746 0.094238 0.8 0 0
0.443754 0.101647 0.118144 0.8 0 0
0.451219 0.045545 0.073230 0.8 0 0
0.499667 0.955258 0.088418 0.8 0 0
0.789813 0.809588 0.138060 0.8 0 0
0.518651 0.113657 0.133805 0.8 0 0
0.405895 0.585276 0.123942 0.8 0 0
0.343551 0.828759 0.133054 0.8 0 0
0.389784 0.340784 0.085658 0.8 0 0
0.390710 0.520569 0.126854 0.8 0 0
0.510392 0.233523 0.142680 0.8 0 0
0.441196 0.080180 0.100357 0.8 0 0
0.406244 0.290923 0.081806 0.8 0 0
0.328588 0.809244 0.163425 0.8 0 0
0.615790 0.789364 0.170936 0.8 0 0
0.040920 0.789722 0.107328 0.8 0 0
0.741476 0.763543 0.140562 0.8 0 0
0.467763 0.861008 0.163163 0.8 0 0
0.405907 0.821711 0.131855 0.8 0 0
0.498046 0.842146 0.110349 0.8 0 0
0.551122 0.663001 0.121706 0.8 0 0
0.541220 0.446519 0.162518 0.8 0 0
0.483707 0.854489 0.162873 0.8 0 0
0.089089 0.791969 0.104439 0.8 0 0
0.282363 0.770628 0.156230 0.8 0 0
0.650072 0.814853 0.157784 0.8 0 0
0.411328 0.507418 0.175232 0.8 0 0
0.530463 0.605649 0.089034 0.8 0 0
0.499958 0.379342 0.082366 0.8 0 0
0.394135 0.512212 0.096582 0.8 0 0
0.493932 0.651261 0.071999 0.8 0 0
0.508241 0.415399 0.160139 0.8 0 0
0.503426 0.957014 0.095756 0.8 0 0
0.512595 0.043940 0.045982 0.8 0 0
0.567774 0.480564 0.132973 0.8 0 0
0.410368 0.583476 0.100407 0.8 0 0
0.513192 0.944066 0.146533 0.8 0 0
0.429070 0.027342 0.077403 0.8 0 0
0.356810 0.798203 0.179546 0.8 0 0
0.453963 0.794172 0.082147 0.8 0 0
0.388397 0.796588 0.099278 0.8 0 0
0.381472 0.404170 0.110818 0.8 0 0
0.471973 0.435386 0.137536 0.8 0 0
0.519474 0.554295 0.178807 0.8 0 0
0.434478 0.215477 0.150553 0.8 0 0
0.521450 0.780551 0.072351 0.8 0 0
0.435773 0.485952 0.068554 0.8 0 0
0.354201 0.808110 0.175323 0.8 0 0
0.528385 0.130404 0.138410 0.8 0 0
0.479376 0.918423 0.181794 0.8 0 0
0.454543 0.521546 0.074128 0.8 0 0
0.533758 0.260805 0.074472 0.8 0 0
0.362135 0.779414 0.102649 0.8 0 0
0.438704 0.553059 0.073046 0.8 0 0
0.365907 0.763226 0.138177 0.8 0 0
0.847733 0.777603 0.111527 0.8 0 0
0.632874 0.807621 0.167516 0.8 0 0
0.453818 0.444298 0.077338 0.8 0 0
0.475475 0.693647 0.061356 0.8 0 0
0.428371 0.569396 0.164832 0.8 0 0
0.459822 0.915185 0.077611 0.8 0 0
0.467359 0.494440 0.075061 0.8 0 0
0.562761 0.773620 0.174862 0.8 0 0
0.463011 0.370951 0.093724 0.8 0 0
0.506884 0.862335 0.143936 0.8 0 0
0.503303 0.704323 0.060022 0.8 0 0
0.478214 0.507114 0.166077 0.8 0 0
0.536604 0.030063 0.102629 0.8 0 0
0.157245 0.807253 0.131508 0.8 0 0
0.315236 0.811819 0.111982 0.8 0 0
0.398712 0.523082 0.094545 0.8 0 0
0.518971 0.485448 0.184403 0.8 0 0
0.431730 0.382275 0.066741 0.8 0 0
0.498960 0.706079 0.058101 0.8 0 0
0.509374 0.058430 0.115349 0.8 0 0
0.477892 0.508092 0.066392 0.8 0 0
0.409892 0.087400 0.114782 0.8 0 0
0.569587 0.353015 0.093031 0.8 0 0
0.552909 0.819929 0.159038 0.8 0 0
0.471236 0.865420 0.165045 0.8 0 0
0.548546 0.670007 0.115329 0.8 0 0
0.416561 0.433291 0.061283 0.8 0 0
0.502013 0.877196 0.161802 0.8 0 0
0.550991 0.050129 0.111061 0.8 0 0
0.724639 0.810634 0.151161 0.8 0 0
0.553712 0.691832 0.108596 0.8 0 0
0.423778 0.173946 0.142130 0.8 0 0
0.460372 0.495094 0.081811 0.8 0 0
0.544510 0.586507 0.138018 0.8 0 0
0.552500 0.168779 0.107521 0.8 0 0
0.432347 0.044971 0.053411 0.8 0 0
0.442865 0.928493 0.162944 0.8 0 0
0.474537 0.444678 0.114175 0.8 0 0
0.495663 0.327778 0.105733 0.8 0 0
0.423531 0.038163 0.148340 0.8 0 0
0.536033 0.683131 0.163644 0.8 0 0
0.466338 0.485569 0.096500 0.8 0 0
0.501572 0.288863 0.107144 0.8 0 0
0.386000 0.390425 0.119973 0.8 0 0
0.585718 0.805971 0.098258 0.8 0 0
0.167963 0.769120 0.136164 0.8 0 0
0.423622 0.784381 0.077529 0.8 0 0
0.515391 0.374721 0.151057 0.8 0 0
0.497941 0.642256 0.071340 0.8 0 0
0.454579 0.029261 0.062777 0.8 0 0
0.473023 0.411113 0.121999 0.8 0 0
0.051846 0.789064 0.111595 0.8 0 0
0.397386 0.403238 0.067575 0.8 0 0
0.472684 0.413695 0.127649 0.8 0 0
0.430416 0.562266 0.075657 0.8 0 0
0.096611 0.774608 0.122039 0.8 0 0
0.474513 0.650828 0.157039 0.8 0 0
0.522843 0.634402 0.151613 0.8 0 0
0.463098 0.821115 0.172089 0.8 0 0
0.385461 0.731357 0.117407 0.8 0 0
0.436665 0.258081 0.136190 0.8 0 0
0.547151 0.578735 0.102679 0.8 0 0
0.510192 0.871671 0.140671 0.8 0 0
0.471666 0.795413 0.084669 0.8 0 0
0.432959 0.818032 0.127527 0.8 0 0
0.460382 0.651248 0.160578 0.8 0 0
0.455355 0.832712 0.110313 0.8 0 0
0.452304 0.195981 0.103721 0.8 0 0
0.505459 0.389146 0.078960 0.8 0 0
0.569629 0.395894 0.081977 0.8 0 0
0.547854 0.039353 0.067671 0.8 0 0
0.381311 0.422421 0.103020 0.8 0 0
0.484247 0.809474 0.094247 0.8 0 0
0.465922 0.681606 0.170958 0.8 0 0
0.441283 0.035547 0.105480 0.8 0 0
0.450843 0.203592 0.140519 0.8 0 0
0.332501 0.772447 0.167717 0.8 0 0
0.485310 0.837163 0.164001 0.8 0 0
0.491492 0.462287 0.149927 0.8 0 0
0.454983 0.608990 0.155446 0.8 0 0
