0.511172 0.691461 0.078059 0.8 0 0
0.502585 0.839215 0.088549 0.8 0 0
0.622514 0.726949 0.094741 0.8 0 0
0.465348 0.650480 0.079608 0.8 0 0
0.733527 0.075735 0.058421 0.8 0 0
0.614999 0.342640 0.046122 0.8 0 0
0.744777 0.113856 0.043564 0.8 0 0
0.645813 0.218655 0.044443 0.8 0 0
0.521683 0.555567 0.047443 0.8 0 0
0.482264 0.918702 0.135813 0.8 0 0
0.491937 0.732058 0.160635 0.8 0 0
0.428378 0.451779 0.088271 0.8 0 0
0.647608 0.273691 0.035794 0.8 0 0
0.076451 0.588127 0.118849 0.8 0 0
0.529774 0.811588 0.059104 0.8 0 0
0.754816 0.640106 0.095753 0.8 0 0
0.221174 0.219442 0.069085 0.8 0 0
0.755355 0.040971 0.080518 0.8 0 0
0.545570 0.459577 0.131236 0.8 0 0
0.239874 0.168900 0.070923 0.8 0 0
0.421944 0.474001 0.122672 0.8 0 0
0.545942 0.411414 0.118244 0.8 0 0
0.473191 0.897454 0.145450 0.8 0 0
0.434446 0.496004 0.055658 0.8 0 0
0.441720 0.541330 0.034496 0.8 0 0
0.245869 0.717631 0.117683 0.8 0 0
0.291068 0.315487 0.104045 0.8 0 0
0.474714 0.478521 0.085036 0.8 0 0
0.297385 0.289346 0.094196 0.8 0 0
0.218523 0.139492 0.041108 0.8 0 0
0.852846 0.596973 0.106141 0.8 0 0
0.839038 0.601376 0.125465 0.8 0 0
0.576598 0.462256 0.055680 0.8 0 0
0.513259 0.419955 0.083213 0.8 0 0
0.485161 0.652320 0.144660 0.8 0 0
0.366866 0.467653 0.046849 0.8 0 0
0.415334 0.786974 0.049485 0.8 0 0
0.668515 0.263011 0.037936 0.8 0 0
0.299292 0.299726 0.049501 0.8 0 0
0.348437 0.459636 0.051984 0.8 0 0
0.445077 0.576338 0.045949 0.8 0 0
0.613280 0.755749 0.122761 0.8 0 0
0.558769 0.393335 0.115447 0.8 0 0
0.833770 0.608785 0.116780 0.8 0 0
0.579661 0.432393 0.120875 0.8 0 0
0.860067 0.587581 0.091316 0.8 0 0
0.342551 0.348582 0.101741 0.8 0 0
0.453112 0.570339 0.043707 0.8 0 0
0.453938 0.831657 0.056706 0.8 0 0
0.415659 0.769641 0.050472 0.8 0 0
0.116548 0.629389 0.098961 0.8 0 0
0.178334 0.115845 0.066629 0.8 0 0
0.177129 0.672684 0.087585 0.8 0 0
0.355180 0.504225 0.116705 0.8 0 0
0.405210 0.704369 0.145467 0.8 0 0
0.596882 0.438434 0.064710 0.8 0 0
0.411312 0.729447 0.060369 0.8 0 0
0.685285 0.699504 0.116835 0.8 0 0
0.336616 0.485901 0.091097 0.8 0 0
0.868563 0.571102 0.095028 0.8 0 0
0.357599 0.776951 0.068426 0.8 0 0
0.434087 0.811989 0.139544 0.8 0 0
0.456311 0.974833 0.092915 0.8 0 0
0.780196 0.061880 0.067165 0.8 0 0
0.439954 0.500345 0.123620 0.8 0 0
0.534691 0.732514 0.131510 0.8 0 0
0.618394 0.773159 0.111637 0.8 0 0
0.740807 0.648298 0.096960 0.8 0 0
0.520822 0.630473 0.106904 0.8 0 0
0.366217 0.536246 0.065152 0.8 0 0
0.432313 0.498704 0.125817 0.8 0 0
0.591930 0.431045 0.110421 0.8 0 0
0.652341 0.204135 0.061194 0.8 0 0
0.618688 0.732312 0.086339 0.8 0 0
0.042376 0.566984 0.126556 0.8 0 0
0.534845 0.828060 0.092586 0.8 0 0
0.286695 0.237677 0.053931 0.8 0 0
0.463483 0.614465 0.148819 0.8 0 0
0.577386 0.760736 0.080661 0.8 0 0
0.499526 0.640429 0.141151 0.8 0 0
0.607521 0.330520 0.048535 0.8 0 0
0.501716 0.741992 0.055838 0.8 0 0
0.091940 0.596593 0.093152 0.8 0 0
0.292531 0.315954 0.104268 0.8 0 0
0.337301 0.373709 0.048271 0.8 0 0
0.349777 0.497359 0.112499 0.8 0 0
0.765736 0.656889 0.110388 0.8 0 0
0.428244 0.509902 0.130571 0.8 0 0
0.407529 0.663647 0.127393 0.8 0 0
0.440810 0.798111 0.047679 0.8 0 0
0.595376 0.334903 0.052306 0.8 0 0
0.430881 0.830889 0.122059 0.8 0 0
0.427738 0.895150 0.108165 0.8 0 0
0.510506 0.512645 0.045169 0.8 0 0
0.481341 0.854667 0.098891 0.8 0 0
0.254728 0.242822 0.086889 0.8 0 0
0.464478 0.561089 0.145721 0.8 0 0
0.466437 0.889749 0.100513 0.8 0 0
0.321390 0.790510 0.110570 0.8 0 0
0.447120 0.719015 0.151196 0.8 0 0
0.713319 0.188822 0.057722 0.8 0 0
0.711932 0.111365 0.061601 0.8 0 0
0.445778 0.771855 0.149175 0.8 0 0
0.212391 0.714947 0.096591 0.8 0 0
0.477941 0.734948 0.055113 0.8 0 0
0.584672 0.803833 0.101804 0.8 0 0
0.471905 0.875843 0.147460 0.8 0 0
0.694639 0.208265 0.042614 0.8 0 0
0.628592 0.362547 0.087636 0.8 0 0
0.194868 0.122141 0.037175 0.8 0 0
0.591421 0.464555 0.083728 0.8 0 0
0.638649 0.761540 0.103492 0.8 0 0
0.463141 0.860297 0.148103 0.8 0 0
0.346994 0.511331 0.093036 0.8 0 0
0.203601 0.112007 0.041680 0.8 0 0
0.683671 0.719682 0.110987 0.8 0 0
0.169139 0.061426 0.029828 0.8 0 0
0.559093 0.467809 0.048708 0.8 0 0
0.518546 0.672714 0.108641 0.8 0 0
0.400068 0.444176 0.120214 0.8 0 0
0.398361 0.687740 0.111840 0.8 0 0
0.772213 0.052165 0.065854 0.8 0 0
0.267662 0.206088 0.066756 0.8 0 0
0.270977 0.223687 0.037423 0.8 0 0
0.300687 0.352253 0.047525 0.8 0 0
0.338615 0.768908 0.072871 0.8 0 0
0.200964 0.703458 0.106651 0.8 0 0
0.295190 0.725551 0.098103 0.8 0 0
0.180558 0.070265 0.031193 0.8 0 0
0.401869 0.650683 0.097559 0.8 0 0
0.476724 0.870855 0.075228 0.8 0 0
0.162328 0.659253 0.114030 0.8 0 0
0.212568 0.129367 0.041336 0.8 0 0
0.745478 0.113954 0.044277 0.8 0 0
0.488146 0.637850 0.074474 0.8 0 0
0.596300 0.322881 0.099360 0.8 0 0
0.725162 0.137563 0.070695 0.8 0 0
0.624774 0.377911 0.078732 0.8 0 0
0.476765 0.582040 0.146170 0.8 0 0
0.535152 0.802913 0.126551 0.8 0 0
0.626087 0.305858 0.102149 0.8 0 0
0.384587 0.759319 0.061335 0.8 0 0
0.443780 0.591848 0.054559 0.8 0 0
0.504258 0.578234 0.048816 0.8 0 0
0.083526 0.590920 0.105174 0.8 0 0
0.423265 0.543004 0.035737 0.8 0 0
0.282565 0.317649 0.102064 0.8 0 0
0.418314 0.464751 0.120250 0.8 0 0
0.609906 0.290816 0.055812 0.8 0 0
0.608907 0.343203 0.046566 0.8 0 0
0.340117 0.630881 0.122216 0.8 0 0
0.426940 0.912265 0.127658 0.8 0 0
0.509279 0.610339 0.138715 0.8 0 0
0.133628 0.628499 0.090193 0.8 0 0
0.527571 0.732571 0.090926 0.8 0 0
0.628514 0.256179 0.045766 0.8 0 0
0.486127 0.662505 0.077321 0.8 0 0
0.685655 0.236979 0.077942 0.8 0 0
0.433779 0.762551 0.152551 0.8 0 0
0.471674 0.917834 0.138075 0.8 0 0
0.588117 0.751010 0.115192 0.8 0 0
0.588604 0.787193 0.074299 0.8 0 0
0.607004 0.287049 0.068417 0.8 0 0
0.484293 0.913627 0.133766 0.8 0 0
0.429087 0.894903 0.070191 0.8 0 0
0.692168 0.181669 0.038093 0.8 0 0
0.193563 0.699330 0.099742 0.8 0 0
0.772609 0.041895 0.108175 0.8 0 0
0.527582 0.568738 0.126947 0.8 0 0
0.279848 0.734683 0.122257 0.8 0 0
0.553708 0.823169 0.094436 0.8 0 0
0.532848 0.759769 0.117712 0.8 0 0
0.609298 0.387863 0.052583 0.8 0 0
0.492573 0.824840 0.058867 0.8 0 0
0.731257 0.666231 0.115984 0.8 0 0
0.605590 0.394610 0.052224 0.8 0 0
0.402798 0.662472 0.117883 0.8 0 0
0.593046 0.326286 0.055530 0.8 0 0
0.034922 0.561486 0.111505 0.8 0 0
0.182689 0.661876 0.087223 0.8 0 0
0.483837 0.479661 0.068915 0.8 0 0
0.288015 0.362603 0.076994 0.8 0 0
0.470147 0.851330 0.116378 0.8 0 0
0.249074 0.199453 0.036241 0.8 0 0
0.422544 0.661134 0.140705 0.8 0 0
0.407053 0.440069 0.064031 0.8 0 0
0.485549 0.822667 0.056085 0.8 0 0
0.237890 0.196885 0.080579 0.8 0 0
0.595564 0.413925 0.111567 0.8 0 0
0.551320 0.439510 0.046235 0.8 0 0
0.534365 0.736908 0.142319 0.8 0 0
0.530183 0.612036 0.090204 0.8 0 0
0.473218 0.647560 0.152573 0.8 0 0
0.430669 0.936552 0.057819 0.8 0 0
0.340832 0.494231 0.076981 0.8 0 0
0.281857 0.717252 0.099180 0.8 0 0
0.248946 0.261018 0.037946 0.8 0 0
0.580916 0.423369 0.121702 0.8 0 0
0.532428 0.721352 0.128019 0.8 0 0
0.591536 0.311162 0.081420 0.8 0 0
0.515986 0.448626 0.057751 0.8 0 0
0.429845 0.811574 0.131880 0.8 0 0
0.567202 0.498076 0.061842 0.8 0 0
0.400290 0.679755 0.106326 0.8 0 0
0.409674 0.791014 0.135696 0.8 0 0
0.605580 0.741936 0.117637 0.8 0 0
0.189563 0.085106 0.065970 0.8 0 0
0.579421 0.375723 0.048597 0.8 0 0
0.616579 0.341768 0.046031 0.8 0 0
0.409197 0.578355 0.050262 0.8 0 0
0.402750 0.700539 0.136843 0.8 0 0
0.362740 0.503034 0.124214 0.8 0 0
0.186127 0.146099 0.055947 0.8 0 0
0.627081 0.315248 0.104152 0.8 0 0
0.492843 0.770731 0.049299 0.8 0 0
0.610741 0.401812 0.097025 0.8 0 0
0.507075 0.744160 0.161733 0.8 0 0
0.322282 0.413260 0.052748 0.8 0 0
0.472721 0.574636 0.045295 0.8 0 0
0.370886 0.793730 0.127233 0.8 0 0
0.456608 0.524570 0.137812 0.8 0 0
0.493578 0.723559 0.060108 0.8 0 0
0.512684 0.591947 0.137592 0.8 0 0
0.465329 0.870221 0.062413 0.8 0 0
0.460868 0.495211 0.059872 0.8 0 0
0.304128 0.278441 0.056502 0.8 0 0
0.475064 0.828669 0.124697 0.8 0 0
0.485281 0.620224 0.067913 0.8 0 0
0.471211 0.667094 0.146021 0.8 0 0
0.111197 0.607286 0.117569 0.8 0 0
0.194393 0.146120 0.069798 0.8 0 0
0.489683 0.827800 0.134444 0.8 0 0
0.172159 0.678653 0.103000 0.8 0 0
0.620152 0.282520 0.091045 0.8 0 0
0.361840 0.817035 0.109881 0.8 0 0
0.476032 0.590059 0.146543 0.8 0 0
0.345497 0.436862 0.048548 0.8 0 0
0.502750 0.437222 0.098305 0.8 0 0
0.355142 0.439961 0.127462 0.8 0 0
0.500274 0.810080 0.130196 0.8 0 0
0.440495 0.965948 0.112640 0.8 0 0
0.525100 0.830539 0.100681 0.8 0 0
0.320726 0.429236 0.060475 0.8 0 0
0.728536 0.154799 0.058924 0.8 0 0
0.594725 0.453271 0.074583 0.8 0 0
0.174871 0.094540 0.033869 0.8 0 0
0.381755 0.402787 0.108310 0.8 0 0
0.466187 0.855369 0.077975 0.8 0 0
0.435452 0.546921 0.035300 0.8 0 0
0.139090 0.033860 0.119966 0.8 0 0
0.660284 0.269692 0.037377 0.8 0 0
0.779754 0.039841 0.078980 0.8 0 0
0.388557 0.775519 0.130021 0.8 0 0
0.330611 0.471206 0.088184 0.8 0 0
0.746774 0.054559 0.040876 0.8 0 0
0.436637 0.501652 0.046616 0.8 0 0
0.328134 0.444419 0.059802 0.8 0 0
0.477138 0.900078 0.142693 0.8 0 0
0.267390 0.318201 0.086390 0.8 0 0
0.482820 0.809806 0.137588 0.8 0 0
0.637230 0.339402 0.055797 0.8 0 0
0.466327 0.737950 0.053368 0.8 0 0
0.075762 0.601882 0.087451 0.8 0 0
0.431117 0.555767 0.037505 0.8 0 0
0.495843 0.552110 0.141486 0.8 0 0
0.543836 0.581635 0.099800 0.8 0 0
0.566691 0.796038 0.122269 0.8 0 0
0.420831 0.839107 0.081503 0.8 0 0
0.664706 0.294384 0.059636 0.8 0 0
0.389239 0.544440 0.052335 0.8 0 0
0.420350 0.840037 0.126156 0.8 0 0
0.271312 0.251257 0.032761 0.8 0 0
0.566217 0.395068 0.118314 0.8 0 0
0.425794 0.902584 0.105665 0.8 0 0
0.093488 0.594623 0.121867 0.8 0 0
0.423075 0.640957 0.077469 0.8 0 0
0.658548 0.196108 0.049096 0.8 0 0
0.504222 0.461545 0.060414 0.8 0 0
0.477690 0.907111 0.131772 0.8 0 0
0.395824 0.700008 0.123851 0.8 0 0
0.440442 0.916613 0.040780 0.8 0 0
0.057444 0.588100 0.108276 0.8 0 0
0.193934 0.162190 0.059272 0.8 0 0
0.518838 0.537416 0.134361 0.8 0 0
0.145680 0.027595 0.106801 0.8 0 0
0.416689 0.835772 0.073538 0.8 0 0
0.390927 0.449973 0.051466 0.8 0 0
0.683669 0.684949 0.095642 0.8 0 0
0.029244 0.565934 0.109881 0.8 0 0
0.386564 0.727737 0.147488 0.8 0 0
0.586929 0.749592 0.110758 0.8 0 0
0.735564 0.661979 0.087234 0.8 0 0
0.763703 0.039989 0.072388 0.8 0 0
0.182131 0.127190 0.065792 0.8 0 0
0.429150 0.907705 0.056856 0.8 0 0
0.836130 0.600839 0.129730 0.8 0 0
0.704276 0.671111 0.098461 0.8 0 0
0.490112 0.459692 0.073267 0.8 0 0
0.249163 0.284488 0.058600 0.8 0 0
0.445955 0.960447 0.125999 0.8 0 0
0.363889 0.366315 0.096180 0.8 0 0
0.450142 0.491312 0.064958 0.8 0 0
0.165028 0.658486 0.115273 0.8 0 0
0.242606 0.244773 0.038286 0.8 0 0
0.491791 0.529494 0.035081 0.8 0 0
0.569043 0.442839 0.048230 0.8 0 0
0.614822 0.326576 0.104583 0.8 0 0
0.729915 0.137018 0.068307 0.8 0 0
0.658211 0.284925 0.042354 0.8 0 0
0.426377 0.850054 0.077595 0.8 0 0
0.581962 0.325937 0.086197 0.8 0 0
0.257408 0.213096 0.034856 0.8 0 0
0.518893 0.642726 0.100111 0.8 0 0
0.499031 0.708236 0.154203 0.8 0 0
0.492138 0.801111 0.136215 0.8 0 0
0.375472 0.553067 0.062445 0.8 0 0
0.410011 0.632670 0.080010 0.8 0 0
0.530855 0.757476 0.058910 0.8 0 0
0.451382 0.883017 0.163533 0.8 0 0
0.478894 0.552575 0.144024 0.8 0 0
0.531432 0.829311 0.091593 0.8 0 0
0.483231 0.646163 0.089546 0.8 0 0
0.468642 0.836685 0.061955 0.8 0 0
0.285393 0.235508 0.052059 0.8 0 0
0.321715 0.385616 0.047530 0.8 0 0
0.293087 0.292301 0.045600 0.8 0 0
0.540077 0.591563 0.086750 0.8 0 0
0.442331 0.675874 0.145219 0.8 0 0
0.268282 0.290749 0.093719 0.8 0 0
0.537846 0.500193 0.134149 0.8 0 0
0.483333 0.484969 0.117992 0.8 0 0
0.368236 0.419863 0.122609 0.8 0 0
0.546175 0.793923 0.059843 0.8 0 0
0.457247 0.843849 0.062708 0.8 0 0
0.244058 0.714381 0.079820 0.8 0 0
0.360621 0.637050 0.148988 0.8 0 0
0.254203 0.259964 0.087400 0.8 0 0
0.749715 0.111581 0.056096 0.8 0 0
0.276888 0.289566 0.096268 0.8 0 0
0.466336 0.884610 0.150349 0.8 0 0
0.644254 0.336167 0.067340 0.8 0 0
0.404891 0.655871 0.075984 0.8 0 0
0.337743 0.404313 0.121129 0.8 0 0
0.347922 0.629831 0.077255 0.8 0 0
0.629712 0.343651 0.095654 0.8 0 0
0.512304 0.421889 0.077361 0.8 0 0
0.514881 0.799021 0.052105 0.8 0 0
0.318602 0.778349 0.075928 0.8 0 0
0.295610 0.368656 0.058215 0.8 0 0
0.774709 0.062029 0.089426 0.8 0 0
0.508684 0.556705 0.137839 0.8 0 0
0.378682 0.518852 0.051796 0.8 0 0
0.747602 0.062733 0.075915 0.8 0 0
0.394786 0.742155 0.158647 0.8 0 0
0.355065 0.395468 0.050317 0.8 0 0
0.477694 0.658022 0.145604 0.8 0 0
0.419544 0.716153 0.159166 0.8 0 0
0.303073 0.391813 0.063893 0.8 0 0
0.328564 0.783022 0.074039 0.8 0 0
0.628648 0.257553 0.045395 0.8 0 0
0.684762 0.172670 0.075761 0.8 0 0
0.183969 0.092154 0.030502 0.8 0 0
0.768681 0.028148 0.094872 0.8 0 0
0.356482 0.497430 0.119972 0.8 0 0
0.590444 0.403247 0.048334 0.8 0 0
0.457668 0.491417 0.117294 0.8 0 0
0.613889 0.300897 0.100597 0.8 0 0
0.689638 0.153185 0.069595 0.8 0 0
0.415269 0.655928 0.171569 0.8 0 0
0.375673 0.570573 0.070911 0.8 0 0
0.337541 0.351512 0.054087 0.8 0 0
0.489618 0.938012 0.064747 0.8 0 0
0.404895 0.801472 0.131160 0.8 0 0
0.271954 0.316074 0.091466 0.8 0 0
0.730665 0.120344 0.070228 0.8 0 0
0.194778 0.087785 0.059077 0.8 0 0
0.332100 0.751893 0.115252 0.8 0 0
0.505722 0.473267 0.127505 0.8 0 0
0.353435 0.348273 0.074121 0.8 0 0
0.076105 0.603807 0.098464 0.8 0 0
0.458722 0.485318 0.083935 0.8 0 0
0.392045 0.745474 0.155352 0.8 0 0
0.428580 0.795426 0.048601 0.8 0 0
0.364011 0.366291 0.066915 0.8 0 0
0.617736 0.393788 0.071832 0.8 0 0
0.590746 0.437941 0.109581 0.8 0 0
0.469020 0.525815 0.137712 0.8 0 0
0.339991 0.631890 0.087928 0.8 0 0
0.220848 0.158053 0.075013 0.8 0 0
0.461913 0.554850 0.145223 0.8 0 0
0.501063 0.476833 0.126388 0.8 0 0
0.510577 0.423690 0.083686 0.8 0 0
0.463739 0.750632 0.050424 0.8 0 0
0.614336 0.759394 0.121654 0.8 0 0
0.489958 0.534989 0.137861 0.8 0 0
0.101359 0.617846 0.094448 0.8 0 0
0.703521 0.208118 0.053099 0.8 0 0
0.549059 0.765557 0.105023 0.8 0 0
0.622114 0.258497 0.060688 0.8 0 0
0.288909 0.735872 0.077755 0.8 0 0
0.484837 0.772768 0.048388 0.8 0 0
0.414793 0.648485 0.171117 0.8 0 0
0.520514 0.621992 0.118713 0.8 0 0
0.765691 0.051347 0.058904 0.8 0 0
0.661816 0.288097 0.046833 0.8 0 0
0.345505 0.498925 0.069941 0.8 0 0
0.449800 0.485630 0.083254 0.8 0 0
0.270768 0.749998 0.088370 0.8 0 0
0.228868 0.223845 0.077694 0.8 0 0
0.308385 0.324976 0.048909 0.8 0 0
0.292112 0.372692 0.077942 0.8 0 0
0.265909 0.323348 0.069406 0.8 0 0
0.312351 0.742029 0.082493 0.8 0 0
0.453931 0.872263 0.083155 0.8 0 0
0.308802 0.765740 0.075773 0.8 0 0
0.492788 0.822520 0.130547 0.8 0 0
0.499554 0.566820 0.042924 0.8 0 0
0.442156 0.767864 0.048481 0.8 0 0
0.232768 0.171725 0.076062 0.8 0 0
0.405803 0.711221 0.153527 0.8 0 0
0.530903 0.744135 0.085655 0.8 0 0
0.521246 0.408790 0.086314 0.8 0 0
0.453036 0.882966 0.048638 0.8 0 0
0.520849 0.519695 0.046457 0.8 0 0
0.132767 0.035165 0.093070 0.8 0 0
0.300120 0.269192 0.056586 0.8 0 0
0.353242 0.816340 0.090639 0.8 0 0
0.362927 0.374293 0.060248 0.8 0 0
0.322337 0.756006 0.122498 0.8 0 0
0.665316 0.213100 0.082572 0.8 0 0
0.512180 0.664401 0.126647 0.8 0 0
0.683205 0.719430 0.111406 0.8 0 0
0.803421 0.614628 0.091536 0.8 0 0
0.439947 0.795463 0.144831 0.8 0 0
0.197761 0.091700 0.046717 0.8 0 0
0.352622 0.523842 0.094960 0.8 0 0
0.471211 0.707896 0.149248 0.8 0 0
0.594386 0.450087 0.070202 0.8 0 0
0.454896 0.592328 0.056479 0.8 0 0
0.504058 0.696557 0.141657 0.8 0 0
0.442582 0.753798 0.152093 0.8 0 0
0.244800 0.222798 0.035592 0.8 0 0
0.517081 0.436282 0.115002 0.8 0 0
0.649603 0.272663 0.035849 0.8 0 0
0.370186 0.765250 0.103921 0.8 0 0
0.666665 0.225096 0.084858 0.8 0 0
0.517523 0.656814 0.103382 0.8 0 0
0.190600 0.122279 0.038476 0.8 0 0
0.082937 0.595469 0.086962 0.8 0 0
0.283663 0.742245 0.121531 0.8 0 0
0.318992 0.440619 0.088773 0.8 0 0
0.237614 0.257534 0.072216 0.8 0 0
0.629976 0.721776 0.097856 0.8 0 0
0.485164 0.662643 0.112759 0.8 0 0
0.453428 0.869057 0.135696 0.8 0 0
0.645085 0.712490 0.099477 0.8 0 0
0.741648 0.679561 0.091011 0.8 0 0
0.555919 0.515033 0.121026 0.8 0 0
0.335631 0.765300 0.073863 0.8 0 0
0.428429 0.567084 0.144482 0.8 0 0
0.517796 0.740620 0.161911 0.8 0 0
0.361569 0.369313 0.100647 0.8 0 0
0.321867 0.431917 0.103123 0.8 0 0
0.469554 0.648951 0.155717 0.8 0 0
0.139643 0.026627 0.116543 0.8 0 0
0.646063 0.226453 0.037897 0.8 0 0
0.341297 0.437180 0.050152 0.8 0 0
0.647713 0.328084 0.086320 0.8 0 0
0.667076 0.288262 0.074559 0.8 0 0
0.446740 0.878479 0.134870 0.8 0 0
0.283170 0.282571 0.039302 0.8 0 0
0.477379 0.855273 0.110076 0.8 0 0
0.635675 0.720184 0.115193 0.8 0 0
0.363839 0.550616 0.085234 0.8 0 0
0.467306 0.715026 0.149989 0.8 0 0
0.237058 0.222036 0.038153 0.8 0 0
0.604331 0.398595 0.106829 0.8 0 0
0.765279 0.661767 0.101651 0.8 0 0
0.755426 0.044110 0.088405 0.8 0 0
0.494639 0.521665 0.133169 0.8 0 0
0.660235 0.290482 0.086539 0.8 0 0
0.406030 0.662385 0.168841 0.8 0 0
0.512839 0.593774 0.137394 0.8 0 0
0.521841 0.587474 0.129828 0.8 0 0
0.591384 0.330702 0.100658 0.8 0 0
0.471355 0.712753 0.149804 0.8 0 0
0.431164 0.465594 0.071997 0.8 0 0
0.494043 0.893721 0.087618 0.8 0 0
0.369080 0.496509 0.129828 0.8 0 0
0.497936 0.845055 0.086919 0.8 0 0
0.269186 0.232533 0.033880 0.8 0 0
0.276638 0.295053 0.041871 0.8 0 0
0.427091 0.504362 0.129831 0.8 0 0
0.224772 0.148967 0.070435 0.8 0 0
0.722644 0.148722 0.070507 0.8 0 0
0.456580 0.873580 0.057372 0.8 0 0
0.497915 0.623438 0.072171 0.8 0 0
0.704406 0.675398 0.112467 0.8 0 0
0.342687 0.501300 0.090496 0.8 0 0
0.415339 0.838425 0.095689 0.8 0 0
0.442134 0.916770 0.124869 0.8 0 0
0.371628 0.560101 0.110225 0.8 0 0
0.215746 0.198628 0.073008 0.8 0 0
0.716591 0.179540 0.053939 0.8 0 0
0.654892 0.248755 0.088766 0.8 0 0
0.407143 0.723873 0.063486 0.8 0 0
0.234724 0.688796 0.089582 0.8 0 0
0.474260 0.882874 0.147590 0.8 0 0
0.486673 0.951235 0.067859 0.8 0 0
0.616320 0.737291 0.080318 0.8 0 0
0.442751 0.532239 0.139010 0.8 0 0
0.441785 0.916143 0.137985 0.8 0 0
0.567337 0.487523 0.058193 0.8 0 0
0.209640 0.152182 0.038833 0.8 0 0
0.233136 0.251181 0.056958 0.8 0 0
0.583921 0.798686 0.112945 0.8 0 0
0.164619 0.049116 0.054940 0.8 0 0
0.494663 0.526411 0.134506 0.8 0 0
0.382568 0.806049 0.058755 0.8 0 0
0.537646 0.822698 0.072929 0.8 0 0
0.552918 0.809879 0.118178 0.8 0 0
0.590595 0.435129 0.110588 0.8 0 0
0.144766 0.039954 0.037268 0.8 0 0
0.695130 0.223033 0.072133 0.8 0 0
0.688325 0.152997 0.044722 0.8 0 0
0.424417 0.559939 0.039679 0.8 0 0
0.523029 0.777013 0.135419 0.8 0 0
0.189131 0.082076 0.059816 0.8 0 0
0.441613 0.815497 0.132734 0.8 0 0
0.503658 0.602025 0.062086 0.8 0 0
0.515329 0.698365 0.135468 0.8 0 0
0.319572 0.300381 0.086807 0.8 0 0
0.431301 0.506217 0.129004 0.8 0 0
0.515054 0.656995 0.121956 0.8 0 0
0.475858 0.854270 0.065090 0.8 0 0
0.415300 0.838921 0.095292 0.8 0 0
0.526035 0.724877 0.093228 0.8 0 0
0.518046 0.723151 0.066318 0.8 0 0
0.501665 0.513375 0.042353 0.8 0 0
0.270301 0.286342 0.094196 0.8 0 0
0.432730 0.530935 0.136860 0.8 0 0
0.566143 0.764432 0.081819 0.8 0 0
0.566953 0.422396 0.125588 0.8 0 0
0.679751 0.265404 0.057399 0.8 0 0
0.406117 0.737335 0.058845 0.8 0 0
0.451873 0.965993 0.061571 0.8 0 0
0.701333 0.688162 0.084235 0.8 0 0
0.377869 0.590739 0.095953 0.8 0 0
0.286822 0.264033 0.088068 0.8 0 0
0.384955 0.764793 0.120795 0.8 0 0
0.502203 0.496022 0.050077 0.8 0 0
0.707628 0.137598 0.038194 0.8 0 0
0.440343 0.672130 0.144925 0.8 0 0
0.348633 0.643608 0.085855 0.8 0 0
0.527692 0.740672 0.156835 0.8 0 0
0.381777 0.646215 0.160955 0.8 0 0
0.073602 0.585601 0.094930 0.8 0 0
0.586017 0.332230 0.098416 0.8 0 0
0.302691 0.746348 0.075824 0.8 0 0
0.539824 0.825335 0.081517 0.8 0 0
0.127643 0.616312 0.098940 0.8 0 0
0.487847 0.887455 0.123160 0.8 0 0
0.840199 0.589945 0.092714 0.8 0 0
0.161962 0.645445 0.089144 0.8 0 0
0.271197 0.317089 0.051021 0.8 0 0
0.591548 0.440275 0.107514 0.8 0 0
0.789307 0.047163 0.102065 0.8 0 0
0.350957 0.784933 0.067238 0.8 0 0
0.174567 0.114222 0.063795 0.8 0 0
0.528382 0.744605 0.102723 0.8 0 0
0.439494 0.556140 0.144645 0.8 0 0
0.245282 0.272828 0.074900 0.8 0 0
0.631805 0.247866 0.045171 0.8 0 0
0.620439 0.323381 0.047035 0.8 0 0
0.502567 0.839693 0.098600 0.8 0 0
0.717345 0.099308 0.052854 0.8 0 0
0.627587 0.369649 0.070679 0.8 0 0
0.465446 0.895800 0.126327 0.8 0 0
0.511253 0.535037 0.135468 0.8 0 0
0.307417 0.411225 0.082763 0.8 0 0
0.212248 0.123078 0.065464 0.8 0 0
0.530600 0.455639 0.048993 0.8 0 0
0.438273 0.635999 0.170110 0.8 0 0
0.347543 0.646680 0.127287 0.8 0 0
0.649656 0.248063 0.032208 0.8 0 0
0.388011 0.438556 0.123370 0.8 0 0
0.486305 0.883016 0.090065 0.8 0 0
0.088215 0.592493 0.109075 0.8 0 0
0.176038 0.069669 0.069989 0.8 0 0
0.631977 0.351550 0.089203 0.8 0 0
0.518975 0.564109 0.048380 0.8 0 0
0.368201 0.408619 0.118698 0.8 0 0
0.518320 0.675857 0.115927 0.8 0 0
0.610799 0.743863 0.077438 0.8 0 0
0.571392 0.491617 0.112256 0.8 0 0
0.431703 0.949219 0.065099 0.8 0 0
0.426185 0.939588 0.116592 0.8 0 0
0.560959 0.526279 0.070005 0.8 0 0
0.617918 0.369306 0.051948 0.8 0 0
0.360375 0.617536 0.150431 0.8 0 0
0.369173 0.768070 0.112771 0.8 0 0
0.350699 0.811249 0.110029 0.8 0 0
0.353655 0.413565 0.046845 0.8 0 0
0.472323 0.788403 0.150425 0.8 0 0
0.389731 0.746816 0.151471 0.8 0 0
0.519162 0.823061 0.118457 0.8 0 0
0.504035 0.784084 0.139438 0.8 0 0
0.191635 0.101153 0.035895 0.8 0 0
0.399629 0.601417 0.130921 0.8 0 0
0.595542 0.794602 0.106704 0.8 0 0
0.424689 0.630627 0.143806 0.8 0 0
0.473110 0.918273 0.126050 0.8 0 0
0.501476 0.491902 0.130956 0.8 0 0
0.691666 0.703213 0.116547 0.8 0 0
0.401973 0.786251 0.135320 0.8 0 0
0.476910 0.912694 0.138168 0.8 0 0
0.527354 0.739811 0.063956 0.8 0 0
0.442083 0.754754 0.152009 0.8 0 0
0.463878 0.848285 0.118001 0.8 0 0
0.189103 0.694160 0.103837 0.8 0 0
0.573399 0.808032 0.110073 0.8 0 0
0.758928 0.640444 0.092319 0.8 0 0
0.466645 0.905306 0.038505 0.8 0 0
0.403455 0.659221 0.170540 0.8 0 0
0.495088 0.704166 0.150374 0.8 0 0
0.473928 0.750568 0.051129 0.8 0 0
0.421933 0.924264 0.086628 0.8 0 0
0.480183 0.912108 0.043027 0.8 0 0
0.580643 0.341958 0.057215 0.8 0 0
0.684966 0.708182 0.081730 0.8 0 0
0.469202 0.860968 0.071686 0.8 0 0
0.441527 0.947602 0.049286 0.8 0 0
0.482479 0.552309 0.143516 0.8 0 0
0.561982 0.353088 0.075424 0.8 0 0
0.480659 0.666547 0.075536 0.8 0 0
0.300842 0.268568 0.068701 0.8 0 0
0.468498 0.753050 0.150645 0.8 0 0
0.370572 0.506198 0.052737 0.8 0 0
0.401889 0.633382 0.087173 0.8 0 0
0.443943 0.876572 0.095756 0.8 0 0
0.410003 0.728933 0.163340 0.8 0 0
0.454010 0.896216 0.153065 0.8 0 0
0.777461 0.650871 0.102556 0.8 0 0
0.510262 0.441545 0.064748 0.8 0 0
0.510008 0.556735 0.041831 0.8 0 0
0.587005 0.384886 0.117804 0.8 0 0
0.495907 0.926090 0.086445 0.8 0 0
0.154463 0.659093 0.109333 0.8 0 0
0.518324 0.638529 0.111783 0.8 0 0
0.425945 0.675915 0.076572 0.8 0 0
0.348782 0.648707 0.125733 0.8 0 0
0.499470 0.454636 0.067292 0.8 0 0
0.665868 0.193845 0.075637 0.8 0 0
0.438097 0.918729 0.132301 0.8 0 0
0.755447 0.667397 0.108993 0.8 0 0
0.466470 0.639059 0.077499 0.8 0 0
0.382398 0.452134 0.047403 0.8 0 0
0.698176 0.184055 0.077058 0.8 0 0
0.334775 0.391001 0.046230 0.8 0 0
0.392956 0.775720 0.133337 0.8 0 0
0.534414 0.780073 0.056602 0.8 0 0
0.280384 0.225612 0.054062 0.8 0 0
0.292427 0.249830 0.055758 0.8 0 0
0.459180 0.837584 0.121511 0.8 0 0
0.424523 0.685422 0.141391 0.8 0 0
0.680833 0.243765 0.040969 0.8 0 0
0.705640 0.197247 0.071277 0.8 0 0
0.493983 0.932216 0.075235 0.8 0 0
0.462768 0.863863 0.066717 0.8 0 0
0.516286 0.423526 0.067769 0.8 0 0
0.444833 0.489927 0.069300 0.8 0 0
0.482306 0.670804 0.126376 0.8 0 0
0.517560 0.485719 0.133736 0.8 0 0
0.290061 0.360227 0.061910 0.8 0 0
0.693953 0.721900 0.098038 0.8 0 0
0.375722 0.378079 0.085578 0.8 0 0
0.481704 0.612765 0.147119 0.8 0 0
0.318316 0.792090 0.102688 0.8 0 0
0.514920 0.833538 0.078729 0.8 0 0
0.258288 0.743704 0.103549 0.8 0 0
0.419223 0.512812 0.133002 0.8 0 0
0.482643 0.582536 0.048832 0.8 0 0
0.451960 0.924071 0.038149 0.8 0 0
0.276525 0.265035 0.034616 0.8 0 0
0.442108 0.915997 0.132601 0.8 0 0
0.527170 0.740506 0.063439 0.8 0 0
0.478709 0.679384 0.113443 0.8 0 0
0.347759 0.361530 0.105623 0.8 0 0
0.397789 0.523868 0.135564 0.8 0 0
0.061321 0.577740 0.099970 0.8 0 0
0.243349 0.256298 0.081945 0.8 0 0
0.182947 0.110916 0.069547 0.8 0 0
0.631728 0.305329 0.045412 0.8 0 0
0.200511 0.098419 0.056387 0.8 0 0
0.598262 0.322814 0.054101 0.8 0 0
0.403904 0.784484 0.136275 0.8 0 0
0.589245 0.314800 0.081414 0.8 0 0
0.388525 0.566786 0.056767 0.8 0 0
0.308647 0.372941 0.107186 0.8 0 0
0.296469 0.259886 0.055800 0.8 0 0
0.743094 0.056114 0.044372 0.8 0 0
0.718225 0.122885 0.037215 0.8 0 0
0.497856 0.560449 0.040368 0.8 0 0
0.368062 0.423637 0.123982 0.8 0 0
0.387343 0.796396 0.055366 0.8 0 0
0.338585 0.795624 0.072570 0.8 0 0
0.168484 0.064827 0.078131 0.8 0 0
0.387026 0.642854 0.164285 0.8 0 0
0.487427 0.686638 0.072409 0.8 0 0
0.434340 0.842158 0.074521 0.8 0 0
0.729469 0.092954 0.034482 0.8 0 0
0.344902 0.645813 0.092658 0.8 0 0
0.512622 0.577378 0.138264 0.8 0 0
0.511795 0.524275 0.042410 0.8 0 0
0.261922 0.287009 0.042915 0.8 0 0
0.276415 0.263281 0.090566 0.8 0 0
0.642552 0.271521 0.092432 0.8 0 0
0.457918 0.509685 0.132052 0.8 0 0
0.425340 0.908713 0.114195 0.8 0 0
0.403156 0.447069 0.058343 0.8 0 0
0.417843 0.839003 0.113662 0.8 0 0
0.478977 0.718963 0.154102 0.8 0 0
0.158255 0.635295 0.100714 0.8 0 0
0.461418 0.788084 0.046020 0.8 0 0
0.670998 0.694821 0.096389 0.8 0 0
0.585707 0.429045 0.051847 0.8 0 0
0.523825 0.604268 0.069095 0.8 0 0
0.723402 0.159268 0.049146 0.8 0 0
0.281135 0.737373 0.122128 0.8 0 0
0.444995 0.875309 0.132289 0.8 0 0
0.491353 0.922152 0.060984 0.8 0 0
0.870457 0.579495 0.106961 0.8 0 0
0.330347 0.615992 0.099069 0.8 0 0
0.292924 0.249650 0.059192 0.8 0 0
0.449360 0.869960 0.085056 0.8 0 0
0.255676 0.702047 0.112084 0.8 0 0
0.397623 0.624485 0.113917 0.8 0 0
0.589259 0.350629 0.108654 0.8 0 0
0.100733 0.598535 0.100815 0.8 0 0
0.810651 0.602413 0.104572 0.8 0 0
0.318470 0.378816 0.113236 0.8 0 0
0.776205 0.059624 0.058907 0.8 0 0
0.565127 0.526925 0.094233 0.8 0 0
0.320459 0.741587 0.095117 0.8 0 0
0.291385 0.758847 0.117008 0.8 0 0
0.661152 0.191183 0.062526 0.8 0 0
0.402662 0.601966 0.065184 0.8 0 0
0.674197 0.697764 0.087816 0.8 0 0
0.846475 0.584564 0.110918 0.8 0 0
0.736593 0.069619 0.034183 0.8 0 0
0.667314 0.730194 0.113809 0.8 0 0
0.422729 0.917554 0.099097 0.8 0 0
0.614577 0.337937 0.046226 0.8 0 0
0.484282 0.963046 0.101031 0.8 0 0
0.316007 0.326079 0.051232 0.8 0 0
0.199209 0.164567 0.048137 0.8 0 0
0.474661 0.759128 0.150738 0.8 0 0
0.424495 0.519656 0.037415 0.8 0 0
0.101405 0.597962 0.117756 0.8 0 0
0.344099 0.642512 0.121820 0.8 0 0
0.335589 0.798918 0.113109 0.8 0 0
0.262532 0.717296 0.080779 0.8 0 0
0.151777 0.057698 0.030859 0.8 0 0
0.387982 0.739401 0.078703 0.8 0 0
0.394799 0.755708 0.148880 0.8 0 0
0.461137 0.889189 0.151589 0.8 0 0
0.485451 0.849451 0.070640 0.8 0 0
0.590884 0.430199 0.111762 0.8 0 0
0.531036 0.785439 0.054447 0.8 0 0
0.216321 0.182210 0.041515 0.8 0 0
0.709328 0.192527 0.067755 0.8 0 0
0.583938 0.751926 0.112105 0.8 0 0
0.343437 0.801304 0.072635 0.8 0 0
0.382677 0.593934 0.109085 0.8 0 0
0.440861 0.623938 0.168263 0.8 0 0
0.406164 0.742712 0.162105 0.8 0 0
0.752483 0.044109 0.081013 0.8 0 0
0.560626 0.525802 0.069296 0.8 0 0
0.412957 0.570245 0.045565 0.8 0 0
0.687306 0.207121 0.038861 0.8 0 0
0.629712 0.352687 0.056567 0.8 0 0
0.246857 0.705125 0.117602 0.8 0 0
0.149727 0.062826 0.087872 0.8 0 0
0.517370 0.481602 0.132662 0.8 0 0
0.346432 0.418327 0.046423 0.8 0 0
0.437700 0.914290 0.135862 0.8 0 0
0.291157 0.366467 0.066351 0.8 0 0
0.157206 0.641665 0.115515 0.8 0 0
0.433632 0.574313 0.044830 0.8 0 0
0.627237 0.248094 0.064523 0.8 0 0
0.522887 0.559805 0.049458 0.8 0 0
0.407454 0.586720 0.138630 0.8 0 0
0.148671 0.053985 0.041529 0.8 0 0
0.380915 0.769996 0.059958 0.8 0 0
0.102447 0.598366 0.106409 0.8 0 0
0.314076 0.428600 0.077473 0.8 0 0
0.471292 0.862131 0.120338 0.8 0 0
0.376537 0.494082 0.133076 0.8 0 0
0.419522 0.688444 0.074027 0.8 0 0
0.362333 0.519783 0.118784 0.8 0 0
0.425545 0.753058 0.052099 0.8 0 0
0.446449 0.888796 0.103728 0.8 0 0
0.458587 0.586307 0.052898 0.8 0 0
0.521330 0.752924 0.056480 0.8 0 0
0.525672 0.735063 0.104925 0.8 0 0
0.538198 0.464124 0.045673 0.8 0 0
0.423828 0.659417 0.077144 0.8 0 0
0.625547 0.361909 0.056482 0.8 0 0
0.762371 0.033409 0.079371 0.8 0 0
0.507131 0.544174 0.136563 0.8 0 0
0.170915 0.110062 0.043884 0.8 0 0
0.544664 0.825207 0.090747 0.8 0 0
0.542141 0.763995 0.081490 0.8 0 0
0.510527 0.554575 0.041228 0.8 0 0
0.428254 0.894477 0.075685 0.8 0 0
0.315829 0.747299 0.077291 0.8 0 0
0.195840 0.125439 0.037735 0.8 0 0
0.088197 0.612717 0.105078 0.8 0 0
0.449758 0.487264 0.078148 0.8 0 0
0.740931 0.652756 0.113113 0.8 0 0
0.388936 0.732752 0.079468 0.8 0 0
0.473016 0.877019 0.138879 0.8 0 0
0.477743 0.658657 0.145688 0.8 0 0
0.593626 0.796255 0.086652 0.8 0 0
0.790335 0.630642 0.090415 0.8 0 0
0.630742 0.720720 0.101315 0.8 0 0
0.592464 0.313458 0.064226 0.8 0 0
0.344212 0.641164 0.089060 0.8 0 0
0.487567 0.653556 0.128957 0.8 0 0
0.289609 0.726682 0.084851 0.8 0 0
0.514787 0.743150 0.057635 0.8 0 0
0.378783 0.569627 0.065934 0.8 0 0
0.550738 0.562813 0.084939 0.8 0 0
0.458184 0.850376 0.075360 0.8 0 0
0.404093 0.669116 0.124183 0.8 0 0
0.453253 0.775556 0.046873 0.8 0 0
0.461129 0.496350 0.057869 0.8 0 0
0.351119 0.768836 0.118592 0.8 0 0
0.240331 0.705059 0.081854 0.8 0 0
0.488245 0.840443 0.069166 0.8 0 0
0.660873 0.257989 0.034252 0.8 0 0
0.430132 0.886468 0.100783 0.8 0 0
0.133521 0.622376 0.093803 0.8 0 0
0.562729 0.392878 0.116436 0.8 0 0
0.091922 0.594818 0.129394 0.8 0 0
0.462739 0.885915 0.045547 0.8 0 0
0.371370 0.416584 0.120461 0.8 0 0
0.519784 0.682027 0.113828 0.8 0 0
0.060829 0.582773 0.086694 0.8 0 0
0.432500 0.904563 0.050715 0.8 0 0
0.491257 0.736067 0.055990 0.8 0 0
0.434591 0.609915 0.064727 0.8 0 0
0.751159 0.098545 0.039041 0.8 0 0
0.393987 0.753901 0.149833 0.8 0 0
0.553447 0.770711 0.116600 0.8 0 0
0.524452 0.717922 0.111300 0.8 0 0
0.275723 0.719698 0.082998 0.8 0 0
0.462822 0.499076 0.124982 0.8 0 0
0.476368 0.843710 0.064978 0.8 0 0
0.381014 0.765694 0.116544 0.8 0 0
0.706081 0.712610 0.107489 0.8 0 0
0.672007 0.213258 0.034929 0.8 0 0
0.483126 0.775140 0.147208 0.8 0 0
0.424555 0.466498 0.065473 0.8 0 0
0.390107 0.757979 0.057752 0.8 0 0
0.764925 0.633441 0.107541 0.8 0 0
0.438097 0.845391 0.066743 0.8 0 0
0.530257 0.437243 0.122728 0.8 0 0
0.529433 0.612929 0.088816 0.8 0 0
0.557948 0.359546 0.090022 0.8 0 0
0.450693 0.488606 0.073558 0.8 0 0
0.517113 0.721613 0.066743 0.8 0 0
0.593283 0.771426 0.072981 0.8 0 0
0.475821 0.808834 0.049007 0.8 0 0
0.281058 0.720962 0.117959 0.8 0 0
0.720150 0.685883 0.115476 0.8 0 0
0.272368 0.743998 0.082175 0.8 0 0
0.403835 0.638747 0.065128 0.8 0 0
0.432397 0.822263 0.127382 0.8 0 0
0.785089 0.030344 0.109344 0.8 0 0
0.472327 0.967739 0.114848 0.8 0 0
0.485599 0.518945 0.036436 0.8 0 0
0.391955 0.723802 0.088665 0.8 0 0
0.339418 0.433311 0.120722 0.8 0 0
0.230762 0.242441 0.070279 0.8 0 0
0.435821 0.648073 0.145281 0.8 0 0
0.407088 0.572804 0.048141 0.8 0 0
0.425594 0.630184 0.062053 0.8 0 0
0.637153 0.347945 0.080241 0.8 0 0
0.512340 0.528284 0.135252 0.8 0 0
0.160490 0.093546 0.046720 0.8 0 0
0.638634 0.296115 0.098830 0.8 0 0
0.707520 0.128938 0.040668 0.8 0 0
0.477662 0.759996 0.151155 0.8 0 0
0.413247 0.628304 0.169726 0.8 0 0
0.486021 0.579310 0.145260 0.8 0 0
0.099426 0.596906 0.118471 0.8 0 0
0.433770 0.888104 0.060969 0.8 0 0
0.083924 0.590514 0.114379 0.8 0 0
0.574918 0.503863 0.081810 0.8 0 0
0.425361 0.904639 0.071977 0.8 0 0
0.135086 0.030240 0.105669 0.8 0 0
0.476811 0.553687 0.144384 0.8 0 0
0.558597 0.363168 0.096889 0.8 0 0
0.526136 0.402656 0.076086 0.8 0 0
0.825991 0.599701 0.131094 0.8 0 0
0.459573 0.817109 0.133614 0.8 0 0
0.518943 0.418415 0.068783 0.8 0 0
0.552817 0.421220 0.123727 0.8 0 0
0.362401 0.644212 0.149458 0.8 0 0
0.210442 0.681617 0.085007 0.8 0 0
0.691948 0.238156 0.060853 0.8 0 0
0.575536 0.502532 0.082588 0.8 0 0
0.081623 0.594083 0.139124 0.8 0 0
0.581674 0.449716 0.054779 0.8 0 0
0.650151 0.313162 0.051922 0.8 0 0
0.423218 0.924575 0.103590 0.8 0 0
0.531862 0.747680 0.084338 0.8 0 0
0.514934 0.434337 0.064150 0.8 0 0
0.366220 0.793663 0.062339 0.8 0 0
0.537080 0.550905 0.124724 0.8 0 0
0.395199 0.721727 0.070012 0.8 0 0
0.661127 0.250320 0.033725 0.8 0 0
0.760137 0.635671 0.099360 0.8 0 0
0.416426 0.786367 0.049398 0.8 0 0
0.475408 0.651159 0.149684 0.8 0 0
0.651527 0.325283 0.064461 0.8 0 0
0.730424 0.692002 0.093006 0.8 0 0
0.451311 0.750277 0.050719 0.8 0 0
0.509574 0.563176 0.138337 0.8 0 0
0.460759 0.650218 0.160919 0.8 0 0
0.517410 0.460164 0.126619 0.8 0 0
0.689712 0.723376 0.096143 0.8 0 0
0.402511 0.641971 0.090866 0.8 0 0
0.477386 0.789849 0.142208 0.8 0 0
0.496572 0.788039 0.048702 0.8 0 0
0.320278 0.332643 0.051261 0.8 0 0
0.694365 0.140696 0.046984 0.8 0 0
0.549675 0.426656 0.124617 0.8 0 0
0.394082 0.725043 0.097301 0.8 0 0
0.507215 0.434882 0.070702 0.8 0 0
0.537118 0.580827 0.115074 0.8 0 0
0.304044 0.277845 0.057071 0.8 0 0
0.506103 0.766875 0.051210 0.8 0 0
0.227565 0.192939 0.078758 0.8 0 0
0.614790 0.301759 0.052061 0.8 0 0
0.608114 0.784213 0.087716 0.8 0 0
0.497647 0.754218 0.052204 0.8 0 0
0.482701 0.822198 0.128023 0.8 0 0
0.439001 0.772602 0.048062 0.8 0 0
0.313396 0.772665 0.076098 0.8 0 0
0.500840 0.674979 0.078885 0.8 0 0
0.504303 0.455951 0.117778 0.8 0 0
0.312907 0.384984 0.050229 0.8 0 0
0.427814 0.900073 0.067474 0.8 0 0
0.538744 0.496640 0.134022 0.8 0 0
0.764692 0.052490 0.092092 0.8 0 0
0.072671 0.589998 0.146289 0.8 0 0
0.035235 0.565246 0.106044 0.8 0 0
0.345079 0.770848 0.072633 0.8 0 0
0.377932 0.432022 0.123857 0.8 0 0
0.513829 0.594948 0.136626 0.8 0 0
0.428375 0.891741 0.093558 0.8 0 0
0.573195 0.507837 0.095077 0.8 0 0
0.285638 0.290899 0.042024 0.8 0 0
0.363604 0.529477 0.064872 0.8 0 0
0.809983 0.623070 0.099151 0.8 0 0
0.573811 0.756305 0.106245 0.8 0 0
0.316343 0.335058 0.106092 0.8 0 0
0.610827 0.392976 0.055956 0.8 0 0
0.640841 0.226916 0.076239 0.8 0 0
0.285981 0.303834 0.044861 0.8 0 0
0.657811 0.232573 0.085936 0.8 0 0
0.544067 0.420277 0.120724 0.8 0 0
0.535972 0.495811 0.134718 0.8 0 0
0.555450 0.384258 0.056948 0.8 0 0
0.411740 0.588110 0.140615 0.8 0 0
0.262862 0.291798 0.045225 0.8 0 0
0.435659 0.956435 0.122374 0.8 0 0
0.434409 0.650923 0.170947 0.8 0 0
0.505778 0.785731 0.138438 0.8 0 0
0.384573 0.767482 0.123014 0.8 0 0
0.533961 0.828463 0.093683 0.8 0 0
0.376534 0.500005 0.133079 0.8 0 0
0.348403 0.509083 0.102593 0.8 0 0
0.080030 0.586222 0.138989 0.8 0 0
0.393500 0.819566 0.119738 0.8 0 0
0.588583 0.351935 0.108926 0.8 0 0
0.492658 0.632494 0.144070 0.8 0 0
0.412858 0.838979 0.094780 0.8 0 0
0.597138 0.747330 0.083278 0.8 0 0
0.401580 0.793742 0.052069 0.8 0 0
0.568916 0.346448 0.066285 0.8 0 0
0.696005 0.222329 0.049321 0.8 0 0
0.479123 0.768924 0.149029 0.8 0 0
0.224533 0.221581 0.074233 0.8 0 0
0.568598 0.517649 0.079030 0.8 0 0
0.423339 0.445252 0.080102 0.8 0 0
0.484083 0.614564 0.066181 0.8 0 0
0.399458 0.720678 0.156981 0.8 0 0
0.469962 0.947694 0.045779 0.8 0 0
0.659629 0.235958 0.086842 0.8 0 0
0.518793 0.833792 0.086293 0.8 0 0
0.558728 0.364919 0.098371 0.8 0 0
0.605665 0.291730 0.088933 0.8 0 0
0.521460 0.713494 0.072766 0.8 0 0
0.416347 0.455516 0.116476 0.8 0 0
0.476776 0.920424 0.040634 0.8 0 0
0.501604 0.678875 0.137756 0.8 0 0
0.406118 0.833983 0.103097 0.8 0 0
0.514066 0.640528 0.124185 0.8 0 0
0.329644 0.444957 0.108415 0.8 0 0
0.234752 0.253018 0.051852 0.8 0 0
0.413334 0.832126 0.070031 0.8 0 0
0.376306 0.629223 0.064728 0.8 0 0
0.366698 0.649150 0.079297 0.8 0 0
0.503860 0.599373 0.060162 0.8 0 0
0.400083 0.412508 0.077690 0.8 0 0
0.745983 0.058599 0.066175 0.8 0 0
0.309218 0.734243 0.097658 0.8 0 0
0.445888 0.798557 0.047274 0.8 0 0
0.202747 0.178151 0.065517 0.8 0 0
0.033572 0.567584 0.097170 0.8 0 0
0.663904 0.195842 0.040352 0.8 0 0
0.497170 0.839465 0.124841 0.8 0 0
0.228132 0.696141 0.083365 0.8 0 0
0.217283 0.713777 0.088917 0.8 0 0
0.409355 0.703739 0.147118 0.8 0 0
0.615472 0.399967 0.072845 0.8 0 0
0.654078 0.204611 0.045621 0.8 0 0
0.504077 0.618115 0.140825 0.8 0 0
0.419033 0.452251 0.068049 0.8 0 0
0.360096 0.818447 0.082745 0.8 0 0
0.725406 0.116707 0.070704 0.8 0 0
0.631047 0.354600 0.088748 0.8 0 0
0.267375 0.204729 0.055496 0.8 0 0
0.454580 0.578058 0.146741 0.8 0 0
0.458763 0.507302 0.130906 0.8 0 0
0.457597 0.510402 0.132383 0.8 0 0
0.499040 0.918494 0.081091 0.8 0 0
0.293623 0.285739 0.045633 0.8 0 0
0.504866 0.646806 0.082155 0.8 0 0
0.492706 0.924588 0.066169 0.8 0 0
0.496970 0.814659 0.129715 0.8 0 0
0.384488 0.637235 0.160606 0.8 0 0
0.529834 0.720697 0.121469 0.8 0 0
0.351129 0.492388 0.060360 0.8 0 0
0.508296 0.429074 0.075752 0.8 0 0
0.149860 0.076473 0.037249 0.8 0 0
0.514529 0.422170 0.099871 0.8 0 0
0.312345 0.313629 0.052951 0.8 0 0
0.635400 0.762633 0.106625 0.8 0 0
0.522748 0.697324 0.118199 0.8 0 0
0.441528 0.603282 0.061856 0.8 0 0
0.604378 0.351374 0.109985 0.8 0 0
0.511665 0.709915 0.069039 0.8 0 0
0.707194 0.116225 0.049567 0.8 0 0
0.634435 0.336743 0.050112 0.8 0 0
0.680188 0.718603 0.113565 0.8 0 0
0.357814 0.405817 0.120899 0.8 0 0
0.384606 0.731642 0.129765 0.8 0 0
0.625631 0.757207 0.118937 0.8 0 0
0.352169 0.519122 0.102282 0.8 0 0
0.437336 0.715456 0.061717 0.8 0 0
0.408893 0.741915 0.162557 0.8 0 0
0.472934 0.499544 0.121988 0.8 0 0
0.468817 0.523512 0.035855 0.8 0 0
0.384601 0.572251 0.121055 0.8 0 0
0.479235 0.643607 0.147742 0.8 0 0
0.577858 0.444048 0.051638 0.8 0 0
0.284852 0.327580 0.097041 0.8 0 0
0.451869 0.828297 0.055354 0.8 0 0
0.256617 0.210221 0.080962 0.8 0 0
0.734889 0.139819 0.060514 0.8 0 0
0.374643 0.376643 0.080419 0.8 0 0
0.445197 0.566935 0.041577 0.8 0 0
0.467566 0.671509 0.092374 0.8 0 0
0.761478 0.084140 0.068112 0.8 0 0
0.419434 0.439629 0.093550 0.8 0 0
0.790453 0.051904 0.078701 0.8 0 0
0.510162 0.570106 0.046634 0.8 0 0
0.755948 0.090132 0.034301 0.8 0 0
0.296003 0.261196 0.052943 0.8 0 0
0.447640 0.619087 0.148194 0.8 0 0
0.605750 0.426432 0.084929 0.8 0 0
0.453532 0.787686 0.145170 0.8 0 0
0.625218 0.766720 0.112468 0.8 0 0
0.358386 0.637545 0.075095 0.8 0 0
0.374972 0.382356 0.066717 0.8 0 0
0.257895 0.236927 0.086735 0.8 0 0
0.460434 0.500072 0.052449 0.8 0 0
0.378787 0.568101 0.116371 0.8 0 0
0.342978 0.613040 0.132805 0.8 0 0
0.631787 0.271747 0.040249 0.8 0 0
0.630829 0.343795 0.050995 0.8 0 0
0.260482 0.202604 0.040962 0.8 0 0
0.345994 0.805034 0.114569 0.8 0 0
0.581640 0.801278 0.077348 0.8 0 0
0.573217 0.495146 0.067088 0.8 0 0
0.519613 0.443537 0.120258 0.8 0 0
0.731620 0.074901 0.043410 0.8 0 0
0.518287 0.678666 0.120663 0.8 0 0
0.460802 0.969359 0.116934 0.8 0 0
0.445455 0.594411 0.056448 0.8 0 0
0.658835 0.733577 0.116533 0.8 0 0
0.569994 0.516484 0.085822 0.8 0 0
0.397545 0.575918 0.053654 0.8 0 0
0.505892 0.654932 0.135122 0.8 0 0
0.348585 0.376205 0.112499 0.8 0 0
0.519878 0.631315 0.110028 0.8 0 0
0.589349 0.777834 0.072759 0.8 0 0
0.455317 0.886764 0.148376 0.8 0 0
0.513949 0.802954 0.130543 0.8 0 0
0.629137 0.307233 0.046323 0.8 0 0
0.417669 0.639399 0.140456 0.8 0 0
0.628058 0.295070 0.097429 0.8 0 0
0.501613 0.842999 0.114356 0.8 0 0
0.446334 0.890420 0.130689 0.8 0 0
0.256583 0.725343 0.080788 0.8 0 0
0.757506 0.088372 0.033058 0.8 0 0
0.339275 0.638283 0.101608 0.8 0 0
0.399413 0.624746 0.118464 0.8 0 0
0.232643 0.221006 0.079934 0.8 0 0
0.338927 0.466698 0.111548 0.8 0 0
0.378419 0.636922 0.158843 0.8 0 0
0.343960 0.371988 0.112280 0.8 0 0
0.439723 0.512813 0.037948 0.8 0 0
0.648614 0.244425 0.032321 0.8 0 0
0.332057 0.611105 0.113833 0.8 0 0
0.513163 0.770443 0.051519 0.8 0 0
0.480437 0.946040 0.051906 0.8 0 0
0.621688 0.260867 0.068699 0.8 0 0
0.431680 0.883650 0.080144 0.8 0 0
0.764870 0.076758 0.031347 0.8 0 0
0.488921 0.944963 0.122125 0.8 0 0
0.714281 0.140411 0.038174 0.8 0 0
0.604518 0.337695 0.047805 0.8 0 0
0.422022 0.637503 0.170477 0.8 0 0
0.450025 0.857365 0.070540 0.8 0 0
0.367121 0.527790 0.120556 0.8 0 0
0.453359 0.492529 0.117210 0.8 0 0
0.301183 0.728380 0.104433 0.8 0 0
0.345492 0.461776 0.119913 0.8 0 0
0.034567 0.561619 0.112630 0.8 0 0
0.619539 0.750472 0.122716 0.8 0 0
0.550304 0.545107 0.066482 0.8 0 0
0.357067 0.370083 0.058093 0.8 0 0
0.469125 0.790890 0.046531 0.8 0 0
0.248229 0.228076 0.034957 0.8 0 0
0.663562 0.189555 0.070027 0.8 0 0
0.480823 0.493982 0.059759 0.8 0 0
0.420982 0.807787 0.051616 0.8 0 0
0.455234 0.501208 0.048713 0.8 0 0
0.508569 0.496473 0.133753 0.8 0 0
0.169208 0.088932 0.030579 0.8 0 0
0.248163 0.733911 0.092257 0.8 0 0
0.481401 0.481385 0.113765 0.8 0 0
0.590675 0.313194 0.084122 0.8 0 0
0.399214 0.637483 0.097739 0.8 0 0
0.466024 0.594640 0.057820 0.8 0 0
0.596437 0.792955 0.108763 0.8 0 0
0.447097 0.892184 0.124816 0.8 0 0
0.567970 0.422672 0.125691 0.8 0 0
0.434983 0.642136 0.145404 0.8 0 0
0.412219 0.696905 0.072682 0.8 0 0
0.378873 0.416164 0.055631 0.8 0 0
0.419987 0.841900 0.106726 0.8 0 0
0.433499 0.878764 0.106357 0.8 0 0
0.659492 0.288349 0.088222 0.8 0 0
0.458961 0.519798 0.136444 0.8 0 0
0.344042 0.454881 0.120243 0.8 0 0
0.484492 0.761996 0.152637 0.8 0 0
0.169900 0.053748 0.077890 0.8 0 0
0.463336 0.846335 0.118404 0.8 0 0
0.487177 0.609755 0.064423 0.8 0 0
0.440476 0.779600 0.146628 0.8 0 0
0.563512 0.457909 0.127549 0.8 0 0
0.599803 0.740275 0.097879 0.8 0 0
0.418305 0.670812 0.079974 0.8 0 0
0.460482 0.639267 0.072319 0.8 0 0
0.167740 0.050045 0.047618 0.8 0 0
0.506977 0.503012 0.134342 0.8 0 0
0.562437 0.761282 0.102614 0.8 0 0
0.680021 0.249103 0.041766 0.8 0 0
0.307169 0.310428 0.051540 0.8 0 0
0.371536 0.542929 0.118553 0.8 0 0
0.468440 0.591101 0.055004 0.8 0 0
0.446516 0.626958 0.147880 0.8 0 0
0.357782 0.378965 0.109453 0.8 0 0
0.534491 0.559101 0.124242 0.8 0 0
0.204182 0.697064 0.086509 0.8 0 0
0.554196 0.433640 0.126996 0.8 0 0
0.393590 0.727865 0.111066 0.8 0 0
0.099877 0.618807 0.097866 0.8 0 0
0.862957 0.576029 0.123292 0.8 0 0
0.467729 0.841477 0.065438 0.8 0 0
0.677636 0.184777 0.037993 0.8 0 0
0.363349 0.440200 0.045605 0.8 0 0
0.590191 0.338151 0.103758 0.8 0 0
0.682245 0.708244 0.116499 0.8 0 0
0.553745 0.413669 0.050111 0.8 0 0
0.141396 0.047072 0.103971 0.8 0 0
0.426267 0.688027 0.072655 0.8 0 0
0.175150 0.057836 0.037665 0.8 0 0
0.197716 0.106461 0.066599 0.8 0 0
0.439680 0.484366 0.113900 0.8 0 0
0.677679 0.181765 0.038687 0.8 0 0
0.708938 0.712732 0.104713 0.8 0 0
0.596538 0.752173 0.121460 0.8 0 0
0.622613 0.727179 0.111995 0.8 0 0
0.350484 0.378665 0.112858 0.8 0 0
0.771288 0.065403 0.036085 0.8 0 0
0.254394 0.287486 0.050075 0.8 0 0
0.519891 0.833444 0.089314 0.8 0 0
0.187553 0.656693 0.092515 0.8 0 0
0.494522 0.937051 0.087215 0.8 0 0
0.449290 0.919092 0.140041 0.8 0 0
0.312102 0.737795 0.114384 0.8 0 0
0.622550 0.383622 0.076051 0.8 0 0
0.615165 0.780510 0.096754 0.8 0 0
0.389267 0.603274 0.074929 0.8 0 0
0.739556 0.680718 0.090243 0.8 0 0
0.547605 0.449785 0.045802 0.8 0 0
0.440464 0.644890 0.073902 0.8 0 0
0.375875 0.525943 0.054858 0.8 0 0
0.872938 0.577345 0.086797 0.8 0 0
0.276087 0.258019 0.034036 0.8 0 0
0.664334 0.285878 0.083438 0.8 0 0
0.186019 0.662149 0.087449 0.8 0 0
0.458046 0.524978 0.138051 0.8 0 0
0.672566 0.274484 0.075992 0.8 0 0
0.719052 0.701363 0.107856 0.8 0 0
0.483094 0.696545 0.068483 0.8 0 0
0.389693 0.788825 0.131847 0.8 0 0
0.466801 0.483887 0.099133 0.8 0 0
0.528811 0.597132 0.119755 0.8 0 0
0.558580 0.357210 0.083896 0.8 0 0
0.344014 0.638878 0.087328 0.8 0 0
0.327707 0.371896 0.114909 0.8 0 0
0.694574 0.180764 0.038544 0.8 0 0
0.429562 0.897728 0.132820 0.8 0 0
0.663773 0.186798 0.054685 0.8 0 0
0.396580 0.798412 0.053467 0.8 0 0
0.558308 0.796172 0.064624 0.8 0 0
0.046932 0.578782 0.108512 0.8 0 0
0.499662 0.718678 0.062617 0.8 0 0
0.283415 0.351128 0.078112 0.8 0 0
0.437907 0.847558 0.080330 0.8 0 0
0.368124 0.367669 0.084870 0.8 0 0
0.511293 0.422782 0.089056 0.8 0 0
0.500189 0.854218 0.092979 0.8 0 0
0.770381 0.078384 0.044932 0.8 0 0
0.396545 0.560102 0.049278 0.8 0 0
0.439327 0.898110 0.045642 0.8 0 0
0.733802 0.126075 0.042602 0.8 0 0
0.437513 0.664635 0.167064 0.8 0 0
0.520027 0.692588 0.097553 0.8 0 0
0.387988 0.747828 0.147261 0.8 0 0
0.472201 0.653788 0.084948 0.8 0 0
0.324169 0.795853 0.087986 0.8 0 0
0.843576 0.591949 0.142873 0.8 0 0
0.544325 0.408586 0.115818 0.8 0 0
0.681380 0.686672 0.094957 0.8 0 0
0.443622 0.875686 0.121349 0.8 0 0
0.599566 0.435619 0.067937 0.8 0 0
0.163421 0.048045 0.060795 0.8 0 0
0.556696 0.820505 0.084932 0.8 0 0
0.141214 0.065554 0.064009 0.8 0 0
0.492677 0.933194 0.118467 0.8 0 0
0.394155 0.813287 0.123135 0.8 0 0
0.402905 0.647712 0.116885 0.8 0 0
0.385748 0.802101 0.056600 0.8 0 0
0.173264 0.083235 0.027062 0.8 0 0
0.462793 0.661334 0.146756 0.8 0 0
0.186073 0.135147 0.066379 0.8 0 0
0.315356 0.425441 0.094572 0.8 0 0
0.298225 0.775871 0.097202 0.8 0 0
0.393497 0.825570 0.069664 0.8 0 0
0.424727 0.844314 0.078605 0.8 0 0
0.531380 0.749045 0.063597 0.8 0 0
0.462613 0.712431 0.149702 0.8 0 0
0.429100 0.951805 0.075455 0.8 0 0
0.345910 0.509107 0.091396 0.8 0 0
0.145815 0.073973 0.056526 0.8 0 0
0.401859 0.670903 0.098097 0.8 0 0
0.552491 0.395458 0.113422 0.8 0 0
0.427922 0.769407 0.149464 0.8 0 0
0.383886 0.570042 0.121060 0.8 0 0
0.470433 0.543399 0.142384 0.8 0 0
0.597713 0.375955 0.114081 0.8 0 0
0.481110 0.855982 0.099613 0.8 0 0
0.455511 0.668239 0.085821 0.8 0 0
0.670547 0.239502 0.035498 0.8 0 0
0.494188 0.578823 0.047504 0.8 0 0
0.439084 0.467371 0.091366 0.8 0 0
0.303885 0.402561 0.079940 0.8 0 0
0.483785 0.843684 0.075975 0.8 0 0
0.497254 0.677143 0.077407 0.8 0 0
0.324892 0.314092 0.092888 0.8 0 0
0.131803 0.061461 0.087035 0.8 0 0
0.416835 0.816204 0.056184 0.8 0 0
0.540839 0.804848 0.124523 0.8 0 0
0.847328 0.600177 0.092126 0.8 0 0
0.479060 0.907778 0.131001 0.8 0 0
0.239298 0.686292 0.100696 0.8 0 0
0.429328 0.909287 0.055922 0.8 0 0
0.435304 0.626180 0.146418 0.8 0 0
0.395671 0.412608 0.067640 0.8 0 0
0.313300 0.314758 0.053051 0.8 0 0
0.383775 0.455176 0.129880 0.8 0 0
0.441975 0.739688 0.053683 0.8 0 0
0.399697 0.687860 0.103262 0.8 0 0
0.396990 0.619947 0.161337 0.8 0 0
0.494775 0.449536 0.076597 0.8 0 0
0.249622 0.269041 0.084337 0.8 0 0
0.772508 0.028675 0.089699 0.8 0 0
0.224754 0.680047 0.111222 0.8 0 0
0.371287 0.395944 0.111039 0.8 0 0
0.375917 0.630798 0.065398 0.8 0 0
0.633452 0.284457 0.040565 0.8 0 0
0.039237 0.564577 0.093334 0.8 0 0
0.234764 0.194708 0.080030 0.8 0 0
0.395399 0.720459 0.106941 0.8 0 0
0.058490 0.587325 0.089246 0.8 0 0
0.476370 0.876962 0.109897 0.8 0 0
0.721248 0.101194 0.064077 0.8 0 0
0.069341 0.598355 0.092471 0.8 0 0
0.433245 0.461319 0.100422 0.8 0 0
0.397924 0.696952 0.095433 0.8 0 0
0.663236 0.292097 0.052843 0.8 0 0
0.441440 0.650984 0.166366 0.8 0 0
0.428880 0.471329 0.066844 0.8 0 0
0.726643 0.099414 0.066771 0.8 0 0
0.753117 0.657638 0.115579 0.8 0 0
0.442212 0.824712 0.126841 0.8 0 0
0.219142 0.204337 0.074393 0.8 0 0
0.664482 0.212429 0.082304 0.8 0 0
0.421642 0.482402 0.126657 0.8 0 0
0.435326 0.462077 0.092956 0.8 0 0
0.437244 0.751109 0.051541 0.8 0 0
0.670282 0.694550 0.100644 0.8 0 0
0.490977 0.935315 0.066486 0.8 0 0
0.516031 0.464899 0.127741 0.8 0 0
0.548237 0.785915 0.127603 0.8 0 0
0.638895 0.761061 0.098502 0.8 0 0
0.536135 0.456968 0.046611 0.8 0 0
0.846962 0.584971 0.139865 0.8 0 0
0.742211 0.125593 0.051236 0.8 0 0
0.382755 0.515438 0.048876 0.8 0 0
0.435737 0.636757 0.145861 0.8 0 0
0.631576 0.351212 0.090534 0.8 0 0
0.162776 0.064364 0.027135 0.8 0 0
0.385974 0.750525 0.078800 0.8 0 0
0.383608 0.560466 0.058567 0.8 0 0
0.250414 0.273541 0.083584 0.8 0 0
0.443047 0.931298 0.138197 0.8 0 0
0.190095 0.145948 0.047709 0.8 0 0
0.650763 0.709532 0.112344 0.8 0 0
0.578123 0.368652 0.111927 0.8 0 0
0.174121 0.064784 0.029356 0.8 0 0
0.632164 0.271767 0.039952 0.8 0 0
0.891515 0.562415 0.108943 0.8 0 0
0.114235 0.627331 0.097085 0.8 0 0
0.441396 0.883260 0.054726 0.8 0 0
0.354606 0.525014 0.102230 0.8 0 0
0.600073 0.765011 0.073494 0.8 0 0
0.455440 0.868478 0.127739 0.8 0 0
0.606275 0.391721 0.051621 0.8 0 0
0.580450 0.797159 0.116617 0.8 0 0
0.338815 0.415204 0.047566 0.8 0 0
0.770710 0.080882 0.061439 0.8 0 0
