0.099317 0.290852 0.646318 0.8 0 0
0.077621 0.029457 0.412572 0.8 0 0
0.088749 0.247886 0.746128 0.8 0 0
0.101190 0.032169 0.500786 0.8 0 0
0.180387 0.221178 0.541414 0.8 0 0
0.054959 0.182350 0.041135 0.8 0 0
0.079388 0.281646 0.474521 0.8 0 0
0.085537 0.057829 0.570165 0.8 0 0
0.092174 0.291272 0.444389 0.8 0 0
0.099761 0.284716 0.328707 0.8 0 0
0.142535 0.254983 0.513574 0.8 0 0
0.122377 0.092505 0.178769 0.8 0 0
0.091190 0.212572 0.385652 0.8 0 0
0.085967 0.284795 0.333213 0.8 0 0
0.086493 0.079960 0.541530 0.8 0 0
0.086984 0.269639 0.750878 0.8 0 0
0.171777 0.100467 0.752027 0.8 0 0
0.162392 0.171421 0.620297 0.8 0 0
0.106541 0.032514 0.593388 0.8 0 0
0.126862 0.127529 0.088233 0.8 0 0
0.105910 0.127539 0.936111 0.8 0 0
0.121859 0.243336 0.813502 0.8 0 0
0.154109 0.090618 0.503602 0.8 0 0
0.194869 0.134625 0.530124 0.8 0 0
0.042803 0.157569 0.957427 0.8 0 0
0.135054 0.160622 0.921676 0.8 0 0
0.072212 0.114383 0.446990 0.8 0 0
0.158202 0.107426 0.093849 0.8 0 0
0.104135 0.231596 0.683356 0.8 0 0
0.125315 0.195060 0.944638 0.8 0 0
0.071386 0.213722 0.576651 0.8 0 0
0.155538 0.139437 0.441084 0.8 0 0
0.189387 0.187606 0.543792 0.8 0 0
0.118454 0.233701 0.229292 0.8 0 0
0.145653 0.116411 0.479538 0.8 0 0
0.087247 0.265948 0.709599 0.8 0 0
0.167129 0.152306 0.665570 0.8 0 0
0.058015 0.286610 0.359447 0.8 0 0
0.111130 0.232262 0.654099 0.8 0 0
0.044309 0.222880 0.693367 0.8 0 0
0.099171 0.030308 0.460391 0.8 0 0
0.136504 0.213034 0.484054 0.8 0 0
0.148346 0.145050 0.481343 0.8 0 0
0.135239 0.148061 0.422633 0.8 0 0
0.124133 0.194126 0.923568 0.8 0 0
0.086472 0.196283 0.615790 0.8 0 0
0.183055 0.118924 0.554830 0.8 0 0
0.162848 0.165708 0.642704 0.8 0 0
0.150304 0.192822 0.826376 0.8 0 0
0.138718 0.224516 0.484978 0.8 0 0
0.089481 0.076392 0.732386 0.8 0 0
0.166909 0.165311 0.794429 0.8 0 0
0.157124 0.133570 0.148353 0.8 0 0
0.145459 0.089990 0.796517 0.8 0 0
0.177167 0.236666 0.470514 0.8 0 0
0.132081 0.105277 0.328536 0.8 0 0
0.090825 0.262776 0.620764 0.8 0 0
0.104531 0.276468 0.778373 0.8 0 0
0.108206 0.261428 0.539922 0.8 0 0
0.142224 0.233035 0.181215 0.8 0 0
0.135840 0.181176 0.239095 0.8 0 0
0.075700 0.110019 0.787559 0.8 0 0
0.061124 0.115932 0.664740 0.8 0 0
0.135738 0.073661 0.715438 0.8 0 0
0.098086 0.075023 0.634591 0.8 0 0
0.125948 0.144185 0.908230 0.8 0 0
0.151149 0.087706 0.750932 0.8 0 0
0.139303 0.180046 0.488734 0.8 0 0
0.083832 0.257787 0.658473 0.8 0 0
0.071635 0.152523 0.801282 0.8 0 0
0.162010 0.244629 0.498910 0.8 0 0
0.105993 0.280731 0.514172 0.8 0 0
0.140890 0.129974 0.092195 0.8 0 0
0.083208 0.272450 0.558921 0.8 0 0
0.093957 0.043570 0.477138 0.8 0 0
0.111816 0.261664 0.810552 0.8 0 0
0.094770 0.047007 0.507210 0.8 0 0
0.095381 0.192992 0.058052 0.8 0 0
0.177757 0.233737 0.506105 0.8 0 0
0.084415 0.133493 0.480732 0.8 0 0
0.128372 0.175866 0.960287 0.8 0 0
0.160376 0.217488 0.251925 0.8 0 0
0.172026 0.173602 0.683554 0.8 0 0
0.087412 0.079096 0.541726 0.8 0 0
0.071610 0.183083 0.806738 0.8 0 0
0.086424 0.268473 0.571085 0.8 0 0
0.080698 0.218965 0.480969 0.8 0 0
0.165494 0.098742 0.765474 0.8 0 0
0.143914 0.229074 0.144027 0.8 0 0
0.169856 0.211810 0.066968 0.8 0 0
0.105968 0.137953 0.367461 0.8 0 0
0.049023 0.206367 0.039425 0.8 0 0
0.123121 0.078656 0.390921 0.8 0 0
0.099246 0.198050 0.366746 0.8 0 0
0.168280 0.094998 0.406347 0.8 0 0
0.115953 0.249379 0.703109 0.8 0 0
0.103864 0.192222 0.309611 0.8 0 0
0.136523 0.181006 0.234672 0.8 0 0
0.051906 0.147979 0.869950 0.8 0 0
0.087885 0.111980 0.281304 0.8 0 0
0.076717 0.097033 0.485818 0.8 0 0
0.179190 0.203854 0.438311 0.8 0 0
0.084002 0.113632 0.635991 0.8 0 0
0.094151 0.217423 0.349421 0.8 0 0
0.088888 0.132453 0.028050 0.8 0 0
0.135269 0.113033 0.824810 0.8 0 0
0.184316 0.160644 0.543750 0.8 0 0
0.082839 0.085621 0.778736 0.8 0 0
0.135861 0.085879 0.259494 0.8 0 0
0.076483 0.210364 0.791447 0.8 0 0
0.090988 0.097101 0.304375 0.8 0 0
0.085885 0.106003 0.509365 0.8 0 0
0.134993 0.236715 0.215444 0.8 0 0
0.148238 0.232457 0.248234 0.8 0 0
0.165702 0.125207 0.362604 0.8 0 0
0.085315 0.229895 0.672782 0.8 0 0
0.062384 0.094828 0.683052 0.8 0 0
0.182131 0.218503 0.459470 0.8 0 0
0.069737 0.190890 0.591223 0.8 0 0
0.133098 0.126233 0.477829 0.8 0 0
0.121143 0.106998 0.622632 0.8 0 0
0.158465 0.246586 0.524563 0.8 0 0
0.168990 0.106854 0.200513 0.8 0 0
0.080973 0.091083 0.487013 0.8 0 0
0.136965 0.078603 0.569292 0.8 0 0
0.122211 0.052750 0.657831 0.8 0 0
0.125833 0.225951 0.033562 0.8 0 0
0.057270 0.284985 0.425609 0.8 0 0
0.130958 0.147223 0.916178 0.8 0 0
0.110529 0.237528 0.722394 0.8 0 0
0.073060 0.179693 0.816526 0.8 0 0
0.124856 0.181906 0.249471 0.8 0 0
0.047736 0.285807 0.357599 0.8 0 0
0.078992 0.220123 0.027416 0.8 0 0
0.089182 0.106859 0.655164 0.8 0 0
0.084335 0.131344 0.439001 0.8 0 0
0.102568 0.242483 0.775448 0.8 0 0
0.176989 0.154337 0.742463 0.8 0 0
0.090479 0.199241 0.305891 0.8 0 0
0.161197 0.119395 0.079250 0.8 0 0
0.097820 0.142539 0.497345 0.8 0 0
0.130175 0.211564 0.030237 0.8 0 0
0.159812 0.198478 0.067114 0.8 0 0
0.138206 0.073375 0.729886 0.8 0 0
0.127069 0.259954 0.688778 0.8 0 0
0.164964 0.121050 0.088198 0.8 0 0
0.145393 0.088301 0.744388 0.8 0 0
0.058687 0.178476 0.861018 0.8 0 0
0.129100 0.082365 0.223355 0.8 0 0
0.089900 0.091441 0.691874 0.8 0 0
0.157359 0.088443 0.388901 0.8 0 0
0.081271 0.130257 0.897989 0.8 0 0
0.145769 0.214667 0.307315 0.8 0 0
0.076837 0.284732 0.473244 0.8 0 0
0.133606 0.103269 0.483418 0.8 0 0
0.120887 0.257110 0.670917 0.8 0 0
0.171130 0.128624 0.782297 0.8 0 0
0.070791 0.135354 0.797548 0.8 0 0
0.163064 0.189270 0.347603 0.8 0 0
0.077979 0.225536 0.037223 0.8 0 0
0.144745 0.103901 0.070775 0.8 0 0
0.117932 0.098173 0.620234 0.8 0 0
0.119360 0.247987 0.767981 0.8 0 0
0.093548 0.091877 0.712535 0.8 0 0
0.066020 0.032151 0.406696 0.8 0 0
0.143478 0.142913 0.391522 0.8 0 0
0.098888 0.261255 0.544616 0.8 0 0
0.124805 0.204518 0.115060 0.8 0 0
0.142147 0.110080 0.323848 0.8 0 0
0.103148 0.060575 0.562238 0.8 0 0
0.103582 0.201149 0.327251 0.8 0 0
0.133425 0.197180 0.477835 0.8 0 0
0.140788 0.248151 0.769783 0.8 0 0
0.167618 0.178046 0.622802 0.8 0 0
0.034075 0.174423 0.892978 0.8 0 0
0.083307 0.229471 0.506271 0.8 0 0
0.101894 0.248093 0.686112 0.8 0 0
0.090215 0.071849 0.772545 0.8 0 0
0.132540 0.074773 0.416804 0.8 0 0
0.115702 0.186140 0.626886 0.8 0 0
0.084549 0.117034 0.027654 0.8 0 0
0.135744 0.145094 0.485298 0.8 0 0
0.121368 0.261588 0.640470 0.8 0 0
0.170111 0.177853 0.785195 0.8 0 0
0.075161 0.284385 0.512677 0.8 0 0
0.084522 0.163446 0.618163 0.8 0 0
0.080336 0.266233 0.650114 0.8 0 0
0.151876 0.136192 0.351554 0.8 0 0
0.168750 0.095535 0.506667 0.8 0 0
0.071936 0.282094 0.474262 0.8 0 0
0.164665 0.121256 0.033591 0.8 0 0
0.113607 0.243335 0.361018 0.8 0 0
0.100902 0.243198 0.757574 0.8 0 0
0.075613 0.286829 0.524152 0.8 0 0
0.176767 0.165984 0.731947 0.8 0 0
0.153626 0.248798 0.420275 0.8 0 0
0.158442 0.118845 0.651338 0.8 0 0
0.090813 0.195749 0.481486 0.8 0 0
0.101501 0.224798 0.618323 0.8 0 0
0.043743 0.285170 0.369667 0.8 0 0
0.127291 0.266514 0.690395 0.8 0 0
0.071205 0.160545 0.540951 0.8 0 0
0.131231 0.066864 0.539861 0.8 0 0
0.107155 0.185841 0.491987 0.8 0 0
0.124708 0.255060 0.800181 0.8 0 0
0.122969 0.075052 0.422161 0.8 0 0
0.141899 0.109936 0.083391 0.8 0 0
0.187025 0.107482 0.522095 0.8 0 0
0.120763 0.090067 0.609181 0.8 0 0
0.088358 0.065973 0.618130 0.8 0 0
0.103666 0.037838 0.646653 0.8 0 0
0.154532 0.142424 0.485398 0.8 0 0
0.129477 0.090579 0.692973 0.8 0 0
0.121073 0.190958 0.059657 0.8 0 0
0.035475 0.186302 0.040505 0.8 0 0
0.086025 0.237342 0.756939 0.8 0 0
0.084161 0.253718 0.677184 0.8 0 0
0.147206 0.134314 0.137732 0.8 0 0
0.115763 0.098548 0.639000 0.8 0 0
0.095633 0.191388 0.969333 0.8 0 0
0.151663 0.113111 0.309663 0.8 0 0
0.113676 0.033017 0.578922 0.8 0 0
0.123261 0.111478 0.097793 0.8 0 0
0.111689 0.122716 0.226530 0.8 0 0
0.086759 0.094318 0.389069 0.8 0 0
0.075046 0.201595 0.795706 0.8 0 0
0.099471 0.127413 0.839628 0.8 0 0
0.127262 0.202383 0.081227 0.8 0 0
0.072510 0.108983 0.539548 0.8 0 0
0.109389 0.263495 0.496544 0.8 0 0
0.094984 0.181348 0.499309 0.8 0 0
0.069532 0.286362 0.355610 0.8 0 0
0.116027 0.237753 0.619088 0.8 0 0
0.067242 0.191804 0.622209 0.8 0 0
0.175710 0.112647 0.481427 0.8 0 0
0.116291 0.243492 0.361677 0.8 0 0
0.099491 0.192363 0.624779 0.8 0 0
0.058155 0.041149 0.466891 0.8 0 0
0.104344 0.130906 0.310413 0.8 0 0
0.051070 0.222392 0.676171 0.8 0 0
0.119529 0.096478 0.612965 0.8 0 0
0.077577 0.096230 0.453247 0.8 0 0
0.175554 0.210245 0.774508 0.8 0 0
0.130318 0.145854 0.917445 0.8 0 0
0.167881 0.189122 0.431245 0.8 0 0
0.082453 0.088355 0.564359 0.8 0 0
0.085920 0.092467 0.754885 0.8 0 0
0.101890 0.205354 0.955426 0.8 0 0
0.112128 0.136680 0.819296 0.8 0 0
0.078759 0.261770 0.671822 0.8 0 0
0.076915 0.039341 0.470183 0.8 0 0
0.116617 0.246653 0.763097 0.8 0 0
0.137155 0.100865 0.084717 0.8 0 0
0.070625 0.182773 0.552916 0.8 0 0
0.095432 0.220464 0.030259 0.8 0 0
0.113285 0.073945 0.578209 0.8 0 0
0.059631 0.047102 0.459318 0.8 0 0
0.158926 0.184990 0.381086 0.8 0 0
0.148480 0.088269 0.186282 0.8 0 0
0.138109 0.079800 0.780266 0.8 0 0
0.082406 0.034348 0.500307 0.8 0 0
0.111089 0.187460 0.487705 0.8 0 0
0.061575 0.183097 0.631481 0.8 0 0
0.154782 0.130395 0.123226 0.8 0 0
0.072388 0.217869 0.592591 0.8 0 0
0.130076 0.132282 0.483815 0.8 0 0
0.180951 0.155521 0.567450 0.8 0 0
0.166861 0.086476 0.464485 0.8 0 0
0.087829 0.254261 0.669537 0.8 0 0
0.090987 0.076887 0.550486 0.8 0 0
0.077567 0.038752 0.513208 0.8 0 0
0.076057 0.173587 0.525756 0.8 0 0
0.112037 0.203031 0.072008 0.8 0 0
0.162500 0.096659 0.166699 0.8 0 0
0.123752 0.208324 0.031896 0.8 0 0
0.107448 0.247446 0.819360 0.8 0 0
0.122006 0.242141 0.741065 0.8 0 0
0.145010 0.098785 0.036560 0.8 0 0
0.041361 0.189869 0.897646 0.8 0 0
0.109573 0.064624 0.508068 0.8 0 0
0.175697 0.210353 0.369522 0.8 0 0
0.092503 0.231378 0.411425 0.8 0 0
0.150900 0.222412 0.123123 0.8 0 0
0.095590 0.293161 0.425650 0.8 0 0
0.088234 0.274580 0.706592 0.8 0 0
0.132685 0.103963 0.821147 0.8 0 0
0.137488 0.143764 0.375171 0.8 0 0
0.183562 0.168950 0.515826 0.8 0 0
0.124264 0.094657 0.042507 0.8 0 0
0.128686 0.085817 0.344236 0.8 0 0
0.086590 0.052227 0.680139 0.8 0 0
0.144291 0.106884 0.483938 0.8 0 0
0.136709 0.140314 0.838617 0.8 0 0
0.114818 0.137091 0.293890 0.8 0 0
0.166868 0.119402 0.792278 0.8 0 0
0.052475 0.197820 0.945776 0.8 0 0
0.170992 0.147267 0.781395 0.8 0 0
0.102712 0.193963 0.851384 0.8 0 0
0.126592 0.090388 0.694315 0.8 0 0
0.047920 0.118959 0.044742 0.8 0 0
0.079039 0.238192 0.566018 0.8 0 0
0.137248 0.068269 0.472664 0.8 0 0
0.117611 0.111670 0.486554 0.8 0 0
0.058625 0.166839 0.734791 0.8 0 0
0.047923 0.179707 0.710144 0.8 0 0
0.108252 0.122415 0.488112 0.8 0 0
0.146977 0.112492 0.484713 0.8 0 0
0.073191 0.126645 0.798352 0.8 0 0
0.137356 0.231720 0.617558 0.8 0 0
0.110071 0.082291 0.698628 0.8 0 0
0.100028 0.194675 0.849519 0.8 0 0
0.164555 0.224904 0.786590 0.8 0 0
0.167515 0.135278 0.487689 0.8 0 0
0.139893 0.081070 0.389559 0.8 0 0
0.115303 0.179070 0.969379 0.8 0 0
0.073801 0.103335 0.544286 0.8 0 0
0.144843 0.208398 0.483176 0.8 0 0
0.125054 0.243556 0.360766 0.8 0 0
0.169899 0.096141 0.502264 0.8 0 0
0.117358 0.097231 0.652993 0.8 0 0
0.117186 0.049895 0.764166 0.8 0 0
0.131349 0.127555 0.097349 0.8 0 0
0.097927 0.203731 0.357760 0.8 0 0
0.135009 0.169596 0.844660 0.8 0 0
0.165027 0.095032 0.368690 0.8 0 0
0.170540 0.115856 0.161573 0.8 0 0
0.069054 0.140552 0.610406 0.8 0 0
0.151622 0.081405 0.522182 0.8 0 0
0.139024 0.155482 0.837768 0.8 0 0
0.145129 0.150385 0.488224 0.8 0 0
0.128711 0.089445 0.182272 0.8 0 0
0.169231 0.150666 0.672692 0.8 0 0
0.146428 0.089565 0.731894 0.8 0 0
0.109370 0.073413 0.638897 0.8 0 0
0.086891 0.265345 0.643976 0.8 0 0
0.082704 0.065806 0.683442 0.8 0 0
0.142947 0.115523 0.484262 0.8 0 0
0.144457 0.102947 0.642946 0.8 0 0
0.129392 0.164613 0.493857 0.8 0 0
0.164539 0.090556 0.519540 0.8 0 0
0.097339 0.216146 0.260972 0.8 0 0
0.151325 0.081281 0.537599 0.8 0 0
0.094970 0.300977 0.485215 0.8 0 0
0.172237 0.103748 0.401446 0.8 0 0
0.091991 0.056492 0.547475 0.8 0 0
0.192593 0.183468 0.531770 0.8 0 0
0.054076 0.133043 0.732122 0.8 0 0
0.064279 0.167610 0.615008 0.8 0 0
0.116485 0.271736 0.799527 0.8 0 0
0.177982 0.182992 0.574081 0.8 0 0
0.149146 0.206244 0.483638 0.8 0 0
0.122186 0.288651 0.616485 0.8 0 0
0.037016 0.169900 0.943368 0.8 0 0
0.085999 0.145400 0.823474 0.8 0 0
0.125195 0.159379 0.891843 0.8 0 0
0.064811 0.148519 0.768485 0.8 0 0
0.178510 0.118728 0.765391 0.8 0 0
0.134147 0.236039 0.310566 0.8 0 0
0.175059 0.198241 0.430843 0.8 0 0
0.142724 0.102522 0.320037 0.8 0 0
0.152482 0.100001 0.686990 0.8 0 0
0.095410 0.194620 0.818025 0.8 0 0
0.137587 0.186760 0.280827 0.8 0 0
0.147561 0.263214 0.486869 0.8 0 0
0.178334 0.197373 0.712350 0.8 0 0
0.083360 0.056480 0.566773 0.8 0 0
0.079810 0.274752 0.583882 0.8 0 0
0.162985 0.088651 0.406373 0.8 0 0
0.115682 0.081086 0.734538 0.8 0 0
0.134058 0.182752 0.269302 0.8 0 0
0.131207 0.078423 0.760541 0.8 0 0
0.130741 0.156668 0.491722 0.8 0 0
0.089836 0.141016 0.824943 0.8 0 0
0.110958 0.147608 0.441413 0.8 0 0
0.063707 0.288040 0.485023 0.8 0 0
0.130905 0.236890 0.217588 0.8 0 0
0.045940 0.141974 0.931094 0.8 0 0
0.151613 0.239876 0.785650 0.8 0 0
0.181496 0.220014 0.540334 0.8 0 0
0.143179 0.182501 0.360417 0.8 0 0
0.078509 0.045006 0.469700 0.8 0 0
0.148986 0.254584 0.433766 0.8 0 0
0.099561 0.234014 0.380110 0.8 0 0
0.155600 0.239970 0.776897 0.8 0 0
0.128229 0.240344 0.603025 0.8 0 0
0.083811 0.130747 0.439670 0.8 0 0
0.139425 0.133064 0.286775 0.8 0 0
0.080420 0.233119 0.599922 0.8 0 0
0.120136 0.131427 0.220840 0.8 0 0
0.093659 0.105630 0.643379 0.8 0 0
0.165522 0.129254 0.439776 0.8 0 0
0.087141 0.067841 0.731237 0.8 0 0
0.129500 0.103194 0.482570 0.8 0 0
0.160647 0.191399 0.144846 0.8 0 0
0.089274 0.091048 0.503115 0.8 0 0
0.094294 0.194900 0.434778 0.8 0 0
0.075297 0.114327 0.584182 0.8 0 0
0.093432 0.276667 0.717197 0.8 0 0
0.056393 0.204759 0.917248 0.8 0 0
0.134472 0.074571 0.713614 0.8 0 0
0.102305 0.043886 0.503033 0.8 0 0
0.142995 0.072321 0.461367 0.8 0 0
0.104662 0.083193 0.359801 0.8 0 0
0.179150 0.104534 0.546446 0.8 0 0
0.132589 0.260204 0.464409 0.8 0 0
0.048549 0.197922 0.916039 0.8 0 0
0.067890 0.177818 0.578556 0.8 0 0
0.171014 0.123858 0.601139 0.8 0 0
0.184484 0.154383 0.558093 0.8 0 0
0.179794 0.205512 0.416108 0.8 0 0
0.158702 0.223745 0.158012 0.8 0 0
0.120059 0.098453 0.637901 0.8 0 0
0.098659 0.234773 0.823616 0.8 0 0
0.085760 0.234526 0.802686 0.8 0 0
0.095069 0.144049 0.466381 0.8 0 0
0.091207 0.200977 0.431335 0.8 0 0
0.044368 0.185186 0.870385 0.8 0 0
0.132007 0.195418 0.044701 0.8 0 0
0.080777 0.211774 0.620889 0.8 0 0
0.076771 0.290847 0.496136 0.8 0 0
0.063301 0.150434 0.763750 0.8 0 0
0.122253 0.050742 0.758176 0.8 0 0
0.087138 0.027609 0.450311 0.8 0 0
0.095839 0.168420 0.624323 0.8 0 0
0.065333 0.184134 0.045955 0.8 0 0
0.137551 0.260497 0.750293 0.8 0 0
0.121654 0.149082 0.415213 0.8 0 0
0.108270 0.047916 0.755801 0.8 0 0
0.121294 0.253953 0.582711 0.8 0 0
0.150103 0.259248 0.469078 0.8 0 0
0.097902 0.210547 0.341471 0.8 0 0
0.096352 0.103926 0.261420 0.8 0 0
0.139703 0.079418 0.401964 0.8 0 0
0.115570 0.216404 0.175659 0.8 0 0
0.054408 0.283681 0.466867 0.8 0 0
0.090182 0.230595 0.675734 0.8 0 0
0.102200 0.230872 0.675949 0.8 0 0
0.047688 0.100873 0.695449 0.8 0 0
0.143322 0.186070 0.272347 0.8 0 0
0.178288 0.214994 0.550990 0.8 0 0
0.116082 0.134925 0.910482 0.8 0 0
0.091769 0.050273 0.503763 0.8 0 0
0.165159 0.148986 0.797292 0.8 0 0
0.150426 0.096683 0.492024 0.8 0 0
0.179813 0.216758 0.411720 0.8 0 0
0.112794 0.191238 0.487200 0.8 0 0
0.111987 0.106402 0.030212 0.8 0 0
0.069355 0.183945 0.867671 0.8 0 0
0.149018 0.211247 0.300764 0.8 0 0
0.127093 0.138341 0.241832 0.8 0 0
0.095968 0.076942 0.566002 0.8 0 0
0.096327 0.289068 0.657416 0.8 0 0
0.090329 0.138667 0.433513 0.8 0 0
0.138018 0.075821 0.556198 0.8 0 0
0.141150 0.133144 0.280359 0.8 0 0
0.122854 0.143396 0.365323 0.8 0 0
0.150813 0.088003 0.191658 0.8 0 0
0.118491 0.291627 0.598054 0.8 0 0
0.107250 0.277149 0.780982 0.8 0 0
0.152262 0.135270 0.237542 0.8 0 0
0.176854 0.200361 0.468190 0.8 0 0
0.139628 0.181244 0.379897 0.8 0 0
0.164610 0.176822 0.632250 0.8 0 0
0.172992 0.234660 0.523252 0.8 0 0
0.081286 0.126706 0.495045 0.8 0 0
0.120837 0.172464 0.458948 0.8 0 0
0.124910 0.130696 0.838419 0.8 0 0
0.159558 0.171252 0.492135 0.8 0 0
0.127181 0.235828 0.278472 0.8 0 0
0.161908 0.191339 0.639995 0.8 0 0
0.167581 0.206970 0.169384 0.8 0 0
0.136794 0.129570 0.316470 0.8 0 0
0.108908 0.259530 0.612645 0.8 0 0
0.082733 0.262210 0.689930 0.8 0 0
0.079941 0.218297 0.801844 0.8 0 0
0.056334 0.139576 0.878230 0.8 0 0
0.130721 0.255663 0.435069 0.8 0 0
0.133451 0.115755 0.084445 0.8 0 0
0.152842 0.143158 0.484737 0.8 0 0
0.058495 0.156306 0.860764 0.8 0 0
0.108140 0.199972 0.239702 0.8 0 0
0.078796 0.132540 0.607342 0.8 0 0
0.106742 0.077618 0.404254 0.8 0 0
0.064192 0.198738 0.753908 0.8 0 0
0.141531 0.135005 0.254948 0.8 0 0
0.139236 0.222581 0.818306 0.8 0 0
0.098255 0.260301 0.601015 0.8 0 0
0.124396 0.197712 0.139570 0.8 0 0
0.164469 0.129983 0.466038 0.8 0 0
0.168791 0.195369 0.491452 0.8 0 0
0.155061 0.104403 0.798660 0.8 0 0
0.130263 0.086432 0.335951 0.8 0 0
0.120037 0.144081 0.377819 0.8 0 0
0.167548 0.211377 0.180930 0.8 0 0
0.168049 0.228640 0.366232 0.8 0 0
0.108855 0.066410 0.598975 0.8 0 0
0.075404 0.148955 0.849862 0.8 0 0
0.144949 0.176341 0.489314 0.8 0 0
0.058530 0.118243 0.043604 0.8 0 0
0.110808 0.070143 0.567558 0.8 0 0
0.032193 0.177493 0.901411 0.8 0 0
0.128758 0.259878 0.699483 0.8 0 0
0.108366 0.105123 0.210831 0.8 0 0
0.104756 0.159633 0.503015 0.8 0 0
0.116831 0.247018 0.728713 0.8 0 0
0.074865 0.109415 0.565844 0.8 0 0
0.105675 0.295283 0.585131 0.8 0 0
0.190690 0.127733 0.544698 0.8 0 0
0.078293 0.048851 0.512995 0.8 0 0
0.069528 0.286433 0.430312 0.8 0 0
0.099716 0.066249 0.530686 0.8 0 0
0.114122 0.140253 0.364003 0.8 0 0
0.064977 0.210764 0.661558 0.8 0 0
0.115892 0.082741 0.369676 0.8 0 0
0.063500 0.033616 0.413287 0.8 0 0
0.056816 0.284719 0.408012 0.8 0 0
0.075933 0.212152 0.046041 0.8 0 0
0.092787 0.198376 0.879078 0.8 0 0
0.071444 0.193094 0.793413 0.8 0 0
0.086869 0.107014 0.662396 0.8 0 0
0.163045 0.211512 0.137143 0.8 0 0
0.179906 0.206327 0.399939 0.8 0 0
0.160792 0.131967 0.803034 0.8 0 0
0.107095 0.294765 0.589217 0.8 0 0
0.123539 0.264772 0.665012 0.8 0 0
0.139438 0.064026 0.781410 0.8 0 0
0.151556 0.107957 0.805170 0.8 0 0
0.126599 0.046519 0.632507 0.8 0 0
0.043467 0.145780 0.905419 0.8 0 0
0.092814 0.117959 0.328532 0.8 0 0
0.041322 0.159713 0.956814 0.8 0 0
0.081417 0.136710 0.876448 0.8 0 0
0.128196 0.192241 0.933665 0.8 0 0
0.118475 0.049069 0.699592 0.8 0 0
0.176560 0.111113 0.453058 0.8 0 0
0.140374 0.122770 0.826945 0.8 0 0
0.067446 0.144601 0.786076 0.8 0 0
0.078933 0.223769 0.481130 0.8 0 0
0.080941 0.218307 0.662740 0.8 0 0
0.157899 0.214937 0.072272 0.8 0 0
0.118018 0.180751 0.406822 0.8 0 0
0.178673 0.117576 0.763750 0.8 0 0
0.164964 0.108379 0.240560 0.8 0 0
0.085495 0.184499 0.504508 0.8 0 0
0.124063 0.269276 0.618710 0.8 0 0
0.178663 0.223072 0.542054 0.8 0 0
0.119718 0.193814 0.189334 0.8 0 0
0.139123 0.074018 0.734306 0.8 0 0
0.145570 0.145651 0.467542 0.8 0 0
0.164373 0.129282 0.634025 0.8 0 0
0.105833 0.249129 0.674129 0.8 0 0
0.163559 0.244248 0.518199 0.8 0 0
0.135078 0.098354 0.053754 0.8 0 0
0.085279 0.184259 0.045868 0.8 0 0
0.186343 0.146716 0.503015 0.8 0 0
0.095107 0.128885 0.363705 0.8 0 0
0.166630 0.157992 0.663600 0.8 0 0
0.135768 0.149156 0.451539 0.8 0 0
0.093379 0.029017 0.556793 0.8 0 0
0.053856 0.284727 0.391195 0.8 0 0
0.134268 0.177484 0.489327 0.8 0 0
0.099004 0.289321 0.448469 0.8 0 0
0.146012 0.104082 0.649368 0.8 0 0
0.174553 0.198084 0.443417 0.8 0 0
0.104574 0.252465 0.587556 0.8 0 0
0.054227 0.154756 0.694067 0.8 0 0
0.145815 0.089520 0.354219 0.8 0 0
0.168875 0.176711 0.672252 0.8 0 0
0.122193 0.247101 0.400640 0.8 0 0
0.118366 0.083170 0.505189 0.8 0 0
0.089616 0.138025 0.040740 0.8 0 0
0.164063 0.096293 0.754503 0.8 0 0
0.120872 0.152321 0.453864 0.8 0 0
0.068423 0.166254 0.598776 0.8 0 0
0.097837 0.135063 0.823976 0.8 0 0
0.141579 0.136893 0.241131 0.8 0 0
0.165310 0.121731 0.665711 0.8 0 0
0.067244 0.159489 0.586667 0.8 0 0
0.172181 0.112315 0.047008 0.8 0 0
0.160617 0.245540 0.502946 0.8 0 0
0.103749 0.033236 0.608030 0.8 0 0
0.135648 0.063574 0.727692 0.8 0 0
0.137982 0.194195 0.312650 0.8 0 0
0.094638 0.192145 0.472774 0.8 0 0
0.075591 0.096598 0.494282 0.8 0 0
0.077762 0.136142 0.607276 0.8 0 0
0.089169 0.265898 0.580219 0.8 0 0
0.183044 0.135286 0.496674 0.8 0 0
0.162054 0.135912 0.621213 0.8 0 0
0.125010 0.208212 0.483769 0.8 0 0
0.155321 0.111314 0.632526 0.8 0 0
0.114135 0.244859 0.770682 0.8 0 0
0.070416 0.229510 0.733137 0.8 0 0
0.177894 0.189154 0.758133 0.8 0 0
0.100858 0.078404 0.679017 0.8 0 0
0.138255 0.264707 0.498366 0.8 0 0
0.102448 0.074820 0.450579 0.8 0 0
0.132599 0.129570 0.082942 0.8 0 0
0.096340 0.222088 0.492765 0.8 0 0
0.063187 0.138437 0.040589 0.8 0 0
0.165064 0.140785 0.647307 0.8 0 0
0.110722 0.126841 0.032157 0.8 0 0
0.032575 0.201453 0.042180 0.8 0 0
0.128236 0.252346 0.504540 0.8 0 0
0.095340 0.077401 0.689830 0.8 0 0
0.125495 0.092859 0.171624 0.8 0 0
0.150387 0.136001 0.234460 0.8 0 0
0.110462 0.130818 0.261694 0.8 0 0
0.119147 0.281954 0.581731 0.8 0 0
0.138611 0.098478 0.053298 0.8 0 0
0.159102 0.229979 0.224971 0.8 0 0
0.061599 0.040906 0.480488 0.8 0 0
0.125283 0.209464 0.624973 0.8 0 0
0.136625 0.174474 0.920715 0.8 0 0
0.149782 0.233066 0.693920 0.8 0 0
0.148946 0.207721 0.027436 0.8 0 0
0.087842 0.132005 0.419775 0.8 0 0
0.098425 0.055650 0.533332 0.8 0 0
0.132716 0.240399 0.490989 0.8 0 0
0.159488 0.095228 0.149488 0.8 0 0
0.115440 0.233758 0.491431 0.8 0 0
0.172314 0.139513 0.682565 0.8 0 0
0.101959 0.281170 0.713645 0.8 0 0
0.059050 0.206026 0.742078 0.8 0 0
0.139737 0.235922 0.243036 0.8 0 0
0.152484 0.092247 0.347836 0.8 0 0
0.138771 0.192649 0.623798 0.8 0 0
0.168242 0.175017 0.669411 0.8 0 0
0.109150 0.078369 0.800189 0.8 0 0
0.132941 0.134734 0.164533 0.8 0 0
0.188156 0.151353 0.544413 0.8 0 0
0.094073 0.208081 0.376219 0.8 0 0
0.138682 0.079650 0.567785 0.8 0 0
0.182427 0.102376 0.515972 0.8 0 0
0.145890 0.077976 0.433735 0.8 0 0
0.075320 0.207460 0.790667 0.8 0 0
0.113996 0.267912 0.585867 0.8 0 0
0.112134 0.047528 0.696679 0.8 0 0
0.045995 0.181925 0.696195 0.8 0 0
0.122413 0.079820 0.764341 0.8 0 0
0.091399 0.107951 0.638686 0.8 0 0
0.108053 0.062474 0.578473 0.8 0 0
0.174134 0.135871 0.773520 0.8 0 0
0.101278 0.133880 0.807620 0.8 0 0
0.135571 0.231739 0.284679 0.8 0 0
0.067471 0.158349 0.787525 0.8 0 0
0.087503 0.271747 0.551717 0.8 0 0
0.066839 0.182299 0.864601 0.8 0 0
0.076064 0.143624 0.528599 0.8 0 0
0.117090 0.143940 0.886677 0.8 0 0
0.097796 0.247881 0.717386 0.8 0 0
0.122095 0.197804 0.942526 0.8 0 0
0.135253 0.087904 0.276384 0.8 0 0
0.095505 0.082572 0.814385 0.8 0 0
0.091769 0.145899 0.808191 0.8 0 0
0.107796 0.246346 0.765855 0.8 0 0
0.150501 0.191097 0.825868 0.8 0 0
0.124875 0.265145 0.802919 0.8 0 0
0.058084 0.190403 0.744410 0.8 0 0
0.105924 0.142528 0.881574 0.8 0 0
0.162344 0.093632 0.198705 0.8 0 0
0.045750 0.285041 0.395208 0.8 0 0
0.088101 0.085104 0.429462 0.8 0 0
0.172551 0.116730 0.046558 0.8 0 0
0.110646 0.072764 0.635846 0.8 0 0
0.099200 0.126876 0.030289 0.8 0 0
0.130202 0.087899 0.708414 0.8 0 0
0.105186 0.105017 0.613003 0.8 0 0
0.164682 0.161854 0.655362 0.8 0 0
0.139257 0.093837 0.610735 0.8 0 0
0.126574 0.100990 0.062586 0.8 0 0
0.121514 0.087798 0.287621 0.8 0 0
0.050961 0.232556 0.032124 0.8 0 0
0.095072 0.228406 0.309832 0.8 0 0
0.137167 0.222414 0.055565 0.8 0 0
0.134679 0.092997 0.616269 0.8 0 0
0.178322 0.182078 0.572548 0.8 0 0
0.093093 0.073782 0.543087 0.8 0 0
0.085480 0.245881 0.563683 0.8 0 0
0.037794 0.160049 0.942782 0.8 0 0
0.101738 0.238165 0.403396 0.8 0 0
0.099776 0.103380 0.029587 0.8 0 0
0.060842 0.143517 0.650942 0.8 0 0
0.076480 0.098001 0.444483 0.8 0 0
0.153709 0.221777 0.598202 0.8 0 0
0.121144 0.172184 0.463581 0.8 0 0
0.081981 0.242356 0.577620 0.8 0 0
0.073479 0.108793 0.413725 0.8 0 0
0.152536 0.238007 0.730389 0.8 0 0
0.081796 0.229933 0.802765 0.8 0 0
0.092322 0.061073 0.773698 0.8 0 0
0.076986 0.123818 0.472061 0.8 0 0
0.153853 0.197795 0.481498 0.8 0 0
0.133760 0.220514 0.322645 0.8 0 0
0.176495 0.173881 0.755038 0.8 0 0
0.187224 0.191838 0.548525 0.8 0 0
0.146721 0.197314 0.290061 0.8 0 0
0.067351 0.131077 0.029324 0.8 0 0
0.165056 0.119108 0.617071 0.8 0 0
0.081282 0.048417 0.622684 0.8 0 0
0.049900 0.137020 0.721233 0.8 0 0
0.097410 0.286426 0.334782 0.8 0 0
0.078541 0.229404 0.033845 0.8 0 0
0.112113 0.156639 0.968096 0.8 0 0
0.070118 0.166206 0.603116 0.8 0 0
0.084156 0.211969 0.449655 0.8 0 0
0.147956 0.212648 0.301118 0.8 0 0
0.160325 0.179739 0.424134 0.8 0 0
0.067928 0.163465 0.608080 0.8 0 0
0.166378 0.128647 0.661611 0.8 0 0
0.089561 0.090904 0.815451 0.8 0 0
0.111400 0.139414 0.490376 0.8 0 0
0.108830 0.215604 0.214998 0.8 0 0
0.157112 0.121176 0.031219 0.8 0 0
0.162886 0.200429 0.619279 0.8 0 0
0.105861 0.266276 0.575983 0.8 0 0
0.099693 0.234230 0.824346 0.8 0 0
0.091096 0.100290 0.351818 0.8 0 0
0.091622 0.088950 0.760446 0.8 0 0
0.122972 0.201988 0.144556 0.8 0 0
0.086729 0.218790 0.643347 0.8 0 0
0.078777 0.100957 0.765343 0.8 0 0
0.075371 0.141451 0.963998 0.8 0 0
0.154227 0.116657 0.288940 0.8 0 0
0.077170 0.095981 0.783370 0.8 0 0
0.090049 0.244910 0.504284 0.8 0 0
0.176015 0.217814 0.386400 0.8 0 0
0.101547 0.086802 0.335469 0.8 0 0
0.151105 0.155427 0.819275 0.8 0 0
0.116055 0.195116 0.481826 0.8 0 0
0.132681 0.138881 0.270590 0.8 0 0
0.130624 0.098038 0.117807 0.8 0 0
0.069922 0.219138 0.752800 0.8 0 0
0.152009 0.185691 0.134128 0.8 0 0
0.092594 0.077334 0.751819 0.8 0 0
0.095696 0.243076 0.516054 0.8 0 0
0.083172 0.233479 0.499201 0.8 0 0
0.065792 0.141314 0.627258 0.8 0 0
0.165658 0.100341 0.197969 0.8 0 0
0.137178 0.168490 0.918852 0.8 0 0
0.138515 0.151966 0.487819 0.8 0 0
0.090503 0.067098 0.624923 0.8 0 0
0.115552 0.086299 0.238447 0.8 0 0
0.092795 0.212164 0.491981 0.8 0 0
0.045456 0.202766 0.717751 0.8 0 0
0.110844 0.087550 0.277893 0.8 0 0
0.085774 0.253087 0.707930 0.8 0 0
0.091355 0.295361 0.431701 0.8 0 0
0.099489 0.078268 0.397370 0.8 0 0
0.109843 0.134628 0.047963 0.8 0 0
0.105208 0.101742 0.632470 0.8 0 0
0.085843 0.234936 0.517711 0.8 0 0
0.120469 0.190318 0.208900 0.8 0 0
0.092658 0.234569 0.692035 0.8 0 0
0.077917 0.284448 0.475826 0.8 0 0
0.147213 0.085384 0.214053 0.8 0 0
0.089708 0.079636 0.467881 0.8 0 0
0.107652 0.134805 0.046136 0.8 0 0
0.131573 0.086712 0.332733 0.8 0 0
0.178242 0.120254 0.765637 0.8 0 0
0.085141 0.177950 0.620199 0.8 0 0
0.075752 0.207280 0.942338 0.8 0 0
0.178805 0.203112 0.484309 0.8 0 0
0.079849 0.036108 0.513789 0.8 0 0
0.059606 0.285041 0.392838 0.8 0 0
0.135847 0.072964 0.441684 0.8 0 0
0.123025 0.057962 0.595591 0.8 0 0
0.114472 0.259567 0.641954 0.8 0 0
0.071507 0.197841 0.870761 0.8 0 0
0.085949 0.094854 0.391729 0.8 0 0
0.135430 0.260004 0.734335 0.8 0 0
0.069386 0.031308 0.446601 0.8 0 0
0.107130 0.234788 0.635802 0.8 0 0
0.098301 0.086628 0.765581 0.8 0 0
0.088199 0.046930 0.506579 0.8 0 0
0.085625 0.026829 0.462606 0.8 0 0
0.113473 0.085797 0.818917 0.8 0 0
0.100394 0.229398 0.355625 0.8 0 0
0.085256 0.121459 0.054799 0.8 0 0
0.170942 0.184614 0.785743 0.8 0 0
0.083449 0.110220 0.655374 0.8 0 0
0.167520 0.098497 0.744979 0.8 0 0
0.177791 0.163430 0.576428 0.8 0 0
0.153458 0.104859 0.029597 0.8 0 0
0.076327 0.280001 0.473907 0.8 0 0
0.192392 0.120015 0.517192 0.8 0 0
0.053841 0.105725 0.718989 0.8 0 0
0.145565 0.153888 0.827674 0.8 0 0
0.105413 0.260489 0.567228 0.8 0 0
0.167616 0.226998 0.729259 0.8 0 0
0.155672 0.103797 0.276169 0.8 0 0
0.113560 0.104860 0.187084 0.8 0 0
0.125991 0.262978 0.483843 0.8 0 0
0.094965 0.239884 0.514262 0.8 0 0
0.140292 0.068857 0.747518 0.8 0 0
0.110824 0.230111 0.311559 0.8 0 0
0.094906 0.124938 0.289159 0.8 0 0
0.085462 0.282929 0.491328 0.8 0 0
0.089277 0.033770 0.571736 0.8 0 0
0.052939 0.154728 0.706512 0.8 0 0
0.089479 0.061663 0.647600 0.8 0 0
0.061495 0.193214 0.654633 0.8 0 0
0.093516 0.264103 0.590685 0.8 0 0
0.138292 0.237652 0.805000 0.8 0 0
0.057122 0.164160 0.690296 0.8 0 0
0.144852 0.217567 0.071328 0.8 0 0
0.085979 0.072065 0.661346 0.8 0 0
0.093336 0.249921 0.693775 0.8 0 0
0.116895 0.276598 0.565950 0.8 0 0
0.141193 0.163286 0.624345 0.8 0 0
0.052164 0.194006 0.876992 0.8 0 0
0.106387 0.140713 0.861877 0.8 0 0
0.114481 0.068209 0.496459 0.8 0 0
0.089270 0.076785 0.748016 0.8 0 0
0.112053 0.262337 0.517517 0.8 0 0
0.113224 0.184288 0.399678 0.8 0 0
0.135854 0.150391 0.625834 0.8 0 0
0.111092 0.204480 0.070347 0.8 0 0
0.126054 0.267757 0.794603 0.8 0 0
0.084094 0.286111 0.329161 0.8 0 0
0.100464 0.042321 0.660712 0.8 0 0
0.157661 0.224247 0.254834 0.8 0 0
0.077534 0.232763 0.595558 0.8 0 0
0.072045 0.294777 0.489119 0.8 0 0
0.079725 0.215891 0.661258 0.8 0 0
0.074135 0.291186 0.441031 0.8 0 0
0.169716 0.227816 0.374912 0.8 0 0
0.087008 0.267470 0.575901 0.8 0 0
0.179909 0.107954 0.551609 0.8 0 0
0.045738 0.189266 0.681640 0.8 0 0
0.066843 0.202189 0.646012 0.8 0 0
0.161783 0.178408 0.455841 0.8 0 0
0.098207 0.056602 0.776324 0.8 0 0
0.157903 0.238417 0.380123 0.8 0 0
0.162275 0.123000 0.097040 0.8 0 0
0.129453 0.073103 0.514249 0.8 0 0
0.065211 0.036093 0.479960 0.8 0 0
0.074818 0.198941 0.609284 0.8 0 0
0.123440 0.102257 0.824083 0.8 0 0
0.129032 0.163017 0.837515 0.8 0 0
0.132402 0.069205 0.702263 0.8 0 0
0.143192 0.224142 0.297673 0.8 0 0
0.137975 0.176310 0.481531 0.8 0 0
0.067670 0.284967 0.341960 0.8 0 0
0.046163 0.117535 0.040046 0.8 0 0
0.113556 0.077556 0.402351 0.8 0 0
0.187275 0.194005 0.502430 0.8 0 0
0.142601 0.093916 0.304261 0.8 0 0
0.165172 0.234921 0.386674 0.8 0 0
0.094734 0.158996 0.623779 0.8 0 0
0.072112 0.137580 0.544319 0.8 0 0
0.144050 0.139201 0.171956 0.8 0 0
0.113786 0.131454 0.923094 0.8 0 0
0.112526 0.070475 0.516590 0.8 0 0
0.143389 0.228246 0.485063 0.8 0 0
0.119083 0.203901 0.838660 0.8 0 0
0.151143 0.138787 0.376526 0.8 0 0
0.125254 0.104391 0.067112 0.8 0 0
0.117812 0.036891 0.571529 0.8 0 0
0.097688 0.037567 0.511770 0.8 0 0
0.161464 0.194031 0.642623 0.8 0 0
0.116442 0.214404 0.485045 0.8 0 0
0.149166 0.242385 0.375484 0.8 0 0
0.110866 0.264889 0.508298 0.8 0 0
0.114036 0.262341 0.611003 0.8 0 0
0.193816 0.204713 0.511142 0.8 0 0
0.149536 0.229527 0.674792 0.8 0 0
0.117843 0.106459 0.484324 0.8 0 0
0.115560 0.094574 0.198131 0.8 0 0
0.098614 0.046924 0.654801 0.8 0 0
0.071274 0.114563 0.470732 0.8 0 0
0.183882 0.205505 0.549645 0.8 0 0
0.063992 0.154398 0.880626 0.8 0 0
0.164162 0.145833 0.619919 0.8 0 0
0.137054 0.098742 0.098011 0.8 0 0
0.168961 0.201731 0.167781 0.8 0 0
0.123401 0.234500 0.307611 0.8 0 0
0.086292 0.045245 0.650935 0.8 0 0
0.179166 0.222951 0.495147 0.8 0 0
0.088826 0.221155 0.651103 0.8 0 0
0.147302 0.128025 0.821598 0.8 0 0
0.134874 0.184095 0.941540 0.8 0 0
0.130310 0.149341 0.410487 0.8 0 0
0.176044 0.112156 0.739375 0.8 0 0
0.117361 0.213053 0.164949 0.8 0 0
0.162752 0.183573 0.803705 0.8 0 0
0.136626 0.066460 0.482017 0.8 0 0
0.101328 0.062680 0.522950 0.8 0 0
0.069354 0.125186 0.774479 0.8 0 0
0.177047 0.219439 0.549653 0.8 0 0
0.163514 0.189276 0.350826 0.8 0 0
0.119052 0.192291 0.204830 0.8 0 0
0.147692 0.082985 0.400366 0.8 0 0
0.123152 0.138994 0.265991 0.8 0 0
0.109243 0.098264 0.030109 0.8 0 0
0.170252 0.098740 0.550260 0.8 0 0
0.145191 0.126277 0.295994 0.8 0 0
0.140704 0.253835 0.760290 0.8 0 0
0.134336 0.246892 0.494407 0.8 0 0
0.162617 0.194860 0.630742 0.8 0 0
0.089405 0.293972 0.425751 0.8 0 0
0.153734 0.131551 0.622920 0.8 0 0
0.047972 0.127094 0.044803 0.8 0 0
0.162782 0.100690 0.491286 0.8 0 0
0.098888 0.104659 0.491624 0.8 0 0
0.168404 0.163197 0.789389 0.8 0 0
0.145889 0.232858 0.250868 0.8 0 0
0.163873 0.217761 0.580639 0.8 0 0
0.153590 0.226969 0.159004 0.8 0 0
0.126181 0.211146 0.832177 0.8 0 0
0.115465 0.193986 0.216358 0.8 0 0
0.115629 0.035361 0.561278 0.8 0 0
0.188136 0.214026 0.533038 0.8 0 0
0.076331 0.093933 0.038175 0.8 0 0
0.056647 0.133913 0.935653 0.8 0 0
0.071302 0.185355 0.548334 0.8 0 0
0.131676 0.263768 0.520190 0.8 0 0
0.104594 0.174841 0.496998 0.8 0 0
0.169816 0.236911 0.430348 0.8 0 0
0.183765 0.176634 0.555324 0.8 0 0
0.166193 0.221291 0.486819 0.8 0 0
0.106464 0.136169 0.292172 0.8 0 0
0.106657 0.034700 0.609716 0.8 0 0
0.088328 0.108276 0.505124 0.8 0 0
0.092214 0.198311 0.299891 0.8 0 0
0.170405 0.109954 0.196872 0.8 0 0
0.131618 0.123701 0.326936 0.8 0 0
0.142750 0.195922 0.485424 0.8 0 0
0.117653 0.246123 0.753405 0.8 0 0
0.169070 0.193928 0.405309 0.8 0 0
0.120595 0.197355 0.841799 0.8 0 0
0.080489 0.100558 0.403744 0.8 0 0
0.174293 0.183172 0.689836 0.8 0 0
0.106947 0.288568 0.482582 0.8 0 0
0.099686 0.296939 0.524908 0.8 0 0
0.140212 0.181842 0.311957 0.8 0 0
0.165467 0.189202 0.798760 0.8 0 0
0.082776 0.092936 0.031486 0.8 0 0
0.124833 0.199150 0.093850 0.8 0 0
0.158393 0.186100 0.228994 0.8 0 0
0.162853 0.132181 0.186126 0.8 0 0
0.101544 0.225180 0.614786 0.8 0 0
0.125638 0.064057 0.534269 0.8 0 0
0.151587 0.086154 0.507618 0.8 0 0
0.138653 0.239851 0.490240 0.8 0 0
0.161912 0.194196 0.805235 0.8 0 0
0.126928 0.058514 0.617182 0.8 0 0
0.107766 0.073854 0.578722 0.8 0 0
0.128608 0.142505 0.928767 0.8 0 0
0.112327 0.073986 0.459418 0.8 0 0
0.112671 0.254570 0.656805 0.8 0 0
0.133249 0.223365 0.054277 0.8 0 0
0.135881 0.193687 0.054837 0.8 0 0
0.056973 0.286429 0.379170 0.8 0 0
0.104207 0.031281 0.544841 0.8 0 0
0.166864 0.124004 0.791659 0.8 0 0
0.049486 0.121503 0.672183 0.8 0 0
0.037046 0.161409 0.904857 0.8 0 0
0.074964 0.297455 0.466499 0.8 0 0
0.081050 0.091060 0.476383 0.8 0 0
0.088892 0.272959 0.532974 0.8 0 0
0.053988 0.115703 0.038471 0.8 0 0
0.163063 0.199254 0.058176 0.8 0 0
0.136202 0.234569 0.261600 0.8 0 0
0.116764 0.203411 0.188193 0.8 0 0
0.143436 0.182169 0.160694 0.8 0 0
0.177861 0.114732 0.494670 0.8 0 0
0.137109 0.167843 0.923861 0.8 0 0
0.109839 0.079801 0.763736 0.8 0 0
0.081331 0.046338 0.612940 0.8 0 0
0.094208 0.286510 0.335272 0.8 0 0
0.126174 0.183664 0.626623 0.8 0 0
0.104137 0.224694 0.318777 0.8 0 0
0.149960 0.231554 0.486877 0.8 0 0
0.089698 0.158036 0.621862 0.8 0 0
0.108122 0.225377 0.050405 0.8 0 0
0.109544 0.138097 0.359768 0.8 0 0
0.126025 0.239109 0.489240 0.8 0 0
0.118750 0.124524 0.625534 0.8 0 0
0.166105 0.129471 0.423169 0.8 0 0
0.118854 0.084702 0.754329 0.8 0 0
0.075741 0.044996 0.467466 0.8 0 0
0.090465 0.043992 0.478990 0.8 0 0
0.119410 0.278284 0.757361 0.8 0 0
0.166580 0.187243 0.426556 0.8 0 0
0.061015 0.039171 0.467727 0.8 0 0
0.036834 0.213013 0.041233 0.8 0 0
0.147488 0.106750 0.646439 0.8 0 0
0.123280 0.205435 0.475315 0.8 0 0
0.071573 0.203956 0.552347 0.8 0 0
0.121572 0.220855 0.827928 0.8 0 0
0.132142 0.175336 0.849352 0.8 0 0
0.081838 0.236219 0.730625 0.8 0 0
0.099386 0.283572 0.486004 0.8 0 0
0.131754 0.265194 0.508391 0.8 0 0
0.125243 0.209457 0.624974 0.8 0 0
0.137556 0.060021 0.777347 0.8 0 0
0.131418 0.228132 0.623311 0.8 0 0
0.078641 0.193365 0.966338 0.8 0 0
0.094136 0.202545 0.898618 0.8 0 0
0.168931 0.207202 0.489891 0.8 0 0
0.146736 0.220706 0.087874 0.8 0 0
0.134196 0.237305 0.242093 0.8 0 0
0.137097 0.136695 0.482579 0.8 0 0
0.120926 0.289451 0.614877 0.8 0 0
0.109081 0.094666 0.231526 0.8 0 0
0.095634 0.256113 0.650118 0.8 0 0
0.173036 0.142304 0.687323 0.8 0 0
0.124982 0.184420 0.832543 0.8 0 0
0.179168 0.123052 0.492932 0.8 0 0
0.137632 0.228212 0.137525 0.8 0 0
0.173674 0.200113 0.376556 0.8 0 0
0.087123 0.282107 0.489109 0.8 0 0
0.099777 0.135105 0.362205 0.8 0 0
0.110334 0.087045 0.502921 0.8 0 0
0.129494 0.059051 0.700027 0.8 0 0
0.174024 0.223006 0.768040 0.8 0 0
0.157588 0.236007 0.782808 0.8 0 0
0.108745 0.219438 0.217827 0.8 0 0
0.107656 0.237697 0.731538 0.8 0 0
0.092921 0.064538 0.522010 0.8 0 0
0.147458 0.231802 0.683355 0.8 0 0
0.117319 0.189376 0.851513 0.8 0 0
0.132963 0.208647 0.482300 0.8 0 0
0.167599 0.167840 0.625876 0.8 0 0
0.125107 0.166414 0.494570 0.8 0 0
0.082028 0.186144 0.865584 0.8 0 0
0.139300 0.092974 0.133608 0.8 0 0
0.097947 0.102478 0.259557 0.8 0 0
0.067658 0.034571 0.441292 0.8 0 0
0.139540 0.187221 0.487517 0.8 0 0
0.095290 0.298342 0.439718 0.8 0 0
0.115305 0.203987 0.479445 0.8 0 0
0.066271 0.170065 0.778402 0.8 0 0
0.061337 0.227594 0.673811 0.8 0 0
0.120249 0.243830 0.378524 0.8 0 0
0.143405 0.129884 0.480549 0.8 0 0
0.155091 0.113689 0.294575 0.8 0 0
0.055670 0.284785 0.415267 0.8 0 0
0.078907 0.095745 0.433433 0.8 0 0
0.095344 0.097168 0.335649 0.8 0 0
0.106178 0.072037 0.631714 0.8 0 0
0.077554 0.121560 0.492260 0.8 0 0
0.062402 0.173102 0.873059 0.8 0 0
0.068065 0.184473 0.877219 0.8 0 0
0.044553 0.138018 0.693501 0.8 0 0
0.165264 0.196924 0.490030 0.8 0 0
0.130600 0.096458 0.487378 0.8 0 0
0.102461 0.047105 0.656835 0.8 0 0
0.103269 0.197001 0.488286 0.8 0 0
0.083985 0.211993 0.472934 0.8 0 0
0.123828 0.267175 0.665039 0.8 0 0
0.063463 0.042142 0.488669 0.8 0 0
0.101219 0.091234 0.596452 0.8 0 0
0.066126 0.097210 0.723915 0.8 0 0
0.068589 0.179094 0.567472 0.8 0 0
0.142397 0.140735 0.361675 0.8 0 0
0.109628 0.134789 0.049748 0.8 0 0
0.107632 0.116281 0.622389 0.8 0 0
0.072533 0.111510 0.426233 0.8 0 0
0.132101 0.232690 0.660336 0.8 0 0
0.100473 0.214338 0.833582 0.8 0 0
0.154003 0.227745 0.167865 0.8 0 0
0.182226 0.164987 0.547532 0.8 0 0
0.116440 0.265152 0.510187 0.8 0 0
0.167068 0.128723 0.790940 0.8 0 0
0.129563 0.240563 0.717333 0.8 0 0
0.128030 0.100425 0.060819 0.8 0 0
0.152777 0.241096 0.747499 0.8 0 0
0.103039 0.192276 0.304450 0.8 0 0
0.141358 0.172962 0.454789 0.8 0 0
0.153533 0.252490 0.444144 0.8 0 0
0.187250 0.114424 0.539431 0.8 0 0
0.076085 0.108066 0.771731 0.8 0 0
0.162272 0.105548 0.120055 0.8 0 0
0.110955 0.146434 0.427993 0.8 0 0
0.176349 0.211491 0.374661 0.8 0 0
0.038575 0.155230 0.891633 0.8 0 0
0.082404 0.090279 0.441114 0.8 0 0
0.116570 0.245455 0.738481 0.8 0 0
0.163892 0.119242 0.664020 0.8 0 0
0.151726 0.230943 0.179460 0.8 0 0
0.159695 0.103239 0.115123 0.8 0 0
0.170204 0.095399 0.441035 0.8 0 0
0.078859 0.171263 0.974312 0.8 0 0
0.078316 0.119210 0.592251 0.8 0 0
0.138281 0.176097 0.839996 0.8 0 0
0.115393 0.041308 0.622886 0.8 0 0
0.120385 0.064141 0.536375 0.8 0 0
0.093710 0.220692 0.029802 0.8 0 0
0.079423 0.230458 0.764248 0.8 0 0
0.169785 0.094172 0.462369 0.8 0 0
0.082573 0.282624 0.660101 0.8 0 0
0.110247 0.218913 0.208904 0.8 0 0
0.119396 0.131249 0.839539 0.8 0 0
0.128510 0.176475 0.419521 0.8 0 0
0.145851 0.179129 0.486518 0.8 0 0
0.170343 0.159951 0.506189 0.8 0 0
0.107035 0.294816 0.588371 0.8 0 0
0.160411 0.085784 0.418623 0.8 0 0
0.119299 0.184330 0.380629 0.8 0 0
0.122986 0.196895 0.153572 0.8 0 0
0.141812 0.185240 0.623714 0.8 0 0
0.157888 0.103315 0.602655 0.8 0 0
0.127076 0.144747 0.849551 0.8 0 0
0.161209 0.088300 0.403751 0.8 0 0
0.096006 0.133058 0.375114 0.8 0 0
0.122022 0.116804 0.092361 0.8 0 0
0.137212 0.172234 0.924358 0.8 0 0
0.136549 0.214528 0.323528 0.8 0 0
0.084686 0.272909 0.639554 0.8 0 0
0.104276 0.288501 0.647345 0.8 0 0
0.087662 0.284673 0.661055 0.8 0 0
0.134065 0.109198 0.073908 0.8 0 0
0.081814 0.182355 0.815438 0.8 0 0
0.126428 0.158834 0.877291 0.8 0 0
0.119820 0.182449 0.390701 0.8 0 0
0.159728 0.202355 0.622115 0.8 0 0
0.139481 0.087722 0.349285 0.8 0 0
0.094347 0.075120 0.664678 0.8 0 0
0.122453 0.085930 0.280784 0.8 0 0
0.147010 0.174660 0.826561 0.8 0 0
0.179653 0.201509 0.752682 0.8 0 0
0.124753 0.072435 0.674261 0.8 0 0
0.080295 0.088739 0.800998 0.8 0 0
0.099470 0.143001 0.436300 0.8 0 0
0.133755 0.129767 0.083356 0.8 0 0
0.164874 0.201317 0.618437 0.8 0 0
0.115904 0.035050 0.562740 0.8 0 0
0.046171 0.182919 0.040315 0.8 0 0
0.085630 0.259360 0.703305 0.8 0 0
0.110283 0.249305 0.506294 0.8 0 0
0.056575 0.285174 0.427192 0.8 0 0
0.174905 0.119865 0.777002 0.8 0 0
0.178118 0.135984 0.721696 0.8 0 0
0.136670 0.248667 0.786175 0.8 0 0
0.120241 0.234662 0.489900 0.8 0 0
0.079132 0.267621 0.656211 0.8 0 0
0.122648 0.204985 0.085120 0.8 0 0
0.129056 0.094225 0.300775 0.8 0 0
0.134982 0.186465 0.150665 0.8 0 0
0.139578 0.119928 0.483803 0.8 0 0
0.153864 0.138362 0.213951 0.8 0 0
0.077359 0.227015 0.769037 0.8 0 0
0.163381 0.202779 0.114376 0.8 0 0
0.106961 0.281222 0.745756 0.8 0 0
0.083042 0.093186 0.763911 0.8 0 0
0.156596 0.080208 0.511589 0.8 0 0
0.093108 0.195235 0.967665 0.8 0 0
0.160243 0.081073 0.485734 0.8 0 0
0.187643 0.125380 0.550451 0.8 0 0
0.107048 0.072884 0.486595 0.8 0 0
0.120391 0.290940 0.605227 0.8 0 0
0.050742 0.284927 0.360436 0.8 0 0
0.124080 0.248855 0.731506 0.8 0 0
0.092552 0.293545 0.445695 0.8 0 0
0.080627 0.197142 0.872459 0.8 0 0
0.139106 0.083770 0.231129 0.8 0 0
0.135879 0.181233 0.318474 0.8 0 0
0.141118 0.088479 0.729196 0.8 0 0
0.105352 0.061724 0.657608 0.8 0 0
0.051881 0.119001 0.726690 0.8 0 0
0.084023 0.031386 0.513607 0.8 0 0
0.150034 0.254658 0.440847 0.8 0 0
0.050356 0.148781 0.704255 0.8 0 0
0.111814 0.253009 0.499625 0.8 0 0
0.176648 0.210519 0.768724 0.8 0 0
0.147210 0.236274 0.324329 0.8 0 0
0.151216 0.178969 0.198896 0.8 0 0
0.162945 0.118939 0.798139 0.8 0 0
0.174748 0.199971 0.381608 0.8 0 0
0.158261 0.086941 0.514346 0.8 0 0
0.116377 0.190822 0.314437 0.8 0 0
0.098737 0.106446 0.618888 0.8 0 0
0.074435 0.136387 0.043955 0.8 0 0
0.097824 0.092654 0.335763 0.8 0 0
0.129735 0.176043 0.422985 0.8 0 0
0.103136 0.263508 0.653779 0.8 0 0
0.082940 0.140708 0.035572 0.8 0 0
0.070880 0.107576 0.748166 0.8 0 0
0.170330 0.107723 0.577357 0.8 0 0
0.070832 0.278328 0.477835 0.8 0 0
0.090341 0.226561 0.397949 0.8 0 0
0.112127 0.286314 0.328557 0.8 0 0
0.155350 0.196567 0.262477 0.8 0 0
0.091637 0.150930 0.622261 0.8 0 0
0.080958 0.121236 0.415785 0.8 0 0
0.092219 0.206511 0.031529 0.8 0 0
0.109195 0.135276 0.336383 0.8 0 0
0.134481 0.074571 0.805705 0.8 0 0
0.086764 0.237087 0.514950 0.8 0 0
0.111960 0.137728 0.350468 0.8 0 0
0.072173 0.111876 0.496000 0.8 0 0
0.108013 0.043373 0.518163 0.8 0 0
0.170054 0.195328 0.200636 0.8 0 0
0.149102 0.099768 0.671304 0.8 0 0
0.104923 0.229943 0.035162 0.8 0 0
0.165653 0.199957 0.055575 0.8 0 0
0.103715 0.193489 0.355575 0.8 0 0
0.104019 0.085616 0.763664 0.8 0 0
0.038857 0.155544 0.899837 0.8 0 0
0.124467 0.060679 0.652615 0.8 0 0
0.119523 0.112063 0.030693 0.8 0 0
0.050807 0.285006 0.358504 0.8 0 0
0.123684 0.255888 0.684722 0.8 0 0
0.092605 0.229280 0.497202 0.8 0 0
0.094144 0.207851 0.924341 0.8 0 0
0.074533 0.160654 0.827251 0.8 0 0
0.047836 0.118512 0.719825 0.8 0 0
0.161159 0.202270 0.032682 0.8 0 0
0.087815 0.221578 0.292943 0.8 0 0
0.143097 0.237798 0.318698 0.8 0 0
0.176072 0.199189 0.472754 0.8 0 0
0.161242 0.092863 0.178176 0.8 0 0
0.121316 0.046344 0.585668 0.8 0 0
0.150505 0.260407 0.519683 0.8 0 0
0.136193 0.078942 0.769902 0.8 0 0
0.102290 0.256381 0.462794 0.8 0 0
0.102140 0.046923 0.508040 0.8 0 0
0.176219 0.144622 0.702071 0.8 0 0
0.122092 0.184442 0.361636 0.8 0 0
0.101015 0.090306 0.503452 0.8 0 0
0.103809 0.227078 0.030950 0.8 0 0
0.165623 0.180816 0.628982 0.8 0 0
0.041330 0.113113 0.045229 0.8 0 0
0.047984 0.142571 0.888337 0.8 0 0
0.137388 0.065970 0.489225 0.8 0 0
0.114270 0.044408 0.644449 0.8 0 0
0.130839 0.099964 0.031303 0.8 0 0
0.083394 0.116356 0.625398 0.8 0 0
0.101024 0.249104 0.675759 0.8 0 0
0.162470 0.097395 0.732183 0.8 0 0
0.093377 0.204802 0.283517 0.8 0 0
0.160081 0.199792 0.485480 0.8 0 0
0.075307 0.287947 0.518774 0.8 0 0
0.164341 0.083511 0.480064 0.8 0 0
0.137760 0.243934 0.361385 0.8 0 0
0.082439 0.141336 0.864177 0.8 0 0
0.128270 0.098016 0.651237 0.8 0 0
0.115153 0.085273 0.340541 0.8 0 0
0.120292 0.115170 0.149242 0.8 0 0
0.089258 0.075897 0.715393 0.8 0 0
0.110527 0.141535 0.382535 0.8 0 0
0.130171 0.229349 0.482044 0.8 0 0
0.116801 0.198256 0.036225 0.8 0 0
0.070401 0.166452 0.837242 0.8 0 0
0.121834 0.185533 0.344627 0.8 0 0
0.099638 0.138341 0.385788 0.8 0 0
0.126024 0.097402 0.054686 0.8 0 0
0.067178 0.181092 0.852874 0.8 0 0
0.079160 0.126149 0.478638 0.8 0 0
0.161846 0.228335 0.786528 0.8 0 0
0.097064 0.211794 0.493996 0.8 0 0
0.068240 0.038299 0.468801 0.8 0 0
0.115422 0.192622 0.822680 0.8 0 0
0.105172 0.127023 0.261304 0.8 0 0
0.061545 0.035233 0.430627 0.8 0 0
0.106446 0.295630 0.521941 0.8 0 0
0.060112 0.201852 0.661517 0.8 0 0
0.153200 0.098438 0.123564 0.8 0 0
0.104790 0.214179 0.236039 0.8 0 0
0.085481 0.246114 0.574908 0.8 0 0
0.154369 0.226208 0.485152 0.8 0 0
0.103448 0.077675 0.651844 0.8 0 0
0.170328 0.226191 0.374841 0.8 0 0
0.087717 0.300810 0.481836 0.8 0 0
0.145630 0.086452 0.373468 0.8 0 0
0.075503 0.119342 0.638877 0.8 0 0
0.038177 0.171254 0.867109 0.8 0 0
0.114392 0.100990 0.609525 0.8 0 0
0.116128 0.118361 0.624930 0.8 0 0
0.058375 0.111988 0.666925 0.8 0 0
0.071382 0.138477 0.041914 0.8 0 0
0.066543 0.230857 0.723361 0.8 0 0
0.176768 0.113075 0.419353 0.8 0 0
0.112931 0.097413 0.650742 0.8 0 0
0.132134 0.067137 0.520642 0.8 0 0
0.110573 0.065815 0.511297 0.8 0 0
0.094238 0.228887 0.305406 0.8 0 0
0.104125 0.122401 0.836344 0.8 0 0
0.155226 0.083121 0.517005 0.8 0 0
0.076955 0.099785 0.426501 0.8 0 0
0.133124 0.118612 0.477821 0.8 0 0
0.088322 0.267111 0.784081 0.8 0 0
0.143946 0.227789 0.284819 0.8 0 0
0.127211 0.131941 0.171466 0.8 0 0
0.069440 0.097009 0.729350 0.8 0 0
0.155942 0.250775 0.509238 0.8 0 0
0.132933 0.134985 0.297835 0.8 0 0
0.113676 0.199066 0.955995 0.8 0 0
0.124591 0.088676 0.607956 0.8 0 0
0.089329 0.295383 0.566942 0.8 0 0
0.100709 0.048184 0.712547 0.8 0 0
0.167216 0.203331 0.242472 0.8 0 0
0.123365 0.265444 0.620945 0.8 0 0
0.171218 0.180578 0.618582 0.8 0 0
0.092805 0.098623 0.285204 0.8 0 0
0.122598 0.182042 0.251178 0.8 0 0
0.094989 0.138211 0.818343 0.8 0 0
0.173152 0.179540 0.686539 0.8 0 0
0.107477 0.233109 0.669266 0.8 0 0
0.133503 0.270372 0.736223 0.8 0 0
0.079579 0.049335 0.523337 0.8 0 0
0.110427 0.067868 0.609714 0.8 0 0
0.104451 0.181988 0.491386 0.8 0 0
0.097373 0.077732 0.738016 0.8 0 0
0.089127 0.272729 0.754098 0.8 0 0
0.125645 0.097820 0.032331 0.8 0 0
0.105013 0.295459 0.538665 0.8 0 0
0.081635 0.034634 0.516381 0.8 0 0
0.119468 0.231366 0.825175 0.8 0 0
0.100691 0.186168 0.471210 0.8 0 0
0.183319 0.126557 0.564974 0.8 0 0
0.097547 0.240653 0.425411 0.8 0 0
0.141608 0.144939 0.410635 0.8 0 0
0.113734 0.290909 0.626533 0.8 0 0
0.089256 0.192484 0.877040 0.8 0 0
0.176135 0.227173 0.431778 0.8 0 0
0.127937 0.166899 0.962443 0.8 0 0
0.128179 0.157338 0.840383 0.8 0 0
0.136572 0.235048 0.256016 0.8 0 0
0.076121 0.151754 0.526589 0.8 0 0
0.122820 0.128383 0.167967 0.8 0 0
0.055897 0.286567 0.398823 0.8 0 0
0.064758 0.233574 0.683602 0.8 0 0
0.121665 0.079848 0.713589 0.8 0 0
0.157665 0.197841 0.049507 0.8 0 0
0.120776 0.272335 0.649599 0.8 0 0
0.085675 0.085336 0.457975 0.8 0 0
0.182149 0.116114 0.499375 0.8 0 0
0.085456 0.061756 0.706926 0.8 0 0
0.145876 0.090733 0.337653 0.8 0 0
0.081325 0.121044 0.412685 0.8 0 0
0.083534 0.233897 0.500485 0.8 0 0
0.105692 0.251808 0.807506 0.8 0 0
0.112437 0.234400 0.686362 0.8 0 0
0.166335 0.144280 0.657683 0.8 0 0
0.091600 0.201102 0.891956 0.8 0 0
0.077029 0.144163 0.876046 0.8 0 0
0.157386 0.156756 0.492008 0.8 0 0
0.108025 0.094764 0.050558 0.8 0 0
0.115469 0.255254 0.805397 0.8 0 0
0.056862 0.163770 0.725157 0.8 0 0
0.071106 0.197049 0.557108 0.8 0 0
0.100712 0.193585 0.307626 0.8 0 0
0.178834 0.138048 0.577742 0.8 0 0
0.096172 0.276605 0.745008 0.8 0 0
0.102853 0.248147 0.818722 0.8 0 0
0.157933 0.102701 0.261596 0.8 0 0
0.154465 0.111016 0.298866 0.8 0 0
0.080384 0.219751 0.480422 0.8 0 0
0.117718 0.227627 0.207900 0.8 0 0
0.138269 0.141082 0.348690 0.8 0 0
0.175149 0.219016 0.553943 0.8 0 0
0.105448 0.219678 0.489171 0.8 0 0
0.062028 0.163392 0.629454 0.8 0 0
0.147145 0.178874 0.206294 0.8 0 0
0.128736 0.171705 0.961682 0.8 0 0
0.127452 0.064524 0.494107 0.8 0 0
0.170310 0.203554 0.065807 0.8 0 0
0.122457 0.197834 0.476959 0.8 0 0
0.127053 0.251856 0.414952 0.8 0 0
0.173790 0.203627 0.369667 0.8 0 0
0.091121 0.147878 0.804912 0.8 0 0
0.164742 0.160321 0.501302 0.8 0 0
0.120524 0.250935 0.416194 0.8 0 0
0.111773 0.188373 0.878558 0.8 0 0
0.107634 0.198440 0.306830 0.8 0 0
0.103508 0.140103 0.390700 0.8 0 0
0.125823 0.248734 0.752730 0.8 0 0
0.091262 0.206206 0.401029 0.8 0 0
