0.424920 0.659885 0.056487 0.8 0 0
0.570978 0.421453 0.099803 0.8 0 0
0.507999 0.717964 0.038124 0.8 0 0
0.556928 0.438163 0.065445 0.8 0 0
0.333668 0.763287 0.084565 0.8 0 0
0.062258 0.804832 0.067433 0.8 0 0
0.509053 0.039242 0.173530 0.8 0 0
0.450355 0.480088 0.143425 0.8 0 0
0.511532 0.047210 0.184283 0.8 0 0
0.497890 0.910400 0.152529 0.8 0 0
0.562913 0.545477 0.112368 0.8 0 0
0.098174 0.805382 0.066525 0.8 0 0
0.195978 0.788655 0.099434 0.8 0 0
0.617444 0.763301 0.061985 0.8 0 0
0.449376 0.631329 0.048338 0.8 0 0
0.444059 0.730879 0.175038 0.8 0 0
0.460954 0.856236 0.138564 0.8 0 0
0.511662 0.913121 0.084170 0.8 0 0
0.450069 0.658618 0.171149 0.8 0 0
0.448918 0.816367 0.131976 0.8 0 0
0.432111 0.034175 0.139296 0.8 0 0
0.568614 0.041527 0.156159 0.8 0 0
0.465972 0.680789 0.176057 0.8 0 0
0.546197 0.606748 0.142452 0.8 0 0
0.031521 0.796329 0.098796 0.8 0 0
0.535261 0.092477 0.075921 0.8 0 0
0.452740 0.318991 0.075922 0.8 0 0
0.748448 0.789646 0.044512 0.8 0 0
0.410065 0.607366 0.070063 0.8 0 0
0.544110 0.658837 0.144995 0.8 0 0
0.468387 0.868541 0.161720 0.8 0 0
0.637190 0.816299 0.055883 0.8 0 0
0.885421 0.790610 0.058133 0.8 0 0
0.381721 0.816610 0.050852 0.8 0 0
0.399371 0.632945 0.103125 0.8 0 0
0.566686 0.044078 0.141672 0.8 0 0
0.411656 0.648867 0.147882 0.8 0 0
0.440201 0.097746 0.111959 0.8 0 0
0.136205 0.785242 0.090834 0.8 0 0
0.489985 0.485538 0.139100 0.8 0 0
0.557777 0.592469 0.099936 0.8 0 0
0.563029 0.688373 0.084458 0.8 0 0
0.392486 0.425007 0.069115 0.8 0 0
0.409814 0.814830 0.044556 0.8 0 0
0.387131 0.354987 0.099707 0.8 0 0
0.507370 0.841283 0.057135 0.8 0 0
0.429143 0.746471 0.032537 0.8 0 0
0.759311 0.785971 0.046928 0.8 0 0
0.438415 0.253550 0.064216 0.8 0 0
0.415729 0.032296 0.071220 0.8 0 0
0.545249 0.358315 0.064974 0.8 0 0
0.454067 0.583210 0.042046 0.8 0 0
0.454681 0.797044 0.145319 0.8 0 0
0.560884 0.828857 0.064359 0.8 0 0
0.484759 0.385849 0.094785 0.8 0 0
0.606498 0.828742 0.091034 0.8 0 0
0.500393 0.846352 0.123119 0.8 0 0
0.375672 0.761547 0.052095 0.8 0 0
0.459788 0.573252 0.163875 0.8 0 0
0.449758 0.335016 0.130197 0.8 0 0
0.460553 0.346518 0.087420 0.8 0 0
0.424955 0.236931 0.057589 0.8 0 0
0.654984 0.794574 0.113517 0.8 0 0
0.878107 0.799326 0.101516 0.8 0 0
0.502984 0.296745 0.076913 0.8 0 0
0.558290 0.733082 0.143502 0.8 0 0
0.559158 0.346663 0.085803 0.8 0 0
0.566893 0.741028 0.049311 0.8 0 0
0.746546 0.814666 0.097314 0.8 0 0
0.225513 0.825090 0.073282 0.8 0 0
0.093385 0.798425 0.098152 0.8 0 0
0.789535 0.820085 0.066789 0.8 0 0
0.386812 0.189199 0.102126 0.8 0 0
0.437235 0.791878 0.145187 0.8 0 0
0.509968 0.049627 0.142569 0.8 0 0
0.040579 0.802764 0.081931 0.8 0 0
0.405715 0.471357 0.143819 0.8 0 0
0.529201 0.178726 0.127315 0.8 0 0
0.518252 0.522019 0.149565 0.8 0 0
0.387218 0.766746 0.139760 0.8 0 0
0.543854 0.025918 0.172155 0.8 0 0
0.410061 0.834637 0.066600 0.8 0 0
0.724622 0.813028 0.050131 0.8 0 0
0.464465 0.774531 0.031474 0.8 0 0
0.511395 0.472263 0.145610 0.8 0 0
0.424124 0.049244 0.065079 0.8 0 0
0.633460 0.775007 0.107132 0.8 0 0
0.503199 0.822278 0.043994 0.8 0 0
0.514595 0.939003 0.096913 0.8 0 0
0.540955 0.385726 0.057931 0.8 0 0
0.669352 0.787923 0.046429 0.8 0 0
0.552566 0.085544 0.099061 0.8 0 0
0.716713 0.817601 0.095373 0.8 0 0
0.392735 0.045657 0.117015 0.8 0 0
0.555793 0.683316 0.065389 0.8 0 0
0.480545 0.447676 0.102139 0.8 0 0
0.203369 0.779083 0.050059 0.8 0 0
0.059342 0.802687 0.066697 0.8 0 0
0.453992 0.912008 0.154052 0.8 0 0
0.551565 0.419061 0.060890 0.8 0 0
0.559181 0.164941 0.112244 0.8 0 0
0.580657 0.762599 0.113158 0.8 0 0
0.507866 0.637932 0.050348 0.8 0 0
0.602993 0.827747 0.094001 0.8 0 0
0.518644 0.371037 0.056493 0.8 0 0
0.116159 0.813993 0.084389 0.8 0 0
0.203245 0.825093 0.064854 0.8 0 0
0.396234 0.766720 0.039460 0.8 0 0
0.394568 0.153625 0.112861 0.8 0 0
0.073719 0.794856 0.077182 0.8 0 0
0.860714 0.808115 0.072211 0.8 0 0
0.663488 0.792354 0.045369 0.8 0 0
0.341754 0.765896 0.055208 0.8 0 0
0.437463 0.666350 0.049986 0.8 0 0
0.498031 0.312081 0.114495 0.8 0 0
0.392547 0.408859 0.071768 0.8 0 0
0.556217 0.515996 0.065386 0.8 0 0
0.392310 0.273041 0.092915 0.8 0 0
0.242051 0.775168 0.056444 0.8 0 0
0.553091 0.629995 0.107238 0.8 0 0
0.397540 0.782986 0.140395 0.8 0 0
0.479145 0.908224 0.061929 0.8 0 0
0.445424 0.882172 0.139781 0.8 0 0
0.440161 0.285333 0.125986 0.8 0 0
0.602835 0.805031 0.113976 0.8 0 0
0.253264 0.818836 0.092768 0.8 0 0
0.516089 0.037047 0.140576 0.8 0 0
0.082386 0.786861 0.061077 0.8 0 0
0.490586 0.623525 0.045199 0.8 0 0
0.415403 0.495037 0.146339 0.8 0 0
0.520402 0.134064 0.075880 0.8 0 0
0.442940 0.305793 0.071516 0.8 0 0
0.068514 0.794562 0.090050 0.8 0 0
0.443151 0.637659 0.165229 0.8 0 0
0.512725 0.842698 0.111383 0.8 0 0
0.548105 0.259596 0.122917 0.8 0 0
0.442298 0.056274 0.130856 0.8 0 0
0.328381 0.765080 0.056065 0.8 0 0
0.451049 0.858088 0.117208 0.8 0 0
0.521551 0.470058 0.044516 0.8 0 0
0.439177 0.454771 0.144796 0.8 0 0
0.765931 0.822559 0.084084 0.8 0 0
0.384564 0.522971 0.094456 0.8 0 0
0.466070 0.726480 0.035633 0.8 0 0
0.450901 0.193442 0.087334 0.8 0 0
0.677370 0.820651 0.067936 0.8 0 0
0.436879 0.373016 0.140280 0.8 0 0
0.408949 0.452950 0.053267 0.8 0 0
0.713710 0.788088 0.101699 0.8 0 0
0.807534 0.780082 0.085718 0.8 0 0
0.207927 0.789431 0.101106 0.8 0 0
0.092112 0.778666 0.098767 0.8 0 0
0.552671 0.097288 0.112077 0.8 0 0
0.822291 0.795667 0.096448 0.8 0 0
0.482981 0.666867 0.041923 0.8 0 0
0.513195 0.248622 0.063174 0.8 0 0
0.396227 0.803566 0.123801 0.8 0 0
0.664906 0.823431 0.073885 0.8 0 0
0.283094 0.786177 0.110720 0.8 0 0
0.522182 0.259493 0.061880 0.8 0 0
0.469005 0.842690 0.056568 0.8 0 0
0.517019 0.141649 0.077242 0.8 0 0
0.456150 0.899162 0.069435 0.8 0 0
0.557057 0.594853 0.114789 0.8 0 0
0.202158 0.815921 0.048999 0.8 0 0
0.446496 0.639607 0.166789 0.8 0 0
0.551902 0.149259 0.083557 0.8 0 0
0.701475 0.798138 0.047798 0.8 0 0
0.484418 0.428030 0.077759 0.8 0 0
0.450158 0.677239 0.174317 0.8 0 0
0.479855 0.455260 0.104383 0.8 0 0
0.490485 0.475735 0.136145 0.8 0 0
0.513275 0.054209 0.170719 0.8 0 0
0.373612 0.789513 0.123598 0.8 0 0
0.511965 0.526767 0.025257 0.8 0 0
0.548907 0.619696 0.086356 0.8 0 0
0.542572 0.170567 0.127646 0.8 0 0
0.399018 0.486691 0.059305 0.8 0 0
0.385617 0.206464 0.077032 0.8 0 0
0.511645 0.578203 0.042061 0.8 0 0
0.231657 0.773347 0.056900 0.8 0 0
0.630279 0.822966 0.089937 0.8 0 0
0.475993 0.733986 0.176090 0.8 0 0
0.243737 0.803710 0.102648 0.8 0 0
0.437158 0.326061 0.067917 0.8 0 0
0.573077 0.751618 0.052444 0.8 0 0
0.484208 0.441227 0.122371 0.8 0 0
0.449002 0.871539 0.083598 0.8 0 0
0.463370 0.399220 0.118980 0.8 0 0
0.783249 0.799033 0.047454 0.8 0 0
0.569039 0.519290 0.099744 0.8 0 0
0.556322 0.471865 0.136537 0.8 0 0
0.504381 0.285528 0.077162 0.8 0 0
0.574276 0.739047 0.058601 0.8 0 0
0.430125 0.920082 0.101643 0.8 0 0
0.419398 0.755123 0.032309 0.8 0 0
0.526397 0.404466 0.050089 0.8 0 0
0.456094 0.620965 0.166118 0.8 0 0
0.417152 0.458024 0.049084 0.8 0 0
0.905985 0.787731 0.068817 0.8 0 0
0.756797 0.770244 0.062329 0.8 0 0
0.402787 0.770341 0.150865 0.8 0 0
0.108005 0.808025 0.070746 0.8 0 0
0.554162 0.279993 0.113514 0.8 0 0
0.460516 0.402061 0.070581 0.8 0 0
0.478895 0.756673 0.032776 0.8 0 0
0.863191 0.779761 0.104087 0.8 0 0
0.542576 0.268274 0.128469 0.8 0 0
0.461017 0.533392 0.157628 0.8 0 0
0.705079 0.773905 0.058080 0.8 0 0
0.530109 0.824863 0.113354 0.8 0 0
0.548084 0.055370 0.087917 0.8 0 0
0.529936 0.625222 0.064727 0.8 0 0
0.728188 0.768163 0.069061 0.8 0 0
0.555600 0.127988 0.107715 0.8 0 0
0.453111 0.425590 0.135529 0.8 0 0
0.553873 0.233489 0.063053 0.8 0 0
0.450760 0.918776 0.151029 0.8 0 0
0.539379 0.751787 0.163747 0.8 0 0
0.506189 0.671897 0.172497 0.8 0 0
0.383850 0.825437 0.102954 0.8 0 0
0.177051 0.816111 0.053581 0.8 0 0
0.544674 0.066813 0.082614 0.8 0 0
0.488908 0.412358 0.071257 0.8 0 0
0.382322 0.399503 0.110434 0.8 0 0
0.505417 0.452731 0.142094 0.8 0 0
0.565447 0.754887 0.138959 0.8 0 0
0.347669 0.765195 0.058665 0.8 0 0
0.514948 0.735378 0.034800 0.8 0 0
0.486330 0.405500 0.078346 0.8 0 0
0.431668 0.616222 0.158814 0.8 0 0
0.452316 0.208835 0.083198 0.8 0 0
0.553763 0.027355 0.134409 0.8 0 0
0.568627 0.477729 0.116354 0.8 0 0
0.516669 0.111546 0.120372 0.8 0 0
0.454603 0.913690 0.155104 0.8 0 0
0.443894 0.715505 0.173088 0.8 0 0
0.468397 0.902349 0.163082 0.8 0 0
0.722892 0.820305 0.091967 0.8 0 0
0.804791 0.811619 0.091291 0.8 0 0
0.470906 0.786959 0.033690 0.8 0 0
0.451702 0.486141 0.144155 0.8 0 0
0.441309 0.076659 0.119199 0.8 0 0
0.387747 0.723328 0.125116 0.8 0 0
0.304568 0.807666 0.109856 0.8 0 0
0.436748 0.046732 0.204176 0.8 0 0
0.375603 0.730187 0.064333 0.8 0 0
0.569439 0.742097 0.122547 0.8 0 0
0.397536 0.655030 0.108472 0.8 0 0
0.470310 0.876077 0.161241 0.8 0 0
0.613157 0.818587 0.055006 0.8 0 0
0.592581 0.790194 0.118911 0.8 0 0
0.401349 0.138256 0.122690 0.8 0 0
0.493874 0.382998 0.070824 0.8 0 0
0.463695 0.365287 0.091709 0.8 0 0
0.561205 0.048225 0.174989 0.8 0 0
0.397774 0.757806 0.040040 0.8 0 0
0.531495 0.824145 0.113234 0.8 0 0
0.534957 0.752989 0.033365 0.8 0 0
0.413209 0.666523 0.153833 0.8 0 0
0.403585 0.032583 0.200889 0.8 0 0
0.533316 0.524105 0.034612 0.8 0 0
0.735145 0.777425 0.051505 0.8 0 0
0.564323 0.242784 0.090885 0.8 0 0
0.886295 0.805986 0.067313 0.8 0 0
0.522951 0.339088 0.140564 0.8 0 0
0.747671 0.809999 0.045751 0.8 0 0
0.595307 0.830268 0.084347 0.8 0 0
0.499937 0.409859 0.132588 0.8 0 0
0.468643 0.577386 0.165663 0.8 0 0
0.534928 0.837175 0.085869 0.8 0 0
0.494014 0.703501 0.039034 0.8 0 0
0.485464 0.744192 0.033238 0.8 0 0
0.571570 0.422891 0.105308 0.8 0 0
0.588044 0.763680 0.058542 0.8 0 0
0.480420 0.476604 0.126944 0.8 0 0
0.457508 0.533873 0.156665 0.8 0 0
0.405221 0.199803 0.127759 0.8 0 0
0.194673 0.770440 0.061561 0.8 0 0
0.385578 0.201844 0.093929 0.8 0 0
0.539127 0.222620 0.129519 0.8 0 0
0.700422 0.786302 0.048545 0.8 0 0
0.397015 0.676296 0.129513 0.8 0 0
0.510711 0.104451 0.104739 0.8 0 0
0.497988 0.357496 0.125374 0.8 0 0
0.537180 0.078873 0.075177 0.8 0 0
0.533312 0.744218 0.033967 0.8 0 0
0.554233 0.122576 0.097787 0.8 0 0
0.283624 0.800542 0.045310 0.8 0 0
0.381718 0.424258 0.090180 0.8 0 0
0.396520 0.157862 0.116801 0.8 0 0
0.556920 0.802294 0.042021 0.8 0 0
0.488349 0.879379 0.138759 0.8 0 0
0.535281 0.412763 0.051481 0.8 0 0
0.428810 0.804177 0.133467 0.8 0 0
0.320205 0.819719 0.094459 0.8 0 0
0.579415 0.767523 0.119154 0.8 0 0
0.541378 0.766468 0.033880 0.8 0 0
0.539315 0.773924 0.151816 0.8 0 0
0.558730 0.274491 0.102041 0.8 0 0
0.497183 0.422959 0.059593 0.8 0 0
0.444631 0.788389 0.029478 0.8 0 0
0.223999 0.794253 0.102402 0.8 0 0
0.557519 0.360926 0.077492 0.8 0 0
0.390107 0.048279 0.127029 0.8 0 0
0.467161 0.885050 0.145915 0.8 0 0
0.374516 0.791804 0.040585 0.8 0 0
0.523540 0.028075 0.154577 0.8 0 0
0.440121 0.414650 0.141576 0.8 0 0
0.433671 0.847648 0.073749 0.8 0 0
0.494705 0.373811 0.071590 0.8 0 0
0.554853 0.536000 0.066168 0.8 0 0
0.539529 0.193863 0.128088 0.8 0 0
0.382654 0.761696 0.134152 0.8 0 0
0.580071 0.743150 0.077319 0.8 0 0
0.422608 0.026089 0.079479 0.8 0 0
0.560152 0.568442 0.111178 0.8 0 0
0.436594 0.584882 0.045824 0.8 0 0
0.558492 0.681185 0.116812 0.8 0 0
0.512352 0.891195 0.114523 0.8 0 0
0.461530 0.421708 0.068098 0.8 0 0
0.514677 0.824798 0.121181 0.8 0 0
0.412155 0.806060 0.126476 0.8 0 0
0.628267 0.809128 0.106430 0.8 0 0
0.419462 0.339398 0.065181 0.8 0 0
0.557879 0.157497 0.112965 0.8 0 0
0.636643 0.764490 0.085211 0.8 0 0
0.697120 0.770512 0.091047 0.8 0 0
0.570164 0.504994 0.094307 0.8 0 0
0.302184 0.792997 0.045201 0.8 0 0
0.420808 0.077486 0.074197 0.8 0 0
0.380654 0.435161 0.095687 0.8 0 0
0.460533 0.686012 0.176110 0.8 0 0
0.438269 0.913969 0.130108 0.8 0 0
0.502095 0.237687 0.093487 0.8 0 0
0.520071 0.056868 0.073339 0.8 0 0
0.222621 0.817401 0.052806 0.8 0 0
0.542054 0.647886 0.070741 0.8 0 0
0.530787 0.459887 0.148823 0.8 0 0
0.463377 0.928695 0.161432 0.8 0 0
0.533679 0.069398 0.071540 0.8 0 0
0.237385 0.794890 0.043850 0.8 0 0
0.562540 0.340335 0.101465 0.8 0 0
0.385020 0.212579 0.095408 0.8 0 0
0.417035 0.383281 0.146428 0.8 0 0
0.320968 0.821133 0.062316 0.8 0 0
0.785152 0.772104 0.074253 0.8 0 0
0.474300 0.472976 0.089520 0.8 0 0
0.411771 0.176640 0.066672 0.8 0 0
0.510917 0.856572 0.076822 0.8 0 0
0.494624 0.921421 0.140993 0.8 0 0
0.565202 0.530041 0.109843 0.8 0 0
0.550628 0.284562 0.074203 0.8 0 0
0.398701 0.092527 0.102508 0.8 0 0
0.090262 0.786645 0.080246 0.8 0 0
0.385024 0.206762 0.087683 0.8 0 0
0.394307 0.562348 0.075212 0.8 0 0
0.444250 0.717481 0.173404 0.8 0 0
0.408917 0.241269 0.127770 0.8 0 0
0.396446 0.762105 0.040033 0.8 0 0
0.571246 0.448202 0.090222 0.8 0 0
0.258574 0.775242 0.056403 0.8 0 0
0.394092 0.585873 0.110490 0.8 0 0
0.680561 0.816307 0.095212 0.8 0 0
0.528053 0.056014 0.066578 0.8 0 0
0.611039 0.761736 0.080572 0.8 0 0
0.406784 0.400926 0.058149 0.8 0 0
0.706299 0.786489 0.048216 0.8 0 0
0.469364 0.559525 0.163205 0.8 0 0
0.611042 0.812045 0.050167 0.8 0 0
0.510882 0.902050 0.143464 0.8 0 0
0.464991 0.800354 0.035993 0.8 0 0
0.528492 0.490111 0.035105 0.8 0 0
0.491861 0.382752 0.074288 0.8 0 0
0.822731 0.781856 0.064444 0.8 0 0
0.742721 0.808339 0.045223 0.8 0 0
0.398451 0.605465 0.089107 0.8 0 0
0.402942 0.650646 0.134541 0.8 0 0
0.469743 0.942988 0.063097 0.8 0 0
0.372841 0.826860 0.100199 0.8 0 0
0.386560 0.196191 0.080877 0.8 0 0
0.399059 0.468225 0.139757 0.8 0 0
0.781776 0.821937 0.078350 0.8 0 0
0.382155 0.487390 0.086240 0.8 0 0
0.536144 0.254726 0.060543 0.8 0 0
0.652343 0.769292 0.096823 0.8 0 0
0.505910 0.717765 0.174143 0.8 0 0
0.567933 0.708074 0.091473 0.8 0 0
0.526995 0.755060 0.166300 0.8 0 0
0.707760 0.812311 0.054938 0.8 0 0
0.458531 0.860394 0.130457 0.8 0 0
0.462014 0.435861 0.129928 0.8 0 0
0.553284 0.219020 0.121965 0.8 0 0
0.386120 0.231094 0.095863 0.8 0 0
0.243699 0.768861 0.065804 0.8 0 0
0.454934 0.451249 0.056565 0.8 0 0
0.125927 0.785355 0.061277 0.8 0 0
0.381060 0.715264 0.065417 0.8 0 0
0.471555 0.777700 0.159661 0.8 0 0
0.508151 0.544408 0.154970 0.8 0 0
0.195130 0.768727 0.076435 0.8 0 0
0.499377 0.841438 0.124329 0.8 0 0
0.522322 0.508551 0.148611 0.8 0 0
0.475120 0.472124 0.102252 0.8 0 0
0.515282 0.522921 0.025851 0.8 0 0
0.440340 0.736859 0.174402 0.8 0 0
0.449032 0.276870 0.108424 0.8 0 0
0.450984 0.301310 0.078305 0.8 0 0
0.502534 0.283358 0.109762 0.8 0 0
0.570713 0.721834 0.099966 0.8 0 0
0.534246 0.048148 0.200565 0.8 0 0
0.427068 0.025407 0.087867 0.8 0 0
0.755274 0.775777 0.093821 0.8 0 0
0.191479 0.771347 0.085929 0.8 0 0
0.423287 0.790486 0.142555 0.8 0 0
0.580074 0.741111 0.073279 0.8 0 0
0.394879 0.298046 0.106077 0.8 0 0
0.457773 0.857070 0.144186 0.8 0 0
0.344426 0.772496 0.104239 0.8 0 0
0.437890 0.625320 0.161429 0.8 0 0
0.380458 0.456441 0.111073 0.8 0 0
0.912193 0.800439 0.079295 0.8 0 0
0.048803 0.793189 0.067752 0.8 0 0
0.556461 0.319962 0.119687 0.8 0 0
0.581971 0.755688 0.061119 0.8 0 0
0.462302 0.855959 0.136962 0.8 0 0
0.547310 0.029400 0.089074 0.8 0 0
0.392442 0.027032 0.176000 0.8 0 0
0.480834 0.766927 0.032160 0.8 0 0
0.422457 0.690412 0.165183 0.8 0 0
0.465020 0.544447 0.029461 0.8 0 0
0.500492 0.233864 0.087276 0.8 0 0
0.563452 0.456237 0.128009 0.8 0 0
0.214338 0.825493 0.071035 0.8 0 0
0.508060 0.957727 0.102216 0.8 0 0
0.554285 0.027518 0.133566 0.8 0 0
0.605588 0.762962 0.064969 0.8 0 0
0.645320 0.819628 0.094591 0.8 0 0
0.532026 0.107092 0.131142 0.8 0 0
0.440146 0.065222 0.135429 0.8 0 0
0.518511 0.029199 0.084979 0.8 0 0
0.431039 0.437144 0.146050 0.8 0 0
0.542200 0.829179 0.099737 0.8 0 0
0.411715 0.483602 0.044698 0.8 0 0
0.560365 0.485905 0.070118 0.8 0 0
0.447627 0.953932 0.080417 0.8 0 0
0.517774 0.119901 0.120811 0.8 0 0
0.478418 0.943020 0.062636 0.8 0 0
0.514950 0.681432 0.046181 0.8 0 0
0.588956 0.807360 0.116896 0.8 0 0
0.483808 0.803578 0.143057 0.8 0 0
0.515316 0.932348 0.104549 0.8 0 0
0.518637 0.323636 0.137765 0.8 0 0
0.492874 0.702783 0.176205 0.8 0 0
0.259647 0.818232 0.092322 0.8 0 0
0.554197 0.493663 0.136177 0.8 0 0
0.437739 0.692777 0.044101 0.8 0 0
0.407660 0.057966 0.167747 0.8 0 0
0.171692 0.808954 0.048590 0.8 0 0
0.385691 0.220113 0.100984 0.8 0 0
0.740383 0.782993 0.099899 0.8 0 0
0.533385 0.270697 0.133032 0.8 0 0
0.616992 0.810027 0.107051 0.8 0 0
0.731617 0.788591 0.044866 0.8 0 0
0.457959 0.583752 0.165121 0.8 0 0
0.541841 0.084722 0.080128 0.8 0 0
0.382253 0.393274 0.100311 0.8 0 0
0.380388 0.446648 0.093391 0.8 0 0
0.437809 0.050011 0.085546 0.8 0 0
0.506339 0.496958 0.146592 0.8 0 0
0.574025 0.830599 0.091617 0.8 0 0
0.527785 0.614924 0.062028 0.8 0 0
0.398130 0.116847 0.110281 0.8 0 0
0.811784 0.817448 0.071999 0.8 0 0
0.434859 0.322986 0.068468 0.8 0 0
0.532941 0.471768 0.046570 0.8 0 0
0.417080 0.188921 0.062384 0.8 0 0
0.814119 0.808163 0.093009 0.8 0 0
0.407916 0.081610 0.082480 0.8 0 0
0.564721 0.190016 0.085261 0.8 0 0
0.525505 0.081513 0.073975 0.8 0 0
0.402222 0.181139 0.124098 0.8 0 0
0.538519 0.477714 0.046405 0.8 0 0
0.887312 0.810231 0.087177 0.8 0 0
0.459861 0.834943 0.052344 0.8 0 0
0.545278 0.356799 0.065281 0.8 0 0
0.220670 0.820925 0.056289 0.8 0 0
0.551104 0.035565 0.089762 0.8 0 0
0.379765 0.466851 0.096781 0.8 0 0
0.432976 0.734123 0.035276 0.8 0 0
0.626197 0.806711 0.049327 0.8 0 0
0.366193 0.757074 0.070704 0.8 0 0
0.396338 0.329499 0.084666 0.8 0 0
0.506783 0.842493 0.058127 0.8 0 0
0.411882 0.746302 0.036051 0.8 0 0
0.877917 0.787299 0.096141 0.8 0 0
0.685543 0.801248 0.106690 0.8 0 0
0.250241 0.814856 0.058255 0.8 0 0
0.512043 0.295737 0.071479 0.8 0 0
0.483809 0.515134 0.154797 0.8 0 0
0.488200 0.930870 0.160884 0.8 0 0
0.465229 0.791363 0.033711 0.8 0 0
0.503947 0.871400 0.141329 0.8 0 0
0.505551 0.220381 0.105609 0.8 0 0
0.391239 0.028277 0.181984 0.8 0 0
0.441744 0.035711 0.183702 0.8 0 0
0.556155 0.588744 0.080262 0.8 0 0
0.465406 0.425946 0.072760 0.8 0 0
0.448971 0.741669 0.033068 0.8 0 0
0.442006 0.059738 0.132379 0.8 0 0
0.441725 0.372371 0.058775 0.8 0 0
0.103965 0.789196 0.063578 0.8 0 0
0.512802 0.539115 0.152489 0.8 0 0
0.545403 0.040343 0.077058 0.8 0 0
0.556480 0.346222 0.081123 0.8 0 0
0.238591 0.780611 0.100021 0.8 0 0
0.686473 0.766471 0.080880 0.8 0 0
0.507055 0.766513 0.029544 0.8 0 0
0.400575 0.790225 0.135353 0.8 0 0
0.058278 0.803568 0.074729 0.8 0 0
0.210651 0.795682 0.101865 0.8 0 0
0.461741 0.412495 0.069477 0.8 0 0
0.554439 0.711762 0.143742 0.8 0 0
0.532512 0.053133 0.186178 0.8 0 0
0.464031 0.367167 0.102597 0.8 0 0
0.546340 0.365110 0.141333 0.8 0 0
0.432968 0.471304 0.044313 0.8 0 0
0.566107 0.405592 0.119242 0.8 0 0
0.615949 0.829813 0.085670 0.8 0 0
0.404783 0.244988 0.125181 0.8 0 0
0.512772 0.048972 0.184458 0.8 0 0
0.498022 0.922397 0.067348 0.8 0 0
0.412516 0.343064 0.140375 0.8 0 0
0.918960 0.778057 0.081085 0.8 0 0
0.705685 0.790801 0.103085 0.8 0 0
0.875144 0.810839 0.084440 0.8 0 0
0.317134 0.779258 0.047013 0.8 0 0
0.500105 0.578489 0.162805 0.8 0 0
0.517599 0.029045 0.190215 0.8 0 0
0.351179 0.768834 0.054660 0.8 0 0
0.448017 0.938172 0.150206 0.8 0 0
0.383241 0.433497 0.085292 0.8 0 0
0.575362 0.721022 0.072661 0.8 0 0
0.389519 0.561758 0.088467 0.8 0 0
0.395552 0.409811 0.135656 0.8 0 0
0.455577 0.912270 0.140882 0.8 0 0
0.380017 0.778587 0.042336 0.8 0 0
0.218737 0.786702 0.101718 0.8 0 0
0.402076 0.640193 0.087273 0.8 0 0
0.483599 0.733371 0.034772 0.8 0 0
0.556492 0.356954 0.076747 0.8 0 0
0.567835 0.512298 0.085050 0.8 0 0
0.507940 0.373742 0.136071 0.8 0 0
0.470136 0.459163 0.121200 0.8 0 0
0.122609 0.789660 0.095215 0.8 0 0
0.544734 0.028342 0.192714 0.8 0 0
0.447128 0.371774 0.062906 0.8 0 0
0.417248 0.330264 0.138942 0.8 0 0
0.805290 0.813990 0.059919 0.8 0 0
0.429234 0.768556 0.029884 0.8 0 0
0.305277 0.767352 0.092413 0.8 0 0
0.420872 0.210241 0.057168 0.8 0 0
0.398853 0.661130 0.125888 0.8 0 0
0.493732 0.360254 0.118001 0.8 0 0
0.561941 0.505439 0.123813 0.8 0 0
0.536209 0.043595 0.205357 0.8 0 0
0.467108 0.853958 0.152798 0.8 0 0
0.561053 0.040895 0.120145 0.8 0 0
0.528028 0.624104 0.155475 0.8 0 0
0.482439 0.429780 0.117845 0.8 0 0
0.450454 0.643560 0.168513 0.8 0 0
0.901846 0.780438 0.066932 0.8 0 0
0.397587 0.029501 0.190822 0.8 0 0
0.390186 0.480566 0.129336 0.8 0 0
0.556746 0.247749 0.113479 0.8 0 0
0.503466 0.466243 0.142490 0.8 0 0
0.322854 0.773122 0.104536 0.8 0 0
0.426595 0.409037 0.049307 0.8 0 0
0.679779 0.788181 0.108347 0.8 0 0
0.399324 0.255753 0.117230 0.8 0 0
0.395231 0.600069 0.103469 0.8 0 0
0.532607 0.536399 0.035679 0.8 0 0
0.425907 0.643300 0.158416 0.8 0 0
0.704340 0.773395 0.058646 0.8 0 0
0.506753 0.411715 0.138001 0.8 0 0
0.562690 0.180992 0.107584 0.8 0 0
0.781264 0.809959 0.049228 0.8 0 0
0.645594 0.795806 0.045077 0.8 0 0
0.233541 0.820053 0.092065 0.8 0 0
0.426029 0.214108 0.056942 0.8 0 0
0.521110 0.100498 0.126972 0.8 0 0
0.439408 0.516593 0.025561 0.8 0 0
0.443423 0.567807 0.036904 0.8 0 0
0.531599 0.158964 0.126933 0.8 0 0
0.625179 0.765297 0.056142 0.8 0 0
0.496064 0.631299 0.046039 0.8 0 0
0.572207 0.735557 0.056656 0.8 0 0
0.519375 0.481614 0.038080 0.8 0 0
0.377204 0.815746 0.050268 0.8 0 0
0.545605 0.580512 0.143753 0.8 0 0
0.549246 0.034654 0.202152 0.8 0 0
0.532409 0.443022 0.049127 0.8 0 0
0.449670 0.187913 0.080815 0.8 0 0
0.553795 0.122288 0.112675 0.8 0 0
0.413508 0.628189 0.072089 0.8 0 0
0.547963 0.500633 0.141683 0.8 0 0
0.451181 0.828632 0.047969 0.8 0 0
0.502382 0.944768 0.073148 0.8 0 0
0.693756 0.805831 0.103461 0.8 0 0
0.566839 0.221372 0.086058 0.8 0 0
0.541719 0.498187 0.144084 0.8 0 0
0.547665 0.832845 0.079329 0.8 0 0
0.540985 0.659018 0.065034 0.8 0 0
0.386330 0.799010 0.041112 0.8 0 0
0.420128 0.650484 0.156426 0.8 0 0
0.380626 0.734855 0.109908 0.8 0 0
0.630458 0.798020 0.112148 0.8 0 0
0.420650 0.383944 0.146104 0.8 0 0
0.404486 0.029882 0.195513 0.8 0 0
0.404735 0.450678 0.056763 0.8 0 0
0.570084 0.407491 0.097502 0.8 0 0
0.441718 0.456560 0.046981 0.8 0 0
0.436390 0.619580 0.054941 0.8 0 0
0.526408 0.263840 0.130408 0.8 0 0
0.394311 0.026822 0.147886 0.8 0 0
0.767772 0.804071 0.044885 0.8 0 0
0.099532 0.807100 0.069593 0.8 0 0
0.470610 0.770348 0.032253 0.8 0 0
0.490653 0.668377 0.042766 0.8 0 0
0.429509 0.503220 0.028349 0.8 0 0
0.059127 0.794933 0.064953 0.8 0 0
0.875270 0.809799 0.075233 0.8 0 0
0.890120 0.794750 0.056873 0.8 0 0
0.509085 0.949556 0.086025 0.8 0 0
0.151883 0.818190 0.079020 0.8 0 0
0.407270 0.832734 0.061839 0.8 0 0
0.493181 0.314630 0.094907 0.8 0 0
0.506699 0.278201 0.116717 0.8 0 0
0.538400 0.343490 0.066286 0.8 0 0
0.091671 0.788343 0.060371 0.8 0 0
0.079967 0.782115 0.105425 0.8 0 0
0.147714 0.793577 0.052901 0.8 0 0
0.142024 0.786174 0.091986 0.8 0 0
0.496554 0.958626 0.077186 0.8 0 0
0.556795 0.605847 0.107163 0.8 0 0
0.381926 0.745864 0.123842 0.8 0 0
0.698807 0.768149 0.082282 0.8 0 0
0.414024 0.513953 0.145228 0.8 0 0
0.424752 0.637065 0.156735 0.8 0 0
0.382451 0.410245 0.091796 0.8 0 0
0.480391 0.895705 0.165614 0.8 0 0
0.066071 0.802639 0.065132 0.8 0 0
0.565446 0.367238 0.095880 0.8 0 0
0.565494 0.199034 0.079481 0.8 0 0
0.573331 0.465110 0.106703 0.8 0 0
0.177675 0.821691 0.063934 0.8 0 0
0.565748 0.223766 0.101600 0.8 0 0
0.609959 0.795832 0.113345 0.8 0 0
0.562406 0.341490 0.099857 0.8 0 0
0.518752 0.848468 0.084730 0.8 0 0
0.289806 0.791873 0.112848 0.8 0 0
0.445412 0.285595 0.075829 0.8 0 0
0.556974 0.029665 0.130051 0.8 0 0
0.420354 0.457591 0.048022 0.8 0 0
0.482463 0.614266 0.043424 0.8 0 0
0.581041 0.831512 0.084960 0.8 0 0
0.472090 0.870041 0.133923 0.8 0 0
0.645714 0.823967 0.072379 0.8 0 0
0.542738 0.046861 0.196705 0.8 0 0
0.397485 0.603350 0.131965 0.8 0 0
0.783353 0.804462 0.098207 0.8 0 0
0.401788 0.124234 0.087155 0.8 0 0
0.551349 0.148731 0.082946 0.8 0 0
0.329574 0.821514 0.096132 0.8 0 0
0.240795 0.809014 0.050531 0.8 0 0
0.427573 0.839086 0.058591 0.8 0 0
0.132162 0.806580 0.055519 0.8 0 0
0.522806 0.065877 0.072829 0.8 0 0
0.390181 0.722898 0.131327 0.8 0 0
0.514339 0.404495 0.051490 0.8 0 0
0.435092 0.705106 0.041518 0.8 0 0
0.400462 0.310045 0.080271 0.8 0 0
0.534013 0.383852 0.145640 0.8 0 0
0.442404 0.852525 0.070863 0.8 0 0
0.410340 0.333393 0.069750 0.8 0 0
0.504282 0.278343 0.079274 0.8 0 0
0.412574 0.031647 0.074610 0.8 0 0
0.436447 0.477460 0.041253 0.8 0 0
0.516252 0.468392 0.146058 0.8 0 0
0.490306 0.442088 0.065945 0.8 0 0
0.451144 0.635359 0.167531 0.8 0 0
0.102155 0.796629 0.095957 0.8 0 0
0.520370 0.181883 0.121921 0.8 0 0
0.764123 0.804531 0.044687 0.8 0 0
0.513543 0.046519 0.089079 0.8 0 0
0.920034 0.789855 0.091476 0.8 0 0
0.458384 0.617691 0.045520 0.8 0 0
0.542263 0.311181 0.072778 0.8 0 0
0.485591 0.774420 0.161831 0.8 0 0
0.496343 0.324137 0.080028 0.8 0 0
0.522250 0.083852 0.135999 0.8 0 0
0.476979 0.632131 0.043265 0.8 0 0
0.550832 0.026197 0.170238 0.8 0 0
0.561258 0.741046 0.141634 0.8 0 0
0.409960 0.026582 0.099478 0.8 0 0
0.309235 0.785267 0.114094 0.8 0 0
0.446460 0.407185 0.054932 0.8 0 0
0.860392 0.787083 0.074103 0.8 0 0
0.535689 0.689416 0.050329 0.8 0 0
0.594903 0.768020 0.103424 0.8 0 0
0.457763 0.458269 0.060498 0.8 0 0
0.394509 0.589751 0.109575 0.8 0 0
0.471814 0.611221 0.042996 0.8 0 0
0.547874 0.749222 0.161179 0.8 0 0
0.450749 0.954429 0.143614 0.8 0 0
0.522335 0.152030 0.071883 0.8 0 0
0.136472 0.778907 0.080636 0.8 0 0
0.542774 0.027245 0.188486 0.8 0 0
0.496364 0.315119 0.112903 0.8 0 0
0.576967 0.736620 0.088913 0.8 0 0
0.364671 0.757953 0.081106 0.8 0 0
0.710084 0.786476 0.101683 0.8 0 0
0.449581 0.964732 0.103946 0.8 0 0
0.255659 0.796479 0.105229 0.8 0 0
0.461399 0.838250 0.129221 0.8 0 0
0.551151 0.099004 0.094123 0.8 0 0
0.477017 0.726154 0.035799 0.8 0 0
0.498446 0.640591 0.168694 0.8 0 0
0.540408 0.026116 0.086803 0.8 0 0
0.443382 0.078722 0.112462 0.8 0 0
0.704248 0.767354 0.078050 0.8 0 0
0.902399 0.806513 0.095379 0.8 0 0
0.496455 0.575791 0.038983 0.8 0 0
0.399227 0.080474 0.113602 0.8 0 0
0.470375 0.853755 0.156342 0.8 0 0
0.356220 0.830766 0.077204 0.8 0 0
0.506418 0.418757 0.052459 0.8 0 0
0.489309 0.965731 0.081251 0.8 0 0
0.537264 0.675601 0.158672 0.8 0 0
0.423096 0.668790 0.161967 0.8 0 0
0.375658 0.740475 0.095930 0.8 0 0
0.407324 0.829832 0.096099 0.8 0 0
0.420706 0.706110 0.162550 0.8 0 0
0.084052 0.801262 0.099706 0.8 0 0
0.444460 0.398968 0.054994 0.8 0 0
0.500330 0.562575 0.160607 0.8 0 0
0.404972 0.709510 0.049134 0.8 0 0
0.429876 0.785764 0.029903 0.8 0 0
0.541479 0.662879 0.063629 0.8 0 0
0.030720 0.780921 0.088152 0.8 0 0
0.508901 0.235221 0.062676 0.8 0 0
0.559383 0.266229 0.102281 0.8 0 0
0.612844 0.804647 0.110898 0.8 0 0
0.436065 0.920064 0.106077 0.8 0 0
0.398194 0.117657 0.098510 0.8 0 0
0.434033 0.756660 0.030187 0.8 0 0
0.487710 0.972326 0.121252 0.8 0 0
0.467324 0.870445 0.133714 0.8 0 0
0.535882 0.289532 0.134431 0.8 0 0
0.546134 0.772631 0.035137 0.8 0 0
0.348023 0.824971 0.098823 0.8 0 0
0.462261 0.418711 0.069408 0.8 0 0
0.474642 0.732412 0.035084 0.8 0 0
0.404561 0.465958 0.143496 0.8 0 0
0.393896 0.523319 0.069390 0.8 0 0
0.510537 0.883118 0.107580 0.8 0 0
0.546023 0.027140 0.186890 0.8 0 0
0.479966 0.479227 0.065319 0.8 0 0
0.534559 0.763488 0.032375 0.8 0 0
0.432722 0.047024 0.208235 0.8 0 0
0.881521 0.793886 0.098918 0.8 0 0
0.462958 0.534342 0.158340 0.8 0 0
0.410079 0.527440 0.143772 0.8 0 0
0.424781 0.790535 0.142976 0.8 0 0
0.541809 0.834975 0.071570 0.8 0 0
0.564446 0.355242 0.098147 0.8 0 0
0.538157 0.133636 0.074968 0.8 0 0
0.435663 0.299374 0.130420 0.8 0 0
0.500029 0.206774 0.075886 0.8 0 0
0.111298 0.809960 0.064291 0.8 0 0
0.554055 0.648399 0.101419 0.8 0 0
0.462536 0.872177 0.158163 0.8 0 0
0.556646 0.664307 0.090027 0.8 0 0
0.476907 0.808922 0.039855 0.8 0 0
0.458264 0.558911 0.161609 0.8 0 0
0.087429 0.789189 0.058559 0.8 0 0
0.435977 0.719436 0.038679 0.8 0 0
0.402826 0.119882 0.121979 0.8 0 0
0.461750 0.873688 0.138702 0.8 0 0
0.554694 0.688491 0.139568 0.8 0 0
0.391269 0.236615 0.070051 0.8 0 0
0.540501 0.364495 0.061687 0.8 0 0
0.552764 0.641627 0.105718 0.8 0 0
0.290839 0.773418 0.054245 0.8 0 0
0.557736 0.143652 0.105433 0.8 0 0
0.184719 0.770151 0.066889 0.8 0 0
0.414696 0.451235 0.050393 0.8 0 0
0.394714 0.050975 0.115320 0.8 0 0
0.860194 0.779742 0.100378 0.8 0 0
0.763401 0.784178 0.097220 0.8 0 0
0.535462 0.026880 0.148864 0.8 0 0
0.146339 0.776330 0.074013 0.8 0 0
0.569650 0.497381 0.088852 0.8 0 0
0.461387 0.496273 0.144537 0.8 0 0
0.453091 0.319076 0.122867 0.8 0 0
0.468670 0.395451 0.104052 0.8 0 0
0.480507 0.456751 0.094744 0.8 0 0
0.415969 0.773028 0.031796 0.8 0 0
0.387907 0.351760 0.098132 0.8 0 0
0.492077 0.661976 0.173412 0.8 0 0
0.553782 0.674859 0.068234 0.8 0 0
0.800098 0.786971 0.093607 0.8 0 0
0.776460 0.818794 0.058455 0.8 0 0
0.471316 0.835082 0.052398 0.8 0 0
0.435054 0.685701 0.045964 0.8 0 0
0.440197 0.118595 0.093775 0.8 0 0
0.554325 0.069456 0.102740 0.8 0 0
0.503876 0.873921 0.142711 0.8 0 0
0.783821 0.813687 0.052901 0.8 0 0
0.326391 0.827657 0.075690 0.8 0 0
0.492408 0.394797 0.069914 0.8 0 0
0.553893 0.616235 0.121683 0.8 0 0
0.392919 0.457217 0.133950 0.8 0 0
0.455806 0.425182 0.060161 0.8 0 0
0.442841 0.370957 0.136744 0.8 0 0
0.508971 0.550496 0.156008 0.8 0 0
0.467194 0.586625 0.166605 0.8 0 0
0.439674 0.153363 0.081102 0.8 0 0
0.548718 0.286782 0.123963 0.8 0 0
0.552184 0.542653 0.062461 0.8 0 0
0.163019 0.801268 0.048714 0.8 0 0
0.680567 0.806882 0.049214 0.8 0 0
0.190020 0.791997 0.100368 0.8 0 0
0.413088 0.478843 0.046027 0.8 0 0
0.229939 0.780079 0.050322 0.8 0 0
0.442260 0.058595 0.131697 0.8 0 0
0.494239 0.753941 0.031495 0.8 0 0
0.190997 0.778549 0.051860 0.8 0 0
0.440889 0.040929 0.198616 0.8 0 0
0.455453 0.350544 0.074344 0.8 0 0
0.561237 0.382005 0.127290 0.8 0 0
0.563554 0.175606 0.103621 0.8 0 0
0.416368 0.037493 0.208615 0.8 0 0
0.392755 0.435163 0.068933 0.8 0 0
0.644703 0.823682 0.071552 0.8 0 0
0.432376 0.776013 0.156276 0.8 0 0
0.386435 0.234249 0.093656 0.8 0 0
0.425991 0.760052 0.164282 0.8 0 0
0.438076 0.057320 0.086436 0.8 0 0
0.387172 0.521395 0.115657 0.8 0 0
0.522619 0.688913 0.046713 0.8 0 0
0.460536 0.953537 0.151096 0.8 0 0
0.393830 0.421398 0.067612 0.8 0 0
0.471438 0.437637 0.107096 0.8 0 0
0.403524 0.512731 0.052625 0.8 0 0
0.475810 0.476853 0.092273 0.8 0 0
0.420750 0.025896 0.172673 0.8 0 0
0.489047 0.972731 0.114318 0.8 0 0
0.438699 0.430149 0.049131 0.8 0 0
0.372345 0.770988 0.121405 0.8 0 0
0.513725 0.533630 0.026833 0.8 0 0
0.383528 0.503371 0.084942 0.8 0 0
0.558635 0.313697 0.104368 0.8 0 0
0.464618 0.874513 0.135309 0.8 0 0
0.672290 0.786201 0.047113 0.8 0 0
0.406274 0.597533 0.070056 0.8 0 0
0.082725 0.783370 0.105890 0.8 0 0
0.526275 0.600794 0.057571 0.8 0 0
0.470057 0.919111 0.157411 0.8 0 0
0.392513 0.030444 0.133048 0.8 0 0
0.464568 0.375920 0.109192 0.8 0 0
0.502122 0.942198 0.149684 0.8 0 0
0.492302 0.559471 0.033338 0.8 0 0
0.395030 0.552180 0.072439 0.8 0 0
0.440724 0.106640 0.098900 0.8 0 0
0.325319 0.791390 0.113645 0.8 0 0
0.478893 0.476063 0.075285 0.8 0 0
0.503473 0.638649 0.167400 0.8 0 0
0.093165 0.781010 0.100319 0.8 0 0
0.511326 0.140623 0.086833 0.8 0 0
0.528085 0.691250 0.166034 0.8 0 0
0.511799 0.042882 0.199390 0.8 0 0
0.541445 0.582883 0.148626 0.8 0 0
0.551885 0.046315 0.093148 0.8 0 0
0.687037 0.771227 0.059584 0.8 0 0
0.565241 0.498102 0.078956 0.8 0 0
0.632039 0.769271 0.052737 0.8 0 0
0.396999 0.475503 0.137301 0.8 0 0
0.463118 0.847307 0.059588 0.8 0 0
0.560605 0.350504 0.087460 0.8 0 0
0.507848 0.688304 0.173867 0.8 0 0
0.497465 0.882438 0.078373 0.8 0 0
0.509701 0.263553 0.116214 0.8 0 0
0.702769 0.768629 0.065703 0.8 0 0
0.358637 0.801098 0.118050 0.8 0 0
0.448831 0.774315 0.160563 0.8 0 0
0.062626 0.773683 0.101980 0.8 0 0
0.613569 0.817964 0.054497 0.8 0 0
0.521308 0.654158 0.055158 0.8 0 0
0.415945 0.296377 0.134980 0.8 0 0
0.485651 0.458464 0.076114 0.8 0 0
0.402583 0.026754 0.135068 0.8 0 0
0.547058 0.423687 0.143964 0.8 0 0
0.422105 0.028322 0.073618 0.8 0 0
0.557533 0.148950 0.110967 0.8 0 0
0.222817 0.795794 0.043942 0.8 0 0
0.059485 0.795718 0.058169 0.8 0 0
0.575611 0.741183 0.100087 0.8 0 0
0.477811 0.973697 0.098290 0.8 0 0
0.403306 0.435268 0.057670 0.8 0 0
0.509973 0.350877 0.063761 0.8 0 0
0.469446 0.869672 0.073567 0.8 0 0
0.392526 0.435429 0.069293 0.8 0 0
0.541677 0.670489 0.060460 0.8 0 0
0.507113 0.427474 0.139951 0.8 0 0
0.550303 0.026289 0.141558 0.8 0 0
0.424749 0.743342 0.169963 0.8 0 0
0.419540 0.833217 0.100152 0.8 0 0
0.220545 0.817516 0.095213 0.8 0 0
0.739624 0.781507 0.047893 0.8 0 0
0.213181 0.768618 0.080928 0.8 0 0
0.516314 0.039596 0.121787 0.8 0 0
0.563172 0.178636 0.098432 0.8 0 0
0.556560 0.592287 0.118188 0.8 0 0
0.588644 0.758055 0.069119 0.8 0 0
0.515719 0.492725 0.031555 0.8 0 0
0.566073 0.381926 0.092020 0.8 0 0
0.445529 0.183492 0.104402 0.8 0 0
0.554212 0.496313 0.061090 0.8 0 0
0.496214 0.879176 0.078290 0.8 0 0
0.787858 0.817492 0.059835 0.8 0 0
0.434222 0.527517 0.149765 0.8 0 0
0.561750 0.250940 0.078001 0.8 0 0
0.448826 0.197345 0.098324 0.8 0 0
0.389311 0.687229 0.089972 0.8 0 0
0.387470 0.555363 0.101918 0.8 0 0
0.554015 0.662261 0.121018 0.8 0 0
0.538022 0.494064 0.145653 0.8 0 0
0.551396 0.650714 0.125775 0.8 0 0
0.595490 0.816510 0.109853 0.8 0 0
0.488406 0.870387 0.158964 0.8 0 0
0.559539 0.327298 0.114382 0.8 0 0
0.565920 0.390814 0.118654 0.8 0 0
0.824566 0.779152 0.074143 0.8 0 0
0.508835 0.944149 0.080902 0.8 0 0
0.494611 0.911965 0.156244 0.8 0 0
0.749033 0.768881 0.081183 0.8 0 0
0.293220 0.765638 0.085826 0.8 0 0
0.459983 0.958473 0.147101 0.8 0 0
0.451817 0.210017 0.089505 0.8 0 0
0.439649 0.457694 0.144670 0.8 0 0
0.555299 0.313857 0.084827 0.8 0 0
0.446884 0.516538 0.025788 0.8 0 0
0.360742 0.760007 0.083997 0.8 0 0
0.695027 0.817823 0.063373 0.8 0 0
0.177115 0.778211 0.053447 0.8 0 0
0.390853 0.385134 0.079807 0.8 0 0
0.338024 0.763242 0.085561 0.8 0 0
0.536502 0.716850 0.043502 0.8 0 0
0.422014 0.669739 0.054587 0.8 0 0
0.549521 0.319834 0.075251 0.8 0 0
0.090590 0.791482 0.101984 0.8 0 0
0.411238 0.104241 0.129341 0.8 0 0
0.520814 0.515111 0.027759 0.8 0 0
0.463409 0.506631 0.150754 0.8 0 0
0.511514 0.680561 0.045238 0.8 0 0
0.520129 0.807671 0.035568 0.8 0 0
0.488806 0.419650 0.126664 0.8 0 0
0.045903 0.780141 0.062007 0.8 0 0
0.388684 0.345408 0.099854 0.8 0 0
0.118816 0.810159 0.059931 0.8 0 0
0.164000 0.813391 0.053793 0.8 0 0
0.522045 0.136248 0.123370 0.8 0 0
0.587244 0.816979 0.111212 0.8 0 0
0.430758 0.025810 0.165459 0.8 0 0
0.531577 0.809307 0.126403 0.8 0 0
0.394273 0.204847 0.119833 0.8 0 0
0.494553 0.364627 0.074935 0.8 0 0
0.482296 0.872768 0.162975 0.8 0 0
0.553151 0.026634 0.141350 0.8 0 0
0.253192 0.770928 0.060954 0.8 0 0
0.494710 0.307569 0.093173 0.8 0 0
0.403873 0.083497 0.125748 0.8 0 0
0.486905 0.874730 0.136804 0.8 0 0
0.623987 0.766040 0.091831 0.8 0 0
0.440983 0.791330 0.029839 0.8 0 0
0.553089 0.669275 0.070565 0.8 0 0
0.534865 0.280458 0.064936 0.8 0 0
0.423737 0.103398 0.130071 0.8 0 0
0.035695 0.799649 0.092652 0.8 0 0
0.407761 0.535963 0.143181 0.8 0 0
0.701290 0.817442 0.062104 0.8 0 0
0.437073 0.913190 0.116666 0.8 0 0
0.175267 0.822432 0.079283 0.8 0 0
0.536267 0.771579 0.154353 0.8 0 0
0.395987 0.481609 0.135680 0.8 0 0
0.402880 0.740894 0.040870 0.8 0 0
0.580677 0.760859 0.056529 0.8 0 0
0.510562 0.747381 0.032258 0.8 0 0
0.564898 0.220639 0.074564 0.8 0 0
0.548308 0.809792 0.043558 0.8 0 0
0.557630 0.682305 0.067448 0.8 0 0
0.398780 0.588789 0.133215 0.8 0 0
0.300140 0.804909 0.110740 0.8 0 0
0.441207 0.371312 0.137713 0.8 0 0
0.595682 0.765518 0.057759 0.8 0 0
0.510153 0.082637 0.099510 0.8 0 0
0.478382 0.474108 0.115968 0.8 0 0
0.415212 0.091915 0.076004 0.8 0 0
0.417148 0.258931 0.061064 0.8 0 0
0.426246 0.610183 0.059862 0.8 0 0
0.567859 0.527616 0.100680 0.8 0 0
0.548878 0.694646 0.150699 0.8 0 0
0.493026 0.433507 0.063263 0.8 0 0
0.413302 0.274706 0.065035 0.8 0 0
0.534122 0.495829 0.035664 0.8 0 0
0.788819 0.795634 0.048788 0.8 0 0
0.472202 0.936097 0.061592 0.8 0 0
0.442726 0.050129 0.154723 0.8 0 0
0.038948 0.801321 0.083680 0.8 0 0
0.517538 0.136012 0.119577 0.8 0 0
0.437480 0.659295 0.050760 0.8 0 0
0.548583 0.555653 0.058019 0.8 0 0
0.469571 0.873432 0.153586 0.8 0 0
0.527034 0.197906 0.059135 0.8 0 0
0.488536 0.541915 0.028746 0.8 0 0
0.543261 0.062870 0.154326 0.8 0 0
0.472662 0.466040 0.109139 0.8 0 0
0.383366 0.383733 0.099075 0.8 0 0
0.585499 0.830227 0.092908 0.8 0 0
0.395688 0.431955 0.136040 0.8 0 0
0.409759 0.460625 0.051986 0.8 0 0
0.389625 0.344782 0.117038 0.8 0 0
0.519586 0.614171 0.158948 0.8 0 0
0.478268 0.476825 0.119130 0.8 0 0
0.406520 0.150473 0.125978 0.8 0 0
0.450012 0.395842 0.059637 0.8 0 0
0.450033 0.189937 0.078470 0.8 0 0
0.384916 0.702795 0.084351 0.8 0 0
0.418284 0.810046 0.125184 0.8 0 0
0.513281 0.920344 0.129073 0.8 0 0
0.445178 0.934903 0.075561 0.8 0 0
0.065095 0.804324 0.065878 0.8 0 0
0.231009 0.806105 0.046744 0.8 0 0
0.433726 0.662168 0.051809 0.8 0 0
0.616625 0.824103 0.060846 0.8 0 0
0.512293 0.860043 0.088137 0.8 0 0
0.421524 0.530897 0.148625 0.8 0 0
0.457891 0.312328 0.090905 0.8 0 0
0.528057 0.522896 0.030046 0.8 0 0
0.530676 0.825790 0.112193 0.8 0 0
0.404454 0.777395 0.146318 0.8 0 0
0.488731 0.394900 0.077382 0.8 0 0
0.512501 0.037397 0.150207 0.8 0 0
0.554698 0.663340 0.117746 0.8 0 0
0.400879 0.647650 0.084722 0.8 0 0
0.092167 0.808291 0.072748 0.8 0 0
0.382885 0.439572 0.115303 0.8 0 0
0.574268 0.728203 0.061623 0.8 0 0
0.449927 0.336361 0.130395 0.8 0 0
0.411704 0.026547 0.177573 0.8 0 0
0.542625 0.596420 0.065216 0.8 0 0
0.501181 0.576543 0.162093 0.8 0 0
0.515445 0.932870 0.103530 0.8 0 0
0.546917 0.208933 0.127595 0.8 0 0
0.442722 0.088613 0.105143 0.8 0 0
0.201027 0.815006 0.096283 0.8 0 0
0.768147 0.816138 0.091901 0.8 0 0
0.491600 0.858803 0.155653 0.8 0 0
0.400903 0.182189 0.070454 0.8 0 0
0.400218 0.539468 0.136395 0.8 0 0
0.436262 0.804744 0.135222 0.8 0 0
0.406790 0.523836 0.048836 0.8 0 0
0.782562 0.813041 0.052012 0.8 0 0
0.338734 0.809388 0.108960 0.8 0 0
0.395586 0.695340 0.138408 0.8 0 0
0.410630 0.414186 0.053653 0.8 0 0
0.511721 0.664443 0.048907 0.8 0 0
0.629636 0.822800 0.065205 0.8 0 0
0.421611 0.069257 0.153464 0.8 0 0
0.702553 0.818619 0.064378 0.8 0 0
0.392736 0.028645 0.139520 0.8 0 0
0.411115 0.526333 0.043060 0.8 0 0
0.038802 0.773905 0.071880 0.8 0 0
0.358836 0.766741 0.102696 0.8 0 0
0.231034 0.824160 0.073783 0.8 0 0
0.547707 0.145038 0.080004 0.8 0 0
0.564101 0.360221 0.117926 0.8 0 0
0.519434 0.185978 0.062229 0.8 0 0
0.190028 0.782699 0.049233 0.8 0 0
0.572696 0.718203 0.082918 0.8 0 0
0.447877 0.568461 0.160399 0.8 0 0
0.393258 0.743543 0.150697 0.8 0 0
0.320287 0.762754 0.063873 0.8 0 0
0.464006 0.921807 0.152262 0.8 0 0
0.343458 0.773931 0.106091 0.8 0 0
0.559106 0.574985 0.115998 0.8 0 0
0.615983 0.829706 0.081593 0.8 0 0
0.395323 0.524878 0.067267 0.8 0 0
0.465542 0.869349 0.140700 0.8 0 0
0.400440 0.558242 0.062962 0.8 0 0
0.087143 0.785370 0.067525 0.8 0 0
0.511680 0.047375 0.184724 0.8 0 0
0.119518 0.780485 0.071648 0.8 0 0
0.430280 0.674194 0.167135 0.8 0 0
0.443518 0.747485 0.031961 0.8 0 0
0.413456 0.152235 0.127569 0.8 0 0
0.277023 0.820723 0.085153 0.8 0 0
0.494521 0.894477 0.070587 0.8 0 0
0.523987 0.102718 0.075871 0.8 0 0
0.539810 0.071187 0.077444 0.8 0 0
0.391771 0.716727 0.133604 0.8 0 0
0.203482 0.805510 0.043976 0.8 0 0
0.606256 0.776528 0.109221 0.8 0 0
0.526895 0.594421 0.157248 0.8 0 0
0.513173 0.041788 0.106483 0.8 0 0
0.463422 0.364166 0.089101 0.8 0 0
0.445967 0.230530 0.105285 0.8 0 0
0.751103 0.813442 0.097350 0.8 0 0
0.510264 0.152272 0.105849 0.8 0 0
0.487138 0.875044 0.137558 0.8 0 0
0.429820 0.608164 0.057552 0.8 0 0
0.597373 0.809917 0.047198 0.8 0 0
0.431027 0.796711 0.030753 0.8 0 0
0.462652 0.436160 0.129447 0.8 0 0
0.418038 0.837635 0.085338 0.8 0 0
0.551753 0.638179 0.094589 0.8 0 0
0.445439 0.895272 0.080925 0.8 0 0
0.060315 0.801858 0.089562 0.8 0 0
0.389429 0.781603 0.039559 0.8 0 0
0.486708 0.535317 0.158808 0.8 0 0
0.399552 0.027869 0.186009 0.8 0 0
0.553652 0.716749 0.144828 0.8 0 0
0.561679 0.698067 0.121268 0.8 0 0
0.412296 0.056372 0.177777 0.8 0 0
0.452075 0.659502 0.045469 0.8 0 0
0.522889 0.633441 0.059180 0.8 0 0
0.431982 0.165194 0.121462 0.8 0 0
0.552751 0.125436 0.091551 0.8 0 0
0.554261 0.653395 0.093839 0.8 0 0
0.429531 0.782142 0.150900 0.8 0 0
0.399452 0.313357 0.124441 0.8 0 0
0.715013 0.823290 0.073115 0.8 0 0
0.460583 0.409148 0.068801 0.8 0 0
0.409362 0.515762 0.143282 0.8 0 0
0.462493 0.379495 0.113996 0.8 0 0
0.546550 0.252767 0.125003 0.8 0 0
0.420038 0.353014 0.061427 0.8 0 0
0.498283 0.483476 0.044064 0.8 0 0
0.535909 0.099084 0.076074 0.8 0 0
0.410307 0.058674 0.075493 0.8 0 0
0.563873 0.245116 0.090288 0.8 0 0
0.434078 0.641172 0.162340 0.8 0 0
0.735129 0.770986 0.059481 0.8 0 0
0.461926 0.854346 0.063364 0.8 0 0
0.558341 0.583722 0.114496 0.8 0 0
0.432407 0.391380 0.052703 0.8 0 0
0.453767 0.629852 0.167139 0.8 0 0
0.414532 0.647240 0.066682 0.8 0 0
0.563421 0.347527 0.115469 0.8 0 0
0.400558 0.593496 0.076037 0.8 0 0
0.471679 0.704526 0.177197 0.8 0 0
0.428864 0.817599 0.041459 0.8 0 0
0.561048 0.527932 0.076460 0.8 0 0
0.508932 0.182833 0.109399 0.8 0 0
0.455853 0.670978 0.043429 0.8 0 0
0.422612 0.582157 0.154997 0.8 0 0
0.415358 0.047757 0.205473 0.8 0 0
0.469991 0.464959 0.085339 0.8 0 0
0.518577 0.325206 0.137974 0.8 0 0
0.390852 0.412885 0.129646 0.8 0 0
0.442750 0.047728 0.168312 0.8 0 0
0.540696 0.062926 0.156343 0.8 0 0
0.476659 0.738455 0.175360 0.8 0 0
0.424865 0.402261 0.147331 0.8 0 0
0.511137 0.700082 0.172363 0.8 0 0
0.556583 0.604954 0.103104 0.8 0 0
0.558183 0.241941 0.112368 0.8 0 0
0.354015 0.779209 0.113397 0.8 0 0
0.402833 0.633284 0.085866 0.8 0 0
0.568137 0.525754 0.101855 0.8 0 0
0.418298 0.440892 0.148667 0.8 0 0
0.532843 0.673165 0.160851 0.8 0 0
0.319079 0.762200 0.078028 0.8 0 0
0.396782 0.719758 0.049351 0.8 0 0
0.426226 0.738113 0.171545 0.8 0 0
0.554560 0.124012 0.098164 0.8 0 0
0.803002 0.808598 0.054390 0.8 0 0
0.595873 0.768805 0.104157 0.8 0 0
0.446979 0.897319 0.078064 0.8 0 0
0.542780 0.669029 0.149789 0.8 0 0
0.523714 0.367309 0.142825 0.8 0 0
0.579172 0.764923 0.117503 0.8 0 0
0.503411 0.848153 0.062683 0.8 0 0
0.481002 0.760937 0.032404 0.8 0 0
0.554735 0.404641 0.138919 0.8 0 0
0.530448 0.508804 0.148039 0.8 0 0
0.511523 0.144321 0.084697 0.8 0 0
0.508341 0.356472 0.135927 0.8 0 0
0.561619 0.249615 0.099378 0.8 0 0
0.456945 0.919869 0.155841 0.8 0 0
0.560470 0.687640 0.068811 0.8 0 0
0.532122 0.559364 0.041408 0.8 0 0
0.408610 0.067636 0.146220 0.8 0 0
0.560383 0.328946 0.110949 0.8 0 0
0.382236 0.480907 0.115280 0.8 0 0
0.497478 0.663430 0.173083 0.8 0 0
0.420708 0.501834 0.032587 0.8 0 0
0.537741 0.137906 0.073952 0.8 0 0
0.210608 0.791794 0.101601 0.8 0 0
0.529846 0.203874 0.057946 0.8 0 0
0.549221 0.100039 0.119205 0.8 0 0
0.445112 0.809522 0.134784 0.8 0 0
0.401369 0.277235 0.120164 0.8 0 0
0.463212 0.506319 0.150574 0.8 0 0
0.542742 0.535708 0.047063 0.8 0 0
0.303381 0.784451 0.047261 0.8 0 0
0.500900 0.399381 0.060304 0.8 0 0
0.439003 0.524884 0.150190 0.8 0 0
0.557864 0.584610 0.082656 0.8 0 0
0.538922 0.231427 0.129629 0.8 0 0
0.489629 0.875932 0.143932 0.8 0 0
0.397202 0.817235 0.049163 0.8 0 0
0.452922 0.289545 0.101038 0.8 0 0
0.738475 0.826051 0.075064 0.8 0 0
0.266821 0.812116 0.054252 0.8 0 0
0.689689 0.777918 0.053347 0.8 0 0
0.322126 0.812445 0.052582 0.8 0 0
0.548222 0.137847 0.081665 0.8 0 0
0.234393 0.802976 0.045517 0.8 0 0
0.551787 0.542989 0.137117 0.8 0 0
0.747598 0.779194 0.097052 0.8 0 0
0.384253 0.513268 0.085587 0.8 0 0
0.788556 0.820932 0.069871 0.8 0 0
0.340987 0.828305 0.090840 0.8 0 0
0.360174 0.819101 0.108512 0.8 0 0
0.447508 0.188679 0.098753 0.8 0 0
0.337380 0.797532 0.111907 0.8 0 0
0.529382 0.138513 0.071993 0.8 0 0
0.413489 0.834639 0.088704 0.8 0 0
0.521397 0.533589 0.149995 0.8 0 0
0.398923 0.653229 0.117855 0.8 0 0
0.552342 0.637350 0.108723 0.8 0 0
0.506150 0.877913 0.094339 0.8 0 0
0.798066 0.778422 0.086188 0.8 0 0
0.302046 0.814535 0.052619 0.8 0 0
0.091418 0.805794 0.092568 0.8 0 0
0.560985 0.573489 0.103616 0.8 0 0
0.400805 0.026707 0.137720 0.8 0 0
0.426647 0.723309 0.039443 0.8 0 0
0.525548 0.203216 0.125617 0.8 0 0
0.151901 0.806234 0.052403 0.8 0 0
0.441143 0.098654 0.108265 0.8 0 0
0.401703 0.082771 0.121308 0.8 0 0
0.697860 0.793809 0.047335 0.8 0 0
0.558836 0.830472 0.082524 0.8 0 0
0.511821 0.210957 0.114761 0.8 0 0
0.375672 0.828729 0.065615 0.8 0 0
0.745795 0.795381 0.043582 0.8 0 0
0.565640 0.227206 0.076028 0.8 0 0
0.559788 0.506092 0.128493 0.8 0 0
0.518611 0.055566 0.075115 0.8 0 0
0.436890 0.850012 0.075072 0.8 0 0
0.401339 0.030072 0.108379 0.8 0 0
0.508066 0.944618 0.079624 0.8 0 0
0.507583 0.937801 0.077077 0.8 0 0
0.451831 0.869154 0.121723 0.8 0 0
0.523597 0.370333 0.143280 0.8 0 0
0.330076 0.774453 0.105942 0.8 0 0
0.345672 0.772864 0.050033 0.8 0 0
0.114737 0.813242 0.085787 0.8 0 0
0.459057 0.679686 0.175327 0.8 0 0
0.460946 0.943051 0.155887 0.8 0 0
0.846088 0.805808 0.066877 0.8 0 0
0.430093 0.034930 0.208908 0.8 0 0
0.440724 0.137629 0.089017 0.8 0 0
0.453719 0.704534 0.039462 0.8 0 0
0.497970 0.296506 0.086127 0.8 0 0
0.524964 0.456594 0.147814 0.8 0 0
0.333928 0.815962 0.054310 0.8 0 0
0.623918 0.804779 0.108874 0.8 0 0
0.489010 0.478390 0.058451 0.8 0 0
0.387614 0.540136 0.090760 0.8 0 0
0.567163 0.486653 0.081389 0.8 0 0
0.518893 0.070058 0.147045 0.8 0 0
0.562096 0.351554 0.091164 0.8 0 0
0.566731 0.438923 0.121442 0.8 0 0
0.645842 0.768068 0.055428 0.8 0 0
0.511875 0.419722 0.049810 0.8 0 0
0.537025 0.025504 0.091449 0.8 0 0
0.503095 0.256449 0.093300 0.8 0 0
0.397594 0.596426 0.131705 0.8 0 0
0.470405 0.422635 0.111860 0.8 0 0
0.482937 0.937030 0.159895 0.8 0 0
0.554695 0.051538 0.105608 0.8 0 0
0.403365 0.648523 0.078192 0.8 0 0
0.458981 0.315818 0.095371 0.8 0 0
0.506492 0.408216 0.137476 0.8 0 0
0.476585 0.480440 0.113277 0.8 0 0
0.440824 0.857335 0.078609 0.8 0 0
0.566498 0.818922 0.052718 0.8 0 0
0.537478 0.523484 0.146231 0.8 0 0
0.579337 0.819440 0.052605 0.8 0 0
0.535314 0.618652 0.068562 0.8 0 0
0.402113 0.283622 0.121251 0.8 0 0
0.887086 0.802467 0.102513 0.8 0 0
0.403800 0.151324 0.124625 0.8 0 0
0.484349 0.853811 0.152561 0.8 0 0
0.451649 0.201504 0.082631 0.8 0 0
0.558465 0.317433 0.093149 0.8 0 0
0.404798 0.216552 0.127032 0.8 0 0
0.542374 0.076923 0.138018 0.8 0 0
0.472456 0.745145 0.033438 0.8 0 0
0.520268 0.430866 0.047733 0.8 0 0
0.407076 0.664016 0.146003 0.8 0 0
0.529494 0.498611 0.147948 0.8 0 0
0.389520 0.826918 0.061654 0.8 0 0
0.515532 0.922886 0.101770 0.8 0 0
0.517264 0.059657 0.078267 0.8 0 0
0.561268 0.682727 0.092174 0.8 0 0
0.754165 0.825806 0.074817 0.8 0 0
0.534745 0.034901 0.069298 0.8 0 0
0.506409 0.864222 0.090530 0.8 0 0
0.548299 0.281452 0.124229 0.8 0 0
0.507104 0.805197 0.033758 0.8 0 0
0.497438 0.679890 0.042768 0.8 0 0
0.412202 0.613628 0.070388 0.8 0 0
0.438147 0.257238 0.064967 0.8 0 0
0.330099 0.828670 0.074302 0.8 0 0
0.278338 0.777388 0.104397 0.8 0 0
0.590596 0.831002 0.089022 0.8 0 0
0.541946 0.365616 0.142501 0.8 0 0
0.417003 0.371252 0.144774 0.8 0 0
0.584869 0.755570 0.081848 0.8 0 0
0.363263 0.831575 0.085381 0.8 0 0
0.568873 0.455809 0.117871 0.8 0 0
0.320448 0.805585 0.109647 0.8 0 0
0.490526 0.880451 0.139850 0.8 0 0
0.395591 0.304433 0.087101 0.8 0 0
0.404790 0.405248 0.059217 0.8 0 0
0.740999 0.779365 0.049739 0.8 0 0
0.489108 0.960014 0.074029 0.8 0 0
0.736023 0.802021 0.043541 0.8 0 0
0.186760 0.775584 0.091719 0.8 0 0
0.396528 0.335063 0.083822 0.8 0 0
0.420045 0.145073 0.127544 0.8 0 0
0.401562 0.227519 0.123573 0.8 0 0
0.557025 0.668683 0.109010 0.8 0 0
0.526355 0.514690 0.029109 0.8 0 0
0.406345 0.800094 0.038325 0.8 0 0
0.548823 0.163120 0.124652 0.8 0 0
0.460036 0.672656 0.175216 0.8 0 0
0.567631 0.450985 0.120531 0.8 0 0
0.554926 0.520269 0.133665 0.8 0 0
0.533983 0.157837 0.070238 0.8 0 0
0.496830 0.693639 0.040781 0.8 0 0
0.448733 0.806546 0.033900 0.8 0 0
0.342944 0.824356 0.059505 0.8 0 0
0.815595 0.782957 0.061032 0.8 0 0
0.397242 0.421149 0.063337 0.8 0 0
0.442976 0.152195 0.100398 0.8 0 0
0.388907 0.508443 0.075845 0.8 0 0
0.553820 0.233551 0.120562 0.8 0 0
0.440502 0.573906 0.039615 0.8 0 0
0.476328 0.650012 0.171424 0.8 0 0
0.513360 0.674331 0.170582 0.8 0 0
0.556405 0.026211 0.150944 0.8 0 0
0.436700 0.507298 0.026460 0.8 0 0
0.143693 0.807280 0.094238 0.8 0 0
0.530185 0.112544 0.129657 0.8 0 0
0.449588 0.730775 0.175814 0.8 0 0
