0.289539 0.357132 0.106669 0.8 0 0
0.333235 0.932217 0.068834 0.8 0 0
0.227668 0.648498 0.119693 0.8 0 0
0.350874 0.606512 0.138218 0.8 0 0
0.321623 0.634255 0.111132 0.8 0 0
0.479615 0.027928 0.151201 0.8 0 0
0.278916 0.214528 0.092387 0.8 0 0
0.415305 0.824219 0.159991 0.8 0 0
0.448937 0.487707 0.120366 0.8 0 0
0.444886 0.912165 0.086088 0.8 0 0
0.386849 0.799964 0.171542 0.8 0 0
0.305872 0.662649 0.093465 0.8 0 0
0.481003 0.210236 0.099348 0.8 0 0
0.405620 0.923793 0.182217 0.8 0 0
0.308319 0.314398 0.127095 0.8 0 0
0.411703 0.526631 0.058890 0.8 0 0
0.457761 0.319621 0.069749 0.8 0 0
0.318890 0.197372 0.079616 0.8 0 0
0.379491 0.433260 0.131377 0.8 0 0
0.322596 0.519215 0.103629 0.8 0 0
0.666693 0.554825 0.098835 0.8 0 0
0.399934 0.581283 0.143988 0.8 0 0
0.339364 0.919417 0.049349 0.8 0 0
0.171017 0.623595 0.107711 0.8 0 0
0.299661 0.170590 0.096232 0.8 0 0
0.444229 0.460134 0.135395 0.8 0 0
0.412836 0.922831 0.037846 0.8 0 0
0.473503 0.168734 0.052268 0.8 0 0
0.627066 0.562758 0.115956 0.8 0 0
0.346653 0.539016 0.130637 0.8 0 0
0.389808 0.962106 0.148949 0.8 0 0
0.468354 0.378567 0.087718 0.8 0 0
0.507936 0.033456 0.153142 0.8 0 0
0.473594 0.726474 0.088300 0.8 0 0
0.348075 0.445592 0.048438 0.8 0 0
0.187783 0.585191 0.100771 0.8 0 0
0.419318 0.959328 0.138098 0.8 0 0
0.364804 0.757401 0.119510 0.8 0 0
0.283599 0.243388 0.097294 0.8 0 0
0.500152 0.026718 0.089605 0.8 0 0
0.467184 0.231331 0.107774 0.8 0 0
0.426791 0.589616 0.126829 0.8 0 0
0.422702 0.833112 0.157581 0.8 0 0
0.105683 0.560265 0.102669 0.8 0 0
0.314008 0.214587 0.068583 0.8 0 0
0.347153 0.444899 0.048507 0.8 0 0
0.305183 0.345417 0.074105 0.8 0 0
0.442035 0.622793 0.088073 0.8 0 0
0.275905 0.214130 0.079306 0.8 0 0
0.480789 0.086678 0.087596 0.8 0 0
0.421431 0.327717 0.100689 0.8 0 0
0.400175 0.626963 0.056909 0.8 0 0
0.335988 0.947087 0.078743 0.8 0 0
0.360513 0.710366 0.059426 0.8 0 0
0.377228 0.499352 0.055995 0.8 0 0
0.288215 0.315665 0.096101 0.8 0 0
0.462894 0.438116 0.109525 0.8 0 0
0.279076 0.047938 0.122122 0.8 0 0
0.328499 0.697639 0.134245 0.8 0 0
0.557801 0.606024 0.097154 0.8 0 0
0.463159 0.670550 0.121412 0.8 0 0
0.408115 0.884073 0.186017 0.8 0 0
0.279075 0.206935 0.092294 0.8 0 0
0.623402 0.561452 0.109541 0.8 0 0
0.622171 0.598023 0.107910 0.8 0 0
0.242032 0.628876 0.100654 0.8 0 0
0.321289 0.492718 0.122845 0.8 0 0
0.463491 0.227870 0.106161 0.8 0 0
0.323689 0.876987 0.068335 0.8 0 0
0.691473 0.518136 0.104018 0.8 0 0
0.397915 0.688995 0.055243 0.8 0 0
0.469150 0.377849 0.116614 0.8 0 0
0.457929 0.416822 0.127424 0.8 0 0
0.437992 0.298983 0.081661 0.8 0 0
0.313817 0.736663 0.097350 0.8 0 0
0.364965 0.612759 0.145149 0.8 0 0
0.369689 0.606899 0.058545 0.8 0 0
0.356505 0.501327 0.055470 0.8 0 0
0.312194 0.196896 0.064798 0.8 0 0
0.341029 0.835859 0.076547 0.8 0 0
0.167226 0.620120 0.103847 0.8 0 0
0.445598 0.923613 0.149375 0.8 0 0
0.392972 0.807465 0.069223 0.8 0 0
0.430974 0.387780 0.064092 0.8 0 0
0.338236 0.830326 0.148095 0.8 0 0
0.351932 0.808709 0.102121 0.8 0 0
0.477499 0.143803 0.094171 0.8 0 0
0.324493 0.506596 0.121406 0.8 0 0
0.420092 0.511930 0.059568 0.8 0 0
0.364382 0.637503 0.147359 0.8 0 0
0.615710 0.564809 0.104637 0.8 0 0
0.476845 0.677929 0.075449 0.8 0 0
0.244434 0.675072 0.113603 0.8 0 0
0.399514 0.863708 0.181735 0.8 0 0
0.201967 0.605179 0.088940 0.8 0 0
0.486543 0.710359 0.083223 0.8 0 0
0.458431 0.301673 0.069733 0.8 0 0
0.383558 0.709086 0.062365 0.8 0 0
0.427665 0.555601 0.123221 0.8 0 0
0.424529 0.917276 0.044766 0.8 0 0
0.493944 0.122336 0.074093 0.8 0 0
0.301556 0.709657 0.067040 0.8 0 0
0.434747 0.643605 0.064762 0.8 0 0
0.450799 0.219549 0.075276 0.8 0 0
0.357914 0.453865 0.137562 0.8 0 0
0.320034 0.914351 0.101113 0.8 0 0
0.282273 0.085859 0.087196 0.8 0 0
0.489871 0.660154 0.085689 0.8 0 0
0.395249 0.479296 0.050938 0.8 0 0
0.349312 0.869301 0.176496 0.8 0 0
0.406481 0.728867 0.125446 0.8 0 0
0.310330 0.190253 0.062365 0.8 0 0
0.438158 0.850858 0.120637 0.8 0 0
0.300904 0.167371 0.095281 0.8 0 0
0.400059 0.824577 0.174122 0.8 0 0
0.541291 0.657350 0.110571 0.8 0 0
0.405963 0.617044 0.144228 0.8 0 0
0.440609 0.597987 0.106917 0.8 0 0
0.433968 0.941038 0.078422 0.8 0 0
0.361837 0.763850 0.095664 0.8 0 0
0.415205 0.862650 0.037644 0.8 0 0
0.485566 0.026945 0.058457 0.8 0 0
0.440213 0.872524 0.060970 0.8 0 0
0.493834 0.710549 0.109013 0.8 0 0
0.471374 0.709977 0.126882 0.8 0 0
0.348709 0.809064 0.127121 0.8 0 0
0.324982 0.652338 0.130941 0.8 0 0
0.139898 0.591903 0.109112 0.8 0 0
0.524353 0.672549 0.094584 0.8 0 0
0.480178 0.223973 0.065536 0.8 0 0
0.306823 0.208754 0.062534 0.8 0 0
0.539044 0.629572 0.116778 0.8 0 0
0.473494 0.344826 0.088158 0.8 0 0
0.690989 0.533263 0.117968 0.8 0 0
0.392499 0.657781 0.149190 0.8 0 0
0.368737 0.867090 0.029323 0.8 0 0
0.326130 0.636604 0.125247 0.8 0 0
0.302988 0.436201 0.096563 0.8 0 0
0.395568 0.503125 0.144923 0.8 0 0
0.333555 0.892054 0.048734 0.8 0 0
0.372538 0.932998 0.178122 0.8 0 0
0.447870 0.296974 0.121468 0.8 0 0
0.267836 0.027048 0.142754 0.8 0 0
0.302460 0.035501 0.129364 0.8 0 0
0.349530 0.557027 0.132448 0.8 0 0
0.365307 0.614796 0.057817 0.8 0 0
0.282907 0.219816 0.099068 0.8 0 0
0.376977 0.411222 0.091713 0.8 0 0
0.471195 0.131937 0.090895 0.8 0 0
0.732556 0.491182 0.100821 0.8 0 0
0.321032 0.869523 0.105792 0.8 0 0
0.480734 0.111134 0.057391 0.8 0 0
0.404930 0.966849 0.079009 0.8 0 0
0.458286 0.328949 0.070844 0.8 0 0
0.418736 0.486467 0.053344 0.8 0 0
0.454124 0.869405 0.139031 0.8 0 0
0.381821 0.438726 0.135615 0.8 0 0
0.414579 0.865798 0.178760 0.8 0 0
0.365481 0.448354 0.137150 0.8 0 0
0.069947 0.512121 0.094110 0.8 0 0
0.312290 0.734835 0.107773 0.8 0 0
0.358745 0.940880 0.044264 0.8 0 0
0.448112 0.652965 0.124524 0.8 0 0
0.476563 0.216252 0.061524 0.8 0 0
0.142234 0.565741 0.094550 0.8 0 0
0.422983 0.475653 0.142950 0.8 0 0
0.446716 0.415638 0.062349 0.8 0 0
0.148442 0.564658 0.098910 0.8 0 0
0.128384 0.580352 0.102475 0.8 0 0
0.341544 0.475582 0.142009 0.8 0 0
0.424629 0.550693 0.069323 0.8 0 0
0.381392 0.902928 0.187484 0.8 0 0
0.070465 0.517436 0.086921 0.8 0 0
0.379453 0.412081 0.095929 0.8 0 0
0.158325 0.568806 0.102433 0.8 0 0
0.474402 0.125571 0.056576 0.8 0 0
0.425826 0.910049 0.179410 0.8 0 0
0.620139 0.587236 0.120100 0.8 0 0
0.147691 0.598566 0.112003 0.8 0 0
0.376141 0.707726 0.060695 0.8 0 0
0.256179 0.662875 0.080182 0.8 0 0
0.327121 0.700982 0.132991 0.8 0 0
0.492651 0.026201 0.087618 0.8 0 0
0.360925 0.825951 0.169725 0.8 0 0
0.268344 0.026739 0.158251 0.8 0 0
0.323725 0.419159 0.060039 0.8 0 0
0.473025 0.130363 0.056628 0.8 0 0
0.342432 0.868399 0.041989 0.8 0 0
0.487790 0.697537 0.077691 0.8 0 0
0.694922 0.514659 0.115075 0.8 0 0
0.326787 0.447683 0.055082 0.8 0 0
0.081956 0.539798 0.104321 0.8 0 0
0.390147 0.863509 0.029190 0.8 0 0
0.217348 0.614717 0.092171 0.8 0 0
0.460997 0.441100 0.083273 0.8 0 0
0.411541 0.390577 0.128383 0.8 0 0
0.318624 0.225127 0.081538 0.8 0 0
0.412598 0.962631 0.076257 0.8 0 0
0.130584 0.582849 0.103538 0.8 0 0
0.173750 0.614966 0.120620 0.8 0 0
0.141964 0.560379 0.109502 0.8 0 0
0.707349 0.514327 0.124296 0.8 0 0
0.333847 0.341702 0.075459 0.8 0 0
0.624554 0.567030 0.093515 0.8 0 0
0.384444 0.567627 0.061636 0.8 0 0
0.485874 0.181590 0.094126 0.8 0 0
0.465828 0.421377 0.094642 0.8 0 0
0.621959 0.582364 0.090657 0.8 0 0
0.432301 0.427259 0.052973 0.8 0 0
0.470669 0.711580 0.070098 0.8 0 0
0.283338 0.141065 0.058149 0.8 0 0
0.529198 0.667538 0.116208 0.8 0 0
0.110501 0.551796 0.095167 0.8 0 0
0.314001 0.254339 0.074659 0.8 0 0
0.335708 0.926253 0.172388 0.8 0 0
0.060801 0.511155 0.125226 0.8 0 0
0.437409 0.939943 0.141433 0.8 0 0
0.409469 0.508723 0.056393 0.8 0 0
0.401682 0.461521 0.049285 0.8 0 0
0.291932 0.114250 0.057826 0.8 0 0
0.297901 0.077503 0.072472 0.8 0 0
0.312585 0.883392 0.139661 0.8 0 0
0.304788 0.734704 0.098191 0.8 0 0
0.054300 0.502010 0.123438 0.8 0 0
0.337163 0.326802 0.082623 0.8 0 0
0.515819 0.677746 0.089589 0.8 0 0
0.425011 0.474794 0.052568 0.8 0 0
0.469085 0.375917 0.088618 0.8 0 0
0.296875 0.294044 0.120835 0.8 0 0
0.485521 0.247586 0.093535 0.8 0 0
0.471025 0.025902 0.145122 0.8 0 0
0.335380 0.360127 0.071209 0.8 0 0
0.475330 0.047329 0.124445 0.8 0 0
0.117879 0.571733 0.109385 0.8 0 0
0.062147 0.518159 0.116831 0.8 0 0
0.459569 0.252785 0.071402 0.8 0 0
0.414728 0.629509 0.058763 0.8 0 0
0.301678 0.389943 0.119680 0.8 0 0
0.315273 0.892306 0.102377 0.8 0 0
0.347994 0.467256 0.050784 0.8 0 0
0.620405 0.586534 0.091650 0.8 0 0
0.380633 0.767218 0.075615 0.8 0 0
0.436771 0.886784 0.052865 0.8 0 0
0.278120 0.046834 0.125125 0.8 0 0
0.287915 0.026923 0.138997 0.8 0 0
0.374137 0.420371 0.113834 0.8 0 0
0.358696 0.691087 0.055749 0.8 0 0
0.448097 0.218814 0.081789 0.8 0 0
0.384158 0.788730 0.072515 0.8 0 0
0.319491 0.635902 0.105053 0.8 0 0
0.353832 0.803458 0.110215 0.8 0 0
0.172647 0.616212 0.091155 0.8 0 0
0.481574 0.245767 0.074998 0.8 0 0
0.506746 0.040202 0.123434 0.8 0 0
0.459034 0.315751 0.070204 0.8 0 0
0.330264 0.558852 0.108229 0.8 0 0
0.246509 0.671105 0.089107 0.8 0 0
0.301129 0.050326 0.071220 0.8 0 0
0.398289 0.678788 0.144243 0.8 0 0
0.313926 0.170799 0.073675 0.8 0 0
0.332717 0.949619 0.116550 0.8 0 0
0.484706 0.027000 0.137066 0.8 0 0
0.446726 0.897684 0.080877 0.8 0 0
0.475331 0.223426 0.063031 0.8 0 0
0.461130 0.147445 0.062166 0.8 0 0
0.512248 0.638529 0.094387 0.8 0 0
0.294400 0.071091 0.082531 0.8 0 0
0.325392 0.932820 0.135960 0.8 0 0
0.444216 0.625922 0.108666 0.8 0 0
0.357472 0.724247 0.064973 0.8 0 0
0.497075 0.651850 0.116583 0.8 0 0
0.261158 0.030234 0.093206 0.8 0 0
0.328712 0.575531 0.090082 0.8 0 0
0.430926 0.685892 0.055532 0.8 0 0
0.354283 0.471799 0.050220 0.8 0 0
0.326140 0.479531 0.133586 0.8 0 0
0.429942 0.346398 0.076123 0.8 0 0
0.267517 0.026243 0.130968 0.8 0 0
0.435318 0.944671 0.089264 0.8 0 0
0.354214 0.611504 0.140421 0.8 0 0
0.451611 0.673905 0.064121 0.8 0 0
0.414780 0.600823 0.061441 0.8 0 0
0.409446 0.513841 0.057141 0.8 0 0
0.501446 0.046018 0.103770 0.8 0 0
0.407231 0.906363 0.031220 0.8 0 0
0.429212 0.570754 0.123212 0.8 0 0
0.393976 0.524810 0.145168 0.8 0 0
0.300032 0.185556 0.098601 0.8 0 0
0.453281 0.171860 0.082748 0.8 0 0
0.502867 0.042950 0.098686 0.8 0 0
0.435307 0.658654 0.139223 0.8 0 0
0.430504 0.727332 0.068915 0.8 0 0
0.722246 0.489592 0.088972 0.8 0 0
0.390190 0.793872 0.162102 0.8 0 0
0.486894 0.189775 0.093335 0.8 0 0
0.380855 0.574774 0.061535 0.8 0 0
0.412313 0.658318 0.054975 0.8 0 0
0.277622 0.680776 0.127878 0.8 0 0
0.272029 0.680779 0.126817 0.8 0 0
0.300783 0.722252 0.121222 0.8 0 0
0.340116 0.370365 0.070555 0.8 0 0
0.504974 0.653288 0.121882 0.8 0 0
0.351037 0.958230 0.143524 0.8 0 0
0.443090 0.879786 0.066081 0.8 0 0
0.308987 0.458791 0.115557 0.8 0 0
0.481941 0.303443 0.107113 0.8 0 0
0.262907 0.033124 0.082841 0.8 0 0
0.130611 0.558877 0.118018 0.8 0 0
0.342364 0.846025 0.164665 0.8 0 0
0.088994 0.547351 0.107968 0.8 0 0
0.327240 0.345767 0.132491 0.8 0 0
0.404954 0.841684 0.046361 0.8 0 0
0.503729 0.647922 0.088883 0.8 0 0
0.307758 0.201783 0.062077 0.8 0 0
0.446841 0.242104 0.095715 0.8 0 0
0.523332 0.632504 0.113663 0.8 0 0
0.360483 0.797866 0.091975 0.8 0 0
0.486470 0.120061 0.088237 0.8 0 0
0.425116 0.859966 0.045960 0.8 0 0
0.290299 0.281844 0.113463 0.8 0 0
0.290761 0.156249 0.095606 0.8 0 0
0.401361 0.823042 0.060488 0.8 0 0
0.578482 0.620949 0.118450 0.8 0 0
0.258036 0.027484 0.139779 0.8 0 0
0.187590 0.584517 0.103430 0.8 0 0
0.698156 0.517300 0.095167 0.8 0 0
0.433527 0.363971 0.069180 0.8 0 0
0.536078 0.624720 0.112456 0.8 0 0
0.429631 0.516381 0.066532 0.8 0 0
0.173923 0.578165 0.110350 0.8 0 0
0.352057 0.369974 0.081378 0.8 0 0
0.440024 0.707144 0.061516 0.8 0 0
0.340734 0.558803 0.071088 0.8 0 0
0.385181 0.968726 0.137051 0.8 0 0
0.329543 0.276035 0.103881 0.8 0 0
0.291550 0.208101 0.101318 0.8 0 0
0.327011 0.411894 0.141233 0.8 0 0
0.438084 0.941993 0.099783 0.8 0 0
0.289394 0.036925 0.053971 0.8 0 0
0.322617 0.879471 0.071701 0.8 0 0
0.437514 0.300018 0.082166 0.8 0 0
0.451047 0.898473 0.099934 0.8 0 0
0.305173 0.407187 0.078879 0.8 0 0
0.380839 0.758191 0.075462 0.8 0 0
0.489102 0.193416 0.067232 0.8 0 0
0.411875 0.484212 0.143606 0.8 0 0
0.400442 0.804497 0.076357 0.8 0 0
0.309573 0.436367 0.075783 0.8 0 0
0.321633 0.276829 0.078455 0.8 0 0
0.332315 0.566994 0.114632 0.8 0 0
0.443823 0.299984 0.078022 0.8 0 0
0.543124 0.624521 0.114909 0.8 0 0
0.371283 0.409160 0.108221 0.8 0 0
0.482726 0.156098 0.057312 0.8 0 0
0.488154 0.100211 0.086191 0.8 0 0
0.360900 0.539633 0.059668 0.8 0 0
0.662634 0.556597 0.117919 0.8 0 0
0.412416 0.376128 0.120049 0.8 0 0
0.081229 0.521980 0.131446 0.8 0 0
0.093275 0.548196 0.097639 0.8 0 0
0.454108 0.895419 0.121878 0.8 0 0
0.493885 0.656336 0.087050 0.8 0 0
0.378915 0.942858 0.171999 0.8 0 0
0.278579 0.166483 0.088525 0.8 0 0
0.396343 0.804516 0.168188 0.8 0 0
0.238509 0.668209 0.094921 0.8 0 0
0.277412 0.177660 0.067582 0.8 0 0
0.426543 0.621536 0.134510 0.8 0 0
0.302876 0.271851 0.118560 0.8 0 0
0.505672 0.640171 0.106430 0.8 0 0
0.471807 0.345203 0.083400 0.8 0 0
0.368609 0.892894 0.187188 0.8 0 0
0.668156 0.531896 0.132074 0.8 0 0
0.461374 0.146047 0.087412 0.8 0 0
0.279499 0.673165 0.127965 0.8 0 0
0.462131 0.134216 0.066450 0.8 0 0
0.415952 0.924064 0.040218 0.8 0 0
0.393315 0.882257 0.188018 0.8 0 0
0.402887 0.592900 0.142824 0.8 0 0
0.446040 0.919806 0.105886 0.8 0 0
0.319982 0.511450 0.101466 0.8 0 0
0.181827 0.629076 0.101415 0.8 0 0
0.328274 0.568432 0.105434 0.8 0 0
0.264677 0.029156 0.080921 0.8 0 0
0.313444 0.451175 0.126242 0.8 0 0
0.294938 0.270538 0.114417 0.8 0 0
0.284522 0.259387 0.099004 0.8 0 0
0.490570 0.027291 0.060890 0.8 0 0
0.373411 0.410805 0.101928 0.8 0 0
0.402998 0.380381 0.096539 0.8 0 0
0.347550 0.959430 0.137092 0.8 0 0
0.470502 0.069779 0.077441 0.8 0 0
0.344281 0.850594 0.170973 0.8 0 0
0.442448 0.925395 0.091351 0.8 0 0
0.317596 0.912860 0.124769 0.8 0 0
0.402857 0.972269 0.103895 0.8 0 0
0.442507 0.266862 0.085441 0.8 0 0
0.335534 0.431387 0.052117 0.8 0 0
0.317207 0.489670 0.078788 0.8 0 0
0.558475 0.615345 0.084729 0.8 0 0
0.217409 0.628532 0.116867 0.8 0 0
0.329950 0.602780 0.081040 0.8 0 0
0.271322 0.025666 0.095007 0.8 0 0
0.397879 0.444912 0.052962 0.8 0 0
0.368415 0.834701 0.048104 0.8 0 0
0.373973 0.758656 0.125354 0.8 0 0
0.287589 0.266764 0.082366 0.8 0 0
0.655988 0.563878 0.100283 0.8 0 0
0.359093 0.389407 0.078994 0.8 0 0
0.470989 0.028353 0.154222 0.8 0 0
0.437455 0.287115 0.089210 0.8 0 0
0.438087 0.702864 0.059690 0.8 0 0
0.313595 0.210781 0.067163 0.8 0 0
0.699745 0.522443 0.089129 0.8 0 0
0.327496 0.854699 0.088171 0.8 0 0
0.417508 0.648078 0.144411 0.8 0 0
0.407895 0.755532 0.099559 0.8 0 0
0.494024 0.110523 0.077003 0.8 0 0
0.214488 0.616671 0.086908 0.8 0 0
0.454295 0.293787 0.072900 0.8 0 0
0.474101 0.361481 0.097465 0.8 0 0
0.441894 0.893850 0.168650 0.8 0 0
0.140882 0.588760 0.117442 0.8 0 0
0.378988 0.613665 0.058324 0.8 0 0
0.310187 0.702524 0.131369 0.8 0 0
0.416324 0.742179 0.095615 0.8 0 0
0.333805 0.645438 0.137428 0.8 0 0
0.350646 0.704191 0.057561 0.8 0 0
0.472307 0.046649 0.058555 0.8 0 0
0.288591 0.681316 0.072064 0.8 0 0
0.295595 0.041938 0.137315 0.8 0 0
0.479791 0.333046 0.107254 0.8 0 0
0.404029 0.848945 0.181426 0.8 0 0
0.405771 0.448817 0.050614 0.8 0 0
0.462632 0.281666 0.070783 0.8 0 0
0.314719 0.651289 0.090342 0.8 0 0
0.085129 0.515872 0.136560 0.8 0 0
0.351979 0.820547 0.077764 0.8 0 0
0.218276 0.624934 0.083591 0.8 0 0
0.403770 0.708766 0.134492 0.8 0 0
0.346444 0.922023 0.042846 0.8 0 0
0.709895 0.512312 0.089122 0.8 0 0
0.439048 0.379723 0.139694 0.8 0 0
0.470623 0.026589 0.160306 0.8 0 0
0.334740 0.335222 0.126002 0.8 0 0
0.548398 0.613215 0.098476 0.8 0 0
0.410712 0.368402 0.092926 0.8 0 0
0.369832 0.758097 0.078730 0.8 0 0
0.340822 0.305285 0.104493 0.8 0 0
0.268227 0.667455 0.075950 0.8 0 0
0.439435 0.543344 0.103794 0.8 0 0
0.146874 0.577023 0.120439 0.8 0 0
0.175020 0.600805 0.120533 0.8 0 0
0.367751 0.481604 0.051394 0.8 0 0
0.411390 0.452258 0.138801 0.8 0 0
0.416789 0.428144 0.052149 0.8 0 0
0.415391 0.964581 0.128164 0.8 0 0
0.583209 0.582158 0.104803 0.8 0 0
0.463773 0.209902 0.060673 0.8 0 0
0.410761 0.808946 0.157600 0.8 0 0
0.232775 0.656996 0.089108 0.8 0 0
0.453222 0.880430 0.119713 0.8 0 0
0.323354 0.692127 0.135283 0.8 0 0
0.331526 0.850913 0.157487 0.8 0 0
0.339740 0.642393 0.060171 0.8 0 0
0.482216 0.659947 0.108512 0.8 0 0
0.414806 0.964381 0.129560 0.8 0 0
0.407090 0.876577 0.030052 0.8 0 0
0.365717 0.814535 0.069427 0.8 0 0
0.410661 0.803950 0.096781 0.8 0 0
0.292422 0.276837 0.114189 0.8 0 0
0.336302 0.879717 0.045315 0.8 0 0
0.295391 0.371797 0.113387 0.8 0 0
0.440297 0.905930 0.066730 0.8 0 0
0.420586 0.567943 0.066551 0.8 0 0
0.329023 0.936099 0.086138 0.8 0 0
0.321956 0.662809 0.133707 0.8 0 0
0.321607 0.630124 0.099150 0.8 0 0
0.454500 0.180959 0.089095 0.8 0 0
0.463507 0.408061 0.083096 0.8 0 0
0.459922 0.724673 0.120315 0.8 0 0
0.346358 0.860249 0.042289 0.8 0 0
0.229976 0.634123 0.083233 0.8 0 0
0.259202 0.690730 0.107021 0.8 0 0
0.282000 0.172393 0.059775 0.8 0 0
0.430229 0.421846 0.053690 0.8 0 0
0.314638 0.408769 0.067747 0.8 0 0
0.470347 0.040126 0.058188 0.8 0 0
0.422995 0.554235 0.068390 0.8 0 0
0.299208 0.690138 0.068499 0.8 0 0
0.500818 0.040638 0.078343 0.8 0 0
0.363847 0.882094 0.028372 0.8 0 0
0.514059 0.641235 0.089057 0.8 0 0
0.274794 0.038442 0.148261 0.8 0 0
0.423483 0.614832 0.135500 0.8 0 0
0.696186 0.512380 0.118429 0.8 0 0
0.487030 0.222740 0.094267 0.8 0 0
0.324322 0.504647 0.122174 0.8 0 0
0.324613 0.306384 0.122135 0.8 0 0
0.419406 0.965420 0.109668 0.8 0 0
0.346545 0.696352 0.055665 0.8 0 0
0.482637 0.030329 0.144780 0.8 0 0
0.175602 0.613901 0.088624 0.8 0 0
0.461931 0.385201 0.075411 0.8 0 0
0.383761 0.418699 0.075917 0.8 0 0
0.407691 0.722795 0.128019 0.8 0 0
0.341007 0.318606 0.096725 0.8 0 0
0.375979 0.421699 0.068499 0.8 0 0
0.310237 0.304265 0.070219 0.8 0 0
0.076246 0.534057 0.104594 0.8 0 0
0.687308 0.525489 0.127809 0.8 0 0
0.439935 0.928642 0.084142 0.8 0 0
0.275632 0.201542 0.077151 0.8 0 0
0.358477 0.856399 0.181884 0.8 0 0
0.362565 0.792712 0.132040 0.8 0 0
0.321300 0.452864 0.135076 0.8 0 0
0.355901 0.730558 0.123303 0.8 0 0
0.300773 0.108434 0.079908 0.8 0 0
0.315115 0.456239 0.068680 0.8 0 0
0.280145 0.153881 0.060230 0.8 0 0
0.407321 0.411471 0.062373 0.8 0 0
0.103049 0.539275 0.098799 0.8 0 0
0.395647 0.853352 0.034475 0.8 0 0
0.440598 0.881619 0.167765 0.8 0 0
0.457370 0.187722 0.095906 0.8 0 0
0.346489 0.938163 0.051592 0.8 0 0
0.477337 0.359629 0.106550 0.8 0 0
0.394225 0.848185 0.185883 0.8 0 0
0.446231 0.447179 0.135666 0.8 0 0
0.448453 0.660974 0.068470 0.8 0 0
0.191436 0.614254 0.117834 0.8 0 0
0.427371 0.696330 0.056409 0.8 0 0
0.330018 0.848778 0.089000 0.8 0 0
0.401397 0.773484 0.083372 0.8 0 0
0.338262 0.631392 0.063218 0.8 0 0
0.316318 0.340046 0.132237 0.8 0 0
0.336105 0.599489 0.124830 0.8 0 0
0.438960 0.685392 0.056738 0.8 0 0
0.376998 0.726688 0.130860 0.8 0 0
0.630690 0.557736 0.101533 0.8 0 0
0.523626 0.669868 0.090197 0.8 0 0
0.344464 0.928791 0.175555 0.8 0 0
0.300618 0.040744 0.113921 0.8 0 0
0.388743 0.851094 0.187979 0.8 0 0
0.305665 0.728161 0.116398 0.8 0 0
0.463758 0.241649 0.067910 0.8 0 0
0.354678 0.681337 0.054331 0.8 0 0
0.543920 0.618393 0.109997 0.8 0 0
0.437924 0.643809 0.131837 0.8 0 0
0.479524 0.191940 0.058128 0.8 0 0
0.413545 0.458808 0.049291 0.8 0 0
0.313078 0.486969 0.106241 0.8 0 0
0.503682 0.026825 0.103365 0.8 0 0
0.476627 0.294979 0.081028 0.8 0 0
0.503997 0.691546 0.090797 0.8 0 0
0.302488 0.343024 0.128075 0.8 0 0
0.411774 0.435469 0.051275 0.8 0 0
0.598646 0.577802 0.114239 0.8 0 0
0.354719 0.355044 0.106585 0.8 0 0
0.449581 0.865517 0.127120 0.8 0 0
0.453716 0.691480 0.061117 0.8 0 0
0.461841 0.408465 0.121602 0.8 0 0
0.436581 0.438745 0.053718 0.8 0 0
0.344185 0.901413 0.179787 0.8 0 0
0.401630 0.550717 0.142697 0.8 0 0
0.432848 0.908330 0.175189 0.8 0 0
0.389490 0.757212 0.075746 0.8 0 0
0.296090 0.028337 0.165543 0.8 0 0
0.325602 0.344593 0.132808 0.8 0 0
0.275630 0.077250 0.063556 0.8 0 0
0.470272 0.703304 0.067831 0.8 0 0
0.185104 0.625376 0.117328 0.8 0 0
0.367253 0.399723 0.078740 0.8 0 0
0.126310 0.552415 0.113084 0.8 0 0
0.310123 0.406415 0.131069 0.8 0 0
0.334016 0.907108 0.052490 0.8 0 0
0.441574 0.551220 0.095052 0.8 0 0
0.323213 0.283280 0.117038 0.8 0 0
0.353905 0.473923 0.050453 0.8 0 0
0.490343 0.107464 0.063158 0.8 0 0
0.401410 0.480307 0.051307 0.8 0 0
0.328817 0.528037 0.110255 0.8 0 0
0.210833 0.606525 0.097834 0.8 0 0
0.397947 0.472132 0.049861 0.8 0 0
0.396854 0.904495 0.186963 0.8 0 0
0.359723 0.786567 0.109665 0.8 0 0
0.363081 0.482256 0.143815 0.8 0 0
0.486747 0.663915 0.083103 0.8 0 0
0.268711 0.038249 0.136675 0.8 0 0
0.470728 0.047428 0.103517 0.8 0 0
0.319789 0.450088 0.062209 0.8 0 0
0.497792 0.705546 0.104904 0.8 0 0
0.364404 0.777382 0.086581 0.8 0 0
0.330875 0.846070 0.122892 0.8 0 0
0.388872 0.488513 0.144831 0.8 0 0
0.329589 0.574572 0.109701 0.8 0 0
0.465688 0.038455 0.127118 0.8 0 0
0.480339 0.661625 0.093599 0.8 0 0
0.488581 0.670216 0.076187 0.8 0 0
0.495850 0.700941 0.087190 0.8 0 0
0.406671 0.850250 0.040466 0.8 0 0
0.335303 0.934097 0.165588 0.8 0 0
0.088533 0.546739 0.105645 0.8 0 0
0.464561 0.375637 0.126181 0.8 0 0
0.378325 0.827924 0.053302 0.8 0 0
0.248876 0.644407 0.084083 0.8 0 0
0.405924 0.426039 0.130181 0.8 0 0
0.373925 0.793830 0.149148 0.8 0 0
0.273964 0.191948 0.080610 0.8 0 0
0.366804 0.616646 0.057710 0.8 0 0
0.493070 0.164298 0.079617 0.8 0 0
0.327346 0.848717 0.139869 0.8 0 0
0.164421 0.617521 0.103591 0.8 0 0
0.469763 0.682267 0.073274 0.8 0 0
0.311466 0.398711 0.133110 0.8 0 0
0.328253 0.689114 0.057036 0.8 0 0
0.399772 0.553119 0.059755 0.8 0 0
0.376705 0.809053 0.174054 0.8 0 0
0.449185 0.228332 0.080446 0.8 0 0
0.324148 0.854077 0.148021 0.8 0 0
0.481855 0.157719 0.056725 0.8 0 0
0.396263 0.409362 0.075244 0.8 0 0
0.441434 0.620731 0.087805 0.8 0 0
0.430181 0.873431 0.172914 0.8 0 0
0.577751 0.618987 0.118489 0.8 0 0
0.471618 0.348023 0.084146 0.8 0 0
0.443508 0.889561 0.166536 0.8 0 0
0.486720 0.247708 0.091528 0.8 0 0
0.420793 0.389216 0.133096 0.8 0 0
0.319832 0.216294 0.083078 0.8 0 0
0.432902 0.951518 0.097251 0.8 0 0
0.476735 0.142534 0.094388 0.8 0 0
0.310882 0.176430 0.090923 0.8 0 0
0.429826 0.947644 0.075845 0.8 0 0
0.199915 0.604356 0.088634 0.8 0 0
0.318965 0.471811 0.066361 0.8 0 0
0.437043 0.885221 0.053158 0.8 0 0
0.431335 0.832408 0.125703 0.8 0 0
0.354691 0.406545 0.062195 0.8 0 0
0.383858 0.727953 0.068642 0.8 0 0
0.440195 0.849031 0.141505 0.8 0 0
0.375064 0.425741 0.123082 0.8 0 0
0.174698 0.626003 0.102821 0.8 0 0
0.446652 0.486757 0.125022 0.8 0 0
0.381986 0.705489 0.137586 0.8 0 0
0.339150 0.898017 0.043231 0.8 0 0
0.402397 0.619335 0.057450 0.8 0 0
0.698523 0.509154 0.121029 0.8 0 0
0.445030 0.454318 0.059978 0.8 0 0
0.313559 0.426182 0.068819 0.8 0 0
0.445735 0.653973 0.127604 0.8 0 0
0.426735 0.492607 0.057264 0.8 0 0
0.416547 0.807400 0.113908 0.8 0 0
0.417084 0.870450 0.036097 0.8 0 0
0.580447 0.589588 0.093454 0.8 0 0
0.479854 0.662068 0.093088 0.8 0 0
0.495537 0.042510 0.132540 0.8 0 0
0.306909 0.150348 0.062834 0.8 0 0
0.453723 0.889902 0.139359 0.8 0 0
0.406601 0.605998 0.059165 0.8 0 0
0.429758 0.399206 0.061289 0.8 0 0
0.344064 0.727732 0.068227 0.8 0 0
0.408345 0.395928 0.122856 0.8 0 0
0.193015 0.625728 0.087506 0.8 0 0
0.325798 0.265636 0.088479 0.8 0 0
0.305115 0.438352 0.086839 0.8 0 0
0.315959 0.669492 0.066199 0.8 0 0
0.343152 0.620801 0.136642 0.8 0 0
0.380626 0.971722 0.088167 0.8 0 0
0.277803 0.179971 0.088274 0.8 0 0
0.337146 0.314869 0.090643 0.8 0 0
0.437215 0.581119 0.087126 0.8 0 0
0.439274 0.940263 0.123080 0.8 0 0
0.097512 0.517270 0.129423 0.8 0 0
0.439889 0.297200 0.119224 0.8 0 0
0.471110 0.031713 0.108574 0.8 0 0
0.673804 0.506652 0.141875 0.8 0 0
0.274237 0.026702 0.079020 0.8 0 0
0.438614 0.551611 0.104095 0.8 0 0
0.393690 0.654949 0.149036 0.8 0 0
0.285962 0.150197 0.056367 0.8 0 0
0.351433 0.882186 0.183512 0.8 0 0
0.351874 0.961456 0.077211 0.8 0 0
0.322967 0.387363 0.064860 0.8 0 0
0.323056 0.651681 0.128284 0.8 0 0
0.404414 0.587481 0.060641 0.8 0 0
0.257836 0.685231 0.117538 0.8 0 0
0.382538 0.671412 0.055187 0.8 0 0
0.362742 0.773955 0.092868 0.8 0 0
0.340630 0.309508 0.107214 0.8 0 0
0.497446 0.647009 0.105663 0.8 0 0
0.333833 0.731457 0.074139 0.8 0 0
0.194130 0.623024 0.085853 0.8 0 0
0.589206 0.615825 0.120790 0.8 0 0
0.499856 0.026023 0.113839 0.8 0 0
0.284296 0.029677 0.146365 0.8 0 0
0.371445 0.837273 0.181788 0.8 0 0
0.424771 0.323916 0.113275 0.8 0 0
0.435431 0.843608 0.096533 0.8 0 0
0.456332 0.669008 0.071356 0.8 0 0
0.351440 0.418097 0.055714 0.8 0 0
0.096575 0.510678 0.139261 0.8 0 0
0.495623 0.031111 0.165833 0.8 0 0
0.341767 0.322767 0.113619 0.8 0 0
0.542927 0.616903 0.103941 0.8 0 0
0.437775 0.883924 0.172678 0.8 0 0
0.359451 0.954562 0.055960 0.8 0 0
0.487528 0.181363 0.091729 0.8 0 0
0.260418 0.651032 0.084596 0.8 0 0
0.397230 0.789227 0.077229 0.8 0 0
0.289199 0.032444 0.163140 0.8 0 0
0.430220 0.563082 0.121580 0.8 0 0
0.613677 0.578023 0.119809 0.8 0 0
0.405881 0.894736 0.029131 0.8 0 0
0.319337 0.904340 0.090002 0.8 0 0
0.420275 0.338746 0.112841 0.8 0 0
0.155974 0.608922 0.110437 0.8 0 0
0.420044 0.488733 0.142106 0.8 0 0
0.476784 0.098549 0.087462 0.8 0 0
0.333585 0.843982 0.079620 0.8 0 0
0.441220 0.402498 0.062119 0.8 0 0
0.437683 0.877073 0.054511 0.8 0 0
0.322699 0.679953 0.137840 0.8 0 0
0.144952 0.580614 0.121158 0.8 0 0
0.389258 0.763520 0.076083 0.8 0 0
0.474047 0.680586 0.073734 0.8 0 0
0.310849 0.269167 0.117049 0.8 0 0
0.732725 0.485507 0.108266 0.8 0 0
0.269375 0.674736 0.075368 0.8 0 0
0.472977 0.318083 0.079374 0.8 0 0
0.406658 0.804524 0.158494 0.8 0 0
0.406369 0.396068 0.117632 0.8 0 0
0.448994 0.249805 0.078384 0.8 0 0
0.597884 0.575168 0.109021 0.8 0 0
0.097402 0.533202 0.110546 0.8 0 0
0.435518 0.527676 0.114772 0.8 0 0
0.342024 0.824308 0.149510 0.8 0 0
0.332557 0.577705 0.080573 0.8 0 0
0.296648 0.115994 0.060072 0.8 0 0
0.350822 0.956747 0.067412 0.8 0 0
0.259349 0.642328 0.091538 0.8 0 0
0.196166 0.618366 0.084222 0.8 0 0
0.304128 0.434156 0.112918 0.8 0 0
0.316439 0.908645 0.118073 0.8 0 0
0.462770 0.170359 0.058218 0.8 0 0
0.448520 0.492598 0.118285 0.8 0 0
0.352555 0.541958 0.061005 0.8 0 0
0.370098 0.419425 0.064311 0.8 0 0
0.473936 0.214165 0.059573 0.8 0 0
0.422660 0.351682 0.079579 0.8 0 0
0.362250 0.511089 0.142723 0.8 0 0
0.507414 0.652786 0.122756 0.8 0 0
0.657850 0.542606 0.109486 0.8 0 0
0.309333 0.395129 0.131752 0.8 0 0
0.486722 0.182820 0.093238 0.8 0 0
0.369758 0.777924 0.078516 0.8 0 0
0.322816 0.862863 0.117721 0.8 0 0
0.524275 0.629594 0.099312 0.8 0 0
0.389346 0.790550 0.137667 0.8 0 0
0.299846 0.177989 0.097410 0.8 0 0
0.271171 0.648537 0.101353 0.8 0 0
0.189237 0.590758 0.093933 0.8 0 0
0.366518 0.586755 0.060042 0.8 0 0
0.435158 0.542899 0.113266 0.8 0 0
0.367115 0.906987 0.029305 0.8 0 0
0.250524 0.653912 0.123698 0.8 0 0
0.236290 0.647809 0.122149 0.8 0 0
0.325310 0.470503 0.060145 0.8 0 0
0.312802 0.412870 0.069632 0.8 0 0
0.364935 0.713485 0.133164 0.8 0 0
0.358793 0.565972 0.061184 0.8 0 0
0.417406 0.494687 0.141199 0.8 0 0
0.310513 0.408664 0.131128 0.8 0 0
0.449070 0.398627 0.067218 0.8 0 0
0.637401 0.583492 0.107234 0.8 0 0
0.440977 0.850971 0.134746 0.8 0 0
0.345466 0.912709 0.181299 0.8 0 0
0.537836 0.660444 0.112278 0.8 0 0
0.682135 0.500151 0.137476 0.8 0 0
0.255419 0.638363 0.096040 0.8 0 0
0.283500 0.065310 0.059815 0.8 0 0
0.500310 0.648244 0.114352 0.8 0 0
0.266201 0.644269 0.107269 0.8 0 0
0.380666 0.792072 0.072026 0.8 0 0
0.449235 0.360189 0.134442 0.8 0 0
0.430753 0.359290 0.131493 0.8 0 0
0.322406 0.328935 0.129211 0.8 0 0
0.411517 0.849109 0.043927 0.8 0 0
0.355646 0.961406 0.140652 0.8 0 0
0.109300 0.552407 0.095252 0.8 0 0
0.299087 0.094528 0.076826 0.8 0 0
0.270498 0.056088 0.078542 0.8 0 0
0.311070 0.462304 0.077159 0.8 0 0
0.453865 0.202175 0.097179 0.8 0 0
0.345408 0.738455 0.081429 0.8 0 0
0.385180 0.569218 0.061571 0.8 0 0
0.285648 0.301388 0.100899 0.8 0 0
0.466698 0.048663 0.067103 0.8 0 0
0.372646 0.419677 0.066529 0.8 0 0
0.366998 0.839766 0.180315 0.8 0 0
0.378049 0.571849 0.145804 0.8 0 0
0.303783 0.376550 0.128044 0.8 0 0
0.410204 0.900266 0.031546 0.8 0 0
0.431198 0.604421 0.074549 0.8 0 0
0.659527 0.551265 0.121762 0.8 0 0
0.415906 0.351086 0.112318 0.8 0 0
0.446933 0.727532 0.119672 0.8 0 0
0.371941 0.419621 0.065895 0.8 0 0
0.471134 0.371908 0.114765 0.8 0 0
0.438308 0.598380 0.112098 0.8 0 0
0.321727 0.919346 0.099521 0.8 0 0
0.461834 0.239074 0.068162 0.8 0 0
0.316494 0.195190 0.087719 0.8 0 0
0.339065 0.607933 0.129034 0.8 0 0
0.330850 0.625253 0.126257 0.8 0 0
0.409755 0.873324 0.183019 0.8 0 0
0.468167 0.391768 0.092646 0.8 0 0
0.360395 0.454420 0.138718 0.8 0 0
0.315001 0.728429 0.075234 0.8 0 0
0.344657 0.931315 0.173813 0.8 0 0
0.384082 0.518317 0.059490 0.8 0 0
0.461008 0.252034 0.114337 0.8 0 0
0.288750 0.308538 0.090624 0.8 0 0
0.353311 0.932260 0.042246 0.8 0 0
0.335920 0.594328 0.075666 0.8 0 0
0.347280 0.382361 0.070173 0.8 0 0
0.349260 0.398025 0.063170 0.8 0 0
0.344692 0.550765 0.067786 0.8 0 0
0.264888 0.670917 0.126454 0.8 0 0
0.327701 0.935175 0.091274 0.8 0 0
0.481455 0.027236 0.120618 0.8 0 0
0.465946 0.357028 0.127979 0.8 0 0
0.353983 0.895722 0.183502 0.8 0 0
0.427572 0.560752 0.071909 0.8 0 0
0.304424 0.122831 0.070715 0.8 0 0
0.157276 0.602898 0.119528 0.8 0 0
0.423137 0.587868 0.069019 0.8 0 0
0.396670 0.633144 0.147703 0.8 0 0
0.459143 0.148016 0.084061 0.8 0 0
0.229782 0.637421 0.082832 0.8 0 0
0.435432 0.582262 0.115801 0.8 0 0
0.458430 0.167021 0.062055 0.8 0 0
0.406680 0.477478 0.051258 0.8 0 0
0.444090 0.905805 0.077369 0.8 0 0
0.445370 0.868775 0.097935 0.8 0 0
0.296204 0.149095 0.093810 0.8 0 0
0.297882 0.087538 0.076198 0.8 0 0
0.430127 0.925147 0.056020 0.8 0 0
0.352456 0.589980 0.062361 0.8 0 0
0.166560 0.607751 0.121135 0.8 0 0
0.457646 0.691757 0.132755 0.8 0 0
0.452214 0.649522 0.105879 0.8 0 0
0.307875 0.464971 0.092690 0.8 0 0
0.320419 0.468402 0.063083 0.8 0 0
0.399885 0.410987 0.117189 0.8 0 0
0.403374 0.605513 0.058599 0.8 0 0
0.584931 0.581093 0.106008 0.8 0 0
0.420598 0.568097 0.066561 0.8 0 0
0.486106 0.026737 0.063997 0.8 0 0
0.432436 0.528845 0.071851 0.8 0 0
0.446787 0.921521 0.144290 0.8 0 0
0.374999 0.954523 0.159795 0.8 0 0
0.506440 0.688000 0.089482 0.8 0 0
0.359739 0.541051 0.140160 0.8 0 0
0.299528 0.406130 0.112073 0.8 0 0
0.443066 0.316228 0.125293 0.8 0 0
0.314431 0.253658 0.074854 0.8 0 0
0.368294 0.840678 0.043523 0.8 0 0
0.295836 0.241022 0.068089 0.8 0 0
0.321455 0.734929 0.110599 0.8 0 0
0.084328 0.509802 0.135167 0.8 0 0
0.265608 0.668276 0.126545 0.8 0 0
0.327974 0.545698 0.088448 0.8 0 0
0.363253 0.766674 0.091212 0.8 0 0
0.403180 0.602327 0.058888 0.8 0 0
0.458775 0.141960 0.080566 0.8 0 0
0.482735 0.290926 0.102204 0.8 0 0
0.496788 0.028891 0.166682 0.8 0 0
0.428232 0.439981 0.049843 0.8 0 0
0.336519 0.477714 0.055851 0.8 0 0
0.336596 0.380537 0.136454 0.8 0 0
0.399346 0.424239 0.121777 0.8 0 0
0.474033 0.292649 0.119597 0.8 0 0
0.254357 0.678927 0.087695 0.8 0 0
0.043416 0.492642 0.085768 0.8 0 0
0.120118 0.562636 0.119603 0.8 0 0
0.177384 0.581933 0.112931 0.8 0 0
0.143914 0.561792 0.111018 0.8 0 0
0.453739 0.898495 0.121312 0.8 0 0
0.348574 0.827141 0.074647 0.8 0 0
0.386830 0.792513 0.142346 0.8 0 0
0.434716 0.936403 0.074640 0.8 0 0
0.099818 0.547020 0.094346 0.8 0 0
0.381489 0.630700 0.056980 0.8 0 0
0.474004 0.728541 0.096869 0.8 0 0
0.381127 0.474604 0.143997 0.8 0 0
0.319267 0.710683 0.064365 0.8 0 0
0.405387 0.767768 0.106747 0.8 0 0
0.441309 0.311546 0.123286 0.8 0 0
0.388066 0.807642 0.067348 0.8 0 0
0.391224 0.885719 0.188695 0.8 0 0
0.458575 0.225584 0.104643 0.8 0 0
0.483131 0.143908 0.057626 0.8 0 0
0.440341 0.405182 0.140265 0.8 0 0
0.445157 0.319568 0.074528 0.8 0 0
0.097233 0.524359 0.122526 0.8 0 0
0.076246 0.534177 0.111670 0.8 0 0
0.346830 0.709078 0.059108 0.8 0 0
0.515554 0.682938 0.100254 0.8 0 0
0.119822 0.566480 0.096770 0.8 0 0
0.396760 0.398881 0.097519 0.8 0 0
0.230718 0.660907 0.114466 0.8 0 0
0.578183 0.596967 0.089123 0.8 0 0
0.315285 0.199794 0.092343 0.8 0 0
0.428788 0.904096 0.045292 0.8 0 0
0.326527 0.656999 0.063592 0.8 0 0
0.464840 0.422815 0.090234 0.8 0 0
0.438921 0.617446 0.119340 0.8 0 0
0.465185 0.135724 0.089294 0.8 0 0
0.326596 0.849581 0.141027 0.8 0 0
0.440021 0.609451 0.087374 0.8 0 0
0.474538 0.196697 0.055753 0.8 0 0
0.263909 0.675088 0.077906 0.8 0 0
0.312782 0.478177 0.079776 0.8 0 0
0.358613 0.577157 0.061672 0.8 0 0
0.490399 0.654162 0.111389 0.8 0 0
0.492040 0.675963 0.073680 0.8 0 0
0.371666 0.427196 0.122887 0.8 0 0
0.434228 0.462865 0.053646 0.8 0 0
0.329560 0.849859 0.088973 0.8 0 0
0.430136 0.457850 0.051569 0.8 0 0
0.340610 0.346959 0.126427 0.8 0 0
0.566875 0.634573 0.093217 0.8 0 0
0.284529 0.072967 0.060138 0.8 0 0
0.631263 0.569864 0.092657 0.8 0 0
0.357655 0.512787 0.140894 0.8 0 0
0.345506 0.814292 0.136523 0.8 0 0
0.449186 0.226190 0.096438 0.8 0 0
0.268255 0.037914 0.139402 0.8 0 0
0.421492 0.938974 0.167593 0.8 0 0
0.448183 0.243180 0.083609 0.8 0 0
0.299424 0.211126 0.103336 0.8 0 0
0.189278 0.623864 0.117756 0.8 0 0
0.372657 0.552234 0.060125 0.8 0 0
0.334647 0.835458 0.128577 0.8 0 0
0.471858 0.220983 0.060583 0.8 0 0
0.451299 0.909768 0.134854 0.8 0 0
0.346987 0.656617 0.144445 0.8 0 0
0.320989 0.433373 0.060693 0.8 0 0
0.467499 0.409285 0.112079 0.8 0 0
0.660441 0.555150 0.119654 0.8 0 0
0.408065 0.619914 0.143768 0.8 0 0
0.357260 0.498545 0.055027 0.8 0 0
0.444048 0.261951 0.083633 0.8 0 0
0.281963 0.243456 0.083388 0.8 0 0
0.343697 0.378550 0.132123 0.8 0 0
0.418813 0.517380 0.060374 0.8 0 0
0.292466 0.050284 0.116504 0.8 0 0
0.502178 0.697643 0.110625 0.8 0 0
0.407688 0.742296 0.078586 0.8 0 0
0.294478 0.270779 0.114223 0.8 0 0
0.486123 0.232841 0.094685 0.8 0 0
0.273527 0.026089 0.119928 0.8 0 0
0.349658 0.543448 0.062894 0.8 0 0
0.434919 0.540178 0.076718 0.8 0 0
0.405828 0.689028 0.055387 0.8 0 0
0.426408 0.506077 0.061087 0.8 0 0
0.487442 0.170363 0.091248 0.8 0 0
0.487367 0.137412 0.089291 0.8 0 0
0.367359 0.828816 0.175828 0.8 0 0
0.318968 0.914639 0.112014 0.8 0 0
0.289097 0.331426 0.110466 0.8 0 0
0.315284 0.237107 0.073949 0.8 0 0
0.318799 0.235649 0.097489 0.8 0 0
0.281206 0.240202 0.082697 0.8 0 0
0.330317 0.849680 0.079230 0.8 0 0
0.344984 0.687973 0.139744 0.8 0 0
0.114338 0.550461 0.119840 0.8 0 0
0.274015 0.025793 0.106498 0.8 0 0
0.447112 0.667269 0.134144 0.8 0 0
0.470687 0.044263 0.059100 0.8 0 0
0.381272 0.964704 0.067726 0.8 0 0
0.410918 0.798227 0.139096 0.8 0 0
0.329226 0.421601 0.056749 0.8 0 0
0.431311 0.491071 0.059196 0.8 0 0
0.401716 0.972776 0.112868 0.8 0 0
0.322349 0.467108 0.133435 0.8 0 0
0.457652 0.244424 0.071860 0.8 0 0
0.418111 0.817744 0.154811 0.8 0 0
0.431874 0.528008 0.071308 0.8 0 0
0.441486 0.409476 0.060788 0.8 0 0
0.357485 0.638231 0.056564 0.8 0 0
0.284462 0.211751 0.098785 0.8 0 0
0.476973 0.662635 0.095854 0.8 0 0
0.388736 0.878025 0.189332 0.8 0 0
0.392324 0.426900 0.062665 0.8 0 0
0.433322 0.504869 0.065131 0.8 0 0
0.274278 0.126177 0.071688 0.8 0 0
0.239281 0.633779 0.087647 0.8 0 0
0.278499 0.215740 0.073041 0.8 0 0
0.375962 0.557708 0.145301 0.8 0 0
0.399660 0.775431 0.124537 0.8 0 0
0.347634 0.584325 0.066210 0.8 0 0
0.117474 0.571334 0.105459 0.8 0 0
0.430179 0.832683 0.098362 0.8 0 0
0.364026 0.511388 0.056531 0.8 0 0
0.341248 0.535415 0.125296 0.8 0 0
0.300393 0.125973 0.088061 0.8 0 0
0.357627 0.488103 0.143276 0.8 0 0
0.432409 0.308848 0.115556 0.8 0 0
0.444595 0.920551 0.160303 0.8 0 0
0.429462 0.299391 0.105678 0.8 0 0
0.497990 0.646987 0.107932 0.8 0 0
0.477630 0.277403 0.110842 0.8 0 0
0.284532 0.281332 0.097238 0.8 0 0
0.411279 0.893970 0.184018 0.8 0 0
0.307641 0.193534 0.097626 0.8 0 0
0.375011 0.597383 0.059569 0.8 0 0
0.443570 0.929707 0.120332 0.8 0 0
0.373258 0.828941 0.052833 0.8 0 0
0.466811 0.053316 0.069328 0.8 0 0
0.441620 0.514104 0.118844 0.8 0 0
0.410464 0.740201 0.116754 0.8 0 0
0.448353 0.448645 0.063192 0.8 0 0
0.478020 0.342572 0.102191 0.8 0 0
0.275013 0.069757 0.064499 0.8 0 0
0.275543 0.699933 0.121235 0.8 0 0
0.231450 0.626846 0.087964 0.8 0 0
0.390895 0.418315 0.113609 0.8 0 0
0.027310 0.488164 0.107208 0.8 0 0
0.366319 0.392295 0.089965 0.8 0 0
0.363708 0.417453 0.125050 0.8 0 0
0.261885 0.027325 0.128258 0.8 0 0
0.479498 0.309910 0.111067 0.8 0 0
0.480809 0.058590 0.057557 0.8 0 0
0.167680 0.619538 0.099625 0.8 0 0
0.415784 0.838633 0.167834 0.8 0 0
0.492540 0.095622 0.067556 0.8 0 0
0.283968 0.084346 0.060224 0.8 0 0
0.306434 0.235629 0.107561 0.8 0 0
0.404767 0.836279 0.175968 0.8 0 0
0.438257 0.479419 0.135967 0.8 0 0
0.386781 0.671146 0.147085 0.8 0 0
0.401374 0.595704 0.059325 0.8 0 0
0.301235 0.039264 0.121205 0.8 0 0
0.341940 0.885866 0.180511 0.8 0 0
0.357957 0.376039 0.088691 0.8 0 0
0.430052 0.588343 0.075136 0.8 0 0
0.457387 0.190044 0.096327 0.8 0 0
0.419592 0.624822 0.139664 0.8 0 0
0.495493 0.073887 0.076500 0.8 0 0
0.494238 0.050472 0.061481 0.8 0 0
0.476794 0.673414 0.080316 0.8 0 0
0.488118 0.083295 0.062333 0.8 0 0
0.440719 0.329070 0.074743 0.8 0 0
0.464325 0.363174 0.076276 0.8 0 0
0.364393 0.392623 0.106043 0.8 0 0
0.205165 0.632023 0.086728 0.8 0 0
0.401886 0.638066 0.147506 0.8 0 0
0.334457 0.591589 0.077244 0.8 0 0
0.379812 0.764115 0.075905 0.8 0 0
0.382054 0.449301 0.139746 0.8 0 0
0.391229 0.937987 0.175237 0.8 0 0
0.375304 0.970704 0.084821 0.8 0 0
0.341085 0.845640 0.163131 0.8 0 0
0.411982 0.893209 0.184510 0.8 0 0
0.308630 0.220497 0.103274 0.8 0 0
0.356505 0.743315 0.089435 0.8 0 0
0.317201 0.913552 0.150491 0.8 0 0
0.050027 0.506582 0.112763 0.8 0 0
0.438798 0.444268 0.054346 0.8 0 0
0.322649 0.627684 0.108557 0.8 0 0
0.352820 0.356811 0.094108 0.8 0 0
0.376858 0.723998 0.065768 0.8 0 0
0.582153 0.627511 0.115061 0.8 0 0
0.412547 0.847694 0.046158 0.8 0 0
0.414521 0.367349 0.119558 0.8 0 0
0.490295 0.683493 0.127288 0.8 0 0
0.482594 0.025995 0.082098 0.8 0 0
0.290727 0.057075 0.090866 0.8 0 0
0.480482 0.326863 0.105797 0.8 0 0
0.297168 0.706489 0.068504 0.8 0 0
0.259717 0.035403 0.148299 0.8 0 0
0.470645 0.339078 0.122624 0.8 0 0
0.387074 0.615595 0.147059 0.8 0 0
0.188907 0.587801 0.097269 0.8 0 0
0.363206 0.937479 0.040743 0.8 0 0
0.426099 0.956492 0.133583 0.8 0 0
0.444059 0.269949 0.080524 0.8 0 0
0.463230 0.410092 0.119045 0.8 0 0
0.330457 0.873324 0.053956 0.8 0 0
0.457593 0.660500 0.087241 0.8 0 0
0.281784 0.248580 0.093511 0.8 0 0
0.458435 0.457518 0.080983 0.8 0 0
0.335141 0.325158 0.123298 0.8 0 0
0.505124 0.690252 0.090804 0.8 0 0
0.298482 0.351606 0.078332 0.8 0 0
0.434721 0.279661 0.101003 0.8 0 0
0.379212 0.724849 0.066496 0.8 0 0
0.077089 0.530137 0.090809 0.8 0 0
0.310440 0.703016 0.131295 0.8 0 0
0.485046 0.137795 0.058925 0.8 0 0
0.334634 0.843606 0.077259 0.8 0 0
0.465476 0.028164 0.133525 0.8 0 0
0.481155 0.114016 0.090326 0.8 0 0
0.431559 0.734955 0.114286 0.8 0 0
0.402301 0.628950 0.146737 0.8 0 0
0.048422 0.508349 0.104733 0.8 0 0
0.372368 0.769757 0.077339 0.8 0 0
0.482904 0.091098 0.088167 0.8 0 0
0.315248 0.881727 0.110922 0.8 0 0
0.054776 0.500895 0.105206 0.8 0 0
0.479847 0.292482 0.090670 0.8 0 0
0.336028 0.474015 0.054842 0.8 0 0
0.483783 0.719421 0.091261 0.8 0 0
0.441581 0.860309 0.104616 0.8 0 0
0.037578 0.496913 0.120020 0.8 0 0
0.365130 0.799347 0.080322 0.8 0 0
0.425762 0.939340 0.059127 0.8 0 0
0.307996 0.315998 0.070352 0.8 0 0
0.298890 0.686876 0.130443 0.8 0 0
0.342728 0.819179 0.125545 0.8 0 0
0.299633 0.396478 0.092718 0.8 0 0
0.439526 0.642883 0.129699 0.8 0 0
0.153870 0.584317 0.120597 0.8 0 0
0.346260 0.964202 0.104315 0.8 0 0
0.361877 0.775147 0.111042 0.8 0 0
0.388645 0.564759 0.061068 0.8 0 0
0.472664 0.109878 0.059988 0.8 0 0
0.170451 0.601625 0.087452 0.8 0 0
0.437816 0.942026 0.097680 0.8 0 0
0.453104 0.669017 0.068077 0.8 0 0
0.431184 0.531179 0.120724 0.8 0 0
0.279284 0.716779 0.094432 0.8 0 0
0.448840 0.872445 0.112927 0.8 0 0
0.398022 0.399671 0.085919 0.8 0 0
0.478499 0.178310 0.096838 0.8 0 0
0.326762 0.704895 0.131828 0.8 0 0
0.423878 0.320601 0.109791 0.8 0 0
0.404315 0.760611 0.116876 0.8 0 0
0.320897 0.346915 0.134519 0.8 0 0
0.417410 0.500308 0.055854 0.8 0 0
0.418199 0.355319 0.120272 0.8 0 0
0.448257 0.201358 0.086051 0.8 0 0
0.461086 0.330477 0.072679 0.8 0 0
0.286784 0.125862 0.091432 0.8 0 0
0.337750 0.321472 0.087895 0.8 0 0
0.384399 0.899469 0.026023 0.8 0 0
0.457217 0.439487 0.075568 0.8 0 0
0.484425 0.676823 0.128463 0.8 0 0
0.386088 0.783318 0.073835 0.8 0 0
0.335735 0.869604 0.174852 0.8 0 0
0.401130 0.687275 0.055037 0.8 0 0
0.330589 0.288240 0.110142 0.8 0 0
0.490746 0.037854 0.149642 0.8 0 0
0.293057 0.361043 0.097516 0.8 0 0
0.327701 0.273728 0.105592 0.8 0 0
0.441615 0.553297 0.095727 0.8 0 0
0.403172 0.797398 0.083288 0.8 0 0
0.295238 0.389599 0.101992 0.8 0 0
0.360722 0.735956 0.122147 0.8 0 0
0.260925 0.692310 0.100812 0.8 0 0
0.270922 0.689823 0.123348 0.8 0 0
0.311768 0.154350 0.079843 0.8 0 0
0.463836 0.336790 0.074751 0.8 0 0
0.465490 0.384063 0.121859 0.8 0 0
0.559003 0.603416 0.100543 0.8 0 0
0.470465 0.029018 0.129077 0.8 0 0
0.288303 0.099034 0.088467 0.8 0 0
0.319949 0.861994 0.126568 0.8 0 0
0.310007 0.321261 0.069562 0.8 0 0
0.471015 0.354295 0.085272 0.8 0 0
0.308826 0.472240 0.094198 0.8 0 0
0.551077 0.611179 0.103625 0.8 0 0
0.385432 0.735948 0.128391 0.8 0 0
0.301647 0.032949 0.077943 0.8 0 0
0.456394 0.154247 0.071869 0.8 0 0
0.298970 0.248141 0.069379 0.8 0 0
0.078730 0.536308 0.115419 0.8 0 0
0.263074 0.037569 0.089325 0.8 0 0
0.444999 0.878449 0.166314 0.8 0 0
0.059379 0.503104 0.091659 0.8 0 0
0.307495 0.398753 0.073840 0.8 0 0
0.691781 0.530516 0.120969 0.8 0 0
0.372411 0.902515 0.027221 0.8 0 0
0.369761 0.876875 0.185658 0.8 0 0
0.313159 0.710234 0.064984 0.8 0 0
0.386512 0.897162 0.188187 0.8 0 0
0.323984 0.626835 0.112259 0.8 0 0
0.317442 0.221418 0.096661 0.8 0 0
0.461229 0.240112 0.068834 0.8 0 0
0.255797 0.663229 0.080214 0.8 0 0
0.512923 0.028155 0.144464 0.8 0 0
0.473074 0.051511 0.059117 0.8 0 0
0.472330 0.183132 0.099823 0.8 0 0
0.484974 0.675045 0.074415 0.8 0 0
0.294412 0.128096 0.057064 0.8 0 0
0.295644 0.729856 0.103810 0.8 0 0
0.204382 0.618511 0.114974 0.8 0 0
0.420489 0.950192 0.154459 0.8 0 0
0.080094 0.520291 0.091140 0.8 0 0
0.160887 0.581117 0.090023 0.8 0 0
0.355465 0.837701 0.171001 0.8 0 0
0.319148 0.492456 0.119133 0.8 0 0
0.451694 0.421853 0.066990 0.8 0 0
0.440348 0.619748 0.116472 0.8 0 0
0.344570 0.349320 0.124902 0.8 0 0
0.387745 0.709257 0.136222 0.8 0 0
0.307336 0.160331 0.060265 0.8 0 0
0.301912 0.429179 0.096982 0.8 0 0
0.414776 0.804430 0.115988 0.8 0 0
0.397775 0.786548 0.131264 0.8 0 0
0.578061 0.601253 0.086951 0.8 0 0
0.343716 0.370831 0.130407 0.8 0 0
0.478453 0.084052 0.061075 0.8 0 0
0.501068 0.656864 0.123158 0.8 0 0
0.224164 0.657813 0.103599 0.8 0 0
0.473669 0.722643 0.117495 0.8 0 0
0.313478 0.361087 0.132828 0.8 0 0
0.316801 0.879416 0.159703 0.8 0 0
0.462746 0.270696 0.070096 0.8 0 0
0.338176 0.620020 0.067839 0.8 0 0
0.515795 0.678669 0.090502 0.8 0 0
0.302301 0.036036 0.130162 0.8 0 0
0.366263 0.767411 0.121285 0.8 0 0
0.351696 0.736716 0.117845 0.8 0 0
0.261231 0.653071 0.122248 0.8 0 0
0.284901 0.036823 0.144009 0.8 0 0
0.092909 0.538769 0.126473 0.8 0 0
0.491889 0.039163 0.055319 0.8 0 0
0.471293 0.183454 0.053838 0.8 0 0
0.305208 0.173998 0.095028 0.8 0 0
0.279954 0.026418 0.072317 0.8 0 0
0.492720 0.053273 0.096847 0.8 0 0
0.445580 0.908497 0.085092 0.8 0 0
0.448559 0.860762 0.132299 0.8 0 0
0.261314 0.032698 0.153445 0.8 0 0
0.306337 0.432269 0.081230 0.8 0 0
0.481260 0.277548 0.091430 0.8 0 0
0.359516 0.752654 0.113209 0.8 0 0
0.450310 0.500720 0.091265 0.8 0 0
0.069710 0.515034 0.094941 0.8 0 0
0.438651 0.893918 0.057747 0.8 0 0
0.535520 0.658571 0.090753 0.8 0 0
0.406406 0.687961 0.055234 0.8 0 0
0.086895 0.497561 0.145898 0.8 0 0
0.490289 0.173243 0.086059 0.8 0 0
0.443388 0.861084 0.118167 0.8 0 0
0.351394 0.361085 0.118739 0.8 0 0
0.097896 0.526722 0.121521 0.8 0 0
0.234413 0.624450 0.095442 0.8 0 0
0.371731 0.706324 0.059680 0.8 0 0
0.070125 0.511918 0.117948 0.8 0 0
0.345618 0.851267 0.049214 0.8 0 0
0.445118 0.886695 0.161669 0.8 0 0
0.580650 0.595596 0.115738 0.8 0 0
0.335757 0.550606 0.074403 0.8 0 0
0.463096 0.219761 0.103998 0.8 0 0
0.396780 0.399083 0.097944 0.8 0 0
0.447803 0.859634 0.146300 0.8 0 0
0.512107 0.032829 0.127490 0.8 0 0
0.466086 0.272378 0.117779 0.8 0 0
0.427206 0.550705 0.071240 0.8 0 0
0.272060 0.075901 0.076984 0.8 0 0
0.401084 0.951066 0.161902 0.8 0 0
0.339382 0.322860 0.090402 0.8 0 0
0.455051 0.882166 0.131510 0.8 0 0
0.315245 0.875516 0.157295 0.8 0 0
0.375600 0.851753 0.034521 0.8 0 0
0.408563 0.371076 0.095012 0.8 0 0
0.357098 0.746583 0.095255 0.8 0 0
0.319251 0.737030 0.094100 0.8 0 0
0.381351 0.477734 0.050765 0.8 0 0
0.409068 0.805397 0.156668 0.8 0 0
0.447369 0.205055 0.086081 0.8 0 0
0.348806 0.682704 0.054438 0.8 0 0
0.288968 0.263357 0.077788 0.8 0 0
0.349824 0.640570 0.143456 0.8 0 0
0.406782 0.756403 0.113319 0.8 0 0
0.415470 0.525710 0.136260 0.8 0 0
0.434824 0.493039 0.061299 0.8 0 0
0.358574 0.688469 0.055352 0.8 0 0
0.384185 0.833964 0.047711 0.8 0 0
0.540847 0.618887 0.096922 0.8 0 0
0.525181 0.642017 0.082689 0.8 0 0
0.348076 0.676772 0.142930 0.8 0 0
0.369124 0.557890 0.059944 0.8 0 0
0.439434 0.879013 0.167710 0.8 0 0
0.400374 0.818590 0.064612 0.8 0 0
0.333766 0.545611 0.116978 0.8 0 0
0.404544 0.795804 0.145872 0.8 0 0
0.383483 0.415766 0.114576 0.8 0 0
0.449857 0.379884 0.068423 0.8 0 0
0.317637 0.909298 0.107740 0.8 0 0
0.375751 0.631246 0.056798 0.8 0 0
0.508249 0.036682 0.143084 0.8 0 0
0.484869 0.029513 0.157135 0.8 0 0
0.486962 0.167569 0.091936 0.8 0 0
0.445412 0.633999 0.090315 0.8 0 0
0.303593 0.147036 0.059284 0.8 0 0
0.331361 0.687449 0.056334 0.8 0 0
0.291737 0.263911 0.111972 0.8 0 0
0.535955 0.632502 0.083681 0.8 0 0
0.390740 0.561719 0.145435 0.8 0 0
0.442941 0.528114 0.096728 0.8 0 0
0.464010 0.146444 0.090901 0.8 0 0
0.293022 0.215623 0.060105 0.8 0 0
0.351044 0.906838 0.183223 0.8 0 0
0.330215 0.867077 0.174210 0.8 0 0
0.381299 0.968078 0.138269 0.8 0 0
0.462538 0.445076 0.104703 0.8 0 0
0.537373 0.635892 0.082864 0.8 0 0
0.336665 0.954983 0.112625 0.8 0 0
0.302338 0.411883 0.090036 0.8 0 0
0.440031 0.737544 0.105900 0.8 0 0
0.337239 0.611609 0.128348 0.8 0 0
0.313020 0.654836 0.103698 0.8 0 0
0.579874 0.620155 0.086900 0.8 0 0
0.297533 0.046824 0.060477 0.8 0 0
0.443095 0.268877 0.108541 0.8 0 0
0.408401 0.627344 0.144728 0.8 0 0
0.425299 0.565879 0.126334 0.8 0 0
0.320776 0.721981 0.068322 0.8 0 0
0.289026 0.253998 0.075423 0.8 0 0
0.353037 0.928811 0.040928 0.8 0 0
0.371793 0.629686 0.147522 0.8 0 0
0.489784 0.709515 0.118838 0.8 0 0
0.479704 0.305259 0.094093 0.8 0 0
0.277981 0.678047 0.128256 0.8 0 0
0.468654 0.380616 0.089383 0.8 0 0
0.415554 0.712915 0.130594 0.8 0 0
0.445895 0.507222 0.085275 0.8 0 0
0.360394 0.495525 0.143352 0.8 0 0
0.360469 0.959077 0.063313 0.8 0 0
0.436113 0.406695 0.058660 0.8 0 0
0.221993 0.645203 0.086841 0.8 0 0
0.325338 0.859939 0.088763 0.8 0 0
0.406918 0.830178 0.056317 0.8 0 0
0.347327 0.697098 0.136882 0.8 0 0
0.293830 0.352514 0.115279 0.8 0 0
0.441222 0.568386 0.096588 0.8 0 0
0.231887 0.648301 0.121619 0.8 0 0
0.054415 0.503496 0.117131 0.8 0 0
0.188525 0.604396 0.116987 0.8 0 0
0.437677 0.651995 0.063217 0.8 0 0
0.574274 0.592006 0.095064 0.8 0 0
0.489262 0.026256 0.082342 0.8 0 0
0.360755 0.825537 0.060657 0.8 0 0
0.334046 0.546602 0.117533 0.8 0 0
0.460000 0.310607 0.070617 0.8 0 0
0.411454 0.880572 0.031397 0.8 0 0
0.588771 0.596499 0.087543 0.8 0 0
0.438061 0.533063 0.109183 0.8 0 0
0.291893 0.698645 0.128458 0.8 0 0
0.614080 0.606381 0.108471 0.8 0 0
0.503873 0.026949 0.119990 0.8 0 0
0.368940 0.957637 0.154447 0.8 0 0
0.532745 0.624570 0.095226 0.8 0 0
0.498236 0.040560 0.130088 0.8 0 0
0.289135 0.026406 0.063063 0.8 0 0
0.095664 0.530450 0.113213 0.8 0 0
0.281785 0.248682 0.093498 0.8 0 0
0.479395 0.027945 0.121627 0.8 0 0
0.287327 0.699845 0.073081 0.8 0 0
0.341697 0.572081 0.070692 0.8 0 0
0.472342 0.040811 0.141638 0.8 0 0
0.693082 0.532285 0.106446 0.8 0 0
0.470317 0.723663 0.118148 0.8 0 0
0.451760 0.733287 0.112378 0.8 0 0
0.419981 0.878093 0.180641 0.8 0 0
0.465078 0.224643 0.105579 0.8 0 0
