0.404796 0.733039 0.085359 0.8 0 0
0.506026 0.317818 0.237497 0.8 0 0
0.521638 0.899972 0.145701 0.8 0 0
0.372286 0.301856 0.040904 0.8 0 0
0.552577 0.869721 0.100871 0.8 0 0
0.442378 0.915746 0.189270 0.8 0 0
0.480238 0.958986 0.131027 0.8 0 0
0.487018 0.932691 0.135309 0.8 0 0
0.517129 0.532051 0.223254 0.8 0 0
0.438261 0.917717 0.159884 0.8 0 0
0.502367 0.158870 0.165111 0.8 0 0
0.504879 0.909062 0.129669 0.8 0 0
0.479260 0.889055 0.077617 0.8 0 0
0.532021 0.881737 0.135568 0.8 0 0
0.554592 0.336589 0.196469 0.8 0 0
0.547071 0.827946 0.088622 0.8 0 0
0.338741 0.621154 0.147939 0.8 0 0
0.421369 0.426638 0.029126 0.8 0 0
0.386845 0.073498 0.098971 0.8 0 0
0.452414 0.341871 0.095643 0.8 0 0
0.425209 0.863019 0.063541 0.8 0 0
0.472070 0.883003 0.049278 0.8 0 0
0.341446 0.556547 0.132301 0.8 0 0
0.420259 0.806237 0.101053 0.8 0 0
0.401814 0.303271 0.048645 0.8 0 0
0.436053 0.276147 0.184941 0.8 0 0
0.337889 0.294019 0.111552 0.8 0 0
0.496920 0.291040 0.238532 0.8 0 0
0.396020 0.900420 0.102832 0.8 0 0
0.458794 0.917502 0.110057 0.8 0 0
0.490766 0.828875 0.066023 0.8 0 0
0.474135 0.865947 0.070578 0.8 0 0
0.514683 0.939719 0.169216 0.8 0 0
0.423093 0.917351 0.102924 0.8 0 0
0.442514 0.616884 0.243138 0.8 0 0
0.408570 0.889451 0.125780 0.8 0 0
0.355723 0.287636 0.084841 0.8 0 0
0.385628 0.884788 0.101609 0.8 0 0
0.572790 0.267121 0.128344 0.8 0 0
0.449717 0.898763 0.181686 0.8 0 0
0.500491 0.924342 0.168390 0.8 0 0
0.494631 0.915084 0.187808 0.8 0 0
0.470961 0.935689 0.164767 0.8 0 0
0.869768 0.707306 0.120511 0.8 0 0
0.378671 0.849667 0.107190 0.8 0 0
0.377300 0.370997 0.044997 0.8 0 0
0.495559 0.922299 0.175281 0.8 0 0
0.506678 0.858667 0.063388 0.8 0 0
0.531393 0.814468 0.088200 0.8 0 0
0.411926 0.811952 0.085705 0.8 0 0
0.531615 0.483656 0.050887 0.8 0 0
0.494547 0.164023 0.075805 0.8 0 0
0.500424 0.258668 0.195891 0.8 0 0
0.432461 0.399692 0.032325 0.8 0 0
0.453784 0.837337 0.046712 0.8 0 0
0.461143 0.945617 0.130860 0.8 0 0
0.224379 0.733581 0.128057 0.8 0 0
0.468357 0.767340 0.117129 0.8 0 0
0.489132 0.923367 0.158238 0.8 0 0
0.501764 0.800690 0.078122 0.8 0 0
0.357905 0.822940 0.090831 0.8 0 0
0.424056 0.883429 0.156007 0.8 0 0
0.504302 0.901883 0.094579 0.8 0 0
0.490755 0.957009 0.139041 0.8 0 0
0.468110 0.789313 0.203827 0.8 0 0
0.450918 0.942822 0.135549 0.8 0 0
0.341078 0.422573 0.139513 0.8 0 0
0.508230 0.811564 0.110097 0.8 0 0
0.409102 0.916738 0.127063 0.8 0 0
0.438978 0.659138 0.061284 0.8 0 0
0.401521 0.932959 0.131236 0.8 0 0
0.327917 0.400682 0.124656 0.8 0 0
0.390101 0.835399 0.088380 0.8 0 0
0.538689 0.388227 0.212119 0.8 0 0
0.445924 0.552445 0.240273 0.8 0 0
0.462993 0.546959 0.255196 0.8 0 0
0.519662 0.378006 0.041209 0.8 0 0
0.430674 0.097995 0.151249 0.8 0 0
0.530948 0.814139 0.115136 0.8 0 0
0.500199 0.874460 0.153114 0.8 0 0
0.458214 0.935870 0.123080 0.8 0 0
0.448320 0.922361 0.129862 0.8 0 0
0.528861 0.922757 0.157141 0.8 0 0
0.543684 0.904771 0.079379 0.8 0 0
0.423507 0.344974 0.252933 0.8 0 0
0.350990 0.429467 0.073290 0.8 0 0
0.463131 0.505371 0.052107 0.8 0 0
0.430322 0.415974 0.258006 0.8 0 0
0.467831 0.961876 0.103936 0.8 0 0
0.489957 0.422631 0.028940 0.8 0 0
0.429685 0.827406 0.201651 0.8 0 0
0.489746 0.925354 0.141240 0.8 0 0
0.483745 0.476842 0.029633 0.8 0 0
0.522426 0.325203 0.212696 0.8 0 0
0.127143 0.721809 0.140516 0.8 0 0
0.547873 0.861848 0.095570 0.8 0 0
0.548377 0.861460 0.094897 0.8 0 0
0.456690 0.934281 0.123556 0.8 0 0
0.422826 0.282487 0.207381 0.8 0 0
0.508992 0.060121 0.182071 0.8 0 0
0.532215 0.849282 0.104977 0.8 0 0
0.499343 0.422534 0.228468 0.8 0 0
0.539504 0.583992 0.072950 0.8 0 0
0.489332 0.160621 0.083868 0.8 0 0
0.533080 0.816745 0.088025 0.8 0 0
0.434468 0.911043 0.186525 0.8 0 0
0.539130 0.863430 0.115835 0.8 0 0
0.333086 0.651864 0.121228 0.8 0 0
0.565690 0.652592 0.075601 0.8 0 0
0.357370 0.358832 0.211791 0.8 0 0
0.419329 0.290115 0.197639 0.8 0 0
0.498847 0.931699 0.160617 0.8 0 0
0.509831 0.898457 0.155007 0.8 0 0
0.394730 0.726556 0.163600 0.8 0 0
0.389502 0.927356 0.173747 0.8 0 0
0.555690 0.180081 0.129803 0.8 0 0
0.532796 0.688009 0.196434 0.8 0 0
0.529696 0.838908 0.117562 0.8 0 0
0.433697 0.142388 0.148553 0.8 0 0
0.350910 0.239546 0.169645 0.8 0 0
0.327740 0.491904 0.134090 0.8 0 0
0.396967 0.686772 0.198439 0.8 0 0
0.212320 0.730280 0.090877 0.8 0 0
0.415631 0.814865 0.082144 0.8 0 0
0.483448 0.184991 0.143822 0.8 0 0
0.469161 0.380553 0.210826 0.8 0 0
0.531630 0.329785 0.039383 0.8 0 0
0.434031 0.886570 0.077875 0.8 0 0
0.548665 0.722688 0.083877 0.8 0 0
0.460590 0.829988 0.208525 0.8 0 0
0.538059 0.363135 0.212634 0.8 0 0
0.594127 0.711551 0.083367 0.8 0 0
0.490705 0.478345 0.259966 0.8 0 0
0.491219 0.958410 0.153488 0.8 0 0
0.455123 0.953428 0.126328 0.8 0 0
0.519258 0.886665 0.151872 0.8 0 0
0.429776 0.920835 0.185064 0.8 0 0
0.337961 0.389542 0.134955 0.8 0 0
0.532083 0.841912 0.115351 0.8 0 0
0.546400 0.316212 0.041179 0.8 0 0
0.525443 0.803522 0.102744 0.8 0 0
0.549874 0.854108 0.095110 0.8 0 0
0.477814 0.951463 0.134960 0.8 0 0
0.404160 0.259292 0.053305 0.8 0 0
0.437560 0.488249 0.038922 0.8 0 0
0.366428 0.511152 0.080548 0.8 0 0
0.530060 0.857199 0.126236 0.8 0 0
0.450379 0.916598 0.166108 0.8 0 0
0.436999 0.955613 0.100335 0.8 0 0
0.331898 0.509258 0.123298 0.8 0 0
0.422857 0.932624 0.149169 0.8 0 0
0.360742 0.823241 0.090847 0.8 0 0
0.525041 0.814411 0.050863 0.8 0 0
0.406999 0.698554 0.068674 0.8 0 0
0.446409 0.908084 0.150079 0.8 0 0
0.473172 0.844361 0.062080 0.8 0 0
0.328276 0.489430 0.145095 0.8 0 0
0.510280 0.943214 0.165803 0.8 0 0
0.525272 0.795249 0.117579 0.8 0 0
0.400599 0.898725 0.121729 0.8 0 0
0.503084 0.905297 0.133186 0.8 0 0
0.494898 0.231856 0.036588 0.8 0 0
0.430392 0.924569 0.161873 0.8 0 0
0.507987 0.933572 0.185189 0.8 0 0
0.353662 0.400928 0.070806 0.8 0 0
0.572075 0.242969 0.094566 0.8 0 0
0.500497 0.772086 0.175606 0.8 0 0
0.396382 0.062469 0.094715 0.8 0 0
0.375321 0.725424 0.149226 0.8 0 0
0.467397 0.940344 0.156573 0.8 0 0
0.406278 0.335878 0.031113 0.8 0 0
0.571019 0.838077 0.103259 0.8 0 0
0.343219 0.444670 0.133191 0.8 0 0
0.390025 0.823871 0.116747 0.8 0 0
0.385889 0.598729 0.243664 0.8 0 0
0.365407 0.826137 0.087700 0.8 0 0
0.471127 0.534308 0.042975 0.8 0 0
0.345469 0.628985 0.096374 0.8 0 0
0.403350 0.924791 0.135874 0.8 0 0
0.455376 0.919148 0.102702 0.8 0 0
0.512834 0.797945 0.105046 0.8 0 0
0.444395 0.914995 0.186895 0.8 0 0
0.452436 0.473766 0.270991 0.8 0 0
0.426510 0.395456 0.027996 0.8 0 0
0.434778 0.958160 0.120957 0.8 0 0
0.500638 0.926258 0.173682 0.8 0 0
0.452235 0.929952 0.151233 0.8 0 0
0.422937 0.056722 0.146712 0.8 0 0
0.444292 0.777768 0.110131 0.8 0 0
0.384912 0.868990 0.127280 0.8 0 0
0.458037 0.946183 0.110891 0.8 0 0
0.483743 0.897655 0.084283 0.8 0 0
0.484178 0.937371 0.136396 0.8 0 0
0.459836 0.338393 0.093565 0.8 0 0
0.440064 0.911396 0.175472 0.8 0 0
0.426248 0.305225 0.196603 0.8 0 0
0.514869 0.236245 0.201517 0.8 0 0
0.468540 0.914190 0.187733 0.8 0 0
0.542084 0.027684 0.170773 0.8 0 0
0.524233 0.890970 0.152072 0.8 0 0
0.470253 0.889151 0.056263 0.8 0 0
0.378849 0.952708 0.147253 0.8 0 0
0.503491 0.799646 0.088377 0.8 0 0
0.473707 0.536459 0.261658 0.8 0 0
0.464147 0.555063 0.263009 0.8 0 0
0.390153 0.869782 0.153203 0.8 0 0
0.338131 0.346710 0.126960 0.8 0 0
0.578438 0.466825 0.153681 0.8 0 0
0.410768 0.647387 0.241778 0.8 0 0
0.490026 0.560722 0.237711 0.8 0 0
0.448824 0.935104 0.136312 0.8 0 0
0.400416 0.925006 0.136517 0.8 0 0
0.348144 0.226529 0.142129 0.8 0 0
0.466207 0.850799 0.133401 0.8 0 0
0.496554 0.305557 0.206385 0.8 0 0
0.480762 0.940295 0.122483 0.8 0 0
0.486536 0.844133 0.080654 0.8 0 0
0.464813 0.735802 0.167908 0.8 0 0
0.528661 0.869897 0.129435 0.8 0 0
0.440515 0.920743 0.168437 0.8 0 0
0.563643 0.691554 0.151236 0.8 0 0
0.451081 0.928540 0.130477 0.8 0 0
0.461343 0.906831 0.176974 0.8 0 0
0.535348 0.833676 0.111856 0.8 0 0
0.424293 0.359139 0.209597 0.8 0 0
0.507953 0.867167 0.149001 0.8 0 0
0.445867 0.246551 0.125029 0.8 0 0
0.452658 0.930496 0.152697 0.8 0 0
0.406363 0.878358 0.122633 0.8 0 0
0.367997 0.862349 0.108180 0.8 0 0
0.409569 0.905372 0.155228 0.8 0 0
0.391887 0.846758 0.090032 0.8 0 0
0.472157 0.496117 0.249033 0.8 0 0
0.546444 0.889218 0.136468 0.8 0 0
0.469827 0.257112 0.099251 0.8 0 0
0.372451 0.408557 0.032519 0.8 0 0
0.462974 0.631280 0.233218 0.8 0 0
0.492447 0.943483 0.085821 0.8 0 0
0.424717 0.884574 0.156081 0.8 0 0
0.576432 0.478303 0.178421 0.8 0 0
0.446038 0.938113 0.147480 0.8 0 0
0.418383 0.921155 0.152155 0.8 0 0
0.379789 0.144459 0.150181 0.8 0 0
0.479340 0.790380 0.204904 0.8 0 0
0.547101 0.577461 0.077783 0.8 0 0
0.448497 0.926984 0.128736 0.8 0 0
0.546877 0.878875 0.150533 0.8 0 0
0.423389 0.747391 0.135329 0.8 0 0
0.473148 0.919507 0.142454 0.8 0 0
0.431744 0.792804 0.077298 0.8 0 0
0.424377 0.209699 0.168768 0.8 0 0
0.692952 0.665964 0.132664 0.8 0 0
0.505009 0.902016 0.130042 0.8 0 0
0.464341 0.915118 0.108352 0.8 0 0
0.430644 0.803794 0.084642 0.8 0 0
0.501389 0.907183 0.179897 0.8 0 0
0.495197 0.917875 0.182506 0.8 0 0
0.378320 0.823949 0.125180 0.8 0 0
0.491454 0.922557 0.176900 0.8 0 0
0.564160 0.367157 0.188373 0.8 0 0
0.470723 0.606261 0.243403 0.8 0 0
0.573605 0.358310 0.089577 0.8 0 0
0.531303 0.706241 0.179716 0.8 0 0
0.430993 0.272701 0.202177 0.8 0 0
0.484248 0.788380 0.081479 0.8 0 0
0.395959 0.898027 0.140739 0.8 0 0
0.438742 0.891739 0.071498 0.8 0 0
0.437125 0.921770 0.123985 0.8 0 0
0.472232 0.908510 0.181765 0.8 0 0
0.499492 0.852619 0.131590 0.8 0 0
0.484608 0.276392 0.036404 0.8 0 0
0.516674 0.517766 0.245051 0.8 0 0
0.512101 0.795419 0.088017 0.8 0 0
0.465168 0.283359 0.078224 0.8 0 0
0.400462 0.711740 0.174143 0.8 0 0
0.401328 0.223241 0.191217 0.8 0 0
0.523113 0.639835 0.059939 0.8 0 0
0.193597 0.677198 0.148838 0.8 0 0
0.497584 0.175099 0.165330 0.8 0 0
0.535502 0.830935 0.101023 0.8 0 0
0.443195 0.841859 0.125481 0.8 0 0
0.489799 0.859415 0.071893 0.8 0 0
0.473297 0.820564 0.064863 0.8 0 0
0.491939 0.916006 0.167621 0.8 0 0
0.566276 0.618172 0.165205 0.8 0 0
0.489593 0.251945 0.235640 0.8 0 0
0.415196 0.412982 0.227763 0.8 0 0
0.477471 0.196325 0.124173 0.8 0 0
0.421458 0.826056 0.186295 0.8 0 0
0.569156 0.496372 0.184380 0.8 0 0
0.519183 0.839376 0.038209 0.8 0 0
0.521002 0.895957 0.119238 0.8 0 0
0.340901 0.583091 0.130747 0.8 0 0
0.509404 0.903076 0.158821 0.8 0 0
0.544945 0.857280 0.081674 0.8 0 0
0.378664 0.062280 0.128454 0.8 0 0
0.533143 0.879516 0.107246 0.8 0 0
0.392010 0.218367 0.187217 0.8 0 0
0.440352 0.844878 0.081189 0.8 0 0
0.347147 0.412646 0.083904 0.8 0 0
0.459758 0.780785 0.087513 0.8 0 0
0.409021 0.732741 0.162138 0.8 0 0
0.424507 0.918695 0.104193 0.8 0 0
0.496782 0.832405 0.179368 0.8 0 0
0.486515 0.936750 0.135372 0.8 0 0
0.734428 0.727636 0.098396 0.8 0 0
0.494116 0.944434 0.084860 0.8 0 0
0.363734 0.575953 0.220801 0.8 0 0
0.522557 0.907372 0.129388 0.8 0 0
0.243281 0.737117 0.098269 0.8 0 0
0.557672 0.650368 0.072306 0.8 0 0
0.540866 0.887737 0.149953 0.8 0 0
0.420129 0.884737 0.148701 0.8 0 0
0.420503 0.936072 0.093400 0.8 0 0
0.391278 0.868208 0.110413 0.8 0 0
0.431381 0.927121 0.178618 0.8 0 0
0.374380 0.332787 0.037951 0.8 0 0
0.424665 0.926183 0.119684 0.8 0 0
0.492682 0.875937 0.065410 0.8 0 0
0.477397 0.800497 0.065767 0.8 0 0
0.457360 0.928083 0.169050 0.8 0 0
0.448845 0.740081 0.168198 0.8 0 0
0.499462 0.272940 0.208285 0.8 0 0
0.358732 0.906918 0.109012 0.8 0 0
0.344586 0.279613 0.106799 0.8 0 0
0.562171 0.283652 0.185352 0.8 0 0
0.457673 0.917279 0.109380 0.8 0 0
0.438583 0.719396 0.169299 0.8 0 0
0.350970 0.690564 0.158120 0.8 0 0
0.510053 0.900869 0.173955 0.8 0 0
0.547552 0.606517 0.214827 0.8 0 0
0.555917 0.240309 0.083321 0.8 0 0
0.406202 0.568585 0.252201 0.8 0 0
0.531668 0.103400 0.087672 0.8 0 0
0.394143 0.839873 0.103029 0.8 0 0
0.501929 0.937019 0.150173 0.8 0 0
0.486531 0.959145 0.157054 0.8 0 0
0.451520 0.345614 0.081735 0.8 0 0
0.526464 0.352768 0.230253 0.8 0 0
0.775136 0.671829 0.113624 0.8 0 0
0.371235 0.347479 0.217813 0.8 0 0
0.455840 0.869283 0.073346 0.8 0 0
0.373565 0.851594 0.115183 0.8 0 0
0.450334 0.934675 0.166105 0.8 0 0
0.511589 0.951756 0.127585 0.8 0 0
0.506538 0.302348 0.047576 0.8 0 0
0.467904 0.903470 0.079015 0.8 0 0
0.389672 0.841832 0.098960 0.8 0 0
0.486355 0.187702 0.153636 0.8 0 0
0.394676 0.861723 0.086788 0.8 0 0
0.440148 0.569822 0.247818 0.8 0 0
0.443798 0.877087 0.199081 0.8 0 0
0.370997 0.459970 0.036401 0.8 0 0
0.456323 0.516804 0.253727 0.8 0 0
0.498800 0.916092 0.177502 0.8 0 0
0.454989 0.647115 0.234623 0.8 0 0
0.443212 0.875709 0.067458 0.8 0 0
0.569553 0.212664 0.122094 0.8 0 0
0.421379 0.944357 0.147612 0.8 0 0
0.427363 0.602947 0.255255 0.8 0 0
0.429329 0.455514 0.263566 0.8 0 0
0.457690 0.764830 0.116841 0.8 0 0
0.407408 0.227122 0.187903 0.8 0 0
0.504243 0.807782 0.084447 0.8 0 0
0.373054 0.860826 0.089764 0.8 0 0
0.403305 0.887350 0.132136 0.8 0 0
0.468430 0.370778 0.195355 0.8 0 0
0.482071 0.856017 0.066901 0.8 0 0
0.422465 0.065804 0.125860 0.8 0 0
0.333579 0.481391 0.159758 0.8 0 0
0.497402 0.510740 0.223978 0.8 0 0
0.531424 0.412037 0.037477 0.8 0 0
0.770478 0.695350 0.087417 0.8 0 0
0.443960 0.901940 0.182153 0.8 0 0
0.382346 0.057486 0.167655 0.8 0 0
0.481535 0.837644 0.063821 0.8 0 0
0.437061 0.799855 0.076167 0.8 0 0
0.398597 0.859670 0.106660 0.8 0 0
0.522124 0.901419 0.131258 0.8 0 0
0.426285 0.762172 0.104371 0.8 0 0
0.518251 0.537974 0.054534 0.8 0 0
0.483847 0.848519 0.071057 0.8 0 0
0.459129 0.915313 0.082784 0.8 0 0
0.349847 0.354504 0.078316 0.8 0 0
0.546555 0.352750 0.220407 0.8 0 0
0.531592 0.821974 0.092649 0.8 0 0
0.526969 0.708632 0.170451 0.8 0 0
0.448506 0.319231 0.102612 0.8 0 0
0.446722 0.936572 0.133396 0.8 0 0
0.483342 0.862655 0.073077 0.8 0 0
0.438778 0.935512 0.142399 0.8 0 0
0.475603 0.200460 0.111790 0.8 0 0
0.395733 0.910843 0.153028 0.8 0 0
0.497294 0.777218 0.118018 0.8 0 0
0.398795 0.669893 0.212982 0.8 0 0
0.549810 0.540208 0.214016 0.8 0 0
0.577683 0.441049 0.171359 0.8 0 0
0.518080 0.040241 0.233979 0.8 0 0
0.526270 0.872778 0.129723 0.8 0 0
0.490627 0.949469 0.134771 0.8 0 0
0.522372 0.432954 0.217313 0.8 0 0
0.467290 0.905355 0.174190 0.8 0 0
0.442936 0.863609 0.076981 0.8 0 0
0.474286 0.728875 0.166426 0.8 0 0
0.530990 0.960472 0.162123 0.8 0 0
0.527575 0.852001 0.108638 0.8 0 0
0.494900 0.505216 0.256799 0.8 0 0
0.553063 0.898994 0.088724 0.8 0 0
0.457515 0.929472 0.123036 0.8 0 0
0.476809 0.818835 0.064011 0.8 0 0
0.451200 0.288444 0.077644 0.8 0 0
0.381899 0.864893 0.131000 0.8 0 0
0.365320 0.860917 0.109071 0.8 0 0
0.442983 0.349378 0.073031 0.8 0 0
0.552644 0.867838 0.144866 0.8 0 0
0.415951 0.655092 0.059696 0.8 0 0
0.546289 0.847710 0.092106 0.8 0 0
0.578079 0.485222 0.122189 0.8 0 0
0.368796 0.310095 0.214446 0.8 0 0
0.513145 0.343997 0.034237 0.8 0 0
0.195832 0.728356 0.136848 0.8 0 0
0.578819 0.374892 0.143743 0.8 0 0
0.451728 0.668030 0.212525 0.8 0 0
0.514963 0.788098 0.101558 0.8 0 0
0.472976 0.797376 0.095798 0.8 0 0
0.491910 0.927418 0.175751 0.8 0 0
0.480233 0.912072 0.061242 0.8 0 0
0.362395 0.588377 0.082844 0.8 0 0
0.459257 0.916344 0.175169 0.8 0 0
0.364758 0.343123 0.062489 0.8 0 0
0.547977 0.835232 0.097632 0.8 0 0
0.453710 0.965346 0.135125 0.8 0 0
0.434221 0.798360 0.077141 0.8 0 0
0.481400 0.796755 0.067302 0.8 0 0
0.397237 0.944172 0.133889 0.8 0 0
0.760020 0.682095 0.152996 0.8 0 0
0.397243 0.903507 0.095148 0.8 0 0
0.377492 0.844235 0.095174 0.8 0 0
0.420536 0.709117 0.072221 0.8 0 0
0.549635 0.857883 0.127344 0.8 0 0
0.421845 0.176393 0.164872 0.8 0 0
0.555385 0.307757 0.201650 0.8 0 0
0.055006 0.682400 0.138920 0.8 0 0
0.533251 0.064333 0.118803 0.8 0 0
0.446422 0.964602 0.127770 0.8 0 0
0.428053 0.056045 0.113865 0.8 0 0
0.540974 0.377551 0.212751 0.8 0 0
0.390477 0.937325 0.122999 0.8 0 0
0.382080 0.606700 0.240508 0.8 0 0
0.492520 0.845480 0.185346 0.8 0 0
0.373781 0.898762 0.112399 0.8 0 0
0.490750 0.821429 0.073700 0.8 0 0
0.094550 0.720304 0.095138 0.8 0 0
0.515234 0.924352 0.108197 0.8 0 0
0.463415 0.634583 0.239587 0.8 0 0
0.564339 0.353239 0.058351 0.8 0 0
0.569839 0.217007 0.125249 0.8 0 0
0.364465 0.882891 0.084772 0.8 0 0
0.521571 0.896021 0.163912 0.8 0 0
0.444381 0.908458 0.080449 0.8 0 0
0.399832 0.333066 0.212857 0.8 0 0
0.457851 0.374049 0.100958 0.8 0 0
0.700005 0.729106 0.119387 0.8 0 0
0.465599 0.960721 0.111513 0.8 0 0
0.419044 0.926813 0.181108 0.8 0 0
0.469364 0.634516 0.059256 0.8 0 0
0.461961 0.913124 0.162502 0.8 0 0
0.345021 0.261078 0.145869 0.8 0 0
0.454271 0.882576 0.161051 0.8 0 0
0.515910 0.640915 0.240678 0.8 0 0
0.498215 0.904085 0.098338 0.8 0 0
0.468050 0.832852 0.067307 0.8 0 0
0.520176 0.829256 0.086470 0.8 0 0
0.422410 0.230242 0.200922 0.8 0 0
0.531750 0.816055 0.090929 0.8 0 0
0.375638 0.075713 0.144133 0.8 0 0
0.524374 0.809313 0.106954 0.8 0 0
0.452372 0.816167 0.073978 0.8 0 0
0.431692 0.844433 0.062188 0.8 0 0
0.343567 0.304482 0.130118 0.8 0 0
0.414287 0.423009 0.026585 0.8 0 0
0.472703 0.257408 0.153707 0.8 0 0
0.467710 0.469694 0.031092 0.8 0 0
0.446850 0.275632 0.130150 0.8 0 0
0.335364 0.636000 0.167726 0.8 0 0
0.574041 0.353316 0.172723 0.8 0 0
0.385303 0.199182 0.072505 0.8 0 0
0.451645 0.900624 0.081368 0.8 0 0
0.487520 0.895362 0.165703 0.8 0 0
0.465083 0.940493 0.097329 0.8 0 0
0.455317 0.922833 0.152425 0.8 0 0
0.560404 0.848204 0.095544 0.8 0 0
0.528888 0.824033 0.091912 0.8 0 0
0.410686 0.900840 0.132576 0.8 0 0
0.463856 0.827518 0.068411 0.8 0 0
0.417519 0.831308 0.075410 0.8 0 0
0.386380 0.179206 0.171867 0.8 0 0
0.394334 0.905550 0.124491 0.8 0 0
0.549355 0.564725 0.194460 0.8 0 0
0.537409 0.509632 0.195788 0.8 0 0
0.437099 0.248743 0.072708 0.8 0 0
0.453228 0.864140 0.200624 0.8 0 0
0.414624 0.888076 0.087732 0.8 0 0
0.334749 0.395323 0.059755 0.8 0 0
0.349332 0.285001 0.180157 0.8 0 0
0.446515 0.900392 0.070040 0.8 0 0
0.380004 0.826724 0.093697 0.8 0 0
0.545955 0.934887 0.100681 0.8 0 0
0.557124 0.579794 0.089157 0.8 0 0
0.447826 0.936453 0.107726 0.8 0 0
0.515843 0.902742 0.160117 0.8 0 0
0.410762 0.492321 0.182665 0.8 0 0
0.450197 0.827059 0.078339 0.8 0 0
0.392310 0.426646 0.030396 0.8 0 0
0.384302 0.845011 0.114607 0.8 0 0
0.482821 0.831762 0.203162 0.8 0 0
0.486417 0.091419 0.116530 0.8 0 0
0.406898 0.620008 0.246831 0.8 0 0
0.867682 0.707625 0.118600 0.8 0 0
0.398810 0.746459 0.130202 0.8 0 0
0.486488 0.933747 0.121321 0.8 0 0
0.729974 0.678486 0.099928 0.8 0 0
0.407835 0.238291 0.047484 0.8 0 0
0.464843 0.930657 0.168860 0.8 0 0
0.415353 0.930869 0.154713 0.8 0 0
0.491433 0.878303 0.063331 0.8 0 0
0.443866 0.362487 0.030393 0.8 0 0
0.567871 0.534853 0.105094 0.8 0 0
0.486285 0.910579 0.069473 0.8 0 0
0.491183 0.923026 0.160135 0.8 0 0
0.480880 0.605234 0.225355 0.8 0 0
0.465391 0.908563 0.174610 0.8 0 0
0.348377 0.478793 0.140317 0.8 0 0
0.469009 0.960519 0.111809 0.8 0 0
0.571603 0.599462 0.119799 0.8 0 0
0.476901 0.776623 0.103000 0.8 0 0
0.455613 0.828106 0.081913 0.8 0 0
0.088634 0.701532 0.110518 0.8 0 0
0.490880 0.923682 0.177062 0.8 0 0
0.496639 0.800348 0.075855 0.8 0 0
0.478583 0.781929 0.104461 0.8 0 0
0.498997 0.784808 0.104093 0.8 0 0
0.537396 0.311508 0.041765 0.8 0 0
0.557545 0.489615 0.106194 0.8 0 0
0.425185 0.089156 0.099600 0.8 0 0
0.359660 0.273185 0.046655 0.8 0 0
0.434406 0.450686 0.265032 0.8 0 0
0.458169 0.932948 0.119892 0.8 0 0
0.441212 0.177549 0.125403 0.8 0 0
0.578472 0.380399 0.081956 0.8 0 0
0.528368 0.856826 0.118446 0.8 0 0
0.429736 0.306756 0.247353 0.8 0 0
0.512985 0.940119 0.175144 0.8 0 0
0.473732 0.301902 0.072769 0.8 0 0
0.566742 0.282910 0.168918 0.8 0 0
0.572365 0.508177 0.155863 0.8 0 0
0.460968 0.926322 0.100166 0.8 0 0
0.547205 0.834538 0.100756 0.8 0 0
0.392428 0.455593 0.032707 0.8 0 0
0.494339 0.908408 0.154722 0.8 0 0
0.541777 0.324832 0.220951 0.8 0 0
0.529853 0.944923 0.153698 0.8 0 0
0.535075 0.852487 0.087273 0.8 0 0
0.490968 0.923745 0.183403 0.8 0 0
0.478152 0.919012 0.096146 0.8 0 0
0.427728 0.923239 0.114248 0.8 0 0
0.369744 0.895255 0.103936 0.8 0 0
0.421731 0.822267 0.076738 0.8 0 0
0.509694 0.972297 0.102586 0.8 0 0
0.472369 0.311167 0.035680 0.8 0 0
0.570037 0.213423 0.107780 0.8 0 0
0.432012 0.816614 0.069319 0.8 0 0
0.394690 0.937692 0.172802 0.8 0 0
0.492088 0.931973 0.152940 0.8 0 0
0.540901 0.891898 0.119036 0.8 0 0
0.471648 0.758624 0.175153 0.8 0 0
0.491293 0.916353 0.135284 0.8 0 0
0.499393 0.052861 0.116666 0.8 0 0
0.575885 0.637546 0.101902 0.8 0 0
0.489293 0.576467 0.053269 0.8 0 0
0.389025 0.930421 0.096756 0.8 0 0
0.348212 0.237713 0.107617 0.8 0 0
0.487656 0.154707 0.088851 0.8 0 0
0.745040 0.676526 0.157305 0.8 0 0
0.495454 0.946088 0.141548 0.8 0 0
0.545917 0.926591 0.166184 0.8 0 0
0.145808 0.688488 0.098025 0.8 0 0
0.428388 0.383771 0.032974 0.8 0 0
0.403071 0.917830 0.148798 0.8 0 0
0.512371 0.880180 0.131427 0.8 0 0
0.476118 0.898986 0.168454 0.8 0 0
0.451314 0.412031 0.053559 0.8 0 0
0.528369 0.939784 0.152185 0.8 0 0
0.535605 0.460287 0.043992 0.8 0 0
0.492321 0.910039 0.172019 0.8 0 0
0.487764 0.891686 0.165116 0.8 0 0
0.456811 0.786032 0.101327 0.8 0 0
0.457491 0.924780 0.140768 0.8 0 0
0.490365 0.927639 0.152526 0.8 0 0
0.490415 0.844367 0.182650 0.8 0 0
0.468029 0.549235 0.262535 0.8 0 0
0.455788 0.928361 0.147584 0.8 0 0
0.408831 0.301866 0.032709 0.8 0 0
0.374850 0.414854 0.211213 0.8 0 0
0.369476 0.372977 0.229419 0.8 0 0
0.336648 0.325008 0.156275 0.8 0 0
0.479625 0.624513 0.248898 0.8 0 0
0.433712 0.923193 0.159864 0.8 0 0
0.414521 0.924344 0.161801 0.8 0 0
0.522049 0.199284 0.059740 0.8 0 0
0.473316 0.817899 0.068444 0.8 0 0
0.566176 0.381710 0.177432 0.8 0 0
0.557993 0.296121 0.196400 0.8 0 0
0.436052 0.837847 0.073938 0.8 0 0
0.447465 0.314696 0.063394 0.8 0 0
0.400971 0.867074 0.103080 0.8 0 0
0.432772 0.941752 0.124673 0.8 0 0
0.504728 0.907824 0.104324 0.8 0 0
0.344870 0.399897 0.190262 0.8 0 0
0.536244 0.925675 0.129564 0.8 0 0
0.496963 0.938063 0.143123 0.8 0 0
0.458571 0.833474 0.078293 0.8 0 0
0.340915 0.408618 0.152096 0.8 0 0
0.341405 0.418804 0.104170 0.8 0 0
0.442445 0.930542 0.148811 0.8 0 0
0.477414 0.861064 0.058717 0.8 0 0
0.509665 0.907713 0.155262 0.8 0 0
0.345127 0.288672 0.074231 0.8 0 0
0.417242 0.784850 0.154999 0.8 0 0
0.493379 0.834549 0.052747 0.8 0 0
0.435444 0.920901 0.155798 0.8 0 0
0.498875 0.877529 0.154593 0.8 0 0
0.339585 0.412563 0.051776 0.8 0 0
0.553952 0.847430 0.093276 0.8 0 0
0.579403 0.415312 0.086437 0.8 0 0
0.378666 0.636482 0.235530 0.8 0 0
0.431314 0.504260 0.261577 0.8 0 0
0.404274 0.933796 0.144895 0.8 0 0
0.352085 0.236205 0.165252 0.8 0 0
0.089378 0.704957 0.100857 0.8 0 0
0.419607 0.904811 0.100361 0.8 0 0
0.572248 0.262855 0.140344 0.8 0 0
0.370276 0.819766 0.103234 0.8 0 0
0.504003 0.749752 0.102805 0.8 0 0
0.477203 0.510843 0.059083 0.8 0 0
0.388655 0.388054 0.217431 0.8 0 0
0.399234 0.951217 0.138659 0.8 0 0
0.429621 0.815209 0.087632 0.8 0 0
0.502834 0.897288 0.137698 0.8 0 0
0.443794 0.914509 0.192235 0.8 0 0
0.456604 0.444784 0.238295 0.8 0 0
0.504192 0.920593 0.162768 0.8 0 0
0.412650 0.248722 0.228711 0.8 0 0
0.505675 0.775597 0.112804 0.8 0 0
0.497412 0.365227 0.039053 0.8 0 0
0.450403 0.938015 0.134870 0.8 0 0
0.451085 0.861512 0.043955 0.8 0 0
0.487058 0.875563 0.070648 0.8 0 0
0.528304 0.198534 0.208380 0.8 0 0
0.525081 0.344457 0.230168 0.8 0 0
0.554459 0.667763 0.069064 0.8 0 0
0.540802 0.921185 0.170507 0.8 0 0
0.417598 0.892709 0.159077 0.8 0 0
0.467799 0.887407 0.188709 0.8 0 0
0.379578 0.238153 0.193195 0.8 0 0
0.419578 0.563074 0.254255 0.8 0 0
0.480056 0.888637 0.082583 0.8 0 0
0.414989 0.297331 0.035164 0.8 0 0
0.517696 0.933463 0.138906 0.8 0 0
0.447962 0.575818 0.247296 0.8 0 0
0.462165 0.920226 0.175529 0.8 0 0
0.482500 0.829554 0.066095 0.8 0 0
0.549560 0.284977 0.190052 0.8 0 0
0.454122 0.891563 0.164292 0.8 0 0
0.508213 0.787244 0.099324 0.8 0 0
0.408457 0.939421 0.136475 0.8 0 0
0.491054 0.916608 0.148573 0.8 0 0
0.501981 0.338314 0.218054 0.8 0 0
0.456463 0.921775 0.165365 0.8 0 0
0.504603 0.239012 0.190850 0.8 0 0
0.544425 0.873749 0.149824 0.8 0 0
0.445334 0.859973 0.145330 0.8 0 0
0.569762 0.340304 0.161851 0.8 0 0
0.222275 0.716421 0.087051 0.8 0 0
0.352070 0.237092 0.057491 0.8 0 0
0.579692 0.451119 0.153271 0.8 0 0
0.527654 0.839218 0.108513 0.8 0 0
0.420900 0.928725 0.120294 0.8 0 0
0.151527 0.685697 0.101922 0.8 0 0
0.443240 0.448359 0.267834 0.8 0 0
0.487927 0.800705 0.092253 0.8 0 0
0.476126 0.836089 0.059125 0.8 0 0
0.561022 0.398787 0.040646 0.8 0 0
0.466041 0.867754 0.063962 0.8 0 0
0.521638 0.074296 0.088877 0.8 0 0
0.522938 0.880596 0.118123 0.8 0 0
0.483935 0.943790 0.097412 0.8 0 0
0.415560 0.504341 0.256668 0.8 0 0
0.094796 0.709285 0.146562 0.8 0 0
0.386469 0.233557 0.042075 0.8 0 0
0.376009 0.308818 0.057068 0.8 0 0
0.408726 0.894507 0.129114 0.8 0 0
0.393125 0.521149 0.215812 0.8 0 0
0.451069 0.925676 0.162308 0.8 0 0
0.432483 0.925721 0.179933 0.8 0 0
0.431473 0.943893 0.133334 0.8 0 0
0.337572 0.516888 0.132947 0.8 0 0
0.564605 0.265798 0.147613 0.8 0 0
0.538282 0.599001 0.222167 0.8 0 0
0.520569 0.885259 0.130232 0.8 0 0
0.459041 0.936161 0.114559 0.8 0 0
0.380600 0.914306 0.123487 0.8 0 0
0.160159 0.723311 0.137839 0.8 0 0
0.571548 0.548481 0.125667 0.8 0 0
0.387054 0.867028 0.112897 0.8 0 0
0.443645 0.921198 0.155453 0.8 0 0
0.531849 0.859761 0.081245 0.8 0 0
0.443809 0.935878 0.149603 0.8 0 0
0.443817 0.935632 0.146155 0.8 0 0
0.509911 0.939815 0.151132 0.8 0 0
0.515964 0.944102 0.150255 0.8 0 0
0.482482 0.626549 0.239611 0.8 0 0
0.476718 0.807517 0.095842 0.8 0 0
0.402546 0.068155 0.176997 0.8 0 0
0.521183 0.800402 0.101448 0.8 0 0
0.540381 0.383321 0.051211 0.8 0 0
0.522180 0.923695 0.114454 0.8 0 0
0.522432 0.957229 0.141743 0.8 0 0
0.462766 0.792157 0.095376 0.8 0 0
0.543203 0.890133 0.138849 0.8 0 0
0.467203 0.882160 0.160945 0.8 0 0
0.383839 0.845541 0.105203 0.8 0 0
0.472623 0.550092 0.251065 0.8 0 0
0.509212 0.793480 0.093836 0.8 0 0
0.423702 0.928454 0.091818 0.8 0 0
0.513094 0.352322 0.238726 0.8 0 0
0.459703 0.856705 0.068232 0.8 0 0
0.445583 0.307010 0.088500 0.8 0 0
0.457451 0.532858 0.247800 0.8 0 0
0.474918 0.922198 0.088532 0.8 0 0
0.822485 0.715667 0.129506 0.8 0 0
0.422139 0.492442 0.259783 0.8 0 0
0.572207 0.288061 0.142467 0.8 0 0
0.521800 0.798786 0.101548 0.8 0 0
0.331490 0.475599 0.107231 0.8 0 0
0.449238 0.537350 0.262370 0.8 0 0
0.535387 0.895654 0.141764 0.8 0 0
0.461190 0.938368 0.111686 0.8 0 0
0.513520 0.475374 0.036964 0.8 0 0
0.572544 0.562816 0.129125 0.8 0 0
0.502711 0.784653 0.086790 0.8 0 0
0.417703 0.799786 0.177887 0.8 0 0
0.505239 0.294973 0.206673 0.8 0 0
0.832588 0.694371 0.110899 0.8 0 0
0.424644 0.739508 0.159108 0.8 0 0
0.410252 0.867265 0.149125 0.8 0 0
0.452425 0.377731 0.118485 0.8 0 0
0.460137 0.783911 0.105625 0.8 0 0
0.374103 0.643869 0.221636 0.8 0 0
0.426385 0.660062 0.233308 0.8 0 0
0.203692 0.695437 0.162269 0.8 0 0
0.540278 0.372108 0.222185 0.8 0 0
0.396397 0.915499 0.139136 0.8 0 0
0.328238 0.444574 0.125596 0.8 0 0
0.492357 0.581337 0.053893 0.8 0 0
0.470599 0.320249 0.185543 0.8 0 0
0.534898 0.888822 0.126208 0.8 0 0
0.569414 0.841309 0.094067 0.8 0 0
0.521546 0.946375 0.132875 0.8 0 0
0.526451 0.907696 0.146478 0.8 0 0
0.454137 0.390678 0.125162 0.8 0 0
0.423501 0.918317 0.116113 0.8 0 0
0.530506 0.276962 0.038723 0.8 0 0
0.499885 0.893562 0.127714 0.8 0 0
0.550761 0.869873 0.148741 0.8 0 0
0.416361 0.314521 0.205047 0.8 0 0
0.462520 0.785565 0.087180 0.8 0 0
0.533686 0.861162 0.148189 0.8 0 0
0.406267 0.900382 0.105682 0.8 0 0
0.566080 0.386658 0.186610 0.8 0 0
0.382405 0.931293 0.086928 0.8 0 0
0.428350 0.870400 0.083139 0.8 0 0
0.480821 0.504906 0.245187 0.8 0 0
0.504152 0.934636 0.183230 0.8 0 0
0.383735 0.839027 0.088152 0.8 0 0
0.520081 0.391850 0.033555 0.8 0 0
0.396022 0.278835 0.225127 0.8 0 0
0.383578 0.861642 0.121495 0.8 0 0
0.551520 0.694490 0.183440 0.8 0 0
0.480580 0.443993 0.235252 0.8 0 0
0.593790 0.649464 0.190333 0.8 0 0
0.337850 0.379937 0.181642 0.8 0 0
0.397814 0.847518 0.132547 0.8 0 0
0.460594 0.666987 0.217644 0.8 0 0
0.575047 0.484836 0.175239 0.8 0 0
0.403082 0.809758 0.099060 0.8 0 0
0.469364 0.943203 0.091262 0.8 0 0
0.487627 0.905559 0.174640 0.8 0 0
0.465058 0.328718 0.094440 0.8 0 0
0.541385 0.268916 0.206466 0.8 0 0
0.520268 0.854156 0.151906 0.8 0 0
0.338400 0.400205 0.127801 0.8 0 0
0.535572 0.897020 0.148791 0.8 0 0
0.453180 0.869078 0.044926 0.8 0 0
0.422547 0.417249 0.229239 0.8 0 0
0.499278 0.805101 0.061778 0.8 0 0
0.174450 0.731417 0.094671 0.8 0 0
0.369816 0.906415 0.109473 0.8 0 0
0.430407 0.916128 0.182674 0.8 0 0
0.518241 0.898034 0.123759 0.8 0 0
0.520514 0.833669 0.085242 0.8 0 0
0.389816 0.937827 0.151840 0.8 0 0
0.491499 0.920619 0.184009 0.8 0 0
0.567917 0.433112 0.053989 0.8 0 0
0.404908 0.667496 0.061436 0.8 0 0
0.409549 0.269936 0.034309 0.8 0 0
0.580729 0.487416 0.145558 0.8 0 0
0.350703 0.494009 0.115245 0.8 0 0
0.288467 0.726918 0.142535 0.8 0 0
0.393903 0.950199 0.151442 0.8 0 0
0.398964 0.074337 0.163383 0.8 0 0
0.462937 0.790473 0.081812 0.8 0 0
0.475432 0.696248 0.192434 0.8 0 0
0.518046 0.336534 0.035190 0.8 0 0
0.086773 0.711915 0.117811 0.8 0 0
0.391446 0.823776 0.112900 0.8 0 0
0.350138 0.716293 0.165099 0.8 0 0
0.346015 0.471841 0.124042 0.8 0 0
0.471997 0.269690 0.083055 0.8 0 0
0.465555 0.345396 0.083446 0.8 0 0
0.567558 0.422857 0.110712 0.8 0 0
0.545060 0.887551 0.139238 0.8 0 0
0.364512 0.262178 0.075755 0.8 0 0
0.497173 0.927023 0.164251 0.8 0 0
0.361149 0.426483 0.197799 0.8 0 0
0.463747 0.892579 0.189978 0.8 0 0
0.452297 0.916513 0.098718 0.8 0 0
0.789983 0.713080 0.142866 0.8 0 0
0.383549 0.885017 0.122784 0.8 0 0
0.461484 0.896998 0.197535 0.8 0 0
0.421833 0.933781 0.092819 0.8 0 0
0.533972 0.264774 0.216112 0.8 0 0
0.433142 0.097170 0.147679 0.8 0 0
0.469683 0.887796 0.057647 0.8 0 0
0.637245 0.692289 0.164016 0.8 0 0
0.485879 0.928370 0.184668 0.8 0 0
0.555873 0.501963 0.063742 0.8 0 0
0.500988 0.918327 0.132878 0.8 0 0
0.493187 0.437232 0.231777 0.8 0 0
0.454595 0.922040 0.174080 0.8 0 0
0.602553 0.652960 0.129874 0.8 0 0
0.469058 0.214090 0.066996 0.8 0 0
0.480768 0.324708 0.047587 0.8 0 0
0.491201 0.905891 0.189204 0.8 0 0
0.378808 0.366059 0.033748 0.8 0 0
0.373440 0.893399 0.091190 0.8 0 0
0.561982 0.842475 0.082616 0.8 0 0
0.465657 0.922145 0.175848 0.8 0 0
0.382630 0.609109 0.239852 0.8 0 0
0.539286 0.866633 0.125349 0.8 0 0
0.450576 0.358983 0.150092 0.8 0 0
0.521481 0.745508 0.125370 0.8 0 0
0.540305 0.492821 0.061760 0.8 0 0
0.557472 0.352375 0.206889 0.8 0 0
0.436747 0.941369 0.136088 0.8 0 0
0.471160 0.618800 0.248959 0.8 0 0
0.506947 0.856538 0.082064 0.8 0 0
0.497270 0.877533 0.076779 0.8 0 0
0.403087 0.676482 0.220646 0.8 0 0
0.543998 0.891123 0.104136 0.8 0 0
0.449044 0.931827 0.161656 0.8 0 0
0.468560 0.862047 0.063407 0.8 0 0
0.494962 0.754284 0.136853 0.8 0 0
0.523218 0.942809 0.158759 0.8 0 0
0.469844 0.909785 0.090345 0.8 0 0
0.510091 0.310291 0.210029 0.8 0 0
0.363670 0.610938 0.077113 0.8 0 0
0.468483 0.929966 0.101948 0.8 0 0
0.514641 0.851840 0.149595 0.8 0 0
0.363928 0.573613 0.204893 0.8 0 0
0.477577 0.925382 0.092862 0.8 0 0
0.566981 0.528475 0.095926 0.8 0 0
0.491743 0.916311 0.182853 0.8 0 0
0.487115 0.251720 0.183855 0.8 0 0
0.455319 0.513696 0.245220 0.8 0 0
0.443221 0.941590 0.179273 0.8 0 0
0.338482 0.365196 0.148448 0.8 0 0
0.428120 0.962712 0.141912 0.8 0 0
0.414098 0.730787 0.151788 0.8 0 0
0.561942 0.644585 0.198850 0.8 0 0
0.571024 0.291300 0.064092 0.8 0 0
0.573888 0.332939 0.098346 0.8 0 0
0.556061 0.324005 0.043618 0.8 0 0
0.441352 0.733804 0.167688 0.8 0 0
0.543860 0.063686 0.120125 0.8 0 0
0.370531 0.861763 0.110259 0.8 0 0
0.478675 0.906478 0.061837 0.8 0 0
0.360785 0.875620 0.083172 0.8 0 0
0.569111 0.321636 0.056468 0.8 0 0
0.496432 0.894612 0.168411 0.8 0 0
0.509201 0.949269 0.083067 0.8 0 0
0.519933 0.799532 0.108158 0.8 0 0
0.472015 0.843871 0.078277 0.8 0 0
0.348323 0.243146 0.165014 0.8 0 0
0.433960 0.752931 0.106886 0.8 0 0
0.546213 0.236000 0.047533 0.8 0 0
0.439661 0.910106 0.171953 0.8 0 0
0.390836 0.883843 0.146983 0.8 0 0
0.150116 0.684642 0.104125 0.8 0 0
0.496372 0.921843 0.176601 0.8 0 0
0.451973 0.941526 0.135233 0.8 0 0
0.455133 0.469953 0.267987 0.8 0 0
0.403131 0.537348 0.246886 0.8 0 0
0.529668 0.418916 0.213295 0.8 0 0
0.417952 0.907039 0.098313 0.8 0 0
0.350565 0.720273 0.160330 0.8 0 0
0.480515 0.903892 0.049351 0.8 0 0
0.570551 0.478839 0.192168 0.8 0 0
0.505064 0.914826 0.175550 0.8 0 0
0.501883 0.804388 0.081143 0.8 0 0
0.510030 0.700946 0.185532 0.8 0 0
0.557421 0.311935 0.044737 0.8 0 0
0.567031 0.864938 0.087597 0.8 0 0
0.476446 0.367960 0.033446 0.8 0 0
0.446516 0.474047 0.247277 0.8 0 0
0.435853 0.789966 0.077860 0.8 0 0
0.088141 0.719009 0.126469 0.8 0 0
0.450999 0.889173 0.175859 0.8 0 0
0.354970 0.302021 0.188461 0.8 0 0
0.485168 0.828962 0.064938 0.8 0 0
0.334212 0.406275 0.098218 0.8 0 0
0.574019 0.286460 0.125766 0.8 0 0
0.575971 0.376703 0.122029 0.8 0 0
0.734036 0.670539 0.120305 0.8 0 0
0.546234 0.918798 0.150167 0.8 0 0
0.454736 0.938194 0.144409 0.8 0 0
0.445165 0.246343 0.106040 0.8 0 0
0.412524 0.907662 0.114658 0.8 0 0
0.538436 0.857038 0.135238 0.8 0 0
0.379230 0.632986 0.236944 0.8 0 0
0.431059 0.788607 0.202265 0.8 0 0
0.477242 0.590158 0.260154 0.8 0 0
0.426423 0.800665 0.090586 0.8 0 0
0.564256 0.249435 0.061032 0.8 0 0
0.525951 0.648725 0.235551 0.8 0 0
0.502346 0.027549 0.214351 0.8 0 0
0.481757 0.240135 0.197145 0.8 0 0
0.480797 0.715741 0.076035 0.8 0 0
0.117744 0.730587 0.112149 0.8 0 0
0.338186 0.335695 0.069159 0.8 0 0
0.438898 0.274475 0.174445 0.8 0 0
0.353816 0.426392 0.219032 0.8 0 0
0.337770 0.635672 0.133481 0.8 0 0
0.502885 0.355849 0.218555 0.8 0 0
0.430974 0.066544 0.116568 0.8 0 0
0.345694 0.497533 0.196584 0.8 0 0
0.440443 0.928742 0.119922 0.8 0 0
0.538009 0.481249 0.052661 0.8 0 0
0.388046 0.744137 0.129108 0.8 0 0
0.090478 0.684470 0.109454 0.8 0 0
0.573071 0.287162 0.080864 0.8 0 0
0.507717 0.313746 0.046659 0.8 0 0
0.417063 0.905017 0.112244 0.8 0 0
0.505087 0.944795 0.172661 0.8 0 0
0.419868 0.790492 0.095384 0.8 0 0
0.560304 0.305180 0.087334 0.8 0 0
0.448264 0.939541 0.090177 0.8 0 0
0.418716 0.395143 0.027827 0.8 0 0
0.519172 0.308084 0.210167 0.8 0 0
0.483451 0.884529 0.178196 0.8 0 0
0.364218 0.821215 0.085896 0.8 0 0
0.458177 0.967132 0.132579 0.8 0 0
0.442995 0.746883 0.147162 0.8 0 0
0.554089 0.363775 0.213055 0.8 0 0
0.098920 0.690065 0.146536 0.8 0 0
0.466397 0.955930 0.126747 0.8 0 0
0.814337 0.680364 0.139198 0.8 0 0
0.458232 0.926057 0.098315 0.8 0 0
0.519652 0.291388 0.208341 0.8 0 0
0.425168 0.923878 0.168318 0.8 0 0
0.446794 0.745742 0.149104 0.8 0 0
0.387179 0.863784 0.114287 0.8 0 0
0.536660 0.498570 0.228259 0.8 0 0
0.457941 0.908079 0.115165 0.8 0 0
0.836684 0.686801 0.132380 0.8 0 0
0.175214 0.717902 0.087574 0.8 0 0
0.380371 0.844465 0.101461 0.8 0 0
0.470963 0.515911 0.245941 0.8 0 0
0.462888 0.917439 0.165117 0.8 0 0
0.454601 0.939728 0.124524 0.8 0 0
0.539623 0.854783 0.097373 0.8 0 0
0.498182 0.044587 0.144814 0.8 0 0
0.392745 0.937745 0.124075 0.8 0 0
0.503964 0.903904 0.129620 0.8 0 0
0.349477 0.319497 0.093910 0.8 0 0
0.574410 0.381984 0.091022 0.8 0 0
0.511215 0.610325 0.233659 0.8 0 0
0.433865 0.256043 0.180268 0.8 0 0
0.410872 0.289643 0.211051 0.8 0 0
0.486771 0.297209 0.245512 0.8 0 0
0.487967 0.835973 0.071751 0.8 0 0
0.497549 0.734950 0.154878 0.8 0 0
0.485897 0.646164 0.059472 0.8 0 0
0.573660 0.308525 0.118577 0.8 0 0
0.335452 0.498185 0.154164 0.8 0 0
0.552315 0.854353 0.127248 0.8 0 0
0.446331 0.264193 0.107391 0.8 0 0
0.363315 0.817652 0.109692 0.8 0 0
0.575511 0.838488 0.081893 0.8 0 0
0.508601 0.445008 0.254200 0.8 0 0
0.366429 0.544639 0.184663 0.8 0 0
0.445126 0.913403 0.174416 0.8 0 0
0.437507 0.304228 0.036006 0.8 0 0
0.543511 0.427208 0.201403 0.8 0 0
0.467935 0.269389 0.107433 0.8 0 0
0.265677 0.681021 0.094346 0.8 0 0
0.376061 0.746127 0.118053 0.8 0 0
0.504184 0.437217 0.027555 0.8 0 0
0.448223 0.941986 0.140004 0.8 0 0
0.519928 0.167251 0.071774 0.8 0 0
0.392549 0.870948 0.157524 0.8 0 0
0.470646 0.943887 0.114295 0.8 0 0
0.537375 0.638838 0.234725 0.8 0 0
0.459947 0.858556 0.060062 0.8 0 0
0.567642 0.276900 0.067282 0.8 0 0
0.541902 0.881966 0.099103 0.8 0 0
0.551015 0.568101 0.175673 0.8 0 0
0.796177 0.674242 0.141431 0.8 0 0
0.437267 0.901638 0.111067 0.8 0 0
0.437481 0.406245 0.044834 0.8 0 0
0.491079 0.819321 0.072276 0.8 0 0
0.538624 0.890032 0.123308 0.8 0 0
0.427488 0.935630 0.149725 0.8 0 0
0.521508 0.046222 0.214879 0.8 0 0
0.471583 0.935686 0.187882 0.8 0 0
0.452394 0.929915 0.096239 0.8 0 0
0.466177 0.223403 0.073939 0.8 0 0
0.548998 0.861268 0.102086 0.8 0 0
0.330514 0.429125 0.156416 0.8 0 0
0.392677 0.948062 0.152217 0.8 0 0
0.420383 0.832029 0.064621 0.8 0 0
0.411134 0.952934 0.163631 0.8 0 0
0.467165 0.619672 0.239708 0.8 0 0
0.537041 0.194282 0.070951 0.8 0 0
0.449417 0.929274 0.152345 0.8 0 0
0.470941 0.857833 0.077130 0.8 0 0
0.374599 0.867658 0.145052 0.8 0 0
0.543461 0.391534 0.222420 0.8 0 0
0.379695 0.863435 0.102838 0.8 0 0
0.375900 0.345609 0.228967 0.8 0 0
0.511204 0.906920 0.130985 0.8 0 0
0.483431 0.851348 0.138129 0.8 0 0
0.720354 0.727363 0.095584 0.8 0 0
0.568279 0.214283 0.078929 0.8 0 0
0.238304 0.733314 0.126943 0.8 0 0
0.521672 0.477792 0.218862 0.8 0 0
0.340521 0.328616 0.059949 0.8 0 0
0.440040 0.223147 0.143249 0.8 0 0
0.370642 0.840261 0.100288 0.8 0 0
0.420690 0.334228 0.207739 0.8 0 0
0.577813 0.363232 0.161148 0.8 0 0
0.484785 0.313504 0.248533 0.8 0 0
0.475419 0.916042 0.168329 0.8 0 0
0.362946 0.502406 0.177463 0.8 0 0
0.513072 0.855234 0.045213 0.8 0 0
0.164022 0.678659 0.127989 0.8 0 0
0.470020 0.604250 0.248824 0.8 0 0
0.399659 0.348441 0.041943 0.8 0 0
0.448994 0.943202 0.139634 0.8 0 0
0.553206 0.844853 0.096927 0.8 0 0
0.496321 0.064348 0.133582 0.8 0 0
0.334039 0.372328 0.074287 0.8 0 0
0.394173 0.918609 0.138606 0.8 0 0
0.484806 0.942894 0.153228 0.8 0 0
0.474440 0.258393 0.058398 0.8 0 0
0.495765 0.772325 0.188472 0.8 0 0
0.395688 0.843990 0.119250 0.8 0 0
0.498688 0.786341 0.083193 0.8 0 0
0.424153 0.840660 0.200510 0.8 0 0
0.382212 0.905991 0.115938 0.8 0 0
0.454190 0.678947 0.208164 0.8 0 0
0.409724 0.911706 0.162194 0.8 0 0
0.437997 0.237179 0.158413 0.8 0 0
0.485423 0.381396 0.032766 0.8 0 0
0.489696 0.936749 0.175405 0.8 0 0
0.392059 0.258551 0.222429 0.8 0 0
0.100366 0.726656 0.115790 0.8 0 0
0.561415 0.852079 0.094872 0.8 0 0
0.524484 0.897901 0.156376 0.8 0 0
0.666312 0.726468 0.091746 0.8 0 0
0.453806 0.923618 0.139895 0.8 0 0
0.555255 0.352243 0.070339 0.8 0 0
0.474658 0.862853 0.059232 0.8 0 0
0.423386 0.789240 0.083338 0.8 0 0
0.481526 0.902453 0.179666 0.8 0 0
0.437786 0.922672 0.168126 0.8 0 0
0.400610 0.913346 0.158891 0.8 0 0
0.426711 0.067073 0.108734 0.8 0 0
0.518018 0.831160 0.101411 0.8 0 0
0.389935 0.912299 0.104974 0.8 0 0
0.558268 0.230883 0.149689 0.8 0 0
0.519615 0.872313 0.092198 0.8 0 0
0.571725 0.363200 0.078302 0.8 0 0
0.448383 0.556653 0.048260 0.8 0 0
0.399966 0.828204 0.117473 0.8 0 0
0.443609 0.939763 0.142762 0.8 0 0
0.380503 0.530627 0.056725 0.8 0 0
0.446036 0.923320 0.136631 0.8 0 0
0.515028 0.526988 0.244545 0.8 0 0
0.408781 0.928904 0.157285 0.8 0 0
0.401901 0.872902 0.143153 0.8 0 0
0.454397 0.656523 0.061695 0.8 0 0
0.417596 0.885879 0.153795 0.8 0 0
0.492578 0.860788 0.062902 0.8 0 0
0.469659 0.931585 0.102869 0.8 0 0
0.469799 0.956816 0.130824 0.8 0 0
0.494846 0.217993 0.199632 0.8 0 0
0.409387 0.493380 0.165946 0.8 0 0
0.507495 0.903345 0.124849 0.8 0 0
0.491787 0.182081 0.157254 0.8 0 0
0.489326 0.906745 0.155505 0.8 0 0
0.542612 0.852260 0.084250 0.8 0 0
0.570171 0.431174 0.189737 0.8 0 0
0.356735 0.822725 0.089593 0.8 0 0
0.409364 0.942686 0.159886 0.8 0 0
0.365969 0.362792 0.058771 0.8 0 0
0.477045 0.916870 0.106770 0.8 0 0
0.485643 0.772858 0.122556 0.8 0 0
0.413733 0.666611 0.217064 0.8 0 0
0.485495 0.913892 0.141753 0.8 0 0
0.394675 0.820407 0.103980 0.8 0 0
0.474739 0.910007 0.083524 0.8 0 0
0.416236 0.826485 0.199202 0.8 0 0
0.479596 0.940094 0.122632 0.8 0 0
0.394345 0.956733 0.147707 0.8 0 0
0.542870 0.896333 0.132861 0.8 0 0
0.460109 0.719877 0.168718 0.8 0 0
0.512748 0.880116 0.102910 0.8 0 0
0.525205 0.805948 0.102024 0.8 0 0
0.536182 0.858920 0.096312 0.8 0 0
0.477053 0.887229 0.071032 0.8 0 0
0.407020 0.241064 0.037328 0.8 0 0
0.486706 0.889598 0.159035 0.8 0 0
0.547532 0.865360 0.090163 0.8 0 0
0.497719 0.389935 0.223251 0.8 0 0
0.448982 0.890276 0.067679 0.8 0 0
0.379116 0.848891 0.105688 0.8 0 0
0.488712 0.800067 0.066264 0.8 0 0
0.509698 0.286850 0.049451 0.8 0 0
0.478474 0.196638 0.100629 0.8 0 0
0.501626 0.940284 0.150277 0.8 0 0
0.486095 0.879985 0.074096 0.8 0 0
0.421045 0.338316 0.034092 0.8 0 0
0.359054 0.593265 0.200242 0.8 0 0
0.427776 0.939907 0.151750 0.8 0 0
0.683100 0.689464 0.086679 0.8 0 0
0.433499 0.923901 0.113323 0.8 0 0
0.526024 0.808072 0.092931 0.8 0 0
0.479352 0.942821 0.102735 0.8 0 0
0.497580 0.496094 0.256283 0.8 0 0
0.438988 0.741214 0.097867 0.8 0 0
0.431323 0.908028 0.179733 0.8 0 0
0.471043 0.944403 0.098807 0.8 0 0
0.493891 0.284567 0.054832 0.8 0 0
0.452380 0.917125 0.175308 0.8 0 0
0.560501 0.842236 0.084315 0.8 0 0
0.355702 0.870137 0.078417 0.8 0 0
0.521889 0.224876 0.218020 0.8 0 0
0.511250 0.542612 0.243178 0.8 0 0
0.511574 0.797224 0.104926 0.8 0 0
0.435847 0.849045 0.061618 0.8 0 0
0.455566 0.905317 0.169158 0.8 0 0
0.436112 0.904561 0.185424 0.8 0 0
0.533974 0.895487 0.149140 0.8 0 0
0.366885 0.873809 0.084647 0.8 0 0
0.390391 0.906231 0.122528 0.8 0 0
0.454346 0.672337 0.217891 0.8 0 0
0.426642 0.788132 0.092737 0.8 0 0
0.373678 0.619758 0.235610 0.8 0 0
0.723987 0.669196 0.128095 0.8 0 0
0.442231 0.790083 0.198667 0.8 0 0
0.435100 0.786042 0.094534 0.8 0 0
0.427328 0.855068 0.057831 0.8 0 0
0.521521 0.888997 0.103044 0.8 0 0
0.411770 0.312883 0.042442 0.8 0 0
0.402296 0.869916 0.144167 0.8 0 0
0.526754 0.945304 0.157793 0.8 0 0
0.525556 0.858263 0.078565 0.8 0 0
0.473708 0.805491 0.072917 0.8 0 0
0.504181 0.907466 0.099584 0.8 0 0
0.459969 0.921092 0.144636 0.8 0 0
0.558550 0.469833 0.154520 0.8 0 0
0.420256 0.789236 0.086941 0.8 0 0
0.440178 0.499802 0.250203 0.8 0 0
0.464338 0.912070 0.179185 0.8 0 0
0.417462 0.917383 0.163168 0.8 0 0
0.483586 0.774101 0.092345 0.8 0 0
0.447861 0.912169 0.195750 0.8 0 0
0.439885 0.790881 0.084913 0.8 0 0
0.427069 0.945779 0.092185 0.8 0 0
0.451562 0.865639 0.041231 0.8 0 0
0.426292 0.917422 0.170752 0.8 0 0
0.413805 0.923587 0.159384 0.8 0 0
0.514711 0.666414 0.061486 0.8 0 0
0.349299 0.442911 0.081258 0.8 0 0
0.390606 0.224224 0.189639 0.8 0 0
0.503744 0.788570 0.094091 0.8 0 0
0.347821 0.231083 0.139692 0.8 0 0
0.403186 0.370415 0.219116 0.8 0 0
0.392106 0.863373 0.116110 0.8 0 0
0.574398 0.412241 0.059082 0.8 0 0
0.489663 0.412461 0.026742 0.8 0 0
0.464994 0.894897 0.078877 0.8 0 0
0.406962 0.541904 0.226706 0.8 0 0
0.179145 0.674192 0.138624 0.8 0 0
0.413914 0.270991 0.034357 0.8 0 0
0.385874 0.866711 0.158229 0.8 0 0
0.289915 0.737521 0.118085 0.8 0 0
0.463606 0.892592 0.190066 0.8 0 0
0.464498 0.466731 0.030523 0.8 0 0
0.434387 0.910222 0.173233 0.8 0 0
0.051923 0.679953 0.141422 0.8 0 0
0.469773 0.859628 0.199435 0.8 0 0
0.338293 0.724368 0.151874 0.8 0 0
0.464732 0.937596 0.116566 0.8 0 0
0.466445 0.937817 0.166477 0.8 0 0
0.391775 0.833981 0.102696 0.8 0 0
0.543766 0.890558 0.119255 0.8 0 0
0.570182 0.316427 0.123897 0.8 0 0
0.478185 0.881424 0.066372 0.8 0 0
0.727522 0.728360 0.113482 0.8 0 0
0.489107 0.932078 0.172435 0.8 0 0
0.499916 0.916555 0.109594 0.8 0 0
0.527025 0.877961 0.147528 0.8 0 0
0.408868 0.353547 0.030166 0.8 0 0
0.388043 0.865822 0.157975 0.8 0 0
0.451200 0.933687 0.126016 0.8 0 0
0.461202 0.872584 0.067762 0.8 0 0
0.350978 0.445935 0.170135 0.8 0 0
0.343955 0.528618 0.095563 0.8 0 0
0.476422 0.534258 0.260947 0.8 0 0
0.484631 0.769569 0.099721 0.8 0 0
0.396760 0.473795 0.033064 0.8 0 0
0.408944 0.872542 0.105850 0.8 0 0
0.629994 0.662759 0.161373 0.8 0 0
0.466646 0.905883 0.134273 0.8 0 0
0.493050 0.930560 0.193601 0.8 0 0
0.581169 0.454006 0.123145 0.8 0 0
0.528861 0.943192 0.152387 0.8 0 0
0.487577 0.691948 0.197866 0.8 0 0
0.435269 0.188283 0.072396 0.8 0 0
0.498284 0.352995 0.039527 0.8 0 0
0.344659 0.300871 0.135393 0.8 0 0
0.506355 0.952383 0.141713 0.8 0 0
0.372463 0.823944 0.086363 0.8 0 0
0.377169 0.710558 0.168108 0.8 0 0
0.442693 0.638178 0.058577 0.8 0 0
0.668848 0.687206 0.162644 0.8 0 0
0.389567 0.285385 0.225987 0.8 0 0
0.393596 0.830737 0.113398 0.8 0 0
0.519007 0.073781 0.167803 0.8 0 0
0.446743 0.577437 0.246170 0.8 0 0
0.443800 0.905282 0.172123 0.8 0 0
0.395522 0.880250 0.150762 0.8 0 0
0.525159 0.889048 0.142130 0.8 0 0
0.376717 0.903619 0.117618 0.8 0 0
0.492543 0.939245 0.117809 0.8 0 0
0.451354 0.926106 0.178228 0.8 0 0
0.555206 0.699069 0.178687 0.8 0 0
0.345870 0.669506 0.075600 0.8 0 0
0.492924 0.859701 0.067541 0.8 0 0
0.474744 0.903702 0.070864 0.8 0 0
0.523029 0.815399 0.053513 0.8 0 0
0.232376 0.737037 0.100424 0.8 0 0
0.513013 0.890762 0.157659 0.8 0 0
0.360985 0.319015 0.196094 0.8 0 0
0.433588 0.932376 0.110310 0.8 0 0
0.513795 0.422834 0.252031 0.8 0 0
0.518147 0.830840 0.043728 0.8 0 0
0.437751 0.955745 0.109360 0.8 0 0
0.447563 0.749392 0.142427 0.8 0 0
0.476689 0.905013 0.177862 0.8 0 0
0.432289 0.953049 0.144343 0.8 0 0
0.653097 0.716257 0.086084 0.8 0 0
0.538662 0.539723 0.199670 0.8 0 0
0.470981 0.914126 0.086626 0.8 0 0
0.475127 0.880700 0.156449 0.8 0 0
0.109541 0.684787 0.148061 0.8 0 0
0.404498 0.620359 0.246119 0.8 0 0
0.364774 0.488589 0.047781 0.8 0 0
0.439178 0.259385 0.054694 0.8 0 0
0.351817 0.502248 0.065186 0.8 0 0
0.476625 0.779097 0.104054 0.8 0 0
0.238540 0.683386 0.096175 0.8 0 0
0.348138 0.247147 0.082844 0.8 0 0
0.525592 0.884620 0.098204 0.8 0 0
0.460942 0.614629 0.056241 0.8 0 0
0.367569 0.200017 0.084982 0.8 0 0
0.398154 0.944897 0.135153 0.8 0 0
0.334708 0.386277 0.064196 0.8 0 0
0.423200 0.050126 0.126119 0.8 0 0
0.420520 0.912964 0.175645 0.8 0 0
0.480910 0.909032 0.152610 0.8 0 0
0.575783 0.397688 0.101977 0.8 0 0
0.524909 0.892751 0.101757 0.8 0 0
0.409519 0.058002 0.092856 0.8 0 0
0.445114 0.923277 0.157472 0.8 0 0
0.496407 0.027633 0.187350 0.8 0 0
0.462163 0.835143 0.053199 0.8 0 0
0.429717 0.544118 0.233979 0.8 0 0
0.485884 0.827868 0.064261 0.8 0 0
0.518103 0.831937 0.091270 0.8 0 0
0.456687 0.815361 0.076428 0.8 0 0
0.420792 0.704448 0.070643 0.8 0 0
0.418900 0.833791 0.075914 0.8 0 0
0.454187 0.923738 0.149422 0.8 0 0
0.486407 0.775370 0.094581 0.8 0 0
0.455120 0.559325 0.265759 0.8 0 0
0.330794 0.375067 0.090834 0.8 0 0
0.349617 0.730684 0.145915 0.8 0 0
0.542149 0.849031 0.136313 0.8 0 0
0.537074 0.894183 0.141373 0.8 0 0
0.468753 0.914480 0.171243 0.8 0 0
0.329941 0.463468 0.150062 0.8 0 0
0.487380 0.930245 0.093215 0.8 0 0
0.471689 0.917477 0.174329 0.8 0 0
0.447800 0.937932 0.130433 0.8 0 0
0.408686 0.850538 0.193537 0.8 0 0
0.455276 0.962963 0.122721 0.8 0 0
0.410680 0.914812 0.137417 0.8 0 0
0.378626 0.108329 0.151013 0.8 0 0
0.425246 0.837100 0.183726 0.8 0 0
0.501803 0.795342 0.089749 0.8 0 0
0.545709 0.826584 0.087843 0.8 0 0
0.530426 0.845167 0.116773 0.8 0 0
0.453244 0.923793 0.160252 0.8 0 0
0.437495 0.716275 0.172941 0.8 0 0
0.497406 0.915932 0.107365 0.8 0 0
0.482315 0.905039 0.164840 0.8 0 0
0.330461 0.413505 0.160851 0.8 0 0
0.530994 0.347979 0.033959 0.8 0 0
0.477018 0.440266 0.235435 0.8 0 0
0.415499 0.507550 0.225153 0.8 0 0
0.566623 0.402425 0.165087 0.8 0 0
0.422211 0.297911 0.244619 0.8 0 0
0.447424 0.216615 0.039340 0.8 0 0
0.370729 0.484776 0.200853 0.8 0 0
0.352546 0.577179 0.201176 0.8 0 0
0.461438 0.794391 0.088177 0.8 0 0
0.406023 0.206087 0.056673 0.8 0 0
0.435831 0.912566 0.174830 0.8 0 0
0.414626 0.932054 0.170820 0.8 0 0
0.376626 0.894838 0.101643 0.8 0 0
0.503152 0.935167 0.080506 0.8 0 0
0.348189 0.738506 0.126451 0.8 0 0
0.431146 0.567239 0.250987 0.8 0 0
0.469830 0.614698 0.250040 0.8 0 0
0.335326 0.504414 0.113080 0.8 0 0
0.443437 0.917333 0.144434 0.8 0 0
0.476332 0.896200 0.055304 0.8 0 0
0.451749 0.787700 0.078770 0.8 0 0
0.461475 0.914939 0.192997 0.8 0 0
0.508532 0.104634 0.081645 0.8 0 0
0.497738 0.780469 0.094619 0.8 0 0
0.506020 0.920474 0.177214 0.8 0 0
0.522043 0.349425 0.044705 0.8 0 0
0.435847 0.690577 0.066592 0.8 0 0
0.450922 0.948870 0.116803 0.8 0 0
0.507906 0.783733 0.101914 0.8 0 0
0.421186 0.710590 0.072704 0.8 0 0
0.406848 0.812515 0.083058 0.8 0 0
