0.080642 0.689189 0.053340 0.8 0 0
0.267998 0.578455 0.133826 0.8 0 0
0.241925 0.698136 0.063421 0.8 0 0
0.118520 0.700663 0.033070 0.8 0 0
0.049743 0.535913 0.101896 0.8 0 0
0.162642 0.954093 0.049772 0.8 0 0
0.225262 0.191677 0.070010 0.8 0 0
0.153800 0.914766 0.048035 0.8 0 0
0.189850 0.262144 0.065188 0.8 0 0
0.071430 0.715907 0.100439 0.8 0 0
0.183480 0.106386 0.067339 0.8 0 0
0.124778 0.913079 0.110057 0.8 0 0
0.265750 0.638106 0.074699 0.8 0 0
0.072167 0.503281 0.131293 0.8 0 0
0.241919 0.529771 0.072882 0.8 0 0
0.091198 0.238027 0.116309 0.8 0 0
0.236980 0.296901 0.090370 0.8 0 0
0.251656 0.793008 0.095719 0.8 0 0
0.196747 0.822793 0.100926 0.8 0 0
0.166889 0.813291 0.109208 0.8 0 0
0.185436 0.510222 0.132733 0.8 0 0
0.078865 0.683255 0.102439 0.8 0 0
0.196895 0.341043 0.057091 0.8 0 0
0.085939 0.751516 0.032961 0.8 0 0
0.104081 0.188675 0.123521 0.8 0 0
0.078195 0.696392 0.088396 0.8 0 0
0.119035 0.256704 0.125958 0.8 0 0
0.155158 0.396452 0.101036 0.8 0 0
0.062249 0.524454 0.114017 0.8 0 0
0.065932 0.508134 0.132657 0.8 0 0
0.214437 0.157651 0.058649 0.8 0 0
0.227889 0.825140 0.060642 0.8 0 0
0.218832 0.669999 0.033727 0.8 0 0
0.262431 0.781782 0.086457 0.8 0 0
0.116499 0.067924 0.101500 0.8 0 0
0.152406 0.385707 0.054513 0.8 0 0
0.080895 0.031201 0.110492 0.8 0 0
0.212348 0.331878 0.062908 0.8 0 0
0.081405 0.201884 0.083737 0.8 0 0
0.142334 0.289925 0.068326 0.8 0 0
0.163207 0.420949 0.075890 0.8 0 0
0.201984 0.130986 0.133594 0.8 0 0
0.232313 0.045567 0.140372 0.8 0 0
0.093372 0.580300 0.062034 0.8 0 0
0.070539 0.543217 0.085342 0.8 0 0
0.127811 0.766731 0.027910 0.8 0 0
0.097905 0.716689 0.120394 0.8 0 0
0.040852 0.495730 0.112064 0.8 0 0
0.217590 0.583822 0.058875 0.8 0 0
0.182335 0.039090 0.141658 0.8 0 0
0.215447 0.683594 0.127407 0.8 0 0
0.180601 0.142553 0.118348 0.8 0 0
0.115067 0.840927 0.058721 0.8 0 0
0.173359 0.730426 0.026647 0.8 0 0
0.259273 0.539376 0.139153 0.8 0 0
0.111272 0.521947 0.038519 0.8 0 0
0.193063 0.343820 0.136243 0.8 0 0
0.226515 0.044154 0.157006 0.8 0 0
0.187034 0.933318 0.054605 0.8 0 0
0.238418 0.188396 0.101989 0.8 0 0
0.126917 0.901687 0.083320 0.8 0 0
0.127035 0.074520 0.055047 0.8 0 0
0.159631 0.688903 0.027612 0.8 0 0
0.236942 0.522998 0.062009 0.8 0 0
0.080132 0.263871 0.086956 0.8 0 0
0.236996 0.691509 0.083703 0.8 0 0
0.196675 0.208160 0.058663 0.8 0 0
0.122059 0.495854 0.035240 0.8 0 0
0.253177 0.583083 0.119931 0.8 0 0
0.162805 0.958072 0.129419 0.8 0 0
0.151282 0.341818 0.076683 0.8 0 0
0.141364 0.870277 0.091737 0.8 0 0
0.143585 0.615594 0.034112 0.8 0 0
0.077300 0.746789 0.081369 0.8 0 0
0.030225 0.708917 0.076167 0.8 0 0
0.192036 0.032686 0.182191 0.8 0 0
0.084450 0.526924 0.054477 0.8 0 0
0.240490 0.819386 0.083037 0.8 0 0
0.191560 0.930301 0.124510 0.8 0 0
0.156149 0.842367 0.045913 0.8 0 0
0.143301 0.244162 0.097647 0.8 0 0
0.179296 0.166911 0.080218 0.8 0 0
0.233960 0.364618 0.072061 0.8 0 0
0.055822 0.702975 0.055502 0.8 0 0
0.127464 0.210067 0.124417 0.8 0 0
0.142236 0.393360 0.042496 0.8 0 0
0.184038 0.799957 0.115586 0.8 0 0
0.116581 0.717560 0.127336 0.8 0 0
0.094622 0.609958 0.055627 0.8 0 0
0.229372 0.801241 0.110208 0.8 0 0
0.192000 0.476690 0.033048 0.8 0 0
0.216527 0.337938 0.132885 0.8 0 0
0.181270 0.857545 0.072665 0.8 0 0
0.232075 0.195640 0.117902 0.8 0 0
0.179814 0.161851 0.078237 0.8 0 0
0.228835 0.042830 0.092306 0.8 0 0
0.163297 0.510404 0.135270 0.8 0 0
0.085601 0.472799 0.117407 0.8 0 0
0.257906 0.500486 0.177627 0.8 0 0
0.089251 0.679129 0.045381 0.8 0 0
0.278325 0.618274 0.091045 0.8 0 0
0.088249 0.043567 0.084349 0.8 0 0
0.164640 0.843013 0.097724 0.8 0 0
0.212251 0.117206 0.051643 0.8 0 0
0.156538 0.434575 0.110306 0.8 0 0
0.182205 0.971137 0.078239 0.8 0 0
0.082366 0.492635 0.053981 0.8 0 0
0.058031 0.812288 0.077468 0.8 0 0
0.122988 0.844127 0.057066 0.8 0 0
0.275454 0.583015 0.109214 0.8 0 0
0.121485 0.817745 0.036121 0.8 0 0
0.075030 0.713416 0.076175 0.8 0 0
0.241865 0.775446 0.108086 0.8 0 0
0.243441 0.767956 0.044305 0.8 0 0
0.189539 0.656364 0.130269 0.8 0 0
0.239490 0.579377 0.091638 0.8 0 0
0.130274 0.893380 0.072464 0.8 0 0
0.233780 0.373044 0.070668 0.8 0 0
0.181951 0.319464 0.066480 0.8 0 0
0.187991 0.352779 0.135099 0.8 0 0
0.082317 0.613080 0.081638 0.8 0 0
0.179658 0.189639 0.075657 0.8 0 0
0.075219 0.505875 0.068285 0.8 0 0
0.237359 0.406848 0.070844 0.8 0 0
0.205949 0.075903 0.082913 0.8 0 0
0.104769 0.411891 0.045226 0.8 0 0
0.108901 0.458051 0.039883 0.8 0 0
0.148002 0.316422 0.112443 0.8 0 0
0.237971 0.709351 0.092517 0.8 0 0
0.230705 0.043294 0.155157 0.8 0 0
0.138791 0.895188 0.056234 0.8 0 0
0.075791 0.822563 0.054531 0.8 0 0
0.138921 0.859857 0.068218 0.8 0 0
0.091455 0.162670 0.058154 0.8 0 0
0.218721 0.829549 0.080544 0.8 0 0
0.195140 0.543344 0.038206 0.8 0 0
0.127791 0.081031 0.117573 0.8 0 0
0.144690 0.475988 0.030796 0.8 0 0
0.117306 0.279716 0.050011 0.8 0 0
0.085741 0.237146 0.110412 0.8 0 0
0.195617 0.145885 0.054308 0.8 0 0
0.077303 0.746965 0.083800 0.8 0 0
0.084913 0.693976 0.114896 0.8 0 0
0.200028 0.047892 0.145411 0.8 0 0
0.222008 0.417027 0.054924 0.8 0 0
0.128126 0.596633 0.128748 0.8 0 0
0.211706 0.309371 0.137249 0.8 0 0
0.140431 0.585898 0.042546 0.8 0 0
0.222104 0.665115 0.124125 0.8 0 0
0.199211 0.683478 0.130877 0.8 0 0
0.173417 0.296302 0.122360 0.8 0 0
0.052458 0.789541 0.075841 0.8 0 0
0.214385 0.048710 0.150505 0.8 0 0
0.137238 0.162670 0.068250 0.8 0 0
0.210609 0.067968 0.044325 0.8 0 0
0.238237 0.740290 0.067297 0.8 0 0
0.103743 0.049375 0.144993 0.8 0 0
0.179169 0.200232 0.127687 0.8 0 0
0.156812 0.674112 0.028485 0.8 0 0
0.115045 0.530411 0.133003 0.8 0 0
0.244695 0.768240 0.100649 0.8 0 0
0.175900 0.317490 0.075436 0.8 0 0
0.121843 0.725780 0.030139 0.8 0 0
0.206945 0.543675 0.128662 0.8 0 0
0.074400 0.370730 0.088334 0.8 0 0
0.136563 0.877326 0.063336 0.8 0 0
0.139750 0.188958 0.074001 0.8 0 0
0.190391 0.927457 0.126973 0.8 0 0
0.114946 0.166480 0.046968 0.8 0 0
0.199486 0.410461 0.045385 0.8 0 0
0.236180 0.031188 0.179211 0.8 0 0
0.167643 0.392783 0.061638 0.8 0 0
0.135244 0.154066 0.112985 0.8 0 0
0.043257 0.698856 0.098763 0.8 0 0
0.080583 0.173737 0.088443 0.8 0 0
0.232921 0.282193 0.121470 0.8 0 0
0.136372 0.151804 0.066288 0.8 0 0
0.126222 0.710753 0.127654 0.8 0 0
0.175167 0.728674 0.128439 0.8 0 0
0.134940 0.276128 0.055573 0.8 0 0
0.117407 0.055771 0.120751 0.8 0 0
0.086582 0.469495 0.117748 0.8 0 0
0.165735 0.412850 0.050675 0.8 0 0
0.182306 0.128857 0.070264 0.8 0 0
0.136306 0.875031 0.067703 0.8 0 0
0.189318 0.469689 0.033742 0.8 0 0
0.154333 0.381205 0.074055 0.8 0 0
0.237414 0.360019 0.080255 0.8 0 0
0.192465 0.035363 0.049304 0.8 0 0
0.110058 0.252879 0.049847 0.8 0 0
0.168684 0.974737 0.079556 0.8 0 0
0.077949 0.809183 0.101596 0.8 0 0
0.105908 0.679317 0.036027 0.8 0 0
0.072250 0.485276 0.076322 0.8 0 0
0.119346 0.491246 0.035912 0.8 0 0
0.207883 0.294241 0.138962 0.8 0 0
0.048309 0.697625 0.102576 0.8 0 0
0.075542 0.721688 0.073034 0.8 0 0
0.038849 0.712355 0.083272 0.8 0 0
0.131106 0.918617 0.054441 0.8 0 0
0.182768 0.851685 0.076540 0.8 0 0
0.077223 0.745535 0.044866 0.8 0 0
0.189597 0.121155 0.058087 0.8 0 0
0.239785 0.304764 0.111729 0.8 0 0
0.109203 0.484995 0.127654 0.8 0 0
0.216208 0.229914 0.066398 0.8 0 0
0.199457 0.240708 0.136168 0.8 0 0
0.155720 0.409941 0.061961 0.8 0 0
0.085625 0.612761 0.105100 0.8 0 0
0.118122 0.189681 0.127606 0.8 0 0
0.117465 0.628306 0.040669 0.8 0 0
0.244008 0.557513 0.084447 0.8 0 0
0.142561 0.648966 0.033201 0.8 0 0
0.075114 0.419460 0.097740 0.8 0 0
0.238775 0.721377 0.099569 0.8 0 0
0.133026 0.093491 0.105507 0.8 0 0
0.169021 0.334062 0.108749 0.8 0 0
0.182303 0.120905 0.120925 0.8 0 0
0.132127 0.328273 0.124597 0.8 0 0
0.183445 0.698229 0.027886 0.8 0 0
0.230859 0.783471 0.031048 0.8 0 0
0.128632 0.348572 0.127868 0.8 0 0
0.089309 0.382155 0.117143 0.8 0 0
0.077381 0.742238 0.082042 0.8 0 0
0.081658 0.032535 0.166142 0.8 0 0
0.209101 0.065178 0.135023 0.8 0 0
0.076545 0.411083 0.100606 0.8 0 0
0.126430 0.614925 0.038738 0.8 0 0
0.141638 0.487792 0.132677 0.8 0 0
0.229159 0.113514 0.068265 0.8 0 0
0.166199 0.536028 0.030317 0.8 0 0
0.232827 0.418796 0.063120 0.8 0 0
0.116875 0.380728 0.129173 0.8 0 0
0.059713 0.805765 0.066224 0.8 0 0
0.168649 0.423271 0.134423 0.8 0 0
0.228190 0.717631 0.117799 0.8 0 0
0.231341 0.158175 0.117082 0.8 0 0
0.124007 0.138360 0.054191 0.8 0 0
0.048137 0.779484 0.083364 0.8 0 0
0.100494 0.762281 0.122058 0.8 0 0
0.231171 0.220224 0.075228 0.8 0 0
0.095120 0.074674 0.053561 0.8 0 0
0.175930 0.740845 0.128404 0.8 0 0
0.240208 0.362802 0.088597 0.8 0 0
0.084739 0.680809 0.114555 0.8 0 0
0.099524 0.418487 0.122096 0.8 0 0
0.080648 0.163296 0.088588 0.8 0 0
0.237970 0.655490 0.100307 0.8 0 0
0.203415 0.781479 0.030238 0.8 0 0
0.077040 0.303002 0.092589 0.8 0 0
0.263139 0.504197 0.165622 0.8 0 0
0.186203 0.210095 0.131486 0.8 0 0
0.088602 0.406010 0.117324 0.8 0 0
0.208007 0.829318 0.088398 0.8 0 0
0.143721 0.345140 0.122738 0.8 0 0
0.245268 0.457873 0.094510 0.8 0 0
0.252244 0.687993 0.090468 0.8 0 0
0.221970 0.438577 0.051690 0.8 0 0
0.194439 0.908529 0.075316 0.8 0 0
0.193674 0.281151 0.066001 0.8 0 0
0.126434 0.371668 0.048572 0.8 0 0
0.233073 0.304434 0.080505 0.8 0 0
0.195315 0.771255 0.028821 0.8 0 0
0.202469 0.720205 0.130855 0.8 0 0
0.131355 0.844157 0.090133 0.8 0 0
0.171919 0.352657 0.075780 0.8 0 0
0.086507 0.383928 0.116018 0.8 0 0
0.255098 0.501147 0.177455 0.8 0 0
0.182321 0.577794 0.127705 0.8 0 0
0.074383 0.474345 0.070764 0.8 0 0
0.233623 0.512834 0.056074 0.8 0 0
0.108363 0.679869 0.035850 0.8 0 0
0.131768 0.674024 0.035207 0.8 0 0
0.128736 0.848544 0.078721 0.8 0 0
0.249489 0.787556 0.085940 0.8 0 0
0.115824 0.190842 0.128264 0.8 0 0
0.234517 0.616754 0.058965 0.8 0 0
0.078142 0.399513 0.069377 0.8 0 0
0.251496 0.688841 0.067147 0.8 0 0
0.063423 0.805176 0.054116 0.8 0 0
0.167764 0.621564 0.030183 0.8 0 0
0.146082 0.377003 0.043921 0.8 0 0
0.255724 0.630385 0.109783 0.8 0 0
0.184618 0.097152 0.062997 0.8 0 0
0.239234 0.211468 0.102364 0.8 0 0
0.260688 0.660691 0.071147 0.8 0 0
0.238717 0.186397 0.100874 0.8 0 0
0.147829 0.420642 0.129505 0.8 0 0
0.071865 0.479633 0.077630 0.8 0 0
0.174911 0.212597 0.102619 0.8 0 0
0.156532 0.957860 0.130400 0.8 0 0
0.062096 0.528150 0.112174 0.8 0 0
0.132854 0.558084 0.131286 0.8 0 0
0.101923 0.622374 0.047064 0.8 0 0
0.169401 0.410261 0.044171 0.8 0 0
0.052045 0.766822 0.096216 0.8 0 0
0.137395 0.215305 0.059976 0.8 0 0
0.073707 0.692058 0.082503 0.8 0 0
0.071551 0.713241 0.050754 0.8 0 0
0.138292 0.657876 0.034030 0.8 0 0
0.099197 0.057251 0.081644 0.8 0 0
0.180822 0.135246 0.117369 0.8 0 0
0.135337 0.215667 0.120712 0.8 0 0
0.112889 0.078012 0.080269 0.8 0 0
0.085570 0.159504 0.104375 0.8 0 0
0.186692 0.824898 0.102278 0.8 0 0
0.177032 0.153543 0.099087 0.8 0 0
0.216998 0.191673 0.133392 0.8 0 0
0.149952 0.317597 0.084924 0.8 0 0
0.060807 0.541430 0.108267 0.8 0 0
0.212981 0.320362 0.135752 0.8 0 0
0.258101 0.769175 0.048908 0.8 0 0
0.161979 0.438397 0.132513 0.8 0 0
0.136522 0.918483 0.133995 0.8 0 0
0.087597 0.539975 0.113744 0.8 0 0
0.227430 0.201215 0.126460 0.8 0 0
0.137213 0.076664 0.082786 0.8 0 0
0.179609 0.196907 0.075021 0.8 0 0
0.213142 0.261901 0.066193 0.8 0 0
0.204973 0.454382 0.038712 0.8 0 0
0.245247 0.780406 0.067922 0.8 0 0
0.080488 0.558365 0.072151 0.8 0 0
0.170649 0.365785 0.068973 0.8 0 0
0.206362 0.059549 0.124401 0.8 0 0
0.171579 0.347343 0.080089 0.8 0 0
0.046348 0.711811 0.050948 0.8 0 0
0.062595 0.618798 0.081602 0.8 0 0
0.188105 0.640750 0.130413 0.8 0 0
0.108745 0.655915 0.125144 0.8 0 0
0.077526 0.731963 0.069412 0.8 0 0
0.148065 0.299351 0.092418 0.8 0 0
0.258701 0.781545 0.058376 0.8 0 0
0.207003 0.494003 0.036914 0.8 0 0
0.234120 0.038149 0.175278 0.8 0 0
0.187754 0.695001 0.129798 0.8 0 0
0.194140 0.953016 0.095093 0.8 0 0
0.116984 0.725339 0.030419 0.8 0 0
0.234894 0.219605 0.113788 0.8 0 0
0.141287 0.241545 0.115361 0.8 0 0
0.209180 0.042856 0.174600 0.8 0 0
0.185712 0.043282 0.097548 0.8 0 0
0.173754 0.939905 0.131972 0.8 0 0
0.183392 0.094308 0.069767 0.8 0 0
0.229810 0.241116 0.125125 0.8 0 0
0.168943 0.339869 0.113208 0.8 0 0
0.268638 0.732977 0.100248 0.8 0 0
0.170578 0.795211 0.116184 0.8 0 0
0.098337 0.189490 0.119721 0.8 0 0
0.187652 0.261123 0.065619 0.8 0 0
0.034922 0.632931 0.063303 0.8 0 0
0.136222 0.958406 0.121948 0.8 0 0
0.216842 0.830655 0.062686 0.8 0 0
0.231170 0.823489 0.060124 0.8 0 0
0.228230 0.593066 0.061033 0.8 0 0
0.248482 0.681084 0.074285 0.8 0 0
0.172162 0.317736 0.090792 0.8 0 0
0.076809 0.558421 0.079838 0.8 0 0
0.137695 0.078303 0.084626 0.8 0 0
0.100429 0.827700 0.089098 0.8 0 0
0.158636 0.443426 0.063654 0.8 0 0
0.070894 0.773833 0.088816 0.8 0 0
0.120639 0.317591 0.127083 0.8 0 0
0.126233 0.513484 0.133556 0.8 0 0
0.102656 0.331891 0.122998 0.8 0 0
0.251680 0.561609 0.131037 0.8 0 0
0.100946 0.073161 0.124228 0.8 0 0
0.167367 0.378467 0.083726 0.8 0 0
0.147599 0.864316 0.061438 0.8 0 0
0.178648 0.215194 0.129328 0.8 0 0
0.195977 0.398259 0.046940 0.8 0 0
0.091071 0.255664 0.116434 0.8 0 0
0.186294 0.110286 0.060225 0.8 0 0
0.080629 0.197457 0.087273 0.8 0 0
0.255491 0.622458 0.114396 0.8 0 0
0.140016 0.874893 0.101158 0.8 0 0
0.081676 0.106743 0.089627 0.8 0 0
0.239866 0.729769 0.074677 0.8 0 0
0.058618 0.707172 0.102941 0.8 0 0
0.218110 0.798313 0.114766 0.8 0 0
0.238294 0.434041 0.107928 0.8 0 0
0.148323 0.313133 0.104408 0.8 0 0
0.248026 0.789360 0.046197 0.8 0 0
0.096746 0.683442 0.119503 0.8 0 0
0.136817 0.459214 0.131907 0.8 0 0
0.269486 0.703051 0.056585 0.8 0 0
0.195796 0.609772 0.131402 0.8 0 0
0.034848 0.628580 0.067430 0.8 0 0
0.115727 0.110338 0.129947 0.8 0 0
0.255406 0.519083 0.158441 0.8 0 0
0.150817 0.867453 0.117332 0.8 0 0
0.083674 0.619333 0.072932 0.8 0 0
0.224947 0.479834 0.048812 0.8 0 0
0.063625 0.799124 0.096409 0.8 0 0
0.077027 0.523476 0.066869 0.8 0 0
0.148434 0.320309 0.110968 0.8 0 0
0.238354 0.514642 0.105788 0.8 0 0
0.063443 0.488603 0.134495 0.8 0 0
0.223362 0.053535 0.126837 0.8 0 0
0.193002 0.240763 0.062497 0.8 0 0
0.117424 0.720427 0.030941 0.8 0 0
0.081294 0.274002 0.100586 0.8 0 0
0.070425 0.810198 0.096360 0.8 0 0
0.270760 0.513357 0.146665 0.8 0 0
0.038237 0.695232 0.082952 0.8 0 0
0.171249 0.299777 0.102441 0.8 0 0
0.257867 0.723560 0.047343 0.8 0 0
0.077558 0.734274 0.096515 0.8 0 0
0.209840 0.175236 0.055086 0.8 0 0
0.193268 0.125675 0.055528 0.8 0 0
0.051278 0.560864 0.110801 0.8 0 0
0.054842 0.803303 0.079961 0.8 0 0
0.085656 0.328635 0.060936 0.8 0 0
0.104046 0.379055 0.123758 0.8 0 0
0.085248 0.408574 0.115986 0.8 0 0
0.241621 0.485073 0.098852 0.8 0 0
0.174669 0.325439 0.077006 0.8 0 0
0.128892 0.477386 0.034042 0.8 0 0
0.190459 0.898170 0.069687 0.8 0 0
0.086952 0.173191 0.061915 0.8 0 0
0.228772 0.411095 0.121741 0.8 0 0
0.123366 0.921985 0.098802 0.8 0 0
0.160180 0.445128 0.074966 0.8 0 0
0.250280 0.561543 0.140318 0.8 0 0
0.170128 0.315579 0.100159 0.8 0 0
0.153850 0.383915 0.065466 0.8 0 0
0.151101 0.557434 0.035038 0.8 0 0
0.241469 0.377604 0.088998 0.8 0 0
0.218982 0.221985 0.067707 0.8 0 0
0.235230 0.821775 0.059966 0.8 0 0
0.227131 0.214471 0.072397 0.8 0 0
0.137673 0.186204 0.111832 0.8 0 0
0.089908 0.582946 0.063950 0.8 0 0
0.197382 0.034417 0.192386 0.8 0 0
0.242062 0.504801 0.072307 0.8 0 0
0.078302 0.689214 0.081524 0.8 0 0
0.203212 0.688182 0.130760 0.8 0 0
0.062614 0.579651 0.100744 0.8 0 0
0.060269 0.703583 0.046337 0.8 0 0
0.123076 0.834306 0.087446 0.8 0 0
0.251856 0.580221 0.133344 0.8 0 0
0.137415 0.852047 0.062496 0.8 0 0
0.232265 0.275105 0.122337 0.8 0 0
0.077519 0.734369 0.082488 0.8 0 0
0.068977 0.477521 0.086718 0.8 0 0
0.077637 0.565900 0.081812 0.8 0 0
0.236424 0.182202 0.091052 0.8 0 0
0.247455 0.537835 0.084655 0.8 0 0
0.248515 0.499666 0.085878 0.8 0 0
0.149600 0.546863 0.134872 0.8 0 0
0.222950 0.201315 0.130338 0.8 0 0
0.110869 0.291044 0.127452 0.8 0 0
0.078484 0.728444 0.109120 0.8 0 0
0.087200 0.820538 0.040908 0.8 0 0
0.240230 0.743058 0.105122 0.8 0 0
0.237421 0.609645 0.095246 0.8 0 0
0.174006 0.970305 0.067344 0.8 0 0
0.044509 0.722960 0.052029 0.8 0 0
0.128728 0.654840 0.036704 0.8 0 0
0.079696 0.231112 0.093023 0.8 0 0
0.220307 0.366957 0.128802 0.8 0 0
0.246287 0.508487 0.176436 0.8 0 0
0.208585 0.320192 0.062602 0.8 0 0
0.036861 0.610475 0.090544 0.8 0 0
0.239041 0.211148 0.102890 0.8 0 0
0.177717 0.296937 0.073042 0.8 0 0
0.183513 0.659972 0.129789 0.8 0 0
0.134721 0.881364 0.077299 0.8 0 0
0.208242 0.333191 0.136237 0.8 0 0
0.070894 0.521395 0.089426 0.8 0 0
0.235585 0.033062 0.107205 0.8 0 0
0.223090 0.420364 0.122627 0.8 0 0
0.187316 0.105213 0.059359 0.8 0 0
0.235114 0.696769 0.113023 0.8 0 0
0.176280 0.292201 0.079151 0.8 0 0
0.149810 0.422097 0.037045 0.8 0 0
0.086493 0.588124 0.069297 0.8 0 0
0.152749 0.466125 0.132809 0.8 0 0
0.124615 0.909177 0.068064 0.8 0 0
0.239821 0.755393 0.108769 0.8 0 0
0.273906 0.740141 0.067165 0.8 0 0
0.129942 0.049135 0.122560 0.8 0 0
0.225443 0.637720 0.041915 0.8 0 0
0.238168 0.175659 0.096776 0.8 0 0
0.238298 0.806506 0.039323 0.8 0 0
0.076938 0.744090 0.081540 0.8 0 0
0.158947 0.456414 0.054351 0.8 0 0
0.196918 0.502874 0.131190 0.8 0 0
0.200952 0.647610 0.031777 0.8 0 0
0.184654 0.303819 0.069647 0.8 0 0
0.113233 0.075628 0.074245 0.8 0 0
0.078496 0.309225 0.097041 0.8 0 0
0.087806 0.176372 0.111900 0.8 0 0
0.234911 0.691987 0.112889 0.8 0 0
0.170606 0.313748 0.106263 0.8 0 0
0.138326 0.093786 0.089944 0.8 0 0
0.206054 0.384276 0.133850 0.8 0 0
0.085543 0.437337 0.054031 0.8 0 0
0.209036 0.199245 0.136764 0.8 0 0
0.258455 0.667918 0.099969 0.8 0 0
0.250673 0.773716 0.046558 0.8 0 0
0.150634 0.347311 0.109137 0.8 0 0
0.222061 0.060584 0.116066 0.8 0 0
0.258403 0.546053 0.148403 0.8 0 0
0.176939 0.450255 0.132855 0.8 0 0
0.085181 0.035058 0.078925 0.8 0 0
0.147130 0.377783 0.125148 0.8 0 0
0.232569 0.821157 0.085854 0.8 0 0
0.096654 0.831443 0.052669 0.8 0 0
0.141674 0.752471 0.026402 0.8 0 0
0.203103 0.643314 0.032289 0.8 0 0
0.226820 0.118933 0.122584 0.8 0 0
0.254100 0.731418 0.101271 0.8 0 0
0.178416 0.194630 0.122119 0.8 0 0
0.120072 0.148333 0.050990 0.8 0 0
0.194202 0.397174 0.133234 0.8 0 0
0.220695 0.524264 0.121281 0.8 0 0
0.247492 0.788991 0.105576 0.8 0 0
0.154458 0.503875 0.135119 0.8 0 0
0.142852 0.945939 0.051209 0.8 0 0
0.145585 0.615581 0.132555 0.8 0 0
0.226082 0.175542 0.126252 0.8 0 0
0.080219 0.224973 0.087921 0.8 0 0
0.086105 0.246341 0.112100 0.8 0 0
0.101413 0.109681 0.123434 0.8 0 0
0.244341 0.527363 0.161451 0.8 0 0
0.079643 0.490120 0.056612 0.8 0 0
0.050382 0.517392 0.106430 0.8 0 0
0.133887 0.063626 0.070373 0.8 0 0
0.097621 0.028972 0.192604 0.8 0 0
0.095279 0.545947 0.117520 0.8 0 0
0.238347 0.672640 0.092462 0.8 0 0
0.172310 0.890846 0.054318 0.8 0 0
0.177946 0.255780 0.075934 0.8 0 0
0.114883 0.370527 0.045171 0.8 0 0
0.138334 0.782719 0.119424 0.8 0 0
0.109857 0.230740 0.049298 0.8 0 0
0.191051 0.329582 0.136838 0.8 0 0
0.236538 0.700543 0.056448 0.8 0 0
0.130360 0.908581 0.127177 0.8 0 0
0.148209 0.797918 0.028945 0.8 0 0
0.047172 0.472995 0.108864 0.8 0 0
0.239108 0.255429 0.098374 0.8 0 0
0.132240 0.031822 0.159467 0.8 0 0
0.240295 0.810733 0.043978 0.8 0 0
0.235013 0.156753 0.086891 0.8 0 0
0.102500 0.232854 0.053634 0.8 0 0
0.175042 0.412133 0.042366 0.8 0 0
0.052269 0.783744 0.088302 0.8 0 0
0.161920 0.433528 0.070548 0.8 0 0
0.240214 0.424700 0.105483 0.8 0 0
0.178187 0.248641 0.075633 0.8 0 0
0.077703 0.725735 0.094942 0.8 0 0
0.255868 0.652420 0.098121 0.8 0 0
0.220436 0.147107 0.129610 0.8 0 0
0.230419 0.617700 0.046055 0.8 0 0
0.234817 0.108485 0.102960 0.8 0 0
0.201196 0.821541 0.103455 0.8 0 0
0.122175 0.466544 0.036704 0.8 0 0
0.153756 0.612128 0.031506 0.8 0 0
0.081835 0.307251 0.072299 0.8 0 0
0.255710 0.704260 0.062947 0.8 0 0
0.070212 0.813962 0.051336 0.8 0 0
0.271863 0.549071 0.136843 0.8 0 0
0.096983 0.312016 0.119993 0.8 0 0
0.236065 0.356628 0.076631 0.8 0 0
0.244032 0.535729 0.077446 0.8 0 0
0.126339 0.930207 0.119141 0.8 0 0
0.214644 0.552943 0.122701 0.8 0 0
0.091732 0.208875 0.116282 0.8 0 0
0.088065 0.599866 0.063391 0.8 0 0
0.075524 0.410759 0.075754 0.8 0 0
0.190780 0.901163 0.116021 0.8 0 0
0.106176 0.789539 0.119327 0.8 0 0
0.127724 0.843110 0.082930 0.8 0 0
0.149966 0.799377 0.028955 0.8 0 0
0.107677 0.450370 0.126106 0.8 0 0
0.086537 0.097077 0.065822 0.8 0 0
0.086833 0.584505 0.103034 0.8 0 0
0.175495 0.234970 0.090148 0.8 0 0
0.136239 0.103385 0.097226 0.8 0 0
0.110945 0.306764 0.048864 0.8 0 0
0.173561 0.493278 0.132728 0.8 0 0
0.132930 0.828708 0.038424 0.8 0 0
0.162797 0.670861 0.130475 0.8 0 0
0.209021 0.628183 0.128501 0.8 0 0
0.160368 0.697365 0.129390 0.8 0 0
0.070282 0.491186 0.089280 0.8 0 0
0.140414 0.239955 0.117985 0.8 0 0
0.157200 0.906155 0.049706 0.8 0 0
0.269264 0.595388 0.094686 0.8 0 0
0.151196 0.951971 0.132701 0.8 0 0
0.166533 0.696328 0.129084 0.8 0 0
0.163154 0.411079 0.117964 0.8 0 0
0.236241 0.420010 0.065609 0.8 0 0
0.180075 0.458826 0.034205 0.8 0 0
0.178230 0.571175 0.129249 0.8 0 0
0.076441 0.736338 0.055075 0.8 0 0
0.182867 0.486406 0.131418 0.8 0 0
0.215613 0.718022 0.126108 0.8 0 0
0.178021 0.214121 0.125740 0.8 0 0
0.103420 0.056465 0.056339 0.8 0 0
0.247319 0.780910 0.045771 0.8 0 0
0.168195 0.369375 0.132337 0.8 0 0
0.182634 0.067073 0.078525 0.8 0 0
0.195336 0.638783 0.031809 0.8 0 0
0.082077 0.641130 0.069598 0.8 0 0
0.229406 0.142655 0.119962 0.8 0 0
0.222857 0.304153 0.074113 0.8 0 0
0.130162 0.673963 0.128749 0.8 0 0
0.259572 0.578012 0.116906 0.8 0 0
0.207665 0.638046 0.033113 0.8 0 0
0.187045 0.345634 0.058064 0.8 0 0
0.275679 0.709304 0.066995 0.8 0 0
0.205276 0.503716 0.129301 0.8 0 0
0.158261 0.687831 0.129951 0.8 0 0
0.110820 0.360663 0.045334 0.8 0 0
0.217194 0.783154 0.030735 0.8 0 0
0.122908 0.581558 0.126475 0.8 0 0
0.200317 0.041262 0.046310 0.8 0 0
0.174295 0.534626 0.031674 0.8 0 0
0.214157 0.058045 0.125151 0.8 0 0
0.271082 0.765319 0.076997 0.8 0 0
0.251200 0.570529 0.126827 0.8 0 0
0.250447 0.798506 0.049992 0.8 0 0
0.185095 0.752563 0.129096 0.8 0 0
0.206929 0.711877 0.130031 0.8 0 0
0.077925 0.723357 0.107086 0.8 0 0
0.137794 0.382359 0.128584 0.8 0 0
0.032196 0.651397 0.066791 0.8 0 0
0.070172 0.506362 0.082523 0.8 0 0
0.133253 0.039407 0.118356 0.8 0 0
0.254297 0.615830 0.114488 0.8 0 0
0.113824 0.648864 0.127672 0.8 0 0
0.220346 0.138948 0.063654 0.8 0 0
0.102382 0.671295 0.037081 0.8 0 0
0.034484 0.689022 0.079686 0.8 0 0
0.225746 0.663342 0.121791 0.8 0 0
0.096412 0.733050 0.030547 0.8 0 0
0.152189 0.524040 0.028582 0.8 0 0
0.091488 0.275005 0.116878 0.8 0 0
0.165842 0.590588 0.039678 0.8 0 0
0.139448 0.626247 0.131459 0.8 0 0
0.062912 0.742503 0.105662 0.8 0 0
0.235318 0.154969 0.087979 0.8 0 0
0.080345 0.681601 0.105321 0.8 0 0
0.124156 0.663787 0.128960 0.8 0 0
0.103905 0.200886 0.122928 0.8 0 0
0.134088 0.270557 0.055402 0.8 0 0
0.129996 0.687594 0.033967 0.8 0 0
0.064922 0.593592 0.098929 0.8 0 0
0.229849 0.093094 0.115672 0.8 0 0
0.139817 0.657504 0.129955 0.8 0 0
0.149946 0.657327 0.130906 0.8 0 0
0.195181 0.669205 0.130648 0.8 0 0
0.083661 0.148355 0.076167 0.8 0 0
0.114408 0.575659 0.050230 0.8 0 0
0.103056 0.459195 0.124367 0.8 0 0
0.104585 0.364722 0.048475 0.8 0 0
0.081928 0.162186 0.094321 0.8 0 0
0.201469 0.313194 0.139069 0.8 0 0
0.105773 0.751797 0.028049 0.8 0 0
0.093146 0.245535 0.117470 0.8 0 0
0.125711 0.909914 0.120255 0.8 0 0
0.126729 0.937882 0.061628 0.8 0 0
0.182674 0.272611 0.067848 0.8 0 0
0.132863 0.498481 0.133134 0.8 0 0
0.197850 0.837041 0.082234 0.8 0 0
0.146370 0.608517 0.132781 0.8 0 0
0.032563 0.653604 0.062821 0.8 0 0
0.217092 0.665631 0.032532 0.8 0 0
0.182769 0.951026 0.123172 0.8 0 0
0.087027 0.079849 0.102796 0.8 0 0
0.182653 0.083305 0.111788 0.8 0 0
0.131351 0.494775 0.132669 0.8 0 0
0.209090 0.171163 0.053750 0.8 0 0
0.193480 0.674568 0.029174 0.8 0 0
0.087622 0.042974 0.082793 0.8 0 0
0.240875 0.568746 0.081889 0.8 0 0
0.238914 0.730598 0.053257 0.8 0 0
0.154744 0.397595 0.062546 0.8 0 0
0.083412 0.586371 0.076613 0.8 0 0
0.177753 0.285983 0.073239 0.8 0 0
0.102333 0.304051 0.053628 0.8 0 0
0.263900 0.503384 0.170767 0.8 0 0
0.205098 0.514323 0.037656 0.8 0 0
0.196004 0.154844 0.054244 0.8 0 0
0.193740 0.910111 0.101871 0.8 0 0
0.140109 0.200052 0.097857 0.8 0 0
0.234180 0.735497 0.113053 0.8 0 0
0.078218 0.792086 0.036855 0.8 0 0
0.138578 0.240824 0.060837 0.8 0 0
0.141127 0.173893 0.081589 0.8 0 0
0.080913 0.659799 0.102916 0.8 0 0
0.059993 0.807849 0.067130 0.8 0 0
0.221578 0.512195 0.119625 0.8 0 0
0.133176 0.632258 0.036313 0.8 0 0
0.209646 0.622215 0.128264 0.8 0 0
0.168572 0.664396 0.028584 0.8 0 0
0.159961 0.455200 0.126731 0.8 0 0
0.072106 0.500557 0.076841 0.8 0 0
0.183661 0.970149 0.079502 0.8 0 0
0.242848 0.469398 0.097611 0.8 0 0
0.166736 0.784155 0.028121 0.8 0 0
0.085234 0.777058 0.113739 0.8 0 0
0.167832 0.349078 0.110423 0.8 0 0
0.189091 0.629958 0.031777 0.8 0 0
0.107714 0.142446 0.129114 0.8 0 0
0.084536 0.102977 0.074235 0.8 0 0
0.260826 0.697693 0.101125 0.8 0 0
0.137724 0.642853 0.130482 0.8 0 0
0.232196 0.135096 0.113832 0.8 0 0
0.179027 0.862167 0.063506 0.8 0 0
0.118671 0.170611 0.127835 0.8 0 0
0.195821 0.929995 0.072707 0.8 0 0
0.127720 0.428793 0.040679 0.8 0 0
0.134241 0.846205 0.053617 0.8 0 0
0.074406 0.386164 0.084916 0.8 0 0
0.205054 0.660099 0.129939 0.8 0 0
0.260943 0.526157 0.147585 0.8 0 0
0.086236 0.812753 0.102612 0.8 0 0
0.226267 0.721201 0.032522 0.8 0 0
0.123425 0.919120 0.096525 0.8 0 0
0.192658 0.189798 0.131513 0.8 0 0
0.128131 0.897448 0.079482 0.8 0 0
0.265813 0.645782 0.106586 0.8 0 0
0.134476 0.033166 0.072347 0.8 0 0
0.220913 0.502412 0.048085 0.8 0 0
0.111542 0.438690 0.127748 0.8 0 0
0.214350 0.301132 0.137127 0.8 0 0
0.240596 0.266533 0.104972 0.8 0 0
0.238957 0.331349 0.112492 0.8 0 0
0.049575 0.743502 0.051453 0.8 0 0
0.090999 0.031020 0.052994 0.8 0 0
0.187129 0.032583 0.051562 0.8 0 0
0.134392 0.850349 0.092151 0.8 0 0
0.171106 0.583624 0.130239 0.8 0 0
0.203319 0.130367 0.134349 0.8 0 0
0.043677 0.490698 0.110838 0.8 0 0
0.122270 0.052516 0.123620 0.8 0 0
0.196865 0.934899 0.088901 0.8 0 0
0.238749 0.612218 0.092525 0.8 0 0
0.128600 0.963205 0.092723 0.8 0 0
0.036102 0.710299 0.091273 0.8 0 0
0.263826 0.561487 0.141285 0.8 0 0
0.166582 0.361706 0.094399 0.8 0 0
0.235560 0.672073 0.057804 0.8 0 0
0.214846 0.614262 0.126770 0.8 0 0
0.241825 0.695805 0.058528 0.8 0 0
0.231686 0.219368 0.120107 0.8 0 0
0.058739 0.715398 0.105367 0.8 0 0
0.124314 0.104012 0.053480 0.8 0 0
0.150984 0.380030 0.123176 0.8 0 0
0.140976 0.274677 0.064332 0.8 0 0
0.164444 0.748512 0.127354 0.8 0 0
0.080445 0.673540 0.104197 0.8 0 0
0.076747 0.459654 0.065604 0.8 0 0
0.212106 0.078613 0.133144 0.8 0 0
0.282024 0.697857 0.079016 0.8 0 0
0.262233 0.727674 0.048720 0.8 0 0
0.195443 0.586573 0.049255 0.8 0 0
0.143293 0.235259 0.092138 0.8 0 0
0.196758 0.251095 0.062539 0.8 0 0
0.181944 0.375665 0.133968 0.8 0 0
0.134132 0.151708 0.117112 0.8 0 0
0.070706 0.696469 0.063945 0.8 0 0
0.123193 0.047938 0.134624 0.8 0 0
0.231800 0.443564 0.058634 0.8 0 0
0.105595 0.269793 0.052948 0.8 0 0
0.151428 0.564492 0.132648 0.8 0 0
0.153846 0.383948 0.104271 0.8 0 0
0.138742 0.468815 0.132194 0.8 0 0
0.112110 0.609503 0.127105 0.8 0 0
0.187212 0.124871 0.059910 0.8 0 0
0.112008 0.482731 0.128656 0.8 0 0
0.150204 0.436736 0.034981 0.8 0 0
0.132523 0.063332 0.064417 0.8 0 0
0.209045 0.790423 0.118787 0.8 0 0
0.152075 0.458288 0.132185 0.8 0 0
0.042449 0.722497 0.094957 0.8 0 0
0.135950 0.601679 0.130469 0.8 0 0
0.267905 0.525983 0.155046 0.8 0 0
0.216028 0.409147 0.127022 0.8 0 0
0.235462 0.796292 0.033916 0.8 0 0
0.152453 0.363327 0.069243 0.8 0 0
0.083645 0.267743 0.072701 0.8 0 0
0.075450 0.388578 0.080170 0.8 0 0
0.175547 0.257661 0.123629 0.8 0 0
0.177533 0.377080 0.051515 0.8 0 0
0.088421 0.478034 0.118679 0.8 0 0
0.091319 0.027869 0.050026 0.8 0 0
0.125428 0.253054 0.053000 0.8 0 0
0.063417 0.632921 0.070963 0.8 0 0
0.131052 0.855329 0.080556 0.8 0 0
0.194566 0.147996 0.129854 0.8 0 0
0.197838 0.479113 0.129789 0.8 0 0
0.220139 0.724056 0.122848 0.8 0 0
0.087535 0.819852 0.094372 0.8 0 0
0.127261 0.536392 0.133985 0.8 0 0
0.180527 0.082443 0.087589 0.8 0 0
0.183188 0.671732 0.028703 0.8 0 0
0.043234 0.553518 0.105542 0.8 0 0
0.078804 0.660972 0.085496 0.8 0 0
0.184016 0.085440 0.119530 0.8 0 0
0.157090 0.474691 0.126631 0.8 0 0
0.122635 0.598431 0.045701 0.8 0 0
0.169292 0.335097 0.094974 0.8 0 0
0.032351 0.711215 0.071742 0.8 0 0
0.033654 0.652712 0.080335 0.8 0 0
0.192734 0.273564 0.065537 0.8 0 0
0.091077 0.160821 0.115387 0.8 0 0
0.108091 0.512862 0.129164 0.8 0 0
0.193740 0.419741 0.042935 0.8 0 0
0.126213 0.094671 0.119967 0.8 0 0
0.179833 0.939028 0.130062 0.8 0 0
0.186468 0.394594 0.133017 0.8 0 0
0.249769 0.810316 0.091154 0.8 0 0
0.125292 0.919829 0.060703 0.8 0 0
0.089277 0.037090 0.061152 0.8 0 0
0.138997 0.155793 0.095339 0.8 0 0
0.175536 0.378780 0.134637 0.8 0 0
0.198056 0.316064 0.138486 0.8 0 0
0.085876 0.687788 0.046319 0.8 0 0
0.041944 0.478303 0.106072 0.8 0 0
0.158789 0.471102 0.129007 0.8 0 0
0.038219 0.585121 0.080074 0.8 0 0
0.102436 0.608827 0.123431 0.8 0 0
0.033732 0.655940 0.057698 0.8 0 0
0.145868 0.382952 0.043159 0.8 0 0
0.218759 0.405923 0.054047 0.8 0 0
0.212926 0.489974 0.123803 0.8 0 0
0.207381 0.534944 0.130079 0.8 0 0
0.192498 0.451261 0.037367 0.8 0 0
0.243429 0.336081 0.103116 0.8 0 0
0.200940 0.336779 0.137614 0.8 0 0
0.061018 0.805295 0.082051 0.8 0 0
0.170566 0.345769 0.084975 0.8 0 0
0.173800 0.357129 0.135328 0.8 0 0
0.099319 0.151313 0.119842 0.8 0 0
0.087082 0.417837 0.054460 0.8 0 0
0.152892 0.367043 0.102660 0.8 0 0
0.274552 0.672475 0.100071 0.8 0 0
0.079532 0.221787 0.091024 0.8 0 0
0.117938 0.269504 0.126020 0.8 0 0
0.095615 0.425141 0.120609 0.8 0 0
0.189734 0.921384 0.128453 0.8 0 0
0.072400 0.767840 0.044863 0.8 0 0
0.082798 0.790296 0.112048 0.8 0 0
0.182967 0.116047 0.068634 0.8 0 0
0.238126 0.626804 0.087150 0.8 0 0
0.194301 0.908155 0.073007 0.8 0 0
0.271481 0.558461 0.119143 0.8 0 0
0.030560 0.716731 0.081523 0.8 0 0
0.078104 0.703533 0.100578 0.8 0 0
0.201680 0.518076 0.131740 0.8 0 0
0.069432 0.689666 0.083570 0.8 0 0
0.053616 0.650022 0.060072 0.8 0 0
0.104634 0.179011 0.050774 0.8 0 0
0.089530 0.040795 0.059985 0.8 0 0
0.239834 0.441819 0.071142 0.8 0 0
0.150465 0.369843 0.121798 0.8 0 0
0.113754 0.788031 0.119441 0.8 0 0
0.077414 0.742004 0.093028 0.8 0 0
0.108365 0.378092 0.045514 0.8 0 0
0.167813 0.384497 0.076572 0.8 0 0
0.115335 0.552953 0.128256 0.8 0 0
0.181290 0.098503 0.109103 0.8 0 0
0.141401 0.853964 0.089526 0.8 0 0
0.126893 0.941226 0.122264 0.8 0 0
0.189448 0.900104 0.062693 0.8 0 0
0.238189 0.583663 0.083315 0.8 0 0
0.121795 0.397778 0.045804 0.8 0 0
0.118258 0.628360 0.040454 0.8 0 0
0.238552 0.740461 0.079077 0.8 0 0
0.088005 0.546839 0.056028 0.8 0 0
0.188313 0.955850 0.112000 0.8 0 0
0.147270 0.291006 0.092077 0.8 0 0
0.280281 0.611047 0.099994 0.8 0 0
0.137012 0.155491 0.101143 0.8 0 0
0.168450 0.931793 0.046966 0.8 0 0
0.052258 0.464853 0.123370 0.8 0 0
0.047134 0.607081 0.100380 0.8 0 0
0.060751 0.597499 0.082786 0.8 0 0
0.174518 0.467584 0.132742 0.8 0 0
0.112891 0.574679 0.122728 0.8 0 0
0.231237 0.153649 0.117014 0.8 0 0
0.080934 0.460620 0.054994 0.8 0 0
0.128547 0.586717 0.127602 0.8 0 0
0.129527 0.026644 0.164659 0.8 0 0
0.140354 0.859851 0.061408 0.8 0 0
0.132693 0.457359 0.131505 0.8 0 0
0.130128 0.042422 0.086521 0.8 0 0
0.204153 0.034217 0.043839 0.8 0 0
0.194897 0.135583 0.054583 0.8 0 0
0.198911 0.419477 0.132490 0.8 0 0
0.096232 0.049647 0.133617 0.8 0 0
0.176312 0.206632 0.090043 0.8 0 0
0.118726 0.728022 0.030040 0.8 0 0
0.137436 0.095410 0.080576 0.8 0 0
0.140607 0.173589 0.079717 0.8 0 0
0.135441 0.881911 0.086502 0.8 0 0
0.243185 0.762841 0.104803 0.8 0 0
0.133336 0.095108 0.062586 0.8 0 0
0.158141 0.916824 0.046617 0.8 0 0
0.229312 0.818868 0.094010 0.8 0 0
0.108079 0.818901 0.108363 0.8 0 0
0.168229 0.345059 0.110758 0.8 0 0
0.073664 0.776893 0.108084 0.8 0 0
0.091624 0.618910 0.118969 0.8 0 0
0.141380 0.756480 0.026656 0.8 0 0
0.196695 0.926291 0.080069 0.8 0 0
0.259700 0.755538 0.102913 0.8 0 0
0.097487 0.028922 0.192616 0.8 0 0
0.230114 0.247630 0.124919 0.8 0 0
0.086558 0.027965 0.191026 0.8 0 0
0.170271 0.577134 0.039977 0.8 0 0
0.145035 0.504638 0.029528 0.8 0 0
0.114964 0.700383 0.127803 0.8 0 0
0.048740 0.671974 0.056032 0.8 0 0
0.052186 0.506727 0.112568 0.8 0 0
0.143888 0.305238 0.067406 0.8 0 0
0.244298 0.487640 0.179635 0.8 0 0
0.080235 0.217024 0.093520 0.8 0 0
0.157700 0.856150 0.059950 0.8 0 0
0.236282 0.635000 0.073806 0.8 0 0
0.075399 0.412416 0.075910 0.8 0 0
0.188878 0.450070 0.131481 0.8 0 0
0.055535 0.565588 0.092226 0.8 0 0
0.049290 0.731223 0.099512 0.8 0 0
0.196826 0.927355 0.082457 0.8 0 0
0.231689 0.220158 0.075548 0.8 0 0
0.158821 0.474610 0.034503 0.8 0 0
0.221519 0.201092 0.131563 0.8 0 0
0.172531 0.625704 0.030384 0.8 0 0
0.090818 0.681189 0.043671 0.8 0 0
0.042789 0.537484 0.096018 0.8 0 0
0.145130 0.786451 0.028279 0.8 0 0
0.233979 0.287177 0.081299 0.8 0 0
0.235982 0.759287 0.037197 0.8 0 0
0.073232 0.402292 0.091583 0.8 0 0
0.133133 0.373276 0.129086 0.8 0 0
0.226504 0.799061 0.112136 0.8 0 0
0.141745 0.366796 0.125675 0.8 0 0
0.248804 0.481589 0.086831 0.8 0 0
0.094993 0.084412 0.053901 0.8 0 0
0.097974 0.204735 0.119689 0.8 0 0
0.135085 0.142614 0.106544 0.8 0 0
0.106720 0.445438 0.125612 0.8 0 0
0.132839 0.925175 0.051569 0.8 0 0
0.142673 0.740550 0.127021 0.8 0 0
0.133903 0.605372 0.039562 0.8 0 0
0.237880 0.716400 0.086120 0.8 0 0
0.048250 0.727980 0.099074 0.8 0 0
0.143240 0.319117 0.058265 0.8 0 0
0.139144 0.233705 0.118654 0.8 0 0
0.098345 0.582744 0.059570 0.8 0 0
0.176301 0.273001 0.081744 0.8 0 0
0.216425 0.106900 0.055494 0.8 0 0
0.106726 0.439725 0.042297 0.8 0 0
0.148983 0.315928 0.098633 0.8 0 0
0.094659 0.422756 0.120166 0.8 0 0
0.111398 0.330473 0.127611 0.8 0 0
0.227766 0.649660 0.042436 0.8 0 0
0.132199 0.733913 0.127074 0.8 0 0
0.130814 0.320998 0.124235 0.8 0 0
0.081358 0.325883 0.070121 0.8 0 0
0.201711 0.341291 0.137441 0.8 0 0
0.243559 0.691449 0.073261 0.8 0 0
0.139109 0.850392 0.083620 0.8 0 0
0.136564 0.131145 0.070653 0.8 0 0
0.112259 0.059215 0.058997 0.8 0 0
0.180107 0.772433 0.028260 0.8 0 0
0.162067 0.427188 0.081703 0.8 0 0
0.196024 0.152441 0.054171 0.8 0 0
0.137408 0.500075 0.133597 0.8 0 0
0.078133 0.034639 0.139383 0.8 0 0
0.179504 0.085962 0.092653 0.8 0 0
0.248093 0.799523 0.046003 0.8 0 0
0.103947 0.798322 0.116956 0.8 0 0
0.034223 0.628357 0.071947 0.8 0 0
0.168571 0.334754 0.098109 0.8 0 0
0.144982 0.596012 0.130834 0.8 0 0
0.119645 0.618439 0.040434 0.8 0 0
0.179141 0.638386 0.030189 0.8 0 0
0.070676 0.497038 0.089734 0.8 0 0
0.203649 0.633899 0.032988 0.8 0 0
0.268371 0.699928 0.098644 0.8 0 0
0.240759 0.722168 0.082045 0.8 0 0
0.254741 0.806989 0.075092 0.8 0 0
0.217043 0.311241 0.069394 0.8 0 0
0.192189 0.595825 0.044096 0.8 0 0
0.117027 0.258506 0.050287 0.8 0 0
0.174989 0.229261 0.109110 0.8 0 0
0.052249 0.713902 0.103237 0.8 0 0
0.202354 0.485661 0.034789 0.8 0 0
0.178545 0.161703 0.113193 0.8 0 0
0.195385 0.917586 0.099277 0.8 0 0
0.199794 0.633788 0.131054 0.8 0 0
0.050647 0.536271 0.114788 0.8 0 0
0.116820 0.257597 0.050238 0.8 0 0
0.176571 0.249449 0.083267 0.8 0 0
0.200177 0.573941 0.048330 0.8 0 0
0.100840 0.062032 0.109570 0.8 0 0
0.100405 0.755153 0.122174 0.8 0 0
0.092413 0.406644 0.052338 0.8 0 0
0.241694 0.460389 0.071994 0.8 0 0
0.237850 0.031391 0.174515 0.8 0 0
0.088708 0.828483 0.056499 0.8 0 0
0.094397 0.281994 0.118558 0.8 0 0
0.159322 0.823274 0.102786 0.8 0 0
0.055411 0.607243 0.103342 0.8 0 0
0.095304 0.673455 0.119336 0.8 0 0
0.075622 0.756627 0.100677 0.8 0 0
0.118713 0.752595 0.126370 0.8 0 0
0.204369 0.351765 0.136948 0.8 0 0
0.251536 0.576401 0.134681 0.8 0 0
0.180304 0.171644 0.074721 0.8 0 0
0.064273 0.727228 0.046229 0.8 0 0
0.043823 0.548275 0.106748 0.8 0 0
0.135474 0.031667 0.099314 0.8 0 0
0.204841 0.063084 0.072016 0.8 0 0
0.084876 0.717384 0.114064 0.8 0 0
0.205445 0.265265 0.061755 0.8 0 0
0.198278 0.083789 0.050875 0.8 0 0
0.116745 0.141882 0.047858 0.8 0 0
0.152775 0.569594 0.132089 0.8 0 0
0.258641 0.607405 0.101523 0.8 0 0
0.261134 0.503924 0.163039 0.8 0 0
0.263766 0.498815 0.167447 0.8 0 0
0.153241 0.837615 0.098171 0.8 0 0
0.105089 0.514386 0.128029 0.8 0 0
0.081973 0.363872 0.062585 0.8 0 0
0.102755 0.417017 0.123405 0.8 0 0
0.056736 0.721768 0.048261 0.8 0 0
0.166793 0.652986 0.131071 0.8 0 0
0.236839 0.145654 0.093037 0.8 0 0
0.186181 0.234880 0.133068 0.8 0 0
0.108808 0.078801 0.132569 0.8 0 0
0.086083 0.621772 0.107631 0.8 0 0
0.212695 0.640182 0.033479 0.8 0 0
0.226758 0.099875 0.121618 0.8 0 0
0.099579 0.609218 0.051776 0.8 0 0
0.177297 0.159440 0.103319 0.8 0 0
0.118639 0.159372 0.050037 0.8 0 0
0.076873 0.027198 0.154389 0.8 0 0
0.147832 0.390808 0.041691 0.8 0 0
0.134895 0.964431 0.067236 0.8 0 0
0.173372 0.867766 0.105420 0.8 0 0
0.154477 0.648723 0.131751 0.8 0 0
0.093479 0.579623 0.061947 0.8 0 0
0.158062 0.613525 0.030302 0.8 0 0
0.207486 0.732366 0.027395 0.8 0 0
0.154947 0.902958 0.138476 0.8 0 0
0.193475 0.369924 0.134753 0.8 0 0
0.168614 0.840013 0.097269 0.8 0 0
0.069696 0.708874 0.070527 0.8 0 0
0.118439 0.069041 0.124987 0.8 0 0
0.046109 0.528064 0.111448 0.8 0 0
0.085186 0.427183 0.116330 0.8 0 0
0.083424 0.202968 0.075330 0.8 0 0
0.123512 0.843849 0.064658 0.8 0 0
0.032650 0.659191 0.063242 0.8 0 0
0.160579 0.915351 0.141452 0.8 0 0
0.208851 0.611442 0.035319 0.8 0 0
0.118461 0.287187 0.125526 0.8 0 0
0.187493 0.546930 0.036846 0.8 0 0
0.183692 0.288870 0.135834 0.8 0 0
0.168874 0.343665 0.092907 0.8 0 0
0.128968 0.283214 0.053635 0.8 0 0
0.273466 0.510279 0.146004 0.8 0 0
0.228786 0.583126 0.063670 0.8 0 0
0.192925 0.907109 0.105165 0.8 0 0
0.128071 0.906142 0.062064 0.8 0 0
0.239425 0.487977 0.063566 0.8 0 0
0.082901 0.255854 0.103785 0.8 0 0
0.029628 0.702725 0.072907 0.8 0 0
0.191453 0.702438 0.027945 0.8 0 0
0.073903 0.382777 0.087691 0.8 0 0
0.206319 0.767510 0.028576 0.8 0 0
0.152703 0.363199 0.072408 0.8 0 0
0.255860 0.809199 0.078216 0.8 0 0
0.177243 0.837172 0.048198 0.8 0 0
0.204147 0.304735 0.139893 0.8 0 0
0.147435 0.655608 0.031658 0.8 0 0
0.170163 0.762923 0.126138 0.8 0 0
0.046332 0.637022 0.094258 0.8 0 0
0.077487 0.739245 0.102010 0.8 0 0
0.065061 0.726358 0.107051 0.8 0 0
0.151922 0.344474 0.081772 0.8 0 0
0.191471 0.783677 0.121573 0.8 0 0
0.202611 0.832767 0.085443 0.8 0 0
0.170038 0.505332 0.133926 0.8 0 0
0.212684 0.144601 0.055141 0.8 0 0
0.284451 0.718788 0.078080 0.8 0 0
0.263529 0.487672 0.171739 0.8 0 0
0.169099 0.514337 0.134955 0.8 0 0
0.159308 0.657491 0.028580 0.8 0 0
0.160426 0.446416 0.117764 0.8 0 0
0.163103 0.974562 0.097320 0.8 0 0
0.076663 0.739565 0.092321 0.8 0 0
0.223273 0.587977 0.116187 0.8 0 0
0.049504 0.489367 0.115177 0.8 0 0
0.125731 0.045698 0.063803 0.8 0 0
0.177383 0.208150 0.084329 0.8 0 0
0.238182 0.035087 0.174129 0.8 0 0
0.235606 0.126800 0.089410 0.8 0 0
0.233948 0.093743 0.083699 0.8 0 0
0.147691 0.700491 0.128572 0.8 0 0
0.214238 0.198670 0.062878 0.8 0 0
0.152523 0.362970 0.103290 0.8 0 0
0.135744 0.304540 0.054904 0.8 0 0
0.064959 0.612672 0.096844 0.8 0 0
0.230425 0.623543 0.114946 0.8 0 0
0.228553 0.037307 0.073671 0.8 0 0
0.166526 0.917131 0.047480 0.8 0 0
0.051414 0.765046 0.096012 0.8 0 0
0.164930 0.596054 0.035792 0.8 0 0
0.125609 0.478433 0.034746 0.8 0 0
0.183471 0.127592 0.125645 0.8 0 0
0.128626 0.529110 0.134884 0.8 0 0
0.214492 0.589125 0.057895 0.8 0 0
0.174996 0.860021 0.064078 0.8 0 0
0.220220 0.376487 0.127879 0.8 0 0
0.181359 0.551512 0.131626 0.8 0 0
0.072165 0.457030 0.093558 0.8 0 0
0.219827 0.766492 0.028719 0.8 0 0
0.189298 0.955751 0.065165 0.8 0 0
0.277574 0.671691 0.066301 0.8 0 0
0.042419 0.726152 0.053344 0.8 0 0
0.239717 0.726727 0.065411 0.8 0 0
0.083472 0.067520 0.080290 0.8 0 0
0.088544 0.386871 0.055666 0.8 0 0
0.128850 0.629882 0.130295 0.8 0 0
0.232459 0.212392 0.118158 0.8 0 0
0.244001 0.774431 0.049117 0.8 0 0
0.155901 0.428651 0.045333 0.8 0 0
0.233078 0.602417 0.070861 0.8 0 0
0.065865 0.697083 0.096065 0.8 0 0
0.157413 0.427622 0.064717 0.8 0 0
0.232605 0.037778 0.096288 0.8 0 0
0.220358 0.805151 0.110508 0.8 0 0
0.141848 0.170316 0.088674 0.8 0 0
0.173188 0.484518 0.029473 0.8 0 0
0.079504 0.282443 0.096247 0.8 0 0
0.104776 0.415326 0.044993 0.8 0 0
0.084005 0.521415 0.110190 0.8 0 0
0.175070 0.612902 0.132448 0.8 0 0
0.183113 0.855850 0.076043 0.8 0 0
0.196585 0.776973 0.029549 0.8 0 0
0.278138 0.682980 0.091301 0.8 0 0
0.127085 0.694319 0.128131 0.8 0 0
0.273294 0.608612 0.087309 0.8 0 0
0.176229 0.301583 0.136574 0.8 0 0
0.062010 0.800023 0.053639 0.8 0 0
0.094015 0.308011 0.118424 0.8 0 0
0.236711 0.744417 0.110988 0.8 0 0
0.219463 0.100184 0.058383 0.8 0 0
0.103479 0.095075 0.049049 0.8 0 0
0.235529 0.084206 0.097966 0.8 0 0
0.187954 0.192962 0.061015 0.8 0 0
0.115434 0.764796 0.123908 0.8 0 0
0.233217 0.029037 0.079742 0.8 0 0
0.081762 0.373036 0.111092 0.8 0 0
0.060318 0.808700 0.089756 0.8 0 0
0.180217 0.270886 0.068521 0.8 0 0
0.095672 0.480708 0.121746 0.8 0 0
0.077323 0.305027 0.093561 0.8 0 0
0.218936 0.292659 0.071305 0.8 0 0
0.098872 0.636657 0.046528 0.8 0 0
0.126492 0.675440 0.128659 0.8 0 0
0.139499 0.124331 0.083782 0.8 0 0
0.078704 0.387040 0.069339 0.8 0 0
0.091736 0.134565 0.115461 0.8 0 0
0.136525 0.165993 0.108875 0.8 0 0
0.274212 0.643518 0.106847 0.8 0 0
0.240332 0.819863 0.061096 0.8 0 0
0.125606 0.226057 0.053518 0.8 0 0
0.070155 0.494580 0.140199 0.8 0 0
0.165887 0.394330 0.131791 0.8 0 0
0.142582 0.475046 0.132619 0.8 0 0
0.206632 0.156750 0.137152 0.8 0 0
0.039199 0.717803 0.092865 0.8 0 0
0.194497 0.910433 0.069108 0.8 0 0
0.222435 0.228811 0.070230 0.8 0 0
0.184751 0.825563 0.100004 0.8 0 0
0.208347 0.509138 0.039531 0.8 0 0
0.161736 0.719701 0.128280 0.8 0 0
0.128923 0.045112 0.138733 0.8 0 0
0.235421 0.674247 0.049534 0.8 0 0
0.228141 0.528019 0.116849 0.8 0 0
0.116911 0.797867 0.031507 0.8 0 0
0.207703 0.150184 0.050774 0.8 0 0
0.225064 0.663775 0.122224 0.8 0 0
0.154652 0.446160 0.129953 0.8 0 0
0.206569 0.463481 0.128142 0.8 0 0
0.269373 0.570933 0.108976 0.8 0 0
0.093227 0.645265 0.119577 0.8 0 0
0.154915 0.439027 0.124412 0.8 0 0
0.178296 0.240760 0.076057 0.8 0 0
0.157377 0.428456 0.063435 0.8 0 0
0.175562 0.871526 0.120309 0.8 0 0
0.266644 0.707592 0.057583 0.8 0 0
0.105253 0.264132 0.052976 0.8 0 0
0.194155 0.777531 0.029431 0.8 0 0
0.140509 0.640014 0.130880 0.8 0 0
0.122450 0.082568 0.122419 0.8 0 0
0.218861 0.566517 0.117732 0.8 0 0
0.204156 0.071686 0.079506 0.8 0 0
0.267660 0.604336 0.123816 0.8 0 0
0.210559 0.242945 0.136696 0.8 0 0
0.051848 0.518241 0.120563 0.8 0 0
0.275373 0.512374 0.152197 0.8 0 0
0.133341 0.039787 0.113763 0.8 0 0
0.129097 0.159022 0.122109 0.8 0 0
0.041071 0.495458 0.112603 0.8 0 0
0.076711 0.328041 0.088406 0.8 0 0
0.237739 0.710898 0.088194 0.8 0 0
0.232449 0.589462 0.104769 0.8 0 0
0.189830 0.894017 0.102954 0.8 0 0
0.121032 0.388667 0.046056 0.8 0 0
0.104665 0.448349 0.042849 0.8 0 0
0.260357 0.722948 0.048051 0.8 0 0
0.235052 0.148072 0.107018 0.8 0 0
0.185026 0.892488 0.123537 0.8 0 0
0.113006 0.527939 0.131948 0.8 0 0
0.271905 0.608980 0.084972 0.8 0 0
0.156666 0.428117 0.055151 0.8 0 0
0.080321 0.798766 0.109481 0.8 0 0
0.259472 0.763274 0.048845 0.8 0 0
0.167899 0.345542 0.104994 0.8 0 0
0.241628 0.761595 0.067533 0.8 0 0
0.176231 0.186001 0.093953 0.8 0 0
0.252749 0.511447 0.176444 0.8 0 0
0.110196 0.312284 0.126967 0.8 0 0
0.063180 0.802899 0.060783 0.8 0 0
0.203373 0.578121 0.050791 0.8 0 0
0.077355 0.301506 0.093344 0.8 0 0
0.047692 0.474968 0.104921 0.8 0 0
0.238392 0.308991 0.093431 0.8 0 0
0.112704 0.270672 0.048847 0.8 0 0
0.120651 0.582694 0.126023 0.8 0 0
0.236114 0.693132 0.050330 0.8 0 0
0.216274 0.080466 0.129641 0.8 0 0
0.178945 0.935787 0.049656 0.8 0 0
0.267412 0.502474 0.156544 0.8 0 0
0.180930 0.124422 0.114780 0.8 0 0
0.169778 0.430938 0.134119 0.8 0 0
0.211742 0.272190 0.136583 0.8 0 0
0.237521 0.245086 0.093457 0.8 0 0
0.175444 0.188007 0.097965 0.8 0 0
0.133300 0.600428 0.129965 0.8 0 0
0.185815 0.845652 0.074739 0.8 0 0
0.237775 0.726125 0.068908 0.8 0 0
0.210142 0.686623 0.128873 0.8 0 0
0.193440 0.496444 0.032960 0.8 0 0
0.112306 0.329030 0.128090 0.8 0 0
0.138783 0.480705 0.132333 0.8 0 0
0.139989 0.528278 0.135984 0.8 0 0
0.083802 0.617278 0.073345 0.8 0 0
0.203021 0.773284 0.029227 0.8 0 0
0.164394 0.410499 0.078329 0.8 0 0
0.264372 0.705530 0.098460 0.8 0 0
0.160199 0.446379 0.108016 0.8 0 0
0.150649 0.919768 0.135878 0.8 0 0
0.091424 0.802137 0.110531 0.8 0 0
0.101398 0.156066 0.121766 0.8 0 0
0.130967 0.117030 0.117386 0.8 0 0
0.241984 0.696492 0.061860 0.8 0 0
0.038236 0.596535 0.075558 0.8 0 0
0.210232 0.121762 0.049732 0.8 0 0
0.166730 0.366414 0.091703 0.8 0 0
0.197376 0.335635 0.137249 0.8 0 0
0.194549 0.714130 0.130224 0.8 0 0
0.050498 0.629276 0.066878 0.8 0 0
0.246998 0.538587 0.091517 0.8 0 0
0.088557 0.294044 0.061596 0.8 0 0
0.144906 0.957132 0.055610 0.8 0 0
0.124972 0.633234 0.129837 0.8 0 0
0.075536 0.721705 0.062143 0.8 0 0
0.037694 0.719344 0.091404 0.8 0 0
0.072287 0.417220 0.086630 0.8 0 0
0.188004 0.456012 0.131448 0.8 0 0
0.075425 0.719805 0.074399 0.8 0 0
0.104252 0.434252 0.124367 0.8 0 0
0.161688 0.792498 0.116423 0.8 0 0
0.182536 0.109111 0.072011 0.8 0 0
0.191766 0.920424 0.124296 0.8 0 0
0.052936 0.693360 0.048084 0.8 0 0
0.230525 0.112320 0.070767 0.8 0 0
0.240383 0.502875 0.067894 0.8 0 0
0.218309 0.501194 0.121172 0.8 0 0
0.258198 0.797534 0.067671 0.8 0 0
0.112028 0.822678 0.104155 0.8 0 0
0.093496 0.285073 0.059645 0.8 0 0
0.217360 0.364006 0.130022 0.8 0 0
0.185219 0.690141 0.028179 0.8 0 0
0.075438 0.444477 0.100669 0.8 0 0
0.134730 0.091112 0.069401 0.8 0 0
0.171301 0.457735 0.033071 0.8 0 0
0.203932 0.062760 0.071850 0.8 0 0
0.077201 0.407654 0.071126 0.8 0 0
0.202265 0.176845 0.054489 0.8 0 0
0.208679 0.509139 0.127612 0.8 0 0
0.283659 0.680335 0.079040 0.8 0 0
0.105590 0.431424 0.124865 0.8 0 0
0.184274 0.364626 0.133949 0.8 0 0
0.053969 0.779257 0.061889 0.8 0 0
0.080021 0.347765 0.104319 0.8 0 0
0.090448 0.120541 0.057628 0.8 0 0
0.088813 0.579496 0.107819 0.8 0 0
0.268187 0.722107 0.103037 0.8 0 0
0.057014 0.545719 0.104051 0.8 0 0
0.175697 0.259898 0.086198 0.8 0 0
0.081107 0.330525 0.070113 0.8 0 0
0.206286 0.538408 0.041623 0.8 0 0
0.222682 0.241610 0.131692 0.8 0 0
0.143722 0.292545 0.072269 0.8 0 0
0.084865 0.033061 0.181301 0.8 0 0
0.262531 0.779635 0.066176 0.8 0 0
0.121082 0.501403 0.035364 0.8 0 0
0.265570 0.703490 0.058386 0.8 0 0
0.209699 0.520865 0.128020 0.8 0 0
0.126443 0.275915 0.123367 0.8 0 0
0.081978 0.123425 0.091673 0.8 0 0
0.130975 0.436587 0.038954 0.8 0 0
0.229287 0.321230 0.130548 0.8 0 0
0.235019 0.642641 0.064825 0.8 0 0
0.118108 0.840599 0.073791 0.8 0 0
0.081522 0.223489 0.082439 0.8 0 0
0.174568 0.254184 0.092286 0.8 0 0
0.091473 0.053044 0.113831 0.8 0 0
0.254295 0.518745 0.170465 0.8 0 0
0.226943 0.043806 0.158232 0.8 0 0
0.219936 0.421938 0.124137 0.8 0 0
0.122238 0.046758 0.140113 0.8 0 0
0.168319 0.630818 0.029621 0.8 0 0
0.101067 0.058612 0.074708 0.8 0 0
0.078872 0.263485 0.093043 0.8 0 0
0.250507 0.739113 0.045608 0.8 0 0
0.199192 0.363355 0.053383 0.8 0 0
0.095528 0.051920 0.123582 0.8 0 0
0.038548 0.570825 0.089642 0.8 0 0
0.219594 0.575652 0.058126 0.8 0 0
0.082850 0.193364 0.099146 0.8 0 0
0.040948 0.711390 0.085597 0.8 0 0
0.099151 0.097585 0.121407 0.8 0 0
0.111491 0.611372 0.042873 0.8 0 0
0.127067 0.371419 0.048587 0.8 0 0
0.130535 0.537959 0.134111 0.8 0 0
0.123253 0.925278 0.075894 0.8 0 0
0.222392 0.267913 0.132147 0.8 0 0
0.210139 0.168981 0.135924 0.8 0 0
0.206042 0.282502 0.063176 0.8 0 0
0.092166 0.046847 0.090381 0.8 0 0
0.180753 0.848641 0.064739 0.8 0 0
0.223763 0.679361 0.037696 0.8 0 0
0.237733 0.523261 0.171048 0.8 0 0
0.199510 0.333901 0.058475 0.8 0 0
0.235008 0.042047 0.124578 0.8 0 0
0.124860 0.040401 0.040237 0.8 0 0
0.186397 0.212551 0.062620 0.8 0 0
0.159663 0.796553 0.114958 0.8 0 0
0.231808 0.551849 0.112360 0.8 0 0
0.213833 0.565935 0.120529 0.8 0 0
0.119895 0.135685 0.128190 0.8 0 0
0.094240 0.819102 0.038153 0.8 0 0
0.173986 0.447021 0.035304 0.8 0 0
0.110668 0.550119 0.125953 0.8 0 0
0.063644 0.494583 0.128749 0.8 0 0
0.151710 0.760304 0.125757 0.8 0 0
0.130409 0.945213 0.126088 0.8 0 0
0.130221 0.048039 0.120873 0.8 0 0
