0.077501 0.717882 0.064607 0.8 0 0
0.098640 0.644649 0.122470 0.8 0 0
0.250558 0.812006 0.068143 0.8 0 0
0.202728 0.775112 0.032319 0.8 0 0
0.110290 0.660540 0.044016 0.8 0 0
0.083219 0.730089 0.132613 0.8 0 0
0.209303 0.324336 0.102828 0.8 0 0
0.115518 0.045395 0.068570 0.8 0 0
0.059941 0.784538 0.073342 0.8 0 0
0.246842 0.789120 0.039735 0.8 0 0
0.135689 0.935522 0.126605 0.8 0 0
0.169405 0.650315 0.043155 0.8 0 0
0.229084 0.454953 0.126316 0.8 0 0
0.192449 0.736723 0.030143 0.8 0 0
0.108405 0.311295 0.106423 0.8 0 0
0.090623 0.621721 0.111433 0.8 0 0
0.175338 0.848321 0.078245 0.8 0 0
0.086429 0.797168 0.106875 0.8 0 0
0.125296 0.911144 0.127424 0.8 0 0
0.180184 0.392568 0.037415 0.8 0 0
0.149101 0.738331 0.029820 0.8 0 0
0.202962 0.801889 0.107690 0.8 0 0
0.259678 0.616565 0.123245 0.8 0 0
0.042233 0.663172 0.056156 0.8 0 0
0.239889 0.390534 0.089978 0.8 0 0
0.139087 0.655549 0.132569 0.8 0 0
0.242356 0.674420 0.100219 0.8 0 0
0.240311 0.513339 0.109519 0.8 0 0
0.214205 0.154020 0.085147 0.8 0 0
0.042246 0.602067 0.072087 0.8 0 0
0.189938 0.910580 0.095662 0.8 0 0
0.272644 0.677382 0.085400 0.8 0 0
0.057007 0.637055 0.068219 0.8 0 0
0.265182 0.610918 0.161597 0.8 0 0
0.063876 0.516823 0.088935 0.8 0 0
0.225059 0.496932 0.039903 0.8 0 0
0.183342 0.791473 0.116261 0.8 0 0
0.085533 0.435371 0.048623 0.8 0 0
0.175138 0.366791 0.103605 0.8 0 0
0.151923 0.581650 0.137069 0.8 0 0
0.107946 0.074495 0.067520 0.8 0 0
0.173432 0.398991 0.035857 0.8 0 0
0.232893 0.514569 0.045479 0.8 0 0
0.129861 0.874785 0.060252 0.8 0 0
0.199283 0.169841 0.099957 0.8 0 0
0.034741 0.588286 0.079762 0.8 0 0
0.197361 0.946196 0.074099 0.8 0 0
0.205911 0.193640 0.057154 0.8 0 0
0.185538 0.747251 0.030672 0.8 0 0
0.229251 0.476105 0.127472 0.8 0 0
0.270901 0.728906 0.081792 0.8 0 0
0.270621 0.627567 0.118715 0.8 0 0
0.087922 0.796375 0.032360 0.8 0 0
0.036785 0.577645 0.077823 0.8 0 0
0.137985 0.176201 0.072324 0.8 0 0
0.124176 0.366476 0.114705 0.8 0 0
0.253332 0.651648 0.079969 0.8 0 0
0.242844 0.572958 0.241698 0.8 0 0
0.032710 0.577692 0.087625 0.8 0 0
0.162615 0.619748 0.047709 0.8 0 0
0.224768 0.630488 0.094868 0.8 0 0
0.071154 0.732850 0.076798 0.8 0 0
0.129503 0.909975 0.128786 0.8 0 0
0.227372 0.707982 0.080696 0.8 0 0
0.228195 0.373245 0.053543 0.8 0 0
0.074661 0.799653 0.100361 0.8 0 0
0.149129 0.753502 0.030247 0.8 0 0
0.180510 0.656932 0.133303 0.8 0 0
0.185278 0.433311 0.137927 0.8 0 0
0.120466 0.685626 0.133218 0.8 0 0
0.136255 0.132594 0.076746 0.8 0 0
0.158755 0.513011 0.027313 0.8 0 0
0.087569 0.523760 0.134807 0.8 0 0
0.065442 0.527670 0.079262 0.8 0 0
0.130262 0.756244 0.138687 0.8 0 0
0.110578 0.034045 0.154890 0.8 0 0
0.118465 0.896619 0.070878 0.8 0 0
0.035041 0.714766 0.082844 0.8 0 0
0.103768 0.533217 0.028587 0.8 0 0
0.069286 0.524405 0.058441 0.8 0 0
0.175368 0.358796 0.057225 0.8 0 0
0.103174 0.064461 0.095943 0.8 0 0
0.151511 0.815009 0.099671 0.8 0 0
0.206096 0.827648 0.041430 0.8 0 0
0.092971 0.821974 0.080536 0.8 0 0
0.093897 0.828306 0.071127 0.8 0 0
0.070965 0.768670 0.038983 0.8 0 0
0.120467 0.767799 0.131896 0.8 0 0
0.125509 0.937990 0.119152 0.8 0 0
0.143151 0.816612 0.099163 0.8 0 0
0.125351 0.405886 0.036392 0.8 0 0
0.085591 0.558348 0.128605 0.8 0 0
0.196271 0.186456 0.057634 0.8 0 0
0.227975 0.712981 0.077304 0.8 0 0
0.269028 0.663789 0.086095 0.8 0 0
0.223813 0.748989 0.133216 0.8 0 0
0.234437 0.816696 0.045113 0.8 0 0
0.149495 0.948712 0.040252 0.8 0 0
0.094790 0.591707 0.054171 0.8 0 0
0.114195 0.529076 0.028242 0.8 0 0
0.212310 0.692893 0.038612 0.8 0 0
0.260841 0.626960 0.163948 0.8 0 0
0.039251 0.579759 0.099893 0.8 0 0
0.148731 0.801608 0.108394 0.8 0 0
0.166934 0.514770 0.027564 0.8 0 0
0.236624 0.456781 0.065866 0.8 0 0
0.111530 0.394867 0.134713 0.8 0 0
0.118384 0.217986 0.106746 0.8 0 0
0.053328 0.812468 0.052508 0.8 0 0
0.252870 0.795094 0.051642 0.8 0 0
0.170747 0.287197 0.075979 0.8 0 0
0.046921 0.745667 0.092293 0.8 0 0
0.084783 0.671524 0.117372 0.8 0 0
0.038020 0.484396 0.115832 0.8 0 0
0.245294 0.533676 0.086843 0.8 0 0
0.242127 0.594881 0.208754 0.8 0 0
0.174726 0.740653 0.030236 0.8 0 0
0.213301 0.796454 0.033510 0.8 0 0
0.077116 0.374989 0.062120 0.8 0 0
0.267769 0.732802 0.071775 0.8 0 0
0.213446 0.382819 0.047247 0.8 0 0
0.053158 0.794746 0.086017 0.8 0 0
0.220206 0.816354 0.081165 0.8 0 0
0.143035 0.189153 0.084733 0.8 0 0
0.160075 0.769041 0.129439 0.8 0 0
0.205430 0.075458 0.057572 0.8 0 0
0.205755 0.642678 0.056643 0.8 0 0
0.180650 0.511350 0.139973 0.8 0 0
0.187725 0.896239 0.082332 0.8 0 0
0.182779 0.938207 0.122619 0.8 0 0
0.157619 0.465522 0.141006 0.8 0 0
0.122306 0.515831 0.140782 0.8 0 0
0.079824 0.678008 0.103715 0.8 0 0
0.270784 0.645972 0.091897 0.8 0 0
0.231612 0.752722 0.110986 0.8 0 0
0.030688 0.695192 0.069601 0.8 0 0
0.038739 0.655693 0.087943 0.8 0 0
0.055547 0.682649 0.087554 0.8 0 0
0.187968 0.899706 0.097551 0.8 0 0
0.139543 0.534149 0.026392 0.8 0 0
0.159998 0.421207 0.033514 0.8 0 0
0.180489 0.304262 0.104913 0.8 0 0
0.075946 0.547604 0.124861 0.8 0 0
0.196127 0.357613 0.043102 0.8 0 0
0.135931 0.866564 0.124311 0.8 0 0
0.080583 0.815316 0.038786 0.8 0 0
0.137900 0.276003 0.057038 0.8 0 0
0.162824 0.423569 0.139099 0.8 0 0
0.214491 0.284742 0.068077 0.8 0 0
0.108911 0.045679 0.125150 0.8 0 0
0.206498 0.748637 0.030893 0.8 0 0
0.173753 0.549032 0.028260 0.8 0 0
0.070294 0.482346 0.109357 0.8 0 0
0.243354 0.477780 0.093493 0.8 0 0
0.152154 0.652027 0.133796 0.8 0 0
0.065883 0.442401 0.085157 0.8 0 0
0.116959 0.096790 0.061728 0.8 0 0
0.236673 0.484229 0.055782 0.8 0 0
0.109647 0.671407 0.131893 0.8 0 0
0.205656 0.587498 0.131376 0.8 0 0
0.115608 0.048010 0.126737 0.8 0 0
0.183616 0.209958 0.099863 0.8 0 0
0.128043 0.319221 0.108713 0.8 0 0
0.211401 0.345613 0.102491 0.8 0 0
0.137187 0.498854 0.028885 0.8 0 0
0.198156 0.748914 0.030851 0.8 0 0
0.075245 0.718726 0.087600 0.8 0 0
0.218141 0.221629 0.089782 0.8 0 0
0.227702 0.709465 0.062262 0.8 0 0
0.242982 0.441796 0.086096 0.8 0 0
0.139259 0.309239 0.097715 0.8 0 0
0.068872 0.685301 0.049439 0.8 0 0
0.128490 0.524004 0.141482 0.8 0 0
0.181845 0.074439 0.065796 0.8 0 0
0.104737 0.165824 0.060587 0.8 0 0
0.114199 0.110786 0.096474 0.8 0 0
0.204123 0.317197 0.058730 0.8 0 0
0.197552 0.670925 0.133110 0.8 0 0
0.231720 0.390376 0.063116 0.8 0 0
0.218405 0.506053 0.031041 0.8 0 0
0.210773 0.170646 0.070053 0.8 0 0
0.234991 0.717423 0.094467 0.8 0 0
0.095206 0.295017 0.094392 0.8 0 0
0.196087 0.949019 0.067914 0.8 0 0
0.156998 0.509177 0.142469 0.8 0 0
0.145095 0.377863 0.098021 0.8 0 0
0.119456 0.108744 0.101855 0.8 0 0
0.223988 0.750336 0.035191 0.8 0 0
0.217044 0.690069 0.049495 0.8 0 0
0.141959 0.834362 0.042871 0.8 0 0
0.181297 0.045297 0.124662 0.8 0 0
0.100914 0.524708 0.029325 0.8 0 0
0.131999 0.676901 0.133764 0.8 0 0
0.175319 0.153419 0.074050 0.8 0 0
0.102140 0.049272 0.066653 0.8 0 0
0.104388 0.068308 0.061542 0.8 0 0
0.224289 0.645514 0.099766 0.8 0 0
0.114535 0.501932 0.030030 0.8 0 0
0.224592 0.420904 0.049203 0.8 0 0
0.236715 0.533643 0.045672 0.8 0 0
0.046211 0.527286 0.116466 0.8 0 0
0.239987 0.541989 0.065513 0.8 0 0
0.270312 0.728333 0.079089 0.8 0 0
0.093764 0.221356 0.082604 0.8 0 0
0.067720 0.537822 0.076622 0.8 0 0
0.245022 0.531586 0.082437 0.8 0 0
0.085321 0.628170 0.084465 0.8 0 0
0.205911 0.172077 0.095220 0.8 0 0
0.052124 0.787790 0.087645 0.8 0 0
0.116364 0.674685 0.132852 0.8 0 0
0.102026 0.227293 0.055613 0.8 0 0
0.214526 0.762498 0.134107 0.8 0 0
0.051334 0.787620 0.048105 0.8 0 0
0.083786 0.583590 0.062299 0.8 0 0
0.168273 0.741828 0.030256 0.8 0 0
0.175833 0.213564 0.058818 0.8 0 0
0.174817 0.048512 0.097714 0.8 0 0
0.087382 0.787839 0.032144 0.8 0 0
0.069884 0.472527 0.060213 0.8 0 0
0.200105 0.114564 0.062330 0.8 0 0
0.123716 0.881873 0.045744 0.8 0 0
0.096554 0.499937 0.136835 0.8 0 0
0.181714 0.192398 0.097115 0.8 0 0
0.188841 0.637798 0.048165 0.8 0 0
0.226863 0.589333 0.269923 0.8 0 0
0.088498 0.694236 0.125883 0.8 0 0
0.217012 0.373622 0.049028 0.8 0 0
0.231383 0.803770 0.092895 0.8 0 0
0.176848 0.862259 0.056366 0.8 0 0
0.109219 0.557793 0.033301 0.8 0 0
0.132543 0.848837 0.084177 0.8 0 0
0.141341 0.180912 0.081516 0.8 0 0
0.221765 0.587943 0.125067 0.8 0 0
0.110747 0.751925 0.142778 0.8 0 0
0.110748 0.036879 0.059774 0.8 0 0
0.247542 0.787003 0.089180 0.8 0 0
0.098151 0.287511 0.071835 0.8 0 0
0.121840 0.238049 0.107321 0.8 0 0
0.273645 0.701770 0.080372 0.8 0 0
0.081114 0.737211 0.033978 0.8 0 0
0.228896 0.721208 0.091039 0.8 0 0
0.243453 0.516843 0.099823 0.8 0 0
0.269030 0.635453 0.136299 0.8 0 0
0.186408 0.802406 0.109010 0.8 0 0
0.046643 0.783573 0.062392 0.8 0 0
0.229326 0.743244 0.128965 0.8 0 0
0.182940 0.682962 0.038221 0.8 0 0
0.071801 0.362487 0.073983 0.8 0 0
0.210697 0.572754 0.039003 0.8 0 0
0.109746 0.496785 0.030659 0.8 0 0
0.221549 0.491904 0.130637 0.8 0 0
0.185321 0.597182 0.043419 0.8 0 0
0.195480 0.945107 0.059748 0.8 0 0
0.130262 0.740546 0.145372 0.8 0 0
0.105232 0.816688 0.095547 0.8 0 0
0.227918 0.713649 0.092751 0.8 0 0
0.138596 0.653485 0.042557 0.8 0 0
0.105795 0.093591 0.076843 0.8 0 0
0.169879 0.873313 0.052875 0.8 0 0
0.069952 0.455023 0.062579 0.8 0 0
0.215379 0.331084 0.098149 0.8 0 0
0.094967 0.283764 0.080471 0.8 0 0
0.138198 0.245443 0.056192 0.8 0 0
0.071569 0.412907 0.106013 0.8 0 0
0.230570 0.554441 0.051083 0.8 0 0
0.083740 0.581842 0.059131 0.8 0 0
0.197985 0.321082 0.112590 0.8 0 0
0.036863 0.728521 0.078840 0.8 0 0
0.167593 0.502115 0.141094 0.8 0 0
0.227589 0.719996 0.077028 0.8 0 0
0.119159 0.925911 0.045828 0.8 0 0
0.156191 0.894937 0.037724 0.8 0 0
0.075508 0.721535 0.107328 0.8 0 0
0.239556 0.536738 0.110055 0.8 0 0
0.169948 0.904938 0.131048 0.8 0 0
0.252721 0.792792 0.049599 0.8 0 0
0.238940 0.611749 0.205262 0.8 0 0
0.038882 0.576042 0.079869 0.8 0 0
0.137172 0.440186 0.032796 0.8 0 0
0.273441 0.696735 0.085099 0.8 0 0
0.072143 0.511001 0.120175 0.8 0 0
0.045864 0.784331 0.064207 0.8 0 0
0.197216 0.835571 0.065310 0.8 0 0
0.231778 0.731707 0.099935 0.8 0 0
0.195533 0.037074 0.151561 0.8 0 0
0.191066 0.836613 0.067548 0.8 0 0
0.104481 0.915028 0.077181 0.8 0 0
0.121517 0.733485 0.143846 0.8 0 0
0.136020 0.371213 0.136549 0.8 0 0
0.242219 0.585108 0.245413 0.8 0 0
0.105141 0.909153 0.070072 0.8 0 0
0.181418 0.720023 0.139524 0.8 0 0
0.242468 0.599068 0.201215 0.8 0 0
0.092562 0.236123 0.083058 0.8 0 0
0.259229 0.706366 0.113200 0.8 0 0
0.206010 0.040209 0.131835 0.8 0 0
0.084894 0.441230 0.129909 0.8 0 0
0.101537 0.918380 0.077602 0.8 0 0
0.127058 0.102829 0.062348 0.8 0 0
0.119340 0.600244 0.044955 0.8 0 0
0.169661 0.645779 0.132426 0.8 0 0
0.156815 0.916717 0.036545 0.8 0 0
0.121885 0.967398 0.084557 0.8 0 0
0.170868 0.606165 0.133462 0.8 0 0
0.077319 0.378324 0.124196 0.8 0 0
0.090632 0.375880 0.090579 0.8 0 0
0.131271 0.905800 0.039650 0.8 0 0
0.067755 0.690455 0.084681 0.8 0 0
0.178838 0.611315 0.134293 0.8 0 0
0.047418 0.780051 0.059789 0.8 0 0
0.210176 0.689362 0.039144 0.8 0 0
0.243127 0.543609 0.086744 0.8 0 0
0.248036 0.692399 0.101724 0.8 0 0
0.121491 0.062700 0.111942 0.8 0 0
0.127169 0.939192 0.119202 0.8 0 0
0.187455 0.108066 0.096212 0.8 0 0
0.099688 0.322036 0.075029 0.8 0 0
0.067823 0.431386 0.093240 0.8 0 0
0.129520 0.718975 0.031355 0.8 0 0
0.074765 0.551096 0.056859 0.8 0 0
0.185725 0.543641 0.138806 0.8 0 0
0.111069 0.954908 0.085712 0.8 0 0
0.252743 0.787142 0.086649 0.8 0 0
0.043746 0.768213 0.072998 0.8 0 0
0.207004 0.113583 0.070209 0.8 0 0
0.136708 0.109529 0.085095 0.8 0 0
0.114040 0.725706 0.030863 0.8 0 0
0.179400 0.440315 0.033109 0.8 0 0
0.109725 0.076536 0.094502 0.8 0 0
0.149166 0.368792 0.137984 0.8 0 0
0.144236 0.873543 0.051230 0.8 0 0
0.163945 0.260094 0.086952 0.8 0 0
0.241292 0.440987 0.082379 0.8 0 0
0.052010 0.581034 0.103586 0.8 0 0
0.252084 0.626963 0.122237 0.8 0 0
0.218459 0.788780 0.112953 0.8 0 0
0.172675 0.763183 0.031143 0.8 0 0
0.180099 0.635427 0.047583 0.8 0 0
0.132989 0.106817 0.090870 0.8 0 0
0.142276 0.384489 0.100692 0.8 0 0
0.197622 0.473855 0.031685 0.8 0 0
0.244876 0.500205 0.088031 0.8 0 0
0.194265 0.952720 0.069386 0.8 0 0
0.092741 0.256030 0.078168 0.8 0 0
0.092734 0.714112 0.034337 0.8 0 0
0.040227 0.499959 0.120262 0.8 0 0
0.164655 0.854134 0.093000 0.8 0 0
0.148184 0.710460 0.139821 0.8 0 0
0.061865 0.678566 0.085567 0.8 0 0
0.081593 0.400308 0.126774 0.8 0 0
0.032693 0.663760 0.074378 0.8 0 0
0.066335 0.435241 0.088061 0.8 0 0
0.264460 0.616066 0.140548 0.8 0 0
0.124369 0.384206 0.038777 0.8 0 0
0.062036 0.819729 0.058427 0.8 0 0
0.208262 0.120482 0.089202 0.8 0 0
0.092561 0.566554 0.129336 0.8 0 0
0.150539 0.889833 0.038689 0.8 0 0
0.076020 0.805785 0.036171 0.8 0 0
0.147201 0.371643 0.088084 0.8 0 0
0.179680 0.718398 0.139243 0.8 0 0
0.143285 0.854508 0.094628 0.8 0 0
0.050411 0.557870 0.099980 0.8 0 0
0.204429 0.268919 0.054046 0.8 0 0
0.123340 0.203208 0.056386 0.8 0 0
0.147387 0.829760 0.040390 0.8 0 0
0.182887 0.790900 0.116602 0.8 0 0
0.075083 0.569535 0.105187 0.8 0 0
0.185659 0.835021 0.073936 0.8 0 0
0.229337 0.544783 0.043200 0.8 0 0
0.235609 0.580033 0.259792 0.8 0 0
0.228229 0.604155 0.096102 0.8 0 0
0.047756 0.469896 0.111122 0.8 0 0
0.105472 0.798586 0.112177 0.8 0 0
0.190895 0.651024 0.045412 0.8 0 0
0.232546 0.376330 0.107473 0.8 0 0
0.205154 0.381606 0.134621 0.8 0 0
0.085865 0.587339 0.121954 0.8 0 0
0.213408 0.325393 0.099273 0.8 0 0
0.189782 0.143695 0.060438 0.8 0 0
0.252450 0.601635 0.212253 0.8 0 0
0.074778 0.423178 0.121233 0.8 0 0
0.176854 0.925277 0.123953 0.8 0 0
0.040413 0.702696 0.051843 0.8 0 0
0.131066 0.115704 0.091428 0.8 0 0
0.227555 0.428013 0.125232 0.8 0 0
0.171109 0.859670 0.052970 0.8 0 0
0.236766 0.488652 0.054595 0.8 0 0
0.088300 0.571936 0.050929 0.8 0 0
0.184902 0.681720 0.038535 0.8 0 0
0.172006 0.625230 0.048870 0.8 0 0
0.067285 0.454603 0.076260 0.8 0 0
0.104912 0.066094 0.097708 0.8 0 0
0.127212 0.326845 0.110140 0.8 0 0
0.215135 0.261791 0.094818 0.8 0 0
0.059520 0.787290 0.060456 0.8 0 0
0.145894 0.580930 0.036279 0.8 0 0
0.256603 0.768546 0.086291 0.8 0 0
0.185350 0.637541 0.134446 0.8 0 0
0.108775 0.468534 0.137793 0.8 0 0
0.123275 0.537103 0.141093 0.8 0 0
0.063598 0.735618 0.098499 0.8 0 0
0.236111 0.408810 0.072138 0.8 0 0
0.144485 0.777469 0.124109 0.8 0 0
0.169690 0.939553 0.127282 0.8 0 0
0.185133 0.967585 0.072458 0.8 0 0
0.127268 0.217133 0.101845 0.8 0 0
0.178216 0.887043 0.124359 0.8 0 0
0.161163 0.627396 0.046983 0.8 0 0
0.123488 0.948670 0.119114 0.8 0 0
0.248823 0.701724 0.055334 0.8 0 0
0.183157 0.093637 0.062222 0.8 0 0
0.167977 0.566954 0.137686 0.8 0 0
0.145311 0.210804 0.086495 0.8 0 0
0.109871 0.235994 0.101767 0.8 0 0
0.080165 0.805471 0.098943 0.8 0 0
0.143300 0.395118 0.035434 0.8 0 0
0.138721 0.675357 0.038743 0.8 0 0
0.122953 0.768448 0.131318 0.8 0 0
0.186160 0.748352 0.144307 0.8 0 0
0.176832 0.431255 0.033600 0.8 0 0
0.041457 0.483950 0.114999 0.8 0 0
0.076337 0.505378 0.129916 0.8 0 0
0.110731 0.193801 0.099118 0.8 0 0
0.238263 0.383968 0.093618 0.8 0 0
0.194082 0.519073 0.138764 0.8 0 0
0.142786 0.356815 0.077146 0.8 0 0
0.218847 0.565255 0.044579 0.8 0 0
0.163763 0.966927 0.107726 0.8 0 0
0.088410 0.825071 0.073092 0.8 0 0
0.179812 0.844865 0.051374 0.8 0 0
0.237654 0.548036 0.059286 0.8 0 0
0.053744 0.507585 0.126413 0.8 0 0
0.106544 0.154170 0.059613 0.8 0 0
0.165311 0.866172 0.052276 0.8 0 0
0.248664 0.643111 0.127178 0.8 0 0
0.250078 0.701577 0.055793 0.8 0 0
0.147824 0.378337 0.036283 0.8 0 0
0.219219 0.228199 0.082606 0.8 0 0
0.270961 0.673477 0.106097 0.8 0 0
0.102116 0.259903 0.098014 0.8 0 0
0.100978 0.466791 0.033953 0.8 0 0
0.186216 0.541980 0.027261 0.8 0 0
0.220674 0.781116 0.119611 0.8 0 0
0.207414 0.665056 0.048700 0.8 0 0
0.235205 0.438907 0.065228 0.8 0 0
0.176913 0.045148 0.116950 0.8 0 0
0.256865 0.625951 0.169268 0.8 0 0
0.183464 0.242377 0.102268 0.8 0 0
0.102700 0.101170 0.087401 0.8 0 0
0.220636 0.232018 0.086043 0.8 0 0
0.243122 0.525574 0.102397 0.8 0 0
0.076081 0.721498 0.110734 0.8 0 0
0.046893 0.491274 0.122660 0.8 0 0
0.180694 0.481842 0.030388 0.8 0 0
0.230355 0.581573 0.106329 0.8 0 0
0.235117 0.711599 0.090959 0.8 0 0
0.074326 0.447237 0.121938 0.8 0 0
0.139483 0.741624 0.030060 0.8 0 0
0.056730 0.624231 0.092969 0.8 0 0
0.112651 0.096740 0.095480 0.8 0 0
0.049799 0.667540 0.090833 0.8 0 0
0.258472 0.747801 0.052895 0.8 0 0
0.035417 0.520021 0.103697 0.8 0 0
0.068892 0.487466 0.064214 0.8 0 0
0.094935 0.572541 0.042633 0.8 0 0
0.223091 0.719218 0.126175 0.8 0 0
0.148366 0.489566 0.028837 0.8 0 0
0.251499 0.595826 0.219411 0.8 0 0
0.139047 0.150792 0.081752 0.8 0 0
0.062010 0.663391 0.068752 0.8 0 0
0.096983 0.290555 0.076753 0.8 0 0
0.197628 0.370348 0.115402 0.8 0 0
0.210135 0.160118 0.070290 0.8 0 0
0.213142 0.318800 0.076057 0.8 0 0
0.202823 0.243125 0.053922 0.8 0 0
0.191870 0.898273 0.067996 0.8 0 0
0.038663 0.478077 0.114928 0.8 0 0
0.183995 0.711087 0.136263 0.8 0 0
0.224890 0.745982 0.133403 0.8 0 0
0.101188 0.649302 0.055355 0.8 0 0
0.168168 0.837889 0.091326 0.8 0 0
0.234257 0.570277 0.101995 0.8 0 0
0.086753 0.446518 0.047098 0.8 0 0
0.147315 0.683521 0.136232 0.8 0 0
0.276012 0.708234 0.089139 0.8 0 0
0.130666 0.040231 0.060843 0.8 0 0
0.139380 0.057113 0.093347 0.8 0 0
0.074097 0.545885 0.050888 0.8 0 0
0.125499 0.349243 0.056946 0.8 0 0
0.133700 0.782144 0.121765 0.8 0 0
0.210015 0.825413 0.073282 0.8 0 0
0.137757 0.122551 0.084627 0.8 0 0
0.036749 0.500623 0.113849 0.8 0 0
0.144703 0.468317 0.140851 0.8 0 0
0.190551 0.135465 0.060975 0.8 0 0
0.157528 0.963198 0.053944 0.8 0 0
0.221082 0.369160 0.124618 0.8 0 0
0.195994 0.028069 0.152150 0.8 0 0
0.096567 0.505838 0.137166 0.8 0 0
0.193942 0.520255 0.138817 0.8 0 0
0.228757 0.588371 0.106686 0.8 0 0
0.168345 0.849061 0.052236 0.8 0 0
0.147432 0.857074 0.121335 0.8 0 0
0.131147 0.773658 0.127424 0.8 0 0
0.195022 0.728584 0.140376 0.8 0 0
0.197866 0.232669 0.105517 0.8 0 0
0.059685 0.778749 0.098560 0.8 0 0
0.104818 0.921979 0.087322 0.8 0 0
0.199615 0.081424 0.099546 0.8 0 0
0.206583 0.189502 0.057423 0.8 0 0
0.097950 0.570394 0.130622 0.8 0 0
0.231923 0.610274 0.229564 0.8 0 0
0.236600 0.684864 0.080998 0.8 0 0
0.112086 0.437246 0.035249 0.8 0 0
0.068858 0.358100 0.080144 0.8 0 0
0.115947 0.384631 0.053442 0.8 0 0
0.275330 0.695165 0.083224 0.8 0 0
0.157286 0.563603 0.139380 0.8 0 0
0.117990 0.111326 0.062400 0.8 0 0
0.120642 0.969137 0.069845 0.8 0 0
0.200796 0.323987 0.110402 0.8 0 0
0.049443 0.802840 0.066819 0.8 0 0
0.121745 0.230207 0.054623 0.8 0 0
0.126987 0.905452 0.040550 0.8 0 0
0.138809 0.057766 0.066549 0.8 0 0
0.040532 0.525525 0.111715 0.8 0 0
0.069961 0.456639 0.104716 0.8 0 0
0.271968 0.678121 0.100535 0.8 0 0
0.087924 0.457716 0.131779 0.8 0 0
0.037104 0.696533 0.086597 0.8 0 0
0.249280 0.679817 0.066524 0.8 0 0
0.068901 0.684888 0.060913 0.8 0 0
0.117568 0.372122 0.041089 0.8 0 0
0.231696 0.594492 0.263426 0.8 0 0
0.123698 0.444899 0.138485 0.8 0 0
0.207696 0.412464 0.039094 0.8 0 0
0.069190 0.479672 0.104790 0.8 0 0
0.178656 0.216590 0.096766 0.8 0 0
0.185034 0.135431 0.060984 0.8 0 0
0.081165 0.380409 0.125638 0.8 0 0
0.059810 0.784980 0.074218 0.8 0 0
0.136642 0.743262 0.030150 0.8 0 0
0.053026 0.743908 0.096402 0.8 0 0
0.214909 0.595335 0.126165 0.8 0 0
0.038002 0.505661 0.114790 0.8 0 0
0.053398 0.805007 0.047940 0.8 0 0
0.238811 0.551187 0.070475 0.8 0 0
0.129779 0.651843 0.132277 0.8 0 0
0.182028 0.822619 0.093616 0.8 0 0
0.112952 0.511761 0.139987 0.8 0 0
0.109102 0.786783 0.120362 0.8 0 0
0.141233 0.899203 0.132357 0.8 0 0
0.103849 0.122402 0.074331 0.8 0 0
0.129866 0.525983 0.027513 0.8 0 0
0.202013 0.905674 0.062331 0.8 0 0
0.088244 0.545171 0.132682 0.8 0 0
0.206583 0.050247 0.120568 0.8 0 0
0.185248 0.066755 0.102754 0.8 0 0
0.217554 0.638250 0.067906 0.8 0 0
0.213824 0.816950 0.084256 0.8 0 0
0.057898 0.467373 0.133624 0.8 0 0
0.151959 0.852214 0.050144 0.8 0 0
0.082648 0.597815 0.108722 0.8 0 0
0.142239 0.715065 0.140616 0.8 0 0
0.082925 0.518840 0.034567 0.8 0 0
0.071800 0.461115 0.058174 0.8 0 0
0.208942 0.393981 0.044522 0.8 0 0
0.235699 0.569835 0.076101 0.8 0 0
0.167751 0.866759 0.129908 0.8 0 0
0.239243 0.488394 0.067568 0.8 0 0
0.104827 0.232814 0.054472 0.8 0 0
0.146714 0.934612 0.037188 0.8 0 0
0.111829 0.155722 0.059504 0.8 0 0
0.085785 0.650164 0.111396 0.8 0 0
0.128654 0.342875 0.057574 0.8 0 0
0.142116 0.502442 0.028352 0.8 0 0
0.070582 0.734558 0.090216 0.8 0 0
0.216231 0.585727 0.127084 0.8 0 0
0.141581 0.773444 0.030921 0.8 0 0
0.134994 0.168868 0.092512 0.8 0 0
0.145252 0.259073 0.075162 0.8 0 0
0.134683 0.789663 0.031480 0.8 0 0
0.103455 0.743772 0.030715 0.8 0 0
0.134184 0.848348 0.087698 0.8 0 0
0.261483 0.740384 0.093102 0.8 0 0
0.227040 0.357484 0.053513 0.8 0 0
0.086188 0.658453 0.115435 0.8 0 0
0.103948 0.206239 0.056211 0.8 0 0
0.083737 0.715787 0.047247 0.8 0 0
0.070820 0.356857 0.076705 0.8 0 0
0.181201 0.892532 0.045422 0.8 0 0
0.216915 0.750192 0.137553 0.8 0 0
0.146734 0.719837 0.030987 0.8 0 0
0.248627 0.573959 0.235026 0.8 0 0
0.078305 0.683357 0.098780 0.8 0 0
0.208023 0.144876 0.066291 0.8 0 0
0.179307 0.400297 0.036514 0.8 0 0
0.083549 0.526906 0.133522 0.8 0 0
0.239348 0.571126 0.249982 0.8 0 0
0.190434 0.917234 0.100281 0.8 0 0
0.077254 0.358014 0.064585 0.8 0 0
0.139628 0.411968 0.138688 0.8 0 0
0.187151 0.215232 0.055763 0.8 0 0
0.123870 0.703628 0.135349 0.8 0 0
0.185522 0.890299 0.106604 0.8 0 0
0.096740 0.764506 0.031373 0.8 0 0
0.126877 0.436219 0.138463 0.8 0 0
0.127999 0.055334 0.117055 0.8 0 0
0.117832 0.294693 0.056376 0.8 0 0
0.101976 0.026077 0.130135 0.8 0 0
0.054532 0.591820 0.100519 0.8 0 0
0.222997 0.489140 0.039195 0.8 0 0
0.112450 0.743703 0.030564 0.8 0 0
0.213333 0.164927 0.079821 0.8 0 0
0.136050 0.758157 0.030571 0.8 0 0
0.105293 0.692317 0.132091 0.8 0 0
0.073522 0.724121 0.080574 0.8 0 0
0.190178 0.728834 0.141142 0.8 0 0
0.193685 0.645294 0.134243 0.8 0 0
0.214913 0.581196 0.051140 0.8 0 0
0.201694 0.036523 0.058347 0.8 0 0
0.152850 0.740724 0.145792 0.8 0 0
0.145228 0.295775 0.088131 0.8 0 0
0.205513 0.148186 0.060125 0.8 0 0
0.264042 0.613200 0.149610 0.8 0 0
0.052271 0.699124 0.096090 0.8 0 0
0.176766 0.801089 0.033022 0.8 0 0
0.034337 0.557694 0.099961 0.8 0 0
0.129862 0.932488 0.039202 0.8 0 0
0.224563 0.710924 0.110968 0.8 0 0
0.242452 0.433345 0.088877 0.8 0 0
0.103364 0.127884 0.074514 0.8 0 0
0.134147 0.189711 0.057256 0.8 0 0
0.259756 0.613904 0.181273 0.8 0 0
0.205907 0.329710 0.106302 0.8 0 0
0.240039 0.501052 0.066934 0.8 0 0
0.102290 0.374684 0.054448 0.8 0 0
0.225565 0.674492 0.100142 0.8 0 0
0.080426 0.650199 0.091285 0.8 0 0
0.194456 0.240078 0.108544 0.8 0 0
0.118236 0.238156 0.108082 0.8 0 0
0.193050 0.035172 0.155816 0.8 0 0
0.049417 0.555689 0.098330 0.8 0 0
0.228767 0.607920 0.091426 0.8 0 0
0.171877 0.412013 0.034664 0.8 0 0
0.076971 0.711749 0.076509 0.8 0 0
0.180200 0.432607 0.033661 0.8 0 0
0.096093 0.773902 0.031632 0.8 0 0
0.226005 0.713330 0.105528 0.8 0 0
0.180052 0.614057 0.134394 0.8 0 0
0.204165 0.720172 0.135512 0.8 0 0
0.179549 0.661273 0.041784 0.8 0 0
0.111134 0.926689 0.055327 0.8 0 0
0.104852 0.085022 0.086449 0.8 0 0
0.042331 0.761939 0.064990 0.8 0 0
0.227690 0.588378 0.269700 0.8 0 0
0.094248 0.481763 0.033470 0.8 0 0
0.193561 0.380135 0.119264 0.8 0 0
0.180550 0.072899 0.078903 0.8 0 0
0.112661 0.168260 0.058683 0.8 0 0
0.236604 0.755270 0.064755 0.8 0 0
0.168988 0.568015 0.137424 0.8 0 0
0.205395 0.477300 0.136259 0.8 0 0
0.053353 0.810657 0.067312 0.8 0 0
0.176319 0.498621 0.140036 0.8 0 0
0.192881 0.115933 0.062250 0.8 0 0
0.171271 0.586711 0.134614 0.8 0 0
0.181793 0.454751 0.032251 0.8 0 0
0.239518 0.535455 0.054057 0.8 0 0
0.188553 0.834244 0.043814 0.8 0 0
0.077124 0.697198 0.098819 0.8 0 0
0.209447 0.331227 0.058982 0.8 0 0
0.052633 0.766991 0.041366 0.8 0 0
0.259431 0.645653 0.084984 0.8 0 0
0.124537 0.965583 0.101352 0.8 0 0
0.225838 0.466444 0.047190 0.8 0 0
0.142803 0.364451 0.037915 0.8 0 0
0.219014 0.568042 0.128667 0.8 0 0
0.067195 0.541025 0.096132 0.8 0 0
0.053244 0.789948 0.041158 0.8 0 0
0.219847 0.384322 0.080266 0.8 0 0
0.152513 0.963935 0.115149 0.8 0 0
0.068417 0.695424 0.078659 0.8 0 0
0.245548 0.785934 0.058995 0.8 0 0
0.049178 0.790635 0.075130 0.8 0 0
0.218210 0.366332 0.098067 0.8 0 0
0.124024 0.833849 0.043567 0.8 0 0
0.167485 0.221727 0.083034 0.8 0 0
0.125508 0.876620 0.081940 0.8 0 0
0.178456 0.849123 0.059139 0.8 0 0
0.065489 0.532556 0.080774 0.8 0 0
0.188024 0.332810 0.058524 0.8 0 0
0.237549 0.466344 0.110560 0.8 0 0
0.105559 0.764947 0.134689 0.8 0 0
0.198434 0.216246 0.055684 0.8 0 0
0.206746 0.688472 0.129549 0.8 0 0
0.098490 0.162119 0.082571 0.8 0 0
0.173029 0.441582 0.032737 0.8 0 0
0.147727 0.506250 0.027763 0.8 0 0
0.239110 0.687189 0.099752 0.8 0 0
0.236229 0.720853 0.105427 0.8 0 0
0.274679 0.668856 0.099823 0.8 0 0
0.169190 0.608852 0.045019 0.8 0 0
0.166272 0.522475 0.027019 0.8 0 0
0.070212 0.727246 0.087384 0.8 0 0
0.202788 0.272329 0.104178 0.8 0 0
0.253133 0.610378 0.197640 0.8 0 0
0.218399 0.460792 0.129792 0.8 0 0
0.227224 0.562074 0.051979 0.8 0 0
0.161046 0.796548 0.031719 0.8 0 0
0.218367 0.722960 0.130836 0.8 0 0
0.103128 0.063800 0.096675 0.8 0 0
0.105499 0.066707 0.098228 0.8 0 0
0.144776 0.259179 0.092018 0.8 0 0
0.080361 0.665726 0.077930 0.8 0 0
0.036137 0.731635 0.073926 0.8 0 0
0.175510 0.971522 0.079484 0.8 0 0
0.064445 0.526626 0.092820 0.8 0 0
0.119148 0.917046 0.117079 0.8 0 0
0.106076 0.588468 0.043051 0.8 0 0
0.167294 0.365114 0.083841 0.8 0 0
0.145026 0.791351 0.031376 0.8 0 0
0.073798 0.412427 0.115734 0.8 0 0
0.231494 0.802024 0.036735 0.8 0 0
0.082204 0.816490 0.083037 0.8 0 0
0.178422 0.361015 0.137784 0.8 0 0
0.049957 0.783544 0.083238 0.8 0 0
0.050570 0.516862 0.126194 0.8 0 0
0.155829 0.560287 0.140000 0.8 0 0
0.046539 0.747736 0.048746 0.8 0 0
0.229893 0.498823 0.128576 0.8 0 0
0.221760 0.602431 0.120854 0.8 0 0
0.115241 0.464663 0.138387 0.8 0 0
0.055715 0.618161 0.076972 0.8 0 0
0.254736 0.627253 0.111425 0.8 0 0
0.192648 0.361837 0.137796 0.8 0 0
0.167864 0.274122 0.080034 0.8 0 0
0.239967 0.583511 0.245898 0.8 0 0
0.216284 0.248584 0.068627 0.8 0 0
0.136384 0.686086 0.135169 0.8 0 0
0.071443 0.542875 0.062288 0.8 0 0
0.216830 0.318229 0.089702 0.8 0 0
0.147092 0.856512 0.119020 0.8 0 0
0.088581 0.701576 0.047802 0.8 0 0
0.075964 0.713668 0.086777 0.8 0 0
0.174265 0.256539 0.054323 0.8 0 0
0.163480 0.787939 0.031552 0.8 0 0
0.242653 0.495277 0.082693 0.8 0 0
0.030189 0.608429 0.085078 0.8 0 0
0.046052 0.484804 0.118931 0.8 0 0
0.139921 0.829499 0.090620 0.8 0 0
0.242269 0.518717 0.104021 0.8 0 0
0.191282 0.367393 0.055297 0.8 0 0
0.088589 0.391486 0.050661 0.8 0 0
0.074618 0.548281 0.052235 0.8 0 0
0.233934 0.421794 0.112235 0.8 0 0
0.094062 0.831616 0.053019 0.8 0 0
0.247859 0.795261 0.054578 0.8 0 0
0.188473 0.556273 0.031458 0.8 0 0
0.097355 0.224442 0.070728 0.8 0 0
0.173882 0.418021 0.137889 0.8 0 0
0.132101 0.929539 0.125799 0.8 0 0
0.030948 0.618455 0.080438 0.8 0 0
0.160530 0.841260 0.045949 0.8 0 0
0.069675 0.535063 0.058356 0.8 0 0
0.217257 0.260409 0.070102 0.8 0 0
0.178989 0.876528 0.065103 0.8 0 0
0.070759 0.444002 0.062848 0.8 0 0
0.225941 0.596424 0.110484 0.8 0 0
0.168694 0.781650 0.031540 0.8 0 0
0.235518 0.605823 0.211165 0.8 0 0
0.214331 0.054875 0.070128 0.8 0 0
0.231603 0.784197 0.037260 0.8 0 0
0.119343 0.737647 0.030290 0.8 0 0
0.231043 0.433386 0.122119 0.8 0 0
0.049084 0.798052 0.069184 0.8 0 0
0.168827 0.964189 0.112170 0.8 0 0
0.034979 0.493676 0.108480 0.8 0 0
0.155438 0.445821 0.140612 0.8 0 0
0.070474 0.766352 0.110446 0.8 0 0
0.256151 0.657370 0.115376 0.8 0 0
0.071251 0.715893 0.051956 0.8 0 0
0.051665 0.573635 0.094301 0.8 0 0
0.027728 0.687473 0.077784 0.8 0 0
0.235622 0.564912 0.069149 0.8 0 0
0.163655 0.940298 0.127291 0.8 0 0
0.168928 0.660090 0.132956 0.8 0 0
0.071269 0.557186 0.099695 0.8 0 0
0.120977 0.375447 0.117809 0.8 0 0
0.074788 0.560526 0.111007 0.8 0 0
0.120947 0.380743 0.039671 0.8 0 0
0.173424 0.939741 0.126689 0.8 0 0
0.256717 0.682425 0.064080 0.8 0 0
0.236871 0.445646 0.108829 0.8 0 0
0.168782 0.861472 0.052687 0.8 0 0
0.180523 0.095951 0.071386 0.8 0 0
0.174850 0.831891 0.042109 0.8 0 0
0.217166 0.343098 0.097444 0.8 0 0
0.117666 0.910930 0.111877 0.8 0 0
0.051434 0.577078 0.090352 0.8 0 0
0.044762 0.630479 0.095551 0.8 0 0
0.205040 0.403414 0.039655 0.8 0 0
0.156813 0.867475 0.049799 0.8 0 0
0.104682 0.036453 0.128756 0.8 0 0
0.159097 0.970700 0.098995 0.8 0 0
0.068445 0.471556 0.068222 0.8 0 0
0.123791 0.968817 0.067010 0.8 0 0
0.244424 0.478577 0.090121 0.8 0 0
0.107803 0.944058 0.079932 0.8 0 0
0.232122 0.467049 0.049421 0.8 0 0
0.122606 0.568960 0.136634 0.8 0 0
0.155084 0.934012 0.129945 0.8 0 0
0.136936 0.134343 0.078808 0.8 0 0
0.217647 0.316447 0.092008 0.8 0 0
0.106729 0.072873 0.061633 0.8 0 0
0.200864 0.762284 0.136156 0.8 0 0
0.166242 0.373622 0.096726 0.8 0 0
0.132549 0.210443 0.055902 0.8 0 0
0.167114 0.361628 0.137777 0.8 0 0
0.075538 0.725480 0.115508 0.8 0 0
0.035562 0.566115 0.099493 0.8 0 0
0.157601 0.711207 0.139869 0.8 0 0
0.200652 0.734294 0.030066 0.8 0 0
0.170503 0.412435 0.034574 0.8 0 0
0.105306 0.616241 0.124861 0.8 0 0
0.177051 0.205423 0.056811 0.8 0 0
0.033349 0.499688 0.099381 0.8 0 0
0.150492 0.712699 0.140297 0.8 0 0
0.081153 0.405071 0.053305 0.8 0 0
0.246643 0.814468 0.056833 0.8 0 0
0.093867 0.735611 0.139400 0.8 0 0
0.221686 0.604491 0.119483 0.8 0 0
0.119845 0.060658 0.114645 0.8 0 0
0.114511 0.602494 0.133124 0.8 0 0
0.196641 0.035093 0.053080 0.8 0 0
0.200037 0.929783 0.101119 0.8 0 0
0.092205 0.789577 0.032110 0.8 0 0
0.238600 0.814626 0.072271 0.8 0 0
0.211345 0.126799 0.082855 0.8 0 0
0.193886 0.283842 0.112652 0.8 0 0
0.052427 0.815196 0.062448 0.8 0 0
0.121842 0.333087 0.058345 0.8 0 0
0.067574 0.515604 0.068715 0.8 0 0
0.092632 0.352206 0.095385 0.8 0 0
0.209739 0.366771 0.105220 0.8 0 0
0.099187 0.574918 0.039727 0.8 0 0
0.072392 0.376099 0.105515 0.8 0 0
0.097133 0.219799 0.072428 0.8 0 0
0.102212 0.553815 0.136670 0.8 0 0
0.055458 0.802519 0.070173 0.8 0 0
0.222081 0.701570 0.119372 0.8 0 0
0.180140 0.461676 0.138440 0.8 0 0
0.128515 0.069999 0.097990 0.8 0 0
0.065479 0.677769 0.050380 0.8 0 0
0.141798 0.395137 0.035522 0.8 0 0
0.133010 0.724809 0.142355 0.8 0 0
0.133648 0.051318 0.070772 0.8 0 0
0.179549 0.515679 0.028072 0.8 0 0
0.069361 0.823575 0.064641 0.8 0 0
0.216770 0.311215 0.086436 0.8 0 0
0.085882 0.597654 0.073851 0.8 0 0
0.243649 0.778357 0.063810 0.8 0 0
0.048487 0.530680 0.106002 0.8 0 0
0.078817 0.696966 0.106608 0.8 0 0
0.249993 0.696129 0.115141 0.8 0 0
0.091926 0.759062 0.031310 0.8 0 0
0.216940 0.215855 0.078580 0.8 0 0
0.143293 0.214348 0.079420 0.8 0 0
0.142033 0.255563 0.093812 0.8 0 0
0.095955 0.224446 0.075071 0.8 0 0
0.211914 0.399319 0.045803 0.8 0 0
0.174904 0.293119 0.062728 0.8 0 0
0.204874 0.569802 0.133702 0.8 0 0
0.085212 0.495020 0.132592 0.8 0 0
0.120620 0.696313 0.036088 0.8 0 0
0.231426 0.383551 0.111812 0.8 0 0
0.207151 0.138877 0.064569 0.8 0 0
0.071301 0.364825 0.099470 0.8 0 0
0.201046 0.807611 0.103269 0.8 0 0
0.218914 0.212431 0.088435 0.8 0 0
0.223113 0.445635 0.047333 0.8 0 0
0.108383 0.487480 0.138622 0.8 0 0
0.196028 0.516301 0.138464 0.8 0 0
0.179427 0.391111 0.137842 0.8 0 0
0.052321 0.577246 0.094468 0.8 0 0
0.074882 0.492020 0.049377 0.8 0 0
0.172287 0.697035 0.035256 0.8 0 0
0.124890 0.354169 0.041786 0.8 0 0
0.269474 0.723507 0.090536 0.8 0 0
0.113118 0.960030 0.089779 0.8 0 0
0.140722 0.344266 0.073349 0.8 0 0
0.195613 0.755546 0.140286 0.8 0 0
0.174929 0.602666 0.043774 0.8 0 0
0.186050 0.036555 0.065605 0.8 0 0
0.181516 0.147729 0.093601 0.8 0 0
0.118709 0.493330 0.139806 0.8 0 0
0.143462 0.674755 0.038588 0.8 0 0
0.110805 0.345771 0.110190 0.8 0 0
0.245387 0.666829 0.092685 0.8 0 0
0.136181 0.311518 0.061224 0.8 0 0
0.068864 0.808550 0.037987 0.8 0 0
0.065397 0.494556 0.082743 0.8 0 0
0.260272 0.748857 0.089953 0.8 0 0
0.093284 0.365206 0.096738 0.8 0 0
0.209448 0.430566 0.037494 0.8 0 0
0.132411 0.495376 0.140845 0.8 0 0
0.045188 0.762590 0.059326 0.8 0 0
0.235660 0.589572 0.255606 0.8 0 0
0.070556 0.707304 0.055070 0.8 0 0
0.107348 0.668140 0.130214 0.8 0 0
0.240618 0.546280 0.099209 0.8 0 0
0.172835 0.853153 0.053018 0.8 0 0
0.044345 0.556932 0.089210 0.8 0 0
0.225902 0.423072 0.049558 0.8 0 0
0.108835 0.335588 0.058273 0.8 0 0
0.187827 0.498561 0.029590 0.8 0 0
0.185327 0.133825 0.061089 0.8 0 0
0.208269 0.069463 0.066061 0.8 0 0
0.105087 0.257475 0.052859 0.8 0 0
0.129435 0.053059 0.052477 0.8 0 0
0.079375 0.663285 0.091916 0.8 0 0
0.133954 0.118811 0.071700 0.8 0 0
0.035533 0.661233 0.068313 0.8 0 0
0.240577 0.812907 0.048891 0.8 0 0
0.136370 0.650081 0.132145 0.8 0 0
0.238657 0.418186 0.098725 0.8 0 0
0.254863 0.676939 0.111352 0.8 0 0
0.134241 0.908645 0.038608 0.8 0 0
0.223491 0.503437 0.130722 0.8 0 0
0.186154 0.888010 0.072579 0.8 0 0
0.104571 0.059024 0.054101 0.8 0 0
0.270864 0.676559 0.104455 0.8 0 0
0.152995 0.902026 0.138945 0.8 0 0
0.261047 0.621429 0.110008 0.8 0 0
0.135758 0.313165 0.060361 0.8 0 0
0.158569 0.819246 0.036974 0.8 0 0
0.112144 0.382473 0.134213 0.8 0 0
0.200323 0.932542 0.103831 0.8 0 0
0.211820 0.561808 0.035411 0.8 0 0
0.138920 0.453968 0.031773 0.8 0 0
0.134212 0.051898 0.055048 0.8 0 0
0.072787 0.467343 0.117430 0.8 0 0
0.118441 0.281811 0.112008 0.8 0 0
0.176223 0.132593 0.076879 0.8 0 0
0.185854 0.089676 0.061184 0.8 0 0
0.178293 0.121097 0.072550 0.8 0 0
0.074745 0.506320 0.048280 0.8 0 0
0.207594 0.497271 0.135283 0.8 0 0
0.171079 0.812721 0.101712 0.8 0 0
0.097393 0.829881 0.070637 0.8 0 0
0.141652 0.798280 0.110966 0.8 0 0
0.176492 0.142026 0.073052 0.8 0 0
0.063473 0.769006 0.043750 0.8 0 0
0.168892 0.707938 0.137377 0.8 0 0
0.044258 0.741763 0.089938 0.8 0 0
0.126834 0.933968 0.042233 0.8 0 0
0.181993 0.070230 0.095809 0.8 0 0
0.070687 0.429015 0.103942 0.8 0 0
0.210844 0.200487 0.063024 0.8 0 0
0.203715 0.562059 0.135138 0.8 0 0
0.231834 0.736288 0.085783 0.8 0 0
0.215859 0.317088 0.085549 0.8 0 0
0.068774 0.697146 0.074098 0.8 0 0
0.155309 0.585694 0.037110 0.8 0 0
0.116039 0.168483 0.101375 0.8 0 0
0.162189 0.831332 0.093070 0.8 0 0
0.197584 0.516071 0.028858 0.8 0 0
0.110986 0.585346 0.134835 0.8 0 0
0.170600 0.214195 0.090716 0.8 0 0
0.108670 0.811022 0.102389 0.8 0 0
0.094076 0.230162 0.079659 0.8 0 0
0.037014 0.707822 0.060283 0.8 0 0
0.084119 0.675528 0.063875 0.8 0 0
0.236433 0.450974 0.110993 0.8 0 0
0.178393 0.115176 0.073944 0.8 0 0
0.100537 0.059048 0.082654 0.8 0 0
0.146051 0.281194 0.084912 0.8 0 0
0.116500 0.905117 0.083822 0.8 0 0
0.233554 0.733454 0.044648 0.8 0 0
0.176558 0.885081 0.044992 0.8 0 0
0.247785 0.795898 0.066966 0.8 0 0
0.190365 0.327765 0.058701 0.8 0 0
0.087622 0.818695 0.082649 0.8 0 0
0.192779 0.321010 0.116169 0.8 0 0
0.191897 0.176194 0.058310 0.8 0 0
0.198598 0.088301 0.061019 0.8 0 0
0.180108 0.876257 0.110397 0.8 0 0
0.123408 0.786942 0.031570 0.8 0 0
0.178192 0.702403 0.034632 0.8 0 0
0.143658 0.458687 0.031176 0.8 0 0
0.243387 0.700378 0.113711 0.8 0 0
0.042923 0.536056 0.096929 0.8 0 0
0.123967 0.879042 0.079767 0.8 0 0
0.077459 0.414026 0.055228 0.8 0 0
0.118331 0.171595 0.058458 0.8 0 0
0.180819 0.837554 0.045057 0.8 0 0
0.196983 0.086047 0.101630 0.8 0 0
0.106473 0.237928 0.054135 0.8 0 0
0.187292 0.915210 0.045646 0.8 0 0
0.232273 0.492063 0.127491 0.8 0 0
0.147015 0.255200 0.080979 0.8 0 0
0.207137 0.242632 0.099453 0.8 0 0
0.198204 0.055773 0.117968 0.8 0 0
0.069641 0.460470 0.062723 0.8 0 0
0.186121 0.892009 0.097922 0.8 0 0
0.171013 0.233712 0.092532 0.8 0 0
0.217750 0.419346 0.127624 0.8 0 0
0.082566 0.384966 0.126307 0.8 0 0
0.098880 0.177182 0.076610 0.8 0 0
0.158787 0.835384 0.043082 0.8 0 0
0.155939 0.515173 0.027042 0.8 0 0
0.207354 0.213668 0.097209 0.8 0 0
0.198649 0.213151 0.103539 0.8 0 0
0.205268 0.214353 0.055800 0.8 0 0
0.112824 0.424492 0.136239 0.8 0 0
0.186156 0.967108 0.069118 0.8 0 0
0.103526 0.773131 0.031488 0.8 0 0
0.125646 0.031683 0.055518 0.8 0 0
0.189015 0.389842 0.137847 0.8 0 0
0.096570 0.629580 0.063662 0.8 0 0
0.126208 0.257711 0.105542 0.8 0 0
0.227762 0.486225 0.128486 0.8 0 0
0.239781 0.689685 0.092853 0.8 0 0
0.217456 0.816483 0.082699 0.8 0 0
0.233805 0.547135 0.050250 0.8 0 0
0.083893 0.470763 0.045933 0.8 0 0
0.182791 0.158212 0.059497 0.8 0 0
0.199726 0.154881 0.098556 0.8 0 0
0.192232 0.682720 0.038736 0.8 0 0
0.100161 0.326191 0.071488 0.8 0 0
0.197401 0.687075 0.133708 0.8 0 0
0.158233 0.445498 0.140298 0.8 0 0
0.201899 0.614521 0.130358 0.8 0 0
0.081480 0.486597 0.045256 0.8 0 0
0.070129 0.440810 0.064528 0.8 0 0
0.103160 0.190697 0.060064 0.8 0 0
0.255716 0.758129 0.048166 0.8 0 0
0.152065 0.928455 0.037133 0.8 0 0
0.169192 0.297483 0.084650 0.8 0 0
0.235243 0.569232 0.072534 0.8 0 0
0.190695 0.934561 0.116547 0.8 0 0
0.245483 0.531098 0.094647 0.8 0 0
0.188186 0.052931 0.051194 0.8 0 0
0.050224 0.610487 0.097897 0.8 0 0
0.239658 0.400981 0.092515 0.8 0 0
0.229303 0.537438 0.037343 0.8 0 0
0.269266 0.686956 0.081285 0.8 0 0
0.093384 0.462956 0.035541 0.8 0 0
0.206155 0.077397 0.091617 0.8 0 0
0.120293 0.109847 0.101074 0.8 0 0
0.072435 0.522820 0.122841 0.8 0 0
0.067571 0.443571 0.093875 0.8 0 0
0.184042 0.893133 0.116510 0.8 0 0
0.234570 0.609401 0.223304 0.8 0 0
0.075775 0.425693 0.125886 0.8 0 0
0.107748 0.184970 0.057597 0.8 0 0
0.178666 0.108414 0.074890 0.8 0 0
0.103807 0.168482 0.092111 0.8 0 0
0.059216 0.788302 0.040860 0.8 0 0
0.131331 0.473314 0.030936 0.8 0 0
0.223062 0.715549 0.121051 0.8 0 0
0.101791 0.678153 0.128389 0.8 0 0
0.141151 0.297721 0.073614 0.8 0 0
0.188104 0.913501 0.113066 0.8 0 0
0.070858 0.735372 0.085978 0.8 0 0
0.117172 0.182890 0.103287 0.8 0 0
0.195993 0.417992 0.137905 0.8 0 0
0.122861 0.386910 0.135701 0.8 0 0
0.172049 0.290767 0.072845 0.8 0 0
0.208901 0.227373 0.097064 0.8 0 0
0.153768 0.479408 0.029338 0.8 0 0
0.252521 0.588773 0.202961 0.8 0 0
0.239655 0.483901 0.071403 0.8 0 0
0.214832 0.688762 0.126698 0.8 0 0
0.184642 0.030281 0.152334 0.8 0 0
0.104825 0.306664 0.103157 0.8 0 0
0.119862 0.031712 0.158065 0.8 0 0
0.188534 0.078270 0.100125 0.8 0 0
0.036339 0.570791 0.080820 0.8 0 0
0.140222 0.925255 0.128339 0.8 0 0
0.107763 0.333004 0.106780 0.8 0 0
0.109326 0.783955 0.122155 0.8 0 0
0.219823 0.452843 0.043973 0.8 0 0
0.050243 0.471115 0.124511 0.8 0 0
0.038360 0.669247 0.086268 0.8 0 0
0.250442 0.749160 0.103162 0.8 0 0
0.241450 0.526081 0.107958 0.8 0 0
0.224218 0.789990 0.035134 0.8 0 0
0.132193 0.589526 0.134661 0.8 0 0
0.155401 0.366589 0.036962 0.8 0 0
0.090866 0.668190 0.122772 0.8 0 0
0.166443 0.363983 0.096284 0.8 0 0
0.250561 0.755454 0.101743 0.8 0 0
0.180705 0.820284 0.095536 0.8 0 0
0.269028 0.624718 0.123909 0.8 0 0
0.111158 0.903215 0.068752 0.8 0 0
0.235293 0.408427 0.070339 0.8 0 0
0.078556 0.815014 0.038938 0.8 0 0
0.063542 0.769428 0.083504 0.8 0 0
0.201825 0.680519 0.131256 0.8 0 0
0.106099 0.049649 0.120766 0.8 0 0
0.236729 0.751168 0.099312 0.8 0 0
0.223540 0.605353 0.247475 0.8 0 0
0.049147 0.543544 0.102816 0.8 0 0
0.038566 0.728724 0.084676 0.8 0 0
0.126870 0.359126 0.055962 0.8 0 0
0.192971 0.099036 0.102765 0.8 0 0
0.173024 0.258879 0.058322 0.8 0 0
0.173157 0.490865 0.029444 0.8 0 0
0.211285 0.062309 0.096009 0.8 0 0
0.079874 0.501858 0.131012 0.8 0 0
0.106258 0.620251 0.057514 0.8 0 0
0.071513 0.527019 0.119869 0.8 0 0
0.179311 0.245314 0.053806 0.8 0 0
0.184786 0.906846 0.122016 0.8 0 0
0.228275 0.824177 0.062892 0.8 0 0
0.225250 0.368106 0.052294 0.8 0 0
0.089151 0.631763 0.074976 0.8 0 0
0.218250 0.285900 0.081043 0.8 0 0
0.117566 0.935592 0.115738 0.8 0 0
0.097860 0.535609 0.028780 0.8 0 0
0.213777 0.589741 0.054193 0.8 0 0
0.081527 0.659246 0.104135 0.8 0 0
0.216068 0.426225 0.128759 0.8 0 0
0.210239 0.055528 0.107770 0.8 0 0
0.235262 0.692011 0.076733 0.8 0 0
0.206606 0.775520 0.126521 0.8 0 0
0.117474 0.526021 0.140765 0.8 0 0
0.107276 0.921936 0.063829 0.8 0 0
0.092572 0.580686 0.051472 0.8 0 0
0.113705 0.729424 0.030461 0.8 0 0
0.159524 0.874217 0.132083 0.8 0 0
0.081468 0.596344 0.107059 0.8 0 0
0.082812 0.527401 0.032455 0.8 0 0
0.205055 0.065485 0.053514 0.8 0 0
0.115720 0.354230 0.043220 0.8 0 0
0.211018 0.124980 0.082100 0.8 0 0
0.092530 0.786873 0.032033 0.8 0 0
0.227386 0.605679 0.249713 0.8 0 0
0.198597 0.199332 0.102582 0.8 0 0
0.032943 0.613215 0.077102 0.8 0 0
0.143462 0.728762 0.143304 0.8 0 0
0.113899 0.381002 0.114670 0.8 0 0
0.235951 0.559404 0.063899 0.8 0 0
0.168481 0.524054 0.141700 0.8 0 0
0.129092 0.030394 0.140314 0.8 0 0
0.195443 0.559653 0.136822 0.8 0 0
0.039194 0.734293 0.063448 0.8 0 0
0.203176 0.802703 0.034689 0.8 0 0
0.261694 0.698116 0.115166 0.8 0 0
0.092332 0.441503 0.132341 0.8 0 0
0.136319 0.822835 0.038143 0.8 0 0
0.271647 0.629174 0.134997 0.8 0 0
0.241703 0.421647 0.084042 0.8 0 0
0.098163 0.702348 0.036306 0.8 0 0
0.181358 0.107192 0.091358 0.8 0 0
0.118014 0.898185 0.110740 0.8 0 0
0.104334 0.931927 0.085376 0.8 0 0
0.160217 0.599613 0.041411 0.8 0 0
0.098339 0.175638 0.088687 0.8 0 0
0.105510 0.804451 0.033639 0.8 0 0
0.133771 0.086353 0.084991 0.8 0 0
0.217934 0.601606 0.124364 0.8 0 0
0.080482 0.609545 0.091360 0.8 0 0
0.139831 0.168122 0.079966 0.8 0 0
0.034701 0.717683 0.079438 0.8 0 0
0.250483 0.643046 0.129978 0.8 0 0
0.201207 0.695735 0.036951 0.8 0 0
0.217406 0.578073 0.051656 0.8 0 0
0.217431 0.517568 0.133310 0.8 0 0
0.095545 0.414963 0.043716 0.8 0 0
0.048580 0.765005 0.048618 0.8 0 0
0.241938 0.504069 0.075666 0.8 0 0
0.277192 0.668368 0.094467 0.8 0 0
0.106781 0.662930 0.043918 0.8 0 0
0.216775 0.227832 0.075169 0.8 0 0
0.184726 0.838386 0.068752 0.8 0 0
0.253863 0.710933 0.111949 0.8 0 0
0.122604 0.487344 0.030521 0.8 0 0
0.142167 0.658755 0.041444 0.8 0 0
0.148429 0.648135 0.042949 0.8 0 0
0.107751 0.097703 0.091515 0.8 0 0
0.076208 0.804379 0.035678 0.8 0 0
0.057913 0.794286 0.041190 0.8 0 0
0.186735 0.793016 0.032438 0.8 0 0
0.166624 0.874999 0.131452 0.8 0 0
0.173400 0.701858 0.034482 0.8 0 0
0.183879 0.064852 0.052567 0.8 0 0
0.181305 0.675354 0.132824 0.8 0 0
0.073550 0.470568 0.121136 0.8 0 0
0.122951 0.914348 0.040142 0.8 0 0
0.037291 0.713248 0.085350 0.8 0 0
0.095092 0.638991 0.119822 0.8 0 0
0.094397 0.642049 0.062131 0.8 0 0
0.167297 0.342981 0.090640 0.8 0 0
0.044735 0.767456 0.077050 0.8 0 0
0.120810 0.629891 0.049470 0.8 0 0
0.216745 0.424322 0.128308 0.8 0 0
0.203907 0.047239 0.126635 0.8 0 0
0.117122 0.576640 0.037869 0.8 0 0
0.126469 0.840675 0.070989 0.8 0 0
0.113858 0.484664 0.139147 0.8 0 0
0.236753 0.495654 0.051892 0.8 0 0
0.172959 0.808897 0.034910 0.8 0 0
0.272088 0.687319 0.094535 0.8 0 0
0.167733 0.367554 0.081512 0.8 0 0
0.140726 0.919560 0.128422 0.8 0 0
0.228812 0.600223 0.097174 0.8 0 0
0.141041 0.381040 0.063877 0.8 0 0
0.194264 0.638236 0.133723 0.8 0 0
0.063985 0.673954 0.075381 0.8 0 0
0.245299 0.639372 0.132584 0.8 0 0
0.130015 0.079424 0.070399 0.8 0 0
0.074718 0.359940 0.113911 0.8 0 0
0.228108 0.713440 0.068082 0.8 0 0
0.156928 0.685044 0.036539 0.8 0 0
0.126982 0.407624 0.137153 0.8 0 0
0.251686 0.807741 0.072798 0.8 0 0
0.185081 0.691538 0.133789 0.8 0 0
0.106969 0.619120 0.056639 0.8 0 0
0.190656 0.147206 0.100630 0.8 0 0
0.132436 0.106463 0.069683 0.8 0 0
0.110315 0.037825 0.059683 0.8 0 0
0.070562 0.699975 0.049189 0.8 0 0
0.116739 0.964029 0.085910 0.8 0 0
0.206103 0.608219 0.128892 0.8 0 0
0.052477 0.508770 0.132469 0.8 0 0
0.147719 0.796882 0.111473 0.8 0 0
0.124834 0.803128 0.108920 0.8 0 0
0.191698 0.891690 0.059210 0.8 0 0
0.183793 0.040536 0.054613 0.8 0 0
0.104951 0.230407 0.054629 0.8 0 0
0.103056 0.363962 0.055512 0.8 0 0
0.197070 0.947690 0.075577 0.8 0 0
0.182100 0.844064 0.057741 0.8 0 0
0.123975 0.556839 0.138414 0.8 0 0
0.059839 0.653521 0.066578 0.8 0 0
0.122783 0.527196 0.027855 0.8 0 0
0.163700 0.799537 0.110072 0.8 0 0
0.062748 0.787807 0.038638 0.8 0 0
0.195014 0.768795 0.031919 0.8 0 0
0.121493 0.824323 0.039369 0.8 0 0
0.128474 0.652546 0.043558 0.8 0 0
0.119443 0.967302 0.076346 0.8 0 0
0.178186 0.399171 0.036477 0.8 0 0
0.139419 0.051005 0.070685 0.8 0 0
0.114724 0.902860 0.074679 0.8 0 0
0.259876 0.777696 0.073334 0.8 0 0
0.252302 0.593619 0.187175 0.8 0 0
0.123384 0.728316 0.030429 0.8 0 0
0.255541 0.781104 0.079696 0.8 0 0
0.184355 0.820960 0.094886 0.8 0 0
0.084823 0.592180 0.116893 0.8 0 0
0.113274 0.692706 0.037118 0.8 0 0
0.234180 0.695238 0.071232 0.8 0 0
0.198668 0.546053 0.029391 0.8 0 0
0.119687 0.232605 0.054468 0.8 0 0
0.137589 0.380268 0.037106 0.8 0 0
0.068251 0.443548 0.096468 0.8 0 0
0.249610 0.600532 0.173474 0.8 0 0
0.199148 0.321454 0.111591 0.8 0 0
0.109837 0.380942 0.041396 0.8 0 0
0.179165 0.841158 0.068201 0.8 0 0
0.212089 0.225080 0.061409 0.8 0 0
0.164871 0.254917 0.083828 0.8 0 0
0.070686 0.733586 0.086867 0.8 0 0
0.137676 0.894362 0.131689 0.8 0 0
0.189307 0.904418 0.088994 0.8 0 0
0.139511 0.244729 0.094877 0.8 0 0
0.218539 0.671321 0.124266 0.8 0 0
0.174794 0.314938 0.069849 0.8 0 0
0.269545 0.723500 0.090427 0.8 0 0
0.195464 0.374157 0.041336 0.8 0 0
0.279026 0.685511 0.098128 0.8 0 0
0.179171 0.962774 0.060387 0.8 0 0
0.203507 0.917749 0.078119 0.8 0 0
0.180989 0.251089 0.101143 0.8 0 0
0.225674 0.692758 0.075110 0.8 0 0
0.187793 0.664800 0.041872 0.8 0 0
0.115583 0.543166 0.028537 0.8 0 0
0.035321 0.554107 0.101183 0.8 0 0
0.172155 0.369443 0.137796 0.8 0 0
0.044311 0.634268 0.062192 0.8 0 0
0.145362 0.377933 0.079818 0.8 0 0
0.206405 0.832222 0.061909 0.8 0 0
0.107888 0.678491 0.040364 0.8 0 0
0.130916 0.833957 0.043257 0.8 0 0
0.234168 0.596247 0.255256 0.8 0 0
0.218083 0.666039 0.124089 0.8 0 0
0.076312 0.558451 0.118633 0.8 0 0
0.087040 0.546092 0.032317 0.8 0 0
0.234083 0.467033 0.050128 0.8 0 0
0.100038 0.243131 0.058332 0.8 0 0
0.106428 0.094399 0.073300 0.8 0 0
0.202778 0.729311 0.030171 0.8 0 0
0.123342 0.163658 0.100867 0.8 0 0
0.098963 0.536482 0.138771 0.8 0 0
0.113419 0.356125 0.112926 0.8 0 0
0.227893 0.722794 0.074267 0.8 0 0
0.119183 0.757746 0.030822 0.8 0 0
0.219422 0.244542 0.079270 0.8 0 0
0.128715 0.771983 0.031069 0.8 0 0
0.225867 0.355157 0.121376 0.8 0 0
0.099856 0.372188 0.130727 0.8 0 0
0.220542 0.460329 0.129136 0.8 0 0
0.101612 0.408955 0.039805 0.8 0 0
0.092450 0.779181 0.031831 0.8 0 0
0.248635 0.814920 0.065464 0.8 0 0
0.177868 0.162670 0.092007 0.8 0 0
0.143138 0.216240 0.078485 0.8 0 0
0.133097 0.374565 0.054420 0.8 0 0
0.239932 0.603528 0.232063 0.8 0 0
0.104894 0.548087 0.030973 0.8 0 0
0.207078 0.492137 0.135504 0.8 0 0
0.167892 0.944532 0.127264 0.8 0 0
0.241084 0.536359 0.105258 0.8 0 0
0.073916 0.388732 0.065853 0.8 0 0
0.114741 0.036522 0.153253 0.8 0 0
0.070693 0.544099 0.069625 0.8 0 0
0.173976 0.808077 0.034741 0.8 0 0
0.221721 0.800644 0.034946 0.8 0 0
0.112783 0.324776 0.058654 0.8 0 0
0.205237 0.138994 0.093050 0.8 0 0
0.144018 0.772721 0.030865 0.8 0 0
0.137936 0.032926 0.119215 0.8 0 0
0.140033 0.648938 0.043269 0.8 0 0
0.195434 0.262246 0.053408 0.8 0 0
0.054516 0.513989 0.131529 0.8 0 0
0.118828 0.410714 0.036920 0.8 0 0
0.235968 0.753477 0.063864 0.8 0 0
0.146199 0.283673 0.086544 0.8 0 0
0.071723 0.721992 0.050956 0.8 0 0
0.085013 0.585569 0.121349 0.8 0 0
0.085414 0.469538 0.044033 0.8 0 0
0.261236 0.725470 0.104530 0.8 0 0
0.161392 0.609812 0.044372 0.8 0 0
0.090265 0.386335 0.095587 0.8 0 0
0.133867 0.875051 0.130902 0.8 0 0
0.163763 0.773778 0.031160 0.8 0 0
0.031935 0.703024 0.080807 0.8 0 0
0.202680 0.212018 0.100508 0.8 0 0
0.103536 0.226659 0.054876 0.8 0 0
0.116076 0.212122 0.104540 0.8 0 0
0.076358 0.486458 0.049086 0.8 0 0
0.116677 0.144662 0.100156 0.8 0 0
0.100765 0.819372 0.089984 0.8 0 0
0.193595 0.292478 0.056347 0.8 0 0
0.210971 0.344979 0.060447 0.8 0 0
0.154852 0.720544 0.141790 0.8 0 0
0.140227 0.223700 0.067713 0.8 0 0
0.099242 0.502241 0.137760 0.8 0 0
0.177002 0.556764 0.138028 0.8 0 0
0.203940 0.050919 0.120848 0.8 0 0
0.197689 0.943526 0.112017 0.8 0 0
0.209438 0.582746 0.129957 0.8 0 0
0.271157 0.691040 0.081569 0.8 0 0
0.186032 0.101761 0.062445 0.8 0 0
0.167444 0.795164 0.031884 0.8 0 0
0.099531 0.503458 0.137913 0.8 0 0
0.217738 0.547207 0.131939 0.8 0 0
0.192798 0.947631 0.059090 0.8 0 0
0.058061 0.792789 0.063750 0.8 0 0
0.187266 0.928091 0.115074 0.8 0 0
0.133283 0.070771 0.055687 0.8 0 0
0.180120 0.699569 0.135122 0.8 0 0
0.249680 0.684999 0.063675 0.8 0 0
0.139625 0.152186 0.083194 0.8 0 0
0.142975 0.622640 0.131726 0.8 0 0
0.051649 0.523116 0.113412 0.8 0 0
0.179630 0.729754 0.029983 0.8 0 0
