0.460832 0.062081 0.171174 0.8 0 0
0.329771 0.410063 0.241138 0.8 0 0
0.281466 0.225222 0.195517 0.8 0 0
0.558189 0.717764 0.164877 0.8 0 0
0.335537 0.868184 0.117175 0.8 0 0
0.166455 0.699269 0.197850 0.8 0 0
0.189488 0.721765 0.174991 0.8 0 0
0.402161 0.776999 0.088431 0.8 0 0
0.354401 0.585463 0.064044 0.8 0 0
0.387782 0.604953 0.288627 0.8 0 0
0.698336 0.590424 0.209075 0.8 0 0
0.391187 0.186183 0.146383 0.8 0 0
0.337810 0.925322 0.196878 0.8 0 0
0.484990 0.331612 0.194304 0.8 0 0
0.398322 0.215155 0.120160 0.8 0 0
0.370313 0.824029 0.290325 0.8 0 0
0.603757 0.685188 0.194529 0.8 0 0
0.400880 0.782284 0.129981 0.8 0 0
0.273914 0.337250 0.215426 0.8 0 0
0.356764 0.920739 0.151008 0.8 0 0
0.342366 0.492539 0.206031 0.8 0 0
0.420782 0.129397 0.116893 0.8 0 0
0.384339 0.328749 0.178236 0.8 0 0
0.105992 0.643610 0.196685 0.8 0 0
0.311134 0.102140 0.189616 0.8 0 0
0.378736 0.614411 0.111472 0.8 0 0
0.404421 0.320383 0.218022 0.8 0 0
0.385226 0.581012 0.068233 0.8 0 0
0.364823 0.373548 0.203555 0.8 0 0
0.469600 0.606386 0.186650 0.8 0 0
0.480184 0.454577 0.162372 0.8 0 0
0.351030 0.483706 0.197430 0.8 0 0
0.389578 0.815142 0.147441 0.8 0 0
0.155792 0.643735 0.183634 0.8 0 0
0.329570 0.921771 0.189886 0.8 0 0
0.051633 0.569859 0.186198 0.8 0 0
0.455982 0.556827 0.120929 0.8 0 0
0.109924 0.659888 0.164748 0.8 0 0
0.373034 0.870828 0.143839 0.8 0 0
0.392432 0.616143 0.240331 0.8 0 0
0.326115 0.465769 0.239080 0.8 0 0
0.093123 0.642506 0.199040 0.8 0 0
0.242355 0.685091 0.133938 0.8 0 0
0.342223 0.231699 0.188922 0.8 0 0
0.363266 0.868038 0.110244 0.8 0 0
0.268196 0.656738 0.170575 0.8 0 0
0.364738 0.578849 0.063871 0.8 0 0
0.344382 0.930366 0.166430 0.8 0 0
0.346132 0.742057 0.235299 0.8 0 0
0.305460 0.448053 0.239595 0.8 0 0
0.402214 0.214860 0.115391 0.8 0 0
0.453455 0.295758 0.221686 0.8 0 0
0.323192 0.525729 0.099821 0.8 0 0
0.625155 0.647801 0.178481 0.8 0 0
0.332376 0.052209 0.175004 0.8 0 0
0.273852 0.391211 0.220196 0.8 0 0
0.352582 0.551006 0.236145 0.8 0 0
0.367851 0.844477 0.245043 0.8 0 0
0.452337 0.314111 0.119076 0.8 0 0
0.332111 0.665055 0.238530 0.8 0 0
0.276459 0.120759 0.172281 0.8 0 0
0.465319 0.557734 0.189003 0.8 0 0
0.684027 0.598753 0.208920 0.8 0 0
0.398896 0.628199 0.112772 0.8 0 0
0.430967 0.269074 0.113223 0.8 0 0
0.441668 0.103314 0.138078 0.8 0 0
0.426088 0.104868 0.148113 0.8 0 0
0.323595 0.315758 0.114257 0.8 0 0
0.658758 0.596906 0.202302 0.8 0 0
0.385616 0.447927 0.177130 0.8 0 0
0.279597 0.455601 0.134684 0.8 0 0
0.390627 0.647198 0.031461 0.8 0 0
0.373351 0.458857 0.221222 0.8 0 0
0.434179 0.780851 0.121797 0.8 0 0
0.268288 0.668141 0.158824 0.8 0 0
0.415391 0.478605 0.104898 0.8 0 0
0.343605 0.476513 0.190420 0.8 0 0
0.164008 0.643762 0.153910 0.8 0 0
0.359915 0.827740 0.147456 0.8 0 0
0.299373 0.637586 0.124068 0.8 0 0
0.419116 0.684133 0.111591 0.8 0 0
0.266063 0.665246 0.169683 0.8 0 0
0.135550 0.660125 0.146848 0.8 0 0
0.318810 0.787842 0.131660 0.8 0 0
0.350067 0.465440 0.110809 0.8 0 0
0.434719 0.551779 0.106263 0.8 0 0
0.291590 0.270566 0.122938 0.8 0 0
0.441509 0.540277 0.118923 0.8 0 0
0.340663 0.161603 0.114540 0.8 0 0
0.395689 0.300424 0.194882 0.8 0 0
0.267660 0.277827 0.185733 0.8 0 0
0.425693 0.025000 0.262133 0.8 0 0
0.351351 0.212298 0.120835 0.8 0 0
0.375491 0.836941 0.143597 0.8 0 0
0.636614 0.656640 0.170976 0.8 0 0
0.433773 0.895557 0.215557 0.8 0 0
0.479031 0.681246 0.202549 0.8 0 0
0.347933 0.387197 0.124875 0.8 0 0
0.128651 0.674902 0.163787 0.8 0 0
0.489537 0.567009 0.103458 0.8 0 0
0.466704 0.506533 0.218092 0.8 0 0
0.476750 0.564242 0.066509 0.8 0 0
0.288545 0.723298 0.107594 0.8 0 0
0.461249 0.460798 0.125257 0.8 0 0
0.520215 0.722708 0.209472 0.8 0 0
0.452216 0.099371 0.127498 0.8 0 0
0.432710 0.637059 0.231268 0.8 0 0
0.406101 0.839132 0.205357 0.8 0 0
0.371483 0.879644 0.252086 0.8 0 0
0.282420 0.642077 0.201719 0.8 0 0
0.113160 0.652991 0.205928 0.8 0 0
0.339235 0.300935 0.215313 0.8 0 0
0.319995 0.109134 0.124069 0.8 0 0
0.375028 0.963139 0.234587 0.8 0 0
0.593308 0.633414 0.191438 0.8 0 0
0.177357 0.708139 0.162429 0.8 0 0
0.159113 0.697721 0.189724 0.8 0 0
0.281396 0.556170 0.147615 0.8 0 0
0.440718 0.475198 0.112022 0.8 0 0
0.423877 0.356608 0.238596 0.8 0 0
0.050184 0.571292 0.172630 0.8 0 0
0.337620 0.354983 0.115472 0.8 0 0
0.373764 0.423839 0.152220 0.8 0 0
0.463240 0.106436 0.160812 0.8 0 0
0.487451 0.772233 0.145060 0.8 0 0
0.339305 0.543195 0.240866 0.8 0 0
0.426161 0.674923 0.238411 0.8 0 0
0.474365 0.160945 0.178923 0.8 0 0
0.372217 0.832986 0.262495 0.8 0 0
0.479380 0.550376 0.083595 0.8 0 0
0.481352 0.426937 0.162085 0.8 0 0
0.405953 0.936144 0.234349 0.8 0 0
0.314988 0.780832 0.137799 0.8 0 0
0.395455 0.731147 0.030700 0.8 0 0
0.673590 0.569103 0.221773 0.8 0 0
0.418374 0.370916 0.237991 0.8 0 0
0.389411 0.494122 0.102499 0.8 0 0
0.411386 0.926089 0.227210 0.8 0 0
0.364257 0.617433 0.111339 0.8 0 0
0.269048 0.369522 0.208999 0.8 0 0
0.312353 0.305068 0.227663 0.8 0 0
0.445374 0.069647 0.201384 0.8 0 0
0.442888 0.102272 0.190471 0.8 0 0
0.528641 0.667433 0.147674 0.8 0 0
0.408680 0.372969 0.117436 0.8 0 0
0.383437 0.716890 0.296544 0.8 0 0
0.321310 0.690429 0.109892 0.8 0 0
0.413637 0.927533 0.213056 0.8 0 0
0.359846 0.670171 0.030769 0.8 0 0
0.053668 0.568984 0.161376 0.8 0 0
0.358473 0.901553 0.129901 0.8 0 0
0.075419 0.591940 0.190474 0.8 0 0
0.205391 0.727570 0.158729 0.8 0 0
0.475661 0.716548 0.117305 0.8 0 0
0.153655 0.657514 0.140882 0.8 0 0
0.381931 0.501123 0.103708 0.8 0 0
0.099672 0.643271 0.204085 0.8 0 0
0.474543 0.043428 0.219783 0.8 0 0
0.510037 0.754109 0.188283 0.8 0 0
0.367366 0.344988 0.155446 0.8 0 0
0.365154 0.971416 0.183565 0.8 0 0
0.474758 0.026376 0.271295 0.8 0 0
0.413240 0.764596 0.115053 0.8 0 0
0.338792 0.914809 0.149471 0.8 0 0
0.299899 0.772083 0.116350 0.8 0 0
0.398143 0.567322 0.101858 0.8 0 0
0.282391 0.102403 0.158025 0.8 0 0
0.268488 0.212339 0.179041 0.8 0 0
0.458758 0.025000 0.248992 0.8 0 0
0.379874 0.573367 0.076430 0.8 0 0
0.388701 0.457528 0.189570 0.8 0 0
0.429267 0.586998 0.242391 0.8 0 0
0.453619 0.071672 0.186889 0.8 0 0
0.278539 0.048083 0.214948 0.8 0 0
0.400771 0.441553 0.232906 0.8 0 0
0.354062 0.189015 0.165805 0.8 0 0
0.432018 0.536892 0.246418 0.8 0 0
0.441275 0.063134 0.220982 0.8 0 0
0.335346 0.795539 0.182003 0.8 0 0
0.395223 0.447819 0.229303 0.8 0 0
0.227378 0.744336 0.154131 0.8 0 0
0.627058 0.607603 0.152908 0.8 0 0
0.355646 0.462838 0.198854 0.8 0 0
0.383908 0.660224 0.104882 0.8 0 0
0.400794 0.542688 0.100499 0.8 0 0
0.421058 0.028743 0.232663 0.8 0 0
0.470543 0.547652 0.188345 0.8 0 0
0.109877 0.635628 0.154888 0.8 0 0
0.078816 0.568993 0.232608 0.8 0 0
0.477589 0.157985 0.125088 0.8 0 0
0.380473 0.488500 0.105630 0.8 0 0
0.459887 0.470538 0.229016 0.8 0 0
0.276362 0.025000 0.243178 0.8 0 0
0.440294 0.702818 0.230399 0.8 0 0
0.367452 0.633623 0.112150 0.8 0 0
0.435852 0.299649 0.116088 0.8 0 0
0.401039 0.568721 0.055332 0.8 0 0
0.480496 0.146651 0.139960 0.8 0 0
0.453665 0.188011 0.197267 0.8 0 0
0.377254 0.577102 0.076596 0.8 0 0
0.313747 0.205947 0.095416 0.8 0 0
0.427298 0.565408 0.074697 0.8 0 0
0.335085 0.864716 0.178723 0.8 0 0
0.354887 0.451928 0.228080 0.8 0 0
0.343521 0.680632 0.043174 0.8 0 0
0.331228 0.909451 0.209619 0.8 0 0
0.153924 0.634073 0.167370 0.8 0 0
0.399744 0.120946 0.159669 0.8 0 0
0.633227 0.651223 0.160141 0.8 0 0
0.414846 0.717452 0.086719 0.8 0 0
0.276971 0.537373 0.190644 0.8 0 0
0.473556 0.197297 0.184491 0.8 0 0
0.307882 0.473901 0.237613 0.8 0 0
0.337066 0.052789 0.160353 0.8 0 0
0.295251 0.767126 0.113181 0.8 0 0
0.469757 0.115966 0.127003 0.8 0 0
0.403799 0.625770 0.041243 0.8 0 0
0.503715 0.556288 0.159105 0.8 0 0
0.523291 0.748320 0.177232 0.8 0 0
0.348211 0.788261 0.066150 0.8 0 0
0.316396 0.195223 0.200060 0.8 0 0
0.403842 0.601434 0.046964 0.8 0 0
0.088164 0.615951 0.212074 0.8 0 0
0.380432 0.967011 0.171480 0.8 0 0
0.120640 0.648799 0.199189 0.8 0 0
0.447922 0.521811 0.240962 0.8 0 0
0.372236 0.901089 0.138069 0.8 0 0
0.274701 0.497042 0.147869 0.8 0 0
0.458777 0.025000 0.178665 0.8 0 0
0.592253 0.684125 0.203580 0.8 0 0
0.644182 0.647473 0.192206 0.8 0 0
0.412781 0.763653 0.114799 0.8 0 0
0.497488 0.571367 0.174167 0.8 0 0
0.398631 0.605375 0.095310 0.8 0 0
0.405793 0.926238 0.167415 0.8 0 0
0.478968 0.778639 0.180357 0.8 0 0
0.388003 0.517676 0.243796 0.8 0 0
0.595546 0.628686 0.167518 0.8 0 0
0.474568 0.407978 0.215895 0.8 0 0
0.583203 0.692619 0.202429 0.8 0 0
0.425472 0.406268 0.241517 0.8 0 0
0.364876 0.907014 0.261977 0.8 0 0
0.400331 0.445284 0.115127 0.8 0 0
0.393746 0.745739 0.100992 0.8 0 0
0.413317 0.536107 0.248311 0.8 0 0
0.594659 0.688869 0.167142 0.8 0 0
0.325861 0.025000 0.150044 0.8 0 0
0.370028 0.378780 0.155375 0.8 0 0
0.276923 0.538930 0.167550 0.8 0 0
0.416742 0.907832 0.220003 0.8 0 0
0.283757 0.301570 0.213777 0.8 0 0
0.384626 0.871614 0.117099 0.8 0 0
0.301835 0.031422 0.294297 0.8 0 0
0.379346 0.668749 0.302561 0.8 0 0
0.256542 0.766071 0.140956 0.8 0 0
0.414764 0.716251 0.094850 0.8 0 0
0.300883 0.449352 0.116109 0.8 0 0
0.500792 0.560975 0.090774 0.8 0 0
0.358746 0.423619 0.222947 0.8 0 0
0.468249 0.552229 0.162271 0.8 0 0
0.629923 0.628865 0.145793 0.8 0 0
0.629003 0.642011 0.208740 0.8 0 0
0.427790 0.364954 0.113227 0.8 0 0
0.280858 0.520976 0.138637 0.8 0 0
0.139121 0.640102 0.204916 0.8 0 0
0.401265 0.961906 0.189571 0.8 0 0
0.245827 0.716245 0.214229 0.8 0 0
0.365961 0.467519 0.192095 0.8 0 0
0.314232 0.696699 0.233511 0.8 0 0
0.408818 0.786545 0.207030 0.8 0 0
0.362490 0.329140 0.150481 0.8 0 0
0.373618 0.480671 0.212449 0.8 0 0
0.280823 0.599636 0.180270 0.8 0 0
0.288617 0.482297 0.227422 0.8 0 0
0.255560 0.731365 0.214811 0.8 0 0
0.467195 0.038611 0.155231 0.8 0 0
0.283476 0.049964 0.167881 0.8 0 0
0.399752 0.828879 0.224154 0.8 0 0
0.365443 0.695039 0.288756 0.8 0 0
0.594114 0.682698 0.158319 0.8 0 0
0.418582 0.039105 0.227240 0.8 0 0
0.332805 0.554500 0.240922 0.8 0 0
0.477143 0.524340 0.174379 0.8 0 0
0.469679 0.484381 0.218710 0.8 0 0
0.413332 0.727197 0.052380 0.8 0 0
0.389581 0.830685 0.255128 0.8 0 0
0.373888 0.554291 0.238851 0.8 0 0
0.667394 0.589804 0.206335 0.8 0 0
0.475745 0.152428 0.174189 0.8 0 0
0.262326 0.748776 0.208700 0.8 0 0
0.654559 0.637160 0.198854 0.8 0 0
0.462944 0.180783 0.193132 0.8 0 0
0.398609 0.700134 0.097361 0.8 0 0
0.340172 0.184181 0.183892 0.8 0 0
0.398158 0.829256 0.241492 0.8 0 0
0.288805 0.025000 0.202592 0.8 0 0
0.276813 0.387009 0.223127 0.8 0 0
0.137818 0.641365 0.205990 0.8 0 0
0.434776 0.360060 0.237626 0.8 0 0
0.285534 0.082215 0.155016 0.8 0 0
0.382997 0.619978 0.240201 0.8 0 0
0.333292 0.757405 0.226587 0.8 0 0
0.348144 0.512210 0.225708 0.8 0 0
0.408656 0.635362 0.047855 0.8 0 0
0.461364 0.705616 0.115467 0.8 0 0
0.482868 0.555086 0.073269 0.8 0 0
0.413036 0.923198 0.218497 0.8 0 0
0.304524 0.555212 0.233686 0.8 0 0
0.670021 0.595271 0.221568 0.8 0 0
0.476420 0.257040 0.187815 0.8 0 0
0.364971 0.958997 0.155914 0.8 0 0
0.335630 0.863384 0.214868 0.8 0 0
0.071848 0.586616 0.175350 0.8 0 0
0.384690 0.323833 0.175221 0.8 0 0
0.153312 0.637271 0.158991 0.8 0 0
0.356079 0.677007 0.243907 0.8 0 0
0.369536 0.437240 0.213689 0.8 0 0
0.428227 0.512697 0.104961 0.8 0 0
0.385814 0.862159 0.105114 0.8 0 0
0.276985 0.274683 0.200121 0.8 0 0
0.364620 0.573291 0.057475 0.8 0 0
0.400866 0.257999 0.186872 0.8 0 0
0.307438 0.117998 0.120980 0.8 0 0
0.530705 0.666335 0.148501 0.8 0 0
0.412842 0.736670 0.073103 0.8 0 0
0.403063 0.199257 0.111889 0.8 0 0
0.383654 0.389428 0.146779 0.8 0 0
0.315383 0.526828 0.104065 0.8 0 0
0.300460 0.025000 0.206020 0.8 0 0
0.272866 0.139924 0.124571 0.8 0 0
0.346425 0.692996 0.039389 0.8 0 0
0.365170 0.566886 0.070715 0.8 0 0
0.336333 0.765304 0.060680 0.8 0 0
0.306801 0.663244 0.226246 0.8 0 0
0.393909 0.740950 0.032821 0.8 0 0
0.423619 0.421792 0.116330 0.8 0 0
0.478087 0.485570 0.166809 0.8 0 0
0.168757 0.679970 0.141160 0.8 0 0
0.670508 0.626755 0.194578 0.8 0 0
0.395734 0.912180 0.134141 0.8 0 0
0.414372 0.728475 0.054891 0.8 0 0
0.347622 0.598945 0.045396 0.8 0 0
0.354853 0.793386 0.199667 0.8 0 0
0.338258 0.922567 0.231323 0.8 0 0
0.469662 0.308092 0.131454 0.8 0 0
0.415535 0.881161 0.218606 0.8 0 0
0.264539 0.270274 0.171058 0.8 0 0
0.462190 0.036583 0.141987 0.8 0 0
0.399191 0.747835 0.096915 0.8 0 0
0.406972 0.787090 0.125608 0.8 0 0
0.192363 0.698864 0.139619 0.8 0 0
0.403357 0.143034 0.167953 0.8 0 0
0.504906 0.550916 0.118268 0.8 0 0
0.383524 0.378975 0.145491 0.8 0 0
0.657471 0.605495 0.188428 0.8 0 0
0.382933 0.636125 0.112624 0.8 0 0
0.446303 0.711488 0.113240 0.8 0 0
0.326956 0.105323 0.166291 0.8 0 0
0.359774 0.462232 0.169360 0.8 0 0
0.396180 0.478401 0.105671 0.8 0 0
0.634696 0.612035 0.205640 0.8 0 0
0.266556 0.766299 0.198545 0.8 0 0
0.406390 0.721495 0.111229 0.8 0 0
0.385336 0.717133 0.026467 0.8 0 0
0.408057 0.633943 0.046793 0.8 0 0
0.330806 0.229173 0.196501 0.8 0 0
0.470794 0.259253 0.121597 0.8 0 0
0.411573 0.105290 0.150468 0.8 0 0
0.369812 0.426264 0.139639 0.8 0 0
0.432140 0.517324 0.231435 0.8 0 0
0.260399 0.201049 0.149348 0.8 0 0
0.262983 0.339058 0.185471 0.8 0 0
0.448953 0.407840 0.237852 0.8 0 0
0.495439 0.568955 0.093113 0.8 0 0
0.375543 0.799919 0.281569 0.8 0 0
0.516216 0.737276 0.140140 0.8 0 0
0.410148 0.770470 0.117595 0.8 0 0
0.410450 0.897713 0.158949 0.8 0 0
0.548361 0.696336 0.137387 0.8 0 0
0.421170 0.048387 0.254994 0.8 0 0
0.136425 0.647288 0.147492 0.8 0 0
0.266768 0.263071 0.182974 0.8 0 0
0.347030 0.466348 0.108765 0.8 0 0
0.416286 0.913344 0.168023 0.8 0 0
0.370813 0.569829 0.101786 0.8 0 0
0.095676 0.604300 0.172046 0.8 0 0
0.469021 0.350354 0.129176 0.8 0 0
0.631367 0.629528 0.149246 0.8 0 0
0.283279 0.640321 0.141703 0.8 0 0
0.475187 0.465429 0.209715 0.8 0 0
0.347206 0.727555 0.243433 0.8 0 0
0.273231 0.045121 0.265705 0.8 0 0
0.411691 0.919710 0.229204 0.8 0 0
0.330558 0.637741 0.111692 0.8 0 0
0.434592 0.715484 0.236657 0.8 0 0
0.432666 0.062998 0.219656 0.8 0 0
0.378092 0.451895 0.166720 0.8 0 0
0.403570 0.640994 0.040946 0.8 0 0
0.033919 0.545740 0.175838 0.8 0 0
0.366073 0.958004 0.154428 0.8 0 0
0.313357 0.208733 0.204485 0.8 0 0
0.364984 0.784166 0.128632 0.8 0 0
0.294029 0.518862 0.230753 0.8 0 0
0.306530 0.596807 0.226302 0.8 0 0
0.049325 0.587879 0.195532 0.8 0 0
0.330036 0.899013 0.253303 0.8 0 0
0.361296 0.309757 0.170970 0.8 0 0
0.485526 0.235550 0.132930 0.8 0 0
0.066306 0.609664 0.195344 0.8 0 0
0.394280 0.824148 0.149530 0.8 0 0
0.263819 0.283529 0.163580 0.8 0 0
0.318119 0.187545 0.096032 0.8 0 0
0.229334 0.688555 0.209346 0.8 0 0
0.313779 0.116237 0.108113 0.8 0 0
0.277553 0.621136 0.172869 0.8 0 0
0.428367 0.442240 0.112522 0.8 0 0
0.406487 0.646292 0.044747 0.8 0 0
0.314477 0.785669 0.129421 0.8 0 0
0.340980 0.501355 0.226908 0.8 0 0
0.405735 0.669618 0.112480 0.8 0 0
0.489793 0.740273 0.213927 0.8 0 0
0.308399 0.225821 0.100250 0.8 0 0
0.596903 0.627687 0.148295 0.8 0 0
0.429261 0.604567 0.266419 0.8 0 0
0.274197 0.658801 0.145919 0.8 0 0
0.628701 0.628434 0.184431 0.8 0 0
0.286095 0.090565 0.142762 0.8 0 0
0.276847 0.545884 0.178782 0.8 0 0
0.341822 0.938148 0.154470 0.8 0 0
0.331605 0.900622 0.248648 0.8 0 0
0.363297 0.711065 0.244199 0.8 0 0
0.131662 0.662835 0.207863 0.8 0 0
0.412349 0.716090 0.076842 0.8 0 0
0.443965 0.570243 0.072978 0.8 0 0
0.484980 0.329951 0.175688 0.8 0 0
0.484894 0.777822 0.164801 0.8 0 0
0.692867 0.576024 0.178801 0.8 0 0
0.473568 0.405516 0.144987 0.8 0 0
0.272365 0.466991 0.148454 0.8 0 0
0.361844 0.500434 0.214962 0.8 0 0
0.383819 0.812218 0.291312 0.8 0 0
0.340390 0.412805 0.234505 0.8 0 0
0.451423 0.744929 0.109314 0.8 0 0
0.446990 0.070266 0.124479 0.8 0 0
0.454333 0.756061 0.112485 0.8 0 0
0.265677 0.324804 0.156512 0.8 0 0
0.615981 0.628356 0.207818 0.8 0 0
0.722396 0.550777 0.204530 0.8 0 0
0.230077 0.726020 0.207879 0.8 0 0
0.418325 0.454504 0.112091 0.8 0 0
0.333538 0.149580 0.183921 0.8 0 0
0.346316 0.871376 0.242798 0.8 0 0
0.421401 0.792466 0.144797 0.8 0 0
0.339302 0.106855 0.173486 0.8 0 0
0.280000 0.109001 0.129144 0.8 0 0
0.479528 0.560222 0.067998 0.8 0 0
0.467083 0.580336 0.200209 0.8 0 0
0.414285 0.197196 0.101271 0.8 0 0
0.265295 0.321776 0.158823 0.8 0 0
0.282469 0.716346 0.227493 0.8 0 0
0.451799 0.137665 0.192911 0.8 0 0
0.485449 0.344014 0.192212 0.8 0 0
0.422443 0.089263 0.131443 0.8 0 0
0.225459 0.732530 0.140976 0.8 0 0
0.477031 0.165199 0.122303 0.8 0 0
0.413557 0.911105 0.157276 0.8 0 0
0.558072 0.710908 0.153835 0.8 0 0
0.460941 0.293398 0.216362 0.8 0 0
0.438052 0.211007 0.096615 0.8 0 0
0.288283 0.181106 0.195383 0.8 0 0
0.351602 0.966560 0.197953 0.8 0 0
0.397669 0.611485 0.292806 0.8 0 0
0.480050 0.431876 0.158115 0.8 0 0
0.300735 0.245249 0.210588 0.8 0 0
0.351056 0.256390 0.136796 0.8 0 0
0.423313 0.610323 0.111484 0.8 0 0
0.390607 0.619364 0.296073 0.8 0 0
0.273608 0.162561 0.119075 0.8 0 0
0.335680 0.331526 0.115357 0.8 0 0
0.378085 0.548793 0.099343 0.8 0 0
0.338681 0.801031 0.169070 0.8 0 0
0.400791 0.528499 0.233289 0.8 0 0
0.349747 0.746418 0.036726 0.8 0 0
0.321083 0.430663 0.115367 0.8 0 0
0.292907 0.149427 0.107437 0.8 0 0
0.399884 0.264090 0.135555 0.8 0 0
0.349053 0.155586 0.146199 0.8 0 0
0.464775 0.622109 0.206135 0.8 0 0
0.122732 0.636412 0.148369 0.8 0 0
0.422780 0.797400 0.149085 0.8 0 0
0.425335 0.750384 0.228579 0.8 0 0
0.390559 0.359692 0.207424 0.8 0 0
0.323580 0.521772 0.105866 0.8 0 0
0.375125 0.804208 0.140698 0.8 0 0
0.344784 0.773145 0.211103 0.8 0 0
0.331727 0.256573 0.205313 0.8 0 0
0.347959 0.958892 0.209433 0.8 0 0
0.285440 0.608640 0.139894 0.8 0 0
0.267627 0.154114 0.136280 0.8 0 0
0.337574 0.733302 0.054062 0.8 0 0
0.446036 0.061341 0.231036 0.8 0 0
0.322349 0.254410 0.109668 0.8 0 0
0.320426 0.109956 0.184781 0.8 0 0
0.459606 0.734344 0.226996 0.8 0 0
0.472755 0.773648 0.128590 0.8 0 0
0.395787 0.947690 0.240000 0.8 0 0
0.404358 0.919859 0.243063 0.8 0 0
0.361884 0.381575 0.208955 0.8 0 0
0.633065 0.634658 0.207027 0.8 0 0
0.268557 0.235670 0.125398 0.8 0 0
0.155743 0.697786 0.175782 0.8 0 0
0.384710 0.939796 0.157036 0.8 0 0
0.482469 0.671497 0.162901 0.8 0 0
0.417441 0.511976 0.101038 0.8 0 0
0.373756 0.693692 0.106049 0.8 0 0
0.418393 0.348029 0.111785 0.8 0 0
0.465852 0.222734 0.195103 0.8 0 0
0.157248 0.687822 0.151023 0.8 0 0
0.403759 0.185253 0.177534 0.8 0 0
0.310303 0.147871 0.102000 0.8 0 0
0.351454 0.255004 0.137029 0.8 0 0
0.369856 0.464664 0.201389 0.8 0 0
0.154812 0.654222 0.211420 0.8 0 0
0.632850 0.627736 0.146455 0.8 0 0
0.446436 0.025000 0.212463 0.8 0 0
0.378735 0.826662 0.261606 0.8 0 0
0.207679 0.730839 0.162108 0.8 0 0
0.438451 0.891113 0.188150 0.8 0 0
0.125044 0.629259 0.184815 0.8 0 0
0.340168 0.929557 0.232793 0.8 0 0
0.344460 0.860547 0.100710 0.8 0 0
0.309264 0.724813 0.234687 0.8 0 0
0.469931 0.648727 0.199209 0.8 0 0
0.469891 0.485250 0.218234 0.8 0 0
0.379216 0.417847 0.182081 0.8 0 0
0.204418 0.705420 0.209338 0.8 0 0
0.268536 0.352933 0.207709 0.8 0 0
0.284372 0.307343 0.215789 0.8 0 0
0.413947 0.485942 0.238816 0.8 0 0
0.485282 0.206207 0.145597 0.8 0 0
0.343448 0.516235 0.228029 0.8 0 0
0.410778 0.565330 0.245420 0.8 0 0
0.529651 0.688139 0.130501 0.8 0 0
0.434709 0.866404 0.114282 0.8 0 0
0.189867 0.721857 0.181721 0.8 0 0
0.358847 0.904512 0.260006 0.8 0 0
0.330186 0.035926 0.232378 0.8 0 0
0.432792 0.179933 0.096601 0.8 0 0
0.126011 0.652065 0.200074 0.8 0 0
0.427322 0.435344 0.114426 0.8 0 0
0.469883 0.384864 0.133192 0.8 0 0
0.314663 0.792534 0.142467 0.8 0 0
0.386354 0.902773 0.127760 0.8 0 0
0.287320 0.042763 0.136312 0.8 0 0
0.323112 0.794207 0.175731 0.8 0 0
0.443639 0.684544 0.116867 0.8 0 0
0.313951 0.637740 0.117210 0.8 0 0
0.334711 0.908649 0.152498 0.8 0 0
0.270043 0.123119 0.146762 0.8 0 0
0.400649 0.277532 0.133181 0.8 0 0
0.379008 0.750402 0.302993 0.8 0 0
0.502919 0.568063 0.103647 0.8 0 0
0.380597 0.456830 0.121724 0.8 0 0
0.409144 0.901043 0.141893 0.8 0 0
0.296159 0.067158 0.126758 0.8 0 0
0.266822 0.752620 0.208079 0.8 0 0
0.264662 0.263876 0.151247 0.8 0 0
0.319960 0.713982 0.107891 0.8 0 0
0.285993 0.734867 0.225145 0.8 0 0
0.392274 0.220759 0.143393 0.8 0 0
0.057234 0.578961 0.175298 0.8 0 0
0.351096 0.583016 0.105907 0.8 0 0
0.280781 0.591170 0.180792 0.8 0 0
0.345825 0.929197 0.144754 0.8 0 0
0.376286 0.430641 0.144299 0.8 0 0
0.392811 0.233790 0.140049 0.8 0 0
0.270884 0.770799 0.194321 0.8 0 0
0.371958 0.907499 0.250424 0.8 0 0
0.377099 0.857870 0.098292 0.8 0 0
0.326567 0.414324 0.115528 0.8 0 0
0.417495 0.366255 0.236457 0.8 0 0
0.408169 0.135282 0.174167 0.8 0 0
0.136487 0.667971 0.205749 0.8 0 0
0.281580 0.525386 0.139132 0.8 0 0
0.280538 0.519517 0.138729 0.8 0 0
0.142207 0.669198 0.158294 0.8 0 0
0.144801 0.688162 0.166070 0.8 0 0
0.292559 0.620986 0.126406 0.8 0 0
0.285755 0.054623 0.180160 0.8 0 0
0.076308 0.583940 0.214954 0.8 0 0
0.481984 0.585901 0.228385 0.8 0 0
0.376600 0.447987 0.175371 0.8 0 0
0.375087 0.974309 0.192620 0.8 0 0
0.346092 0.158750 0.124675 0.8 0 0
0.674280 0.578814 0.213179 0.8 0 0
0.397685 0.307317 0.136554 0.8 0 0
0.377174 0.647996 0.242846 0.8 0 0
0.276015 0.449290 0.141723 0.8 0 0
0.333652 0.610902 0.110295 0.8 0 0
0.406673 0.759407 0.044989 0.8 0 0
0.475410 0.455479 0.209612 0.8 0 0
0.318831 0.794734 0.163107 0.8 0 0
0.362926 0.378118 0.135046 0.8 0 0
0.464375 0.421169 0.227924 0.8 0 0
0.361058 0.306916 0.164838 0.8 0 0
0.371356 0.636944 0.105733 0.8 0 0
0.333552 0.921233 0.212530 0.8 0 0
0.278511 0.406983 0.136825 0.8 0 0
0.333287 0.901804 0.196427 0.8 0 0
0.354974 0.957291 0.236488 0.8 0 0
0.399782 0.256221 0.183905 0.8 0 0
0.471165 0.605079 0.158790 0.8 0 0
0.409311 0.486158 0.103453 0.8 0 0
0.341166 0.848221 0.191222 0.8 0 0
0.363668 0.781323 0.291542 0.8 0 0
0.467031 0.106299 0.176691 0.8 0 0
0.154601 0.695103 0.187631 0.8 0 0
0.469967 0.270660 0.202264 0.8 0 0
0.480066 0.129478 0.149948 0.8 0 0
0.380868 0.425543 0.189476 0.8 0 0
0.341786 0.688208 0.088310 0.8 0 0
0.406067 0.732585 0.089546 0.8 0 0
0.514921 0.574124 0.164412 0.8 0 0
0.325145 0.025000 0.184524 0.8 0 0
0.411168 0.937783 0.218467 0.8 0 0
0.655903 0.600848 0.197536 0.8 0 0
0.394945 0.478071 0.106183 0.8 0 0
0.316449 0.057831 0.263012 0.8 0 0
0.570949 0.650096 0.200560 0.8 0 0
0.461644 0.655862 0.214930 0.8 0 0
0.410415 0.410660 0.237286 0.8 0 0
0.271407 0.661515 0.187941 0.8 0 0
0.268084 0.427829 0.160412 0.8 0 0
0.458325 0.587107 0.245669 0.8 0 0
0.347701 0.682681 0.095450 0.8 0 0
0.356687 0.513640 0.241843 0.8 0 0
0.331570 0.479786 0.104537 0.8 0 0
0.340980 0.877514 0.153394 0.8 0 0
0.415236 0.559374 0.061104 0.8 0 0
0.474796 0.375318 0.141741 0.8 0 0
0.465809 0.399296 0.226968 0.8 0 0
0.410163 0.134335 0.120813 0.8 0 0
0.415646 0.925962 0.203829 0.8 0 0
0.391344 0.527521 0.234956 0.8 0 0
0.397379 0.246991 0.134057 0.8 0 0
0.266081 0.153567 0.148101 0.8 0 0
0.287769 0.052746 0.258288 0.8 0 0
0.368935 0.645891 0.112748 0.8 0 0
0.293620 0.115150 0.130483 0.8 0 0
0.401769 0.756013 0.094936 0.8 0 0
0.289147 0.408503 0.231679 0.8 0 0
0.556756 0.674650 0.135488 0.8 0 0
0.387805 0.714112 0.103453 0.8 0 0
0.316172 0.628504 0.228221 0.8 0 0
0.356194 0.742124 0.101464 0.8 0 0
0.323691 0.598207 0.110970 0.8 0 0
0.339588 0.501915 0.221151 0.8 0 0
0.470576 0.025000 0.191292 0.8 0 0
0.458704 0.601529 0.220662 0.8 0 0
0.482009 0.370359 0.202220 0.8 0 0
0.284738 0.523976 0.127942 0.8 0 0
0.484842 0.363064 0.174688 0.8 0 0
0.055140 0.578740 0.187197 0.8 0 0
0.471675 0.030494 0.186777 0.8 0 0
0.301507 0.558648 0.231189 0.8 0 0
0.304647 0.025000 0.161139 0.8 0 0
0.483498 0.550106 0.086172 0.8 0 0
0.474314 0.538672 0.175352 0.8 0 0
0.401606 0.567865 0.244178 0.8 0 0
0.341911 0.919790 0.142978 0.8 0 0
0.501950 0.578734 0.232596 0.8 0 0
0.367408 0.634280 0.105213 0.8 0 0
0.367442 0.616892 0.028527 0.8 0 0
0.476885 0.233216 0.119013 0.8 0 0
0.399751 0.563270 0.058759 0.8 0 0
0.375317 0.456091 0.142560 0.8 0 0
0.292776 0.053403 0.125497 0.8 0 0
0.387574 0.305250 0.171749 0.8 0 0
0.428580 0.025000 0.162099 0.8 0 0
0.314082 0.025000 0.130040 0.8 0 0
0.448104 0.041665 0.292502 0.8 0 0
0.346560 0.443585 0.122153 0.8 0 0
0.303301 0.505534 0.229825 0.8 0 0
0.374466 0.641939 0.282304 0.8 0 0
0.333954 0.730247 0.114870 0.8 0 0
0.416057 0.878358 0.205592 0.8 0 0
0.287198 0.523536 0.125512 0.8 0 0
0.584112 0.706104 0.177998 0.8 0 0
0.355469 0.895518 0.128431 0.8 0 0
0.448257 0.778311 0.123916 0.8 0 0
0.269673 0.403367 0.205620 0.8 0 0
0.531201 0.665711 0.184021 0.8 0 0
0.335989 0.701908 0.060421 0.8 0 0
0.426538 0.782618 0.121397 0.8 0 0
0.467934 0.531635 0.220975 0.8 0 0
0.454669 0.175330 0.196418 0.8 0 0
0.315931 0.495377 0.106626 0.8 0 0
0.399104 0.277169 0.187503 0.8 0 0
0.408448 0.709036 0.047353 0.8 0 0
0.521860 0.750165 0.175965 0.8 0 0
0.680116 0.616493 0.178324 0.8 0 0
0.425833 0.521179 0.252816 0.8 0 0
0.477607 0.707421 0.217485 0.8 0 0
0.436690 0.327246 0.233692 0.8 0 0
0.383965 0.538406 0.098621 0.8 0 0
0.306540 0.510738 0.111862 0.8 0 0
0.395297 0.526621 0.102289 0.8 0 0
0.464845 0.052422 0.154483 0.8 0 0
0.283428 0.117844 0.121077 0.8 0 0
0.141079 0.645949 0.210815 0.8 0 0
0.484312 0.294723 0.174554 0.8 0 0
0.418997 0.894183 0.162753 0.8 0 0
0.228996 0.720783 0.210092 0.8 0 0
0.103326 0.651772 0.175699 0.8 0 0
0.394982 0.326240 0.204113 0.8 0 0
0.364294 0.540627 0.235430 0.8 0 0
0.352823 0.908931 0.256762 0.8 0 0
0.400599 0.484889 0.224806 0.8 0 0
0.284260 0.030391 0.283676 0.8 0 0
0.294962 0.772102 0.118853 0.8 0 0
0.286899 0.499438 0.127499 0.8 0 0
0.224369 0.668287 0.166719 0.8 0 0
0.353459 0.228449 0.132579 0.8 0 0
0.264414 0.339415 0.172572 0.8 0 0
0.363245 0.527204 0.097669 0.8 0 0
0.224237 0.740705 0.194270 0.8 0 0
0.688749 0.606331 0.201144 0.8 0 0
0.491021 0.774350 0.173219 0.8 0 0
0.309885 0.103684 0.134665 0.8 0 0
0.475805 0.211071 0.184546 0.8 0 0
0.375367 0.776782 0.225019 0.8 0 0
0.415416 0.870581 0.202366 0.8 0 0
0.457889 0.500962 0.123151 0.8 0 0
0.444265 0.676775 0.228195 0.8 0 0
0.392383 0.601617 0.097900 0.8 0 0
0.559510 0.714646 0.160479 0.8 0 0
0.455415 0.563832 0.120939 0.8 0 0
0.315969 0.107470 0.110972 0.8 0 0
0.478332 0.266368 0.140608 0.8 0 0
0.334338 0.732578 0.069970 0.8 0 0
0.394910 0.834585 0.240114 0.8 0 0
0.473560 0.783640 0.176697 0.8 0 0
0.360029 0.379651 0.132303 0.8 0 0
0.408963 0.919306 0.219737 0.8 0 0
0.480109 0.466899 0.166733 0.8 0 0
0.347820 0.180950 0.171017 0.8 0 0
0.404605 0.147547 0.126015 0.8 0 0
0.284508 0.053028 0.225718 0.8 0 0
0.457796 0.293123 0.121046 0.8 0 0
0.712548 0.555949 0.171854 0.8 0 0
0.476488 0.761826 0.122830 0.8 0 0
0.351700 0.843761 0.151023 0.8 0 0
0.353761 0.367839 0.126496 0.8 0 0
0.323322 0.324435 0.113530 0.8 0 0
0.266071 0.439457 0.179894 0.8 0 0
0.285673 0.436594 0.127183 0.8 0 0
0.355938 0.744024 0.101358 0.8 0 0
0.706628 0.587683 0.186708 0.8 0 0
0.623589 0.638748 0.146373 0.8 0 0
0.115148 0.624738 0.191868 0.8 0 0
0.473564 0.565668 0.178402 0.8 0 0
0.273384 0.043980 0.227618 0.8 0 0
0.120014 0.659495 0.199739 0.8 0 0
0.558585 0.665884 0.135412 0.8 0 0
0.370989 0.404259 0.167574 0.8 0 0
0.317364 0.538384 0.112564 0.8 0 0
0.316478 0.269297 0.217681 0.8 0 0
0.279469 0.232287 0.194127 0.8 0 0
0.420039 0.109940 0.185712 0.8 0 0
0.346654 0.514315 0.240251 0.8 0 0
0.376337 0.663667 0.105879 0.8 0 0
0.415399 0.790476 0.184952 0.8 0 0
0.597431 0.672945 0.208289 0.8 0 0
0.407765 0.313806 0.218765 0.8 0 0
0.477050 0.522922 0.187946 0.8 0 0
0.307122 0.545428 0.233857 0.8 0 0
0.396189 0.240050 0.174708 0.8 0 0
0.344216 0.201581 0.110633 0.8 0 0
0.268616 0.774926 0.141442 0.8 0 0
0.354905 0.967834 0.185356 0.8 0 0
0.317465 0.589704 0.235880 0.8 0 0
0.466279 0.608519 0.200589 0.8 0 0
0.396164 0.356755 0.124733 0.8 0 0
0.496655 0.568793 0.094385 0.8 0 0
0.377074 0.597819 0.100607 0.8 0 0
0.346412 0.449832 0.117647 0.8 0 0
0.115933 0.656260 0.160152 0.8 0 0
0.398139 0.184051 0.168577 0.8 0 0
0.269435 0.306105 0.198156 0.8 0 0
0.434556 0.522455 0.109044 0.8 0 0
0.266816 0.670925 0.169086 0.8 0 0
0.405030 0.524316 0.232121 0.8 0 0
0.349976 0.750034 0.112810 0.8 0 0
0.333954 0.731608 0.098033 0.8 0 0
0.396167 0.591019 0.049244 0.8 0 0
0.417065 0.303752 0.221284 0.8 0 0
0.396567 0.669608 0.112340 0.8 0 0
0.321083 0.025000 0.199326 0.8 0 0
0.387511 0.664641 0.103574 0.8 0 0
0.435119 0.069686 0.200257 0.8 0 0
0.339738 0.351866 0.116353 0.8 0 0
0.499605 0.562084 0.175679 0.8 0 0
0.367015 0.471852 0.184774 0.8 0 0
0.361785 0.907825 0.130395 0.8 0 0
0.407635 0.591210 0.278894 0.8 0 0
0.341366 0.951015 0.193315 0.8 0 0
0.414761 0.789589 0.188713 0.8 0 0
0.270535 0.144467 0.167277 0.8 0 0
0.367585 0.341315 0.163132 0.8 0 0
0.469606 0.043854 0.181741 0.8 0 0
0.391148 0.403789 0.130104 0.8 0 0
0.721182 0.550866 0.207639 0.8 0 0
0.334292 0.103541 0.179235 0.8 0 0
0.299886 0.025000 0.292892 0.8 0 0
0.404484 0.835341 0.206602 0.8 0 0
0.440637 0.289636 0.221955 0.8 0 0
0.447283 0.556690 0.118096 0.8 0 0
0.444434 0.268478 0.115620 0.8 0 0
0.687226 0.608105 0.172439 0.8 0 0
0.376527 0.392407 0.190545 0.8 0 0
0.581108 0.680903 0.209658 0.8 0 0
0.371166 0.710956 0.245452 0.8 0 0
0.639947 0.617541 0.146200 0.8 0 0
0.482065 0.277509 0.181186 0.8 0 0
0.225690 0.702572 0.127562 0.8 0 0
0.409329 0.757659 0.113272 0.8 0 0
0.346335 0.705216 0.110288 0.8 0 0
0.453927 0.057810 0.233973 0.8 0 0
0.366701 0.901241 0.269344 0.8 0 0
0.289043 0.044795 0.284309 0.8 0 0
0.419136 0.288524 0.119396 0.8 0 0
0.479440 0.448935 0.189094 0.8 0 0
0.472885 0.634296 0.178429 0.8 0 0
0.341695 0.845924 0.190916 0.8 0 0
0.261384 0.776120 0.173147 0.8 0 0
0.399172 0.409327 0.228697 0.8 0 0
0.464646 0.686649 0.120978 0.8 0 0
0.512142 0.555110 0.140198 0.8 0 0
0.397309 0.196119 0.118827 0.8 0 0
0.278450 0.493610 0.139533 0.8 0 0
0.397853 0.886244 0.146636 0.8 0 0
0.355230 0.539552 0.239184 0.8 0 0
0.475183 0.785797 0.166460 0.8 0 0
0.232455 0.753829 0.167068 0.8 0 0
0.168133 0.653938 0.144407 0.8 0 0
0.305388 0.025000 0.256473 0.8 0 0
0.393927 0.271454 0.164650 0.8 0 0
0.405108 0.102617 0.150000 0.8 0 0
0.357802 0.783749 0.129537 0.8 0 0
0.465930 0.052984 0.207702 0.8 0 0
0.276227 0.562722 0.166316 0.8 0 0
0.425589 0.109739 0.127350 0.8 0 0
0.456588 0.647588 0.216430 0.8 0 0
0.404132 0.871478 0.116889 0.8 0 0
0.379945 0.678782 0.246554 0.8 0 0
0.421138 0.903686 0.180677 0.8 0 0
0.354770 0.274431 0.165291 0.8 0 0
0.464822 0.555911 0.142053 0.8 0 0
0.369638 0.668180 0.301480 0.8 0 0
0.345596 0.105483 0.152913 0.8 0 0
0.320139 0.546988 0.242928 0.8 0 0
0.646270 0.646755 0.186824 0.8 0 0
0.473558 0.558975 0.170055 0.8 0 0
0.385256 0.766685 0.103881 0.8 0 0
0.378720 0.752778 0.303168 0.8 0 0
0.481209 0.447078 0.168533 0.8 0 0
0.427325 0.732167 0.236258 0.8 0 0
0.363160 0.519920 0.240363 0.8 0 0
0.155684 0.635272 0.180845 0.8 0 0
0.381670 0.715871 0.247168 0.8 0 0
0.459908 0.076413 0.136696 0.8 0 0
0.333450 0.431862 0.116183 0.8 0 0
0.284345 0.746969 0.221906 0.8 0 0
0.410913 0.863042 0.167786 0.8 0 0
0.334716 0.925828 0.161730 0.8 0 0
0.391885 0.320583 0.144870 0.8 0 0
0.379972 0.612180 0.288661 0.8 0 0
0.400848 0.839459 0.152512 0.8 0 0
0.344984 0.408887 0.122192 0.8 0 0
0.273579 0.186288 0.114070 0.8 0 0
0.271323 0.666737 0.192490 0.8 0 0
0.347290 0.515911 0.242626 0.8 0 0
0.433765 0.200457 0.203053 0.8 0 0
0.342567 0.837626 0.167845 0.8 0 0
0.406634 0.845103 0.186266 0.8 0 0
0.355568 0.264565 0.159928 0.8 0 0
0.364665 0.334079 0.158149 0.8 0 0
0.282897 0.025000 0.182295 0.8 0 0
0.275773 0.159750 0.115919 0.8 0 0
0.334829 0.104096 0.170668 0.8 0 0
0.274254 0.428530 0.209767 0.8 0 0
0.412207 0.105441 0.177932 0.8 0 0
0.372576 0.878141 0.252241 0.8 0 0
0.323025 0.372745 0.113377 0.8 0 0
0.384346 0.712814 0.104824 0.8 0 0
0.094687 0.647344 0.191094 0.8 0 0
0.419247 0.375363 0.239478 0.8 0 0
0.710126 0.572954 0.183941 0.8 0 0
0.473040 0.260406 0.125893 0.8 0 0
0.407552 0.866661 0.154929 0.8 0 0
0.326650 0.543306 0.242381 0.8 0 0
0.118362 0.613559 0.179620 0.8 0 0
0.354677 0.739834 0.237809 0.8 0 0
0.272736 0.349685 0.215984 0.8 0 0
0.474830 0.437247 0.204394 0.8 0 0
0.702663 0.564718 0.174854 0.8 0 0
0.474905 0.372091 0.140964 0.8 0 0
0.458575 0.777923 0.126156 0.8 0 0
0.310497 0.665053 0.228684 0.8 0 0
0.450055 0.054439 0.121697 0.8 0 0
0.333510 0.893762 0.213628 0.8 0 0
0.339714 0.499025 0.219527 0.8 0 0
0.466192 0.049058 0.176523 0.8 0 0
0.398815 0.349570 0.121289 0.8 0 0
0.353508 0.487270 0.232884 0.8 0 0
0.353235 0.742220 0.034049 0.8 0 0
0.297322 0.059851 0.124205 0.8 0 0
0.447441 0.406128 0.238821 0.8 0 0
0.335319 0.930094 0.171777 0.8 0 0
0.040417 0.560092 0.201293 0.8 0 0
0.150566 0.653584 0.145586 0.8 0 0
0.414846 0.720156 0.117662 0.8 0 0
0.106446 0.646487 0.183928 0.8 0 0
0.045458 0.564566 0.199398 0.8 0 0
0.371910 0.646844 0.283862 0.8 0 0
0.404579 0.889259 0.137080 0.8 0 0
0.322452 0.025000 0.217191 0.8 0 0
0.339091 0.731222 0.240666 0.8 0 0
0.473615 0.526660 0.160217 0.8 0 0
0.389559 0.817385 0.236207 0.8 0 0
0.208007 0.701544 0.133777 0.8 0 0
0.634077 0.638168 0.199582 0.8 0 0
0.273065 0.722713 0.111817 0.8 0 0
0.463705 0.613406 0.211755 0.8 0 0
0.401208 0.789764 0.196214 0.8 0 0
0.399932 0.595567 0.282829 0.8 0 0
0.270211 0.768659 0.197860 0.8 0 0
0.477664 0.668403 0.193089 0.8 0 0
0.291153 0.432007 0.122883 0.8 0 0
0.356549 0.341530 0.130295 0.8 0 0
0.410275 0.928251 0.193264 0.8 0 0
0.342193 0.837973 0.163889 0.8 0 0
0.398326 0.166544 0.129178 0.8 0 0
0.378875 0.904694 0.262062 0.8 0 0
0.364456 0.411594 0.214106 0.8 0 0
0.409909 0.773263 0.219187 0.8 0 0
0.472494 0.535959 0.189321 0.8 0 0
0.367213 0.811854 0.220327 0.8 0 0
0.392190 0.504334 0.220286 0.8 0 0
0.470609 0.521679 0.204177 0.8 0 0
0.343962 0.734063 0.091147 0.8 0 0
0.457552 0.580069 0.256398 0.8 0 0
0.138034 0.634798 0.200717 0.8 0 0
0.608292 0.620003 0.146898 0.8 0 0
0.279821 0.455041 0.222718 0.8 0 0
0.405884 0.667253 0.089784 0.8 0 0
0.412690 0.609409 0.067962 0.8 0 0
0.390062 0.589119 0.108712 0.8 0 0
0.323545 0.034096 0.123239 0.8 0 0
0.474045 0.313795 0.138873 0.8 0 0
0.289208 0.555553 0.143039 0.8 0 0
0.438649 0.200495 0.205011 0.8 0 0
0.499273 0.679807 0.176397 0.8 0 0
0.336738 0.870542 0.117505 0.8 0 0
0.434742 0.586488 0.112997 0.8 0 0
0.507841 0.724830 0.212581 0.8 0 0
0.335159 0.893185 0.151344 0.8 0 0
0.474054 0.025000 0.257373 0.8 0 0
0.289015 0.444315 0.230647 0.8 0 0
0.595634 0.664341 0.210534 0.8 0 0
0.234572 0.680803 0.204184 0.8 0 0
0.352431 0.787643 0.210216 0.8 0 0
0.306739 0.536434 0.113789 0.8 0 0
0.252638 0.743977 0.123749 0.8 0 0
0.418940 0.890765 0.165375 0.8 0 0
0.399380 0.604007 0.093933 0.8 0 0
0.354947 0.618495 0.111235 0.8 0 0
0.616740 0.620565 0.189828 0.8 0 0
0.475552 0.521241 0.184319 0.8 0 0
0.333205 0.910070 0.191192 0.8 0 0
0.412812 0.211836 0.107483 0.8 0 0
0.343481 0.946958 0.162601 0.8 0 0
0.273384 0.181973 0.180774 0.8 0 0
0.472948 0.541234 0.175062 0.8 0 0
0.076291 0.594595 0.219642 0.8 0 0
0.267081 0.307381 0.193790 0.8 0 0
0.376770 0.648671 0.282083 0.8 0 0
0.403886 0.503044 0.236655 0.8 0 0
0.409823 0.178779 0.105776 0.8 0 0
0.165952 0.641755 0.160702 0.8 0 0
0.342470 0.847898 0.172778 0.8 0 0
0.419577 0.045904 0.231304 0.8 0 0
0.682477 0.561185 0.224962 0.8 0 0
0.412929 0.350001 0.230104 0.8 0 0
0.536522 0.738713 0.174335 0.8 0 0
0.371002 0.413421 0.148421 0.8 0 0
0.348128 0.944938 0.150319 0.8 0 0
0.360608 0.573133 0.102707 0.8 0 0
0.208780 0.719565 0.144824 0.8 0 0
0.351345 0.215663 0.122314 0.8 0 0
0.429121 0.040670 0.291055 0.8 0 0
0.469598 0.547726 0.164715 0.8 0 0
0.479488 0.141716 0.139457 0.8 0 0
0.366386 0.822093 0.270552 0.8 0 0
0.475550 0.341321 0.215237 0.8 0 0
0.671343 0.612168 0.164478 0.8 0 0
0.432550 0.565697 0.120240 0.8 0 0
0.110980 0.647678 0.174542 0.8 0 0
0.394504 0.280716 0.176404 0.8 0 0
0.316067 0.115726 0.109126 0.8 0 0
0.412522 0.902958 0.231172 0.8 0 0
0.412513 0.899266 0.167092 0.8 0 0
0.341522 0.661915 0.087967 0.8 0 0
0.493883 0.772246 0.166542 0.8 0 0
0.304853 0.525955 0.234339 0.8 0 0
0.356529 0.462076 0.217862 0.8 0 0
0.281535 0.378578 0.226095 0.8 0 0
0.373443 0.471314 0.183778 0.8 0 0
0.378658 0.431134 0.210688 0.8 0 0
0.241665 0.757971 0.155629 0.8 0 0
0.266054 0.146021 0.154277 0.8 0 0
0.441110 0.564088 0.111302 0.8 0 0
0.262614 0.205816 0.139294 0.8 0 0
0.309984 0.128590 0.107500 0.8 0 0
0.384233 0.964263 0.230249 0.8 0 0
0.309491 0.451944 0.240061 0.8 0 0
0.549237 0.718013 0.153127 0.8 0 0
0.463733 0.547793 0.219430 0.8 0 0
0.489708 0.585586 0.217972 0.8 0 0
0.455871 0.035366 0.289810 0.8 0 0
0.376358 0.367762 0.168868 0.8 0 0
0.400386 0.895790 0.250811 0.8 0 0
0.340417 0.130482 0.174094 0.8 0 0
0.416127 0.566849 0.054787 0.8 0 0
0.419945 0.457109 0.111086 0.8 0 0
0.443709 0.514171 0.112188 0.8 0 0
0.277120 0.692644 0.120911 0.8 0 0
0.297024 0.624448 0.124565 0.8 0 0
0.416899 0.909403 0.211324 0.8 0 0
0.314433 0.540815 0.242368 0.8 0 0
0.412711 0.357852 0.231557 0.8 0 0
0.377659 0.440011 0.154776 0.8 0 0
0.701997 0.593738 0.176639 0.8 0 0
0.328832 0.796992 0.151961 0.8 0 0
0.326200 0.336963 0.233828 0.8 0 0
0.348252 0.937294 0.146819 0.8 0 0
0.565669 0.716801 0.186567 0.8 0 0
0.410724 0.269365 0.203700 0.8 0 0
0.121496 0.655747 0.208918 0.8 0 0
0.442130 0.577850 0.114548 0.8 0 0
0.039036 0.565012 0.201722 0.8 0 0
0.427723 0.153819 0.104180 0.8 0 0
0.395367 0.165868 0.156097 0.8 0 0
0.365290 0.575021 0.071206 0.8 0 0
0.592209 0.689611 0.199744 0.8 0 0
0.241376 0.699065 0.123028 0.8 0 0
0.480997 0.133402 0.159019 0.8 0 0
0.375496 0.829023 0.287530 0.8 0 0
0.302491 0.548790 0.233361 0.8 0 0
0.437303 0.571561 0.124620 0.8 0 0
0.442300 0.784199 0.187771 0.8 0 0
0.307292 0.025000 0.207436 0.8 0 0
0.446891 0.055257 0.270368 0.8 0 0
0.356859 0.789607 0.129564 0.8 0 0
0.503886 0.681025 0.144358 0.8 0 0
0.439843 0.163765 0.200069 0.8 0 0
0.380172 0.921696 0.259329 0.8 0 0
0.314560 0.628957 0.116556 0.8 0 0
0.573816 0.702538 0.200300 0.8 0 0
0.365081 0.365581 0.138992 0.8 0 0
0.294611 0.104739 0.156578 0.8 0 0
0.480507 0.471800 0.190260 0.8 0 0
0.300530 0.734282 0.108726 0.8 0 0
0.360473 0.323684 0.151045 0.8 0 0
0.365745 0.472024 0.218083 0.8 0 0
0.269210 0.147571 0.133950 0.8 0 0
0.372216 0.947467 0.143067 0.8 0 0
0.396416 0.961770 0.170804 0.8 0 0
0.415880 0.604739 0.267243 0.8 0 0
0.378458 0.386041 0.155363 0.8 0 0
0.630350 0.653061 0.163846 0.8 0 0
0.423433 0.751530 0.228487 0.8 0 0
0.348692 0.611254 0.038226 0.8 0 0
0.408257 0.915042 0.234150 0.8 0 0
0.406138 0.568656 0.054998 0.8 0 0
0.719020 0.561110 0.199812 0.8 0 0
0.398330 0.573666 0.244040 0.8 0 0
0.310740 0.535214 0.240595 0.8 0 0
0.263911 0.372466 0.185742 0.8 0 0
0.323281 0.645051 0.234892 0.8 0 0
0.459540 0.620786 0.215360 0.8 0 0
0.474495 0.516095 0.159630 0.8 0 0
0.291408 0.280580 0.214881 0.8 0 0
0.378665 0.564871 0.060598 0.8 0 0
0.451692 0.099550 0.127585 0.8 0 0
0.306178 0.583673 0.228604 0.8 0 0
0.271543 0.043768 0.255951 0.8 0 0
0.475906 0.452080 0.205608 0.8 0 0
0.410046 0.685540 0.051212 0.8 0 0
0.615311 0.642189 0.144592 0.8 0 0
0.637460 0.603725 0.190058 0.8 0 0
0.420079 0.039227 0.260263 0.8 0 0
0.401989 0.532979 0.102073 0.8 0 0
0.465668 0.761271 0.114253 0.8 0 0
0.627240 0.614117 0.171551 0.8 0 0
0.337621 0.058174 0.145638 0.8 0 0
0.351312 0.771575 0.223330 0.8 0 0
0.375875 0.458347 0.133709 0.8 0 0
0.352649 0.790100 0.058324 0.8 0 0
0.696832 0.581234 0.182954 0.8 0 0
0.598919 0.648568 0.140931 0.8 0 0
0.415338 0.743308 0.110184 0.8 0 0
0.468223 0.550528 0.209169 0.8 0 0
0.315703 0.125104 0.106767 0.8 0 0
0.543147 0.727322 0.194448 0.8 0 0
0.280506 0.049906 0.212472 0.8 0 0
0.483497 0.219206 0.174370 0.8 0 0
0.330206 0.100504 0.121772 0.8 0 0
0.474361 0.036717 0.273831 0.8 0 0
0.478287 0.515041 0.188281 0.8 0 0
0.386452 0.929849 0.254126 0.8 0 0
0.482307 0.143676 0.152013 0.8 0 0
0.451322 0.684745 0.224814 0.8 0 0
0.482278 0.724066 0.219543 0.8 0 0
0.477405 0.395656 0.211908 0.8 0 0
0.419441 0.114047 0.185267 0.8 0 0
0.379689 0.533970 0.095118 0.8 0 0
0.373230 0.388748 0.174191 0.8 0 0
0.365808 0.732383 0.244494 0.8 0 0
0.127456 0.641338 0.201285 0.8 0 0
0.080853 0.615712 0.208002 0.8 0 0
0.344481 0.913975 0.241770 0.8 0 0
0.406931 0.928690 0.235957 0.8 0 0
0.083390 0.595593 0.183453 0.8 0 0
0.619204 0.667815 0.197799 0.8 0 0
0.484960 0.256817 0.145926 0.8 0 0
0.352326 0.289070 0.137963 0.8 0 0
0.342985 0.791299 0.201661 0.8 0 0
0.437419 0.584388 0.260014 0.8 0 0
0.382821 0.619470 0.296702 0.8 0 0
0.386145 0.888765 0.250894 0.8 0 0
0.407772 0.770982 0.222425 0.8 0 0
0.392946 0.928945 0.235505 0.8 0 0
0.473581 0.565674 0.178327 0.8 0 0
0.483021 0.222223 0.125712 0.8 0 0
0.470060 0.560402 0.195949 0.8 0 0
0.413776 0.103511 0.142036 0.8 0 0
0.330560 0.032917 0.192940 0.8 0 0
0.393821 0.898544 0.143168 0.8 0 0
0.339097 0.604195 0.238735 0.8 0 0
0.622989 0.619423 0.208166 0.8 0 0
0.454117 0.502424 0.227147 0.8 0 0
0.339432 0.760758 0.049578 0.8 0 0
0.263938 0.332171 0.176312 0.8 0 0
0.376465 0.669321 0.027883 0.8 0 0
0.640569 0.641060 0.200088 0.8 0 0
0.288685 0.249201 0.204478 0.8 0 0
0.535511 0.732954 0.192992 0.8 0 0
0.395790 0.524555 0.245005 0.8 0 0
0.364155 0.854543 0.091971 0.8 0 0
0.404963 0.772890 0.221931 0.8 0 0
0.477911 0.402788 0.208624 0.8 0 0
0.375659 0.450494 0.204656 0.8 0 0
0.433944 0.179984 0.096347 0.8 0 0
0.456604 0.789998 0.172577 0.8 0 0
0.370635 0.830121 0.262093 0.8 0 0
0.334062 0.557915 0.101044 0.8 0 0
0.362481 0.742630 0.230073 0.8 0 0
0.275403 0.513813 0.152228 0.8 0 0
0.362351 0.521006 0.237719 0.8 0 0
0.351162 0.319997 0.128643 0.8 0 0
0.329318 0.149482 0.110002 0.8 0 0
0.485220 0.265319 0.167293 0.8 0 0
0.347948 0.152520 0.141021 0.8 0 0
0.302341 0.055126 0.271816 0.8 0 0
0.359062 0.210191 0.157073 0.8 0 0
0.324607 0.410998 0.115679 0.8 0 0
0.045666 0.567933 0.186785 0.8 0 0
0.270995 0.144304 0.128392 0.8 0 0
0.126340 0.674141 0.180707 0.8 0 0
0.407692 0.896568 0.235376 0.8 0 0
0.333167 0.727817 0.062009 0.8 0 0
0.634887 0.618585 0.147480 0.8 0 0
0.431023 0.893657 0.203326 0.8 0 0
0.459936 0.501507 0.225011 0.8 0 0
0.380340 0.424030 0.184089 0.8 0 0
0.467679 0.035403 0.159954 0.8 0 0
0.388533 0.368193 0.135179 0.8 0 0
0.482719 0.426441 0.170943 0.8 0 0
0.430122 0.105989 0.181333 0.8 0 0
0.420498 0.467708 0.108070 0.8 0 0
0.305868 0.110290 0.196170 0.8 0 0
0.402758 0.304221 0.209649 0.8 0 0
0.102289 0.650879 0.175838 0.8 0 0
0.383240 0.877836 0.142226 0.8 0 0
0.322699 0.168681 0.192996 0.8 0 0
0.372482 0.491462 0.198603 0.8 0 0
0.414275 0.144026 0.114916 0.8 0 0
0.411060 0.914710 0.173911 0.8 0 0
0.411026 0.623940 0.053577 0.8 0 0
0.096901 0.602503 0.194709 0.8 0 0
0.231387 0.674954 0.191433 0.8 0 0
0.408865 0.801876 0.169814 0.8 0 0
0.305291 0.791401 0.171264 0.8 0 0
0.483362 0.331915 0.159297 0.8 0 0
0.705306 0.565246 0.183006 0.8 0 0
0.304953 0.744499 0.225056 0.8 0 0
0.384267 0.424433 0.218001 0.8 0 0
0.313117 0.506713 0.244165 0.8 0 0
0.439211 0.591458 0.254832 0.8 0 0
0.474537 0.123486 0.132146 0.8 0 0
0.318138 0.604424 0.113845 0.8 0 0
0.409293 0.910262 0.164074 0.8 0 0
0.452236 0.742082 0.109028 0.8 0 0
0.466836 0.771981 0.203169 0.8 0 0
0.667131 0.628935 0.178921 0.8 0 0
0.467032 0.777354 0.194623 0.8 0 0
0.383990 0.749406 0.235681 0.8 0 0
0.352500 0.951386 0.194319 0.8 0 0
0.413428 0.900697 0.254688 0.8 0 0
0.422259 0.797748 0.161218 0.8 0 0
0.471969 0.697392 0.122321 0.8 0 0
0.337089 0.181389 0.104190 0.8 0 0
0.455927 0.447274 0.232656 0.8 0 0
0.333115 0.923737 0.165321 0.8 0 0
0.337745 0.104827 0.155307 0.8 0 0
0.481441 0.420867 0.191002 0.8 0 0
0.344829 0.952707 0.213537 0.8 0 0
0.462676 0.551107 0.130934 0.8 0 0
0.400205 0.133841 0.146912 0.8 0 0
0.261017 0.192643 0.150903 0.8 0 0
0.430664 0.423138 0.116204 0.8 0 0
0.458779 0.105548 0.174469 0.8 0 0
0.263174 0.704901 0.216102 0.8 0 0
0.402794 0.593113 0.277523 0.8 0 0
0.372366 0.452606 0.149846 0.8 0 0
0.452014 0.624929 0.219043 0.8 0 0
0.298347 0.519049 0.233956 0.8 0 0
0.383473 0.728316 0.026194 0.8 0 0
0.300319 0.540343 0.220397 0.8 0 0
0.388359 0.694443 0.030522 0.8 0 0
0.377804 0.545071 0.096259 0.8 0 0
0.367483 0.780288 0.285424 0.8 0 0
0.386357 0.970979 0.214657 0.8 0 0
0.406741 0.865252 0.153931 0.8 0 0
0.494932 0.693932 0.207905 0.8 0 0
0.367079 0.637763 0.105170 0.8 0 0
0.413325 0.418824 0.116851 0.8 0 0
0.352957 0.882794 0.127061 0.8 0 0
0.330912 0.134785 0.183678 0.8 0 0
0.469863 0.529617 0.136541 0.8 0 0
0.308031 0.779472 0.124964 0.8 0 0
0.377518 0.803425 0.300461 0.8 0 0
0.405631 0.335374 0.222261 0.8 0 0
0.435534 0.414223 0.240936 0.8 0 0
0.269423 0.209799 0.179699 0.8 0 0
0.460662 0.025000 0.282740 0.8 0 0
0.371420 0.593128 0.096557 0.8 0 0
0.346742 0.680842 0.039031 0.8 0 0
0.359345 0.693358 0.030977 0.8 0 0
0.388342 0.669374 0.030515 0.8 0 0
0.678915 0.610505 0.167423 0.8 0 0
0.371500 0.451044 0.165033 0.8 0 0
0.396570 0.249990 0.176220 0.8 0 0
0.326033 0.870904 0.120512 0.8 0 0
0.465855 0.262764 0.200742 0.8 0 0
0.393222 0.322406 0.199590 0.8 0 0
0.275682 0.459115 0.214388 0.8 0 0
0.282946 0.406957 0.129341 0.8 0 0
0.388504 0.607065 0.291394 0.8 0 0
0.473326 0.681116 0.125248 0.8 0 0
0.360065 0.394186 0.133708 0.8 0 0
0.495582 0.570335 0.186873 0.8 0 0
0.378080 0.436079 0.211308 0.8 0 0
0.347063 0.181654 0.172547 0.8 0 0
0.470661 0.559993 0.193511 0.8 0 0
0.435773 0.571566 0.123642 0.8 0 0
0.491685 0.724409 0.119570 0.8 0 0
0.407537 0.660236 0.087630 0.8 0 0
0.341952 0.816149 0.165470 0.8 0 0
0.467017 0.038542 0.154135 0.8 0 0
0.271942 0.783648 0.169586 0.8 0 0
0.362950 0.820873 0.255004 0.8 0 0
0.317748 0.892146 0.194053 0.8 0 0
0.405846 0.161736 0.173328 0.8 0 0
0.387012 0.750938 0.029964 0.8 0 0
0.386338 0.593279 0.241957 0.8 0 0
0.349347 0.363009 0.221344 0.8 0 0
0.314809 0.133794 0.196860 0.8 0 0
0.281972 0.149570 0.113100 0.8 0 0
0.320261 0.360674 0.238366 0.8 0 0
0.381804 0.718875 0.025975 0.8 0 0
0.350783 0.656226 0.240787 0.8 0 0
0.348658 0.899023 0.265609 0.8 0 0
0.298913 0.732937 0.229543 0.8 0 0
0.279356 0.525859 0.149209 0.8 0 0
0.416595 0.113575 0.138277 0.8 0 0
0.289220 0.536251 0.135845 0.8 0 0
0.315419 0.614763 0.115557 0.8 0 0
0.361572 0.497305 0.221793 0.8 0 0
0.354967 0.617322 0.100956 0.8 0 0
0.418652 0.039620 0.218023 0.8 0 0
0.333584 0.924263 0.172243 0.8 0 0
0.136063 0.640247 0.208843 0.8 0 0
0.298529 0.025000 0.167413 0.8 0 0
0.267989 0.427329 0.191416 0.8 0 0
0.409611 0.908919 0.233231 0.8 0 0
0.404692 0.842442 0.236570 0.8 0 0
0.363951 0.478431 0.183657 0.8 0 0
0.371375 0.773869 0.218836 0.8 0 0
0.346249 0.480376 0.220687 0.8 0 0
0.383375 0.872889 0.115835 0.8 0 0
0.611130 0.622774 0.176483 0.8 0 0
0.401566 0.104811 0.158828 0.8 0 0
0.292367 0.715326 0.228371 0.8 0 0
0.410614 0.941430 0.183854 0.8 0 0
0.475522 0.543465 0.173297 0.8 0 0
0.423586 0.568090 0.074472 0.8 0 0
0.332492 0.932513 0.187290 0.8 0 0
0.385605 0.452982 0.176000 0.8 0 0
0.377051 0.915821 0.130496 0.8 0 0
0.276328 0.287877 0.204090 0.8 0 0
0.285997 0.025000 0.266799 0.8 0 0
0.482089 0.426692 0.166868 0.8 0 0
0.418337 0.922845 0.181959 0.8 0 0
0.370497 0.733110 0.028125 0.8 0 0
0.300722 0.025000 0.262911 0.8 0 0
0.415447 0.885125 0.233250 0.8 0 0
0.228615 0.678881 0.137209 0.8 0 0
0.164726 0.639834 0.164206 0.8 0 0
0.367095 0.901980 0.267769 0.8 0 0
0.470031 0.025000 0.210131 0.8 0 0
0.101367 0.646697 0.202101 0.8 0 0
0.438330 0.684665 0.232108 0.8 0 0
0.388468 0.408226 0.132505 0.8 0 0
0.298539 0.526281 0.232838 0.8 0 0
0.427218 0.337327 0.112055 0.8 0 0
0.397522 0.224351 0.125240 0.8 0 0
0.405356 0.839502 0.183981 0.8 0 0
0.437928 0.421532 0.115259 0.8 0 0
0.456285 0.448393 0.120566 0.8 0 0
0.306663 0.521711 0.113600 0.8 0 0
0.465812 0.551588 0.133810 0.8 0 0
0.343506 0.541839 0.100933 0.8 0 0
0.483102 0.718932 0.219870 0.8 0 0
0.570845 0.665201 0.136611 0.8 0 0
0.430797 0.897690 0.227432 0.8 0 0
0.294768 0.739174 0.107119 0.8 0 0
0.289554 0.098172 0.134923 0.8 0 0
0.273900 0.512453 0.158882 0.8 0 0
0.674229 0.579906 0.212397 0.8 0 0
0.418607 0.039198 0.207652 0.8 0 0
0.412864 0.702641 0.060814 0.8 0 0
0.545515 0.673193 0.134297 0.8 0 0
0.431474 0.025000 0.279516 0.8 0 0
0.296261 0.322103 0.119442 0.8 0 0
0.355789 0.770934 0.216270 0.8 0 0
0.621918 0.662645 0.164300 0.8 0 0
0.170547 0.649485 0.204142 0.8 0 0
0.395838 0.913632 0.134535 0.8 0 0
0.340721 0.927832 0.180024 0.8 0 0
0.363750 0.328953 0.181603 0.8 0 0
0.373355 0.521725 0.235969 0.8 0 0
0.344546 0.861233 0.153334 0.8 0 0
0.488458 0.238381 0.147989 0.8 0 0
0.376256 0.928022 0.131420 0.8 0 0
0.361397 0.454613 0.185523 0.8 0 0
0.638858 0.601719 0.162466 0.8 0 0
0.368840 0.964269 0.234583 0.8 0 0
0.381427 0.503349 0.210284 0.8 0 0
0.460148 0.558672 0.230901 0.8 0 0
