0.407884 0.330628 0.132712 0.8 0 0
0.490091 0.404927 0.028371 0.8 0 0
0.355091 0.778038 0.082931 0.8 0 0
0.736075 0.773082 0.098290 0.8 0 0
0.402881 0.245753 0.086911 0.8 0 0
0.444504 0.252984 0.117727 0.8 0 0
0.533167 0.693178 0.086426 0.8 0 0
0.542625 0.461355 0.161447 0.8 0 0
0.389066 0.514581 0.107414 0.8 0 0
0.546360 0.028849 0.192043 0.8 0 0
0.446927 0.901569 0.159175 0.8 0 0
0.224455 0.771498 0.108614 0.8 0 0
0.539278 0.477135 0.050413 0.8 0 0
0.439963 0.311353 0.085185 0.8 0 0
0.478745 0.448749 0.033282 0.8 0 0
0.516283 0.126612 0.094382 0.8 0 0
0.385283 0.787955 0.130292 0.8 0 0
0.546770 0.680078 0.128453 0.8 0 0
0.430939 0.375402 0.151115 0.8 0 0
0.512907 0.233041 0.114148 0.8 0 0
0.387880 0.816942 0.093688 0.8 0 0
0.375362 0.492763 0.131815 0.8 0 0
0.447980 0.949385 0.087240 0.8 0 0
0.562662 0.537163 0.100276 0.8 0 0
0.471445 0.600202 0.192307 0.8 0 0
0.451923 0.587420 0.186157 0.8 0 0
0.555365 0.530380 0.140813 0.8 0 0
0.477850 0.974778 0.127662 0.8 0 0
0.416209 0.757505 0.180287 0.8 0 0
0.353717 0.772883 0.107627 0.8 0 0
0.456328 0.697036 0.067996 0.8 0 0
0.512497 0.410728 0.032808 0.8 0 0
0.444728 0.424097 0.178880 0.8 0 0
0.397874 0.726256 0.118710 0.8 0 0
0.499839 0.947890 0.079412 0.8 0 0
0.539312 0.605552 0.170198 0.8 0 0
0.446335 0.490385 0.171197 0.8 0 0
0.543759 0.760325 0.069272 0.8 0 0
0.504578 0.964404 0.135316 0.8 0 0
0.417945 0.399787 0.175167 0.8 0 0
0.511131 0.796203 0.139705 0.8 0 0
0.390919 0.516043 0.127118 0.8 0 0
0.465628 0.893005 0.077797 0.8 0 0
0.461137 0.341391 0.108444 0.8 0 0
0.440653 0.779731 0.061580 0.8 0 0
0.518659 0.286423 0.085469 0.8 0 0
0.440989 0.065151 0.112424 0.8 0 0
0.521936 0.035095 0.144557 0.8 0 0
0.518643 0.828660 0.090617 0.8 0 0
0.421254 0.025170 0.099822 0.8 0 0
0.564830 0.388235 0.116139 0.8 0 0
0.516528 0.440264 0.037500 0.8 0 0
0.439101 0.910250 0.127925 0.8 0 0
0.221517 0.784281 0.121850 0.8 0 0
0.406490 0.736806 0.154057 0.8 0 0
0.917002 0.781388 0.128679 0.8 0 0
0.475367 0.507422 0.039700 0.8 0 0
0.495622 0.861044 0.146610 0.8 0 0
0.427671 0.039365 0.183155 0.8 0 0
0.451629 0.804713 0.136083 0.8 0 0
0.541776 0.730445 0.072586 0.8 0 0
0.414954 0.285769 0.088009 0.8 0 0
0.556629 0.761930 0.154600 0.8 0 0
0.394950 0.489294 0.152049 0.8 0 0
0.511919 0.701983 0.175233 0.8 0 0
0.587297 0.805112 0.127027 0.8 0 0
0.561823 0.489620 0.138659 0.8 0 0
0.429816 0.238047 0.072450 0.8 0 0
0.578419 0.497107 0.094963 0.8 0 0
0.460192 0.458231 0.086026 0.8 0 0
0.376975 0.549513 0.121730 0.8 0 0
0.424441 0.757510 0.065916 0.8 0 0
0.465830 0.769997 0.063752 0.8 0 0
0.549405 0.036673 0.173672 0.8 0 0
0.438663 0.809609 0.127971 0.8 0 0
0.467833 0.521315 0.169984 0.8 0 0
0.419368 0.744948 0.196737 0.8 0 0
0.629730 0.790547 0.124520 0.8 0 0
0.334455 0.771128 0.108680 0.8 0 0
0.396424 0.517459 0.084717 0.8 0 0
0.512711 0.599587 0.076369 0.8 0 0
0.552299 0.698730 0.112834 0.8 0 0
0.447763 0.539729 0.044683 0.8 0 0
0.877165 0.804675 0.108041 0.8 0 0
0.392369 0.466338 0.095775 0.8 0 0
0.536182 0.268672 0.134009 0.8 0 0
0.239628 0.777414 0.119355 0.8 0 0
0.523968 0.029737 0.163352 0.8 0 0
0.552024 0.692095 0.168198 0.8 0 0
0.487305 0.585051 0.186499 0.8 0 0
0.546699 0.632461 0.152462 0.8 0 0
0.504608 0.737457 0.189311 0.8 0 0
0.489750 0.719462 0.210835 0.8 0 0
0.493475 0.562317 0.049024 0.8 0 0
0.534220 0.222725 0.069906 0.8 0 0
0.476875 0.690100 0.084478 0.8 0 0
0.443891 0.775995 0.163415 0.8 0 0
0.449863 0.423830 0.180110 0.8 0 0
0.473456 0.748019 0.172393 0.8 0 0
0.510519 0.456699 0.173151 0.8 0 0
0.577350 0.502440 0.120083 0.8 0 0
0.407819 0.711627 0.194223 0.8 0 0
0.433213 0.055232 0.089488 0.8 0 0
0.468564 0.700162 0.077484 0.8 0 0
0.390858 0.390172 0.047666 0.8 0 0
0.359260 0.434635 0.102681 0.8 0 0
0.509555 0.596880 0.186405 0.8 0 0
0.523559 0.349727 0.078709 0.8 0 0
0.425635 0.025300 0.103827 0.8 0 0
0.533856 0.782464 0.149207 0.8 0 0
0.509153 0.674385 0.193508 0.8 0 0
0.433623 0.096490 0.120389 0.8 0 0
0.314161 0.808226 0.088711 0.8 0 0
0.561638 0.501773 0.136344 0.8 0 0
0.514909 0.453035 0.038713 0.8 0 0
0.418433 0.424999 0.077885 0.8 0 0
0.554861 0.614451 0.133765 0.8 0 0
0.320855 0.812013 0.106192 0.8 0 0
0.447855 0.582997 0.061277 0.8 0 0
0.888550 0.795454 0.128141 0.8 0 0
0.571007 0.398471 0.060158 0.8 0 0
0.508160 0.480603 0.076379 0.8 0 0
0.563244 0.388585 0.109160 0.8 0 0
0.423612 0.691416 0.081820 0.8 0 0
0.392927 0.470558 0.094211 0.8 0 0
0.503968 0.914566 0.076861 0.8 0 0
0.533700 0.641516 0.172070 0.8 0 0
0.564776 0.400658 0.054261 0.8 0 0
0.306658 0.803780 0.082179 0.8 0 0
0.418658 0.698922 0.192704 0.8 0 0
0.462463 0.540185 0.172151 0.8 0 0
0.517891 0.944924 0.120282 0.8 0 0
0.578274 0.436784 0.136211 0.8 0 0
0.522732 0.799029 0.135207 0.8 0 0
0.427007 0.774914 0.153414 0.8 0 0
0.395047 0.385194 0.135140 0.8 0 0
0.488748 0.942223 0.074205 0.8 0 0
0.396767 0.553384 0.155183 0.8 0 0
0.572678 0.520136 0.125028 0.8 0 0
0.434761 0.425605 0.176226 0.8 0 0
0.479013 0.687540 0.070981 0.8 0 0
0.348398 0.794542 0.078161 0.8 0 0
0.394995 0.765216 0.079917 0.8 0 0
0.409639 0.741601 0.078243 0.8 0 0
0.434266 0.777813 0.052920 0.8 0 0
0.560332 0.362080 0.126162 0.8 0 0
0.533767 0.571185 0.066849 0.8 0 0
0.489910 0.447086 0.094746 0.8 0 0
0.537589 0.188882 0.127533 0.8 0 0
0.676439 0.809683 0.108801 0.8 0 0
0.476362 0.968777 0.095913 0.8 0 0
0.424169 0.781597 0.147014 0.8 0 0
0.546424 0.340049 0.139951 0.8 0 0
0.560593 0.513348 0.086231 0.8 0 0
0.259950 0.772967 0.109087 0.8 0 0
0.453242 0.280267 0.095925 0.8 0 0
0.067658 0.772176 0.131993 0.8 0 0
0.500369 0.409625 0.029668 0.8 0 0
0.486026 0.472825 0.036265 0.8 0 0
0.435199 0.415737 0.033334 0.8 0 0
0.716222 0.773538 0.115509 0.8 0 0
0.543296 0.480530 0.159912 0.8 0 0
0.916347 0.777301 0.105190 0.8 0 0
0.395395 0.481855 0.058501 0.8 0 0
0.518676 0.906075 0.124101 0.8 0 0
0.059249 0.782707 0.093380 0.8 0 0
0.408234 0.701486 0.188182 0.8 0 0
0.284700 0.778408 0.117841 0.8 0 0
0.495554 0.868348 0.164723 0.8 0 0
0.481432 0.739269 0.173110 0.8 0 0
0.571444 0.553316 0.112703 0.8 0 0
0.701444 0.783281 0.086270 0.8 0 0
0.361972 0.429532 0.085684 0.8 0 0
0.424273 0.759213 0.172417 0.8 0 0
0.503927 0.774789 0.158024 0.8 0 0
0.410820 0.360511 0.145608 0.8 0 0
0.400675 0.430007 0.163173 0.8 0 0
0.507915 0.879259 0.111265 0.8 0 0
0.407824 0.592712 0.169292 0.8 0 0
0.425349 0.712575 0.080009 0.8 0 0
0.491992 0.962609 0.089343 0.8 0 0
0.388452 0.592228 0.109931 0.8 0 0
0.532667 0.681323 0.162154 0.8 0 0
0.868960 0.784782 0.101623 0.8 0 0
0.512152 0.694736 0.079105 0.8 0 0
0.394687 0.397969 0.137402 0.8 0 0
0.493879 0.562894 0.177522 0.8 0 0
0.462804 0.788293 0.063943 0.8 0 0
0.538261 0.656050 0.170568 0.8 0 0
0.330147 0.790701 0.079248 0.8 0 0
0.533145 0.822801 0.089710 0.8 0 0
0.506518 0.605232 0.078693 0.8 0 0
0.519628 0.099054 0.115798 0.8 0 0
0.414072 0.630663 0.103402 0.8 0 0
0.450295 0.884638 0.155967 0.8 0 0
0.401064 0.472195 0.157391 0.8 0 0
0.533587 0.056420 0.085074 0.8 0 0
0.545151 0.707991 0.189537 0.8 0 0
0.412399 0.048674 0.152531 0.8 0 0
0.112738 0.804158 0.096889 0.8 0 0
0.465284 0.971273 0.107597 0.8 0 0
0.395188 0.551460 0.101289 0.8 0 0
0.497797 0.799077 0.065912 0.8 0 0
0.373432 0.485967 0.129451 0.8 0 0
0.899841 0.795187 0.128966 0.8 0 0
0.067213 0.801657 0.126451 0.8 0 0
0.565140 0.396899 0.112129 0.8 0 0
0.078823 0.784986 0.130693 0.8 0 0
0.443245 0.927165 0.148445 0.8 0 0
0.548950 0.613145 0.156910 0.8 0 0
0.569542 0.728752 0.134439 0.8 0 0
0.469873 0.856831 0.152158 0.8 0 0
0.528263 0.256413 0.132849 0.8 0 0
0.540085 0.733863 0.076810 0.8 0 0
0.456360 0.449055 0.144927 0.8 0 0
0.516866 0.042638 0.127911 0.8 0 0
0.388612 0.594752 0.112966 0.8 0 0
0.769098 0.791358 0.082786 0.8 0 0
0.442205 0.751720 0.062144 0.8 0 0
0.819701 0.783033 0.103147 0.8 0 0
0.432986 0.430191 0.074735 0.8 0 0
0.436931 0.037823 0.143946 0.8 0 0
0.511980 0.367576 0.145424 0.8 0 0
0.403445 0.406845 0.091677 0.8 0 0
0.488998 0.398279 0.117561 0.8 0 0
0.487236 0.411685 0.112174 0.8 0 0
0.704966 0.810608 0.103470 0.8 0 0
0.097431 0.781103 0.112165 0.8 0 0
0.517677 0.278536 0.135133 0.8 0 0
0.652758 0.799813 0.124508 0.8 0 0
0.506348 0.576771 0.059260 0.8 0 0
0.498797 0.736552 0.185668 0.8 0 0
0.477361 0.860469 0.174443 0.8 0 0
0.521878 0.735598 0.204798 0.8 0 0
0.474860 0.608181 0.075720 0.8 0 0
0.497838 0.589767 0.186221 0.8 0 0
0.488082 0.400712 0.115361 0.8 0 0
0.706505 0.808353 0.113893 0.8 0 0
0.398170 0.630853 0.143936 0.8 0 0
0.437151 0.774740 0.061943 0.8 0 0
0.417519 0.053241 0.089641 0.8 0 0
0.761663 0.775276 0.093894 0.8 0 0
0.413643 0.736527 0.077326 0.8 0 0
0.566540 0.498529 0.142938 0.8 0 0
0.370669 0.411680 0.066721 0.8 0 0
0.529914 0.778519 0.150381 0.8 0 0
0.512650 0.910221 0.152811 0.8 0 0
0.461287 0.526504 0.170044 0.8 0 0
0.460272 0.434491 0.031262 0.8 0 0
0.260948 0.788693 0.124429 0.8 0 0
0.426449 0.789781 0.064923 0.8 0 0
0.525316 0.526421 0.049576 0.8 0 0
0.529334 0.712051 0.190638 0.8 0 0
0.402378 0.211139 0.110373 0.8 0 0
0.473768 0.840217 0.135584 0.8 0 0
0.467954 0.876204 0.155369 0.8 0 0
0.574925 0.473926 0.078089 0.8 0 0
0.399358 0.658196 0.151436 0.8 0 0
0.450359 0.313247 0.088078 0.8 0 0
0.459423 0.821437 0.074687 0.8 0 0
0.399393 0.716078 0.119680 0.8 0 0
0.422805 0.741906 0.060791 0.8 0 0
0.416644 0.800635 0.130235 0.8 0 0
0.591215 0.408416 0.093487 0.8 0 0
0.453878 0.220735 0.096079 0.8 0 0
0.521420 0.405790 0.154890 0.8 0 0
0.514976 0.225910 0.116560 0.8 0 0
0.466024 0.474540 0.035804 0.8 0 0
0.559619 0.691823 0.148672 0.8 0 0
0.363811 0.468567 0.112097 0.8 0 0
0.547216 0.129561 0.100547 0.8 0 0
0.601530 0.803445 0.078479 0.8 0 0
0.546833 0.308344 0.124741 0.8 0 0
0.485492 0.441615 0.128295 0.8 0 0
0.394691 0.739720 0.186995 0.8 0 0
0.544052 0.648505 0.117895 0.8 0 0
0.426112 0.571882 0.061595 0.8 0 0
0.437890 0.111602 0.098071 0.8 0 0
0.527335 0.232104 0.128950 0.8 0 0
0.547619 0.038984 0.117725 0.8 0 0
0.684838 0.782524 0.122261 0.8 0 0
0.445272 0.945792 0.088024 0.8 0 0
0.608283 0.804579 0.123174 0.8 0 0
0.477044 0.898370 0.072383 0.8 0 0
0.490612 0.568449 0.051915 0.8 0 0
0.461131 0.848371 0.087485 0.8 0 0
0.428452 0.025403 0.101136 0.8 0 0
0.562116 0.430942 0.153592 0.8 0 0
0.439800 0.127246 0.091900 0.8 0 0
0.453453 0.571094 0.180821 0.8 0 0
0.470748 0.528258 0.041479 0.8 0 0
0.044140 0.784279 0.123469 0.8 0 0
0.394222 0.393589 0.106318 0.8 0 0
0.909754 0.791601 0.103889 0.8 0 0
0.539855 0.483657 0.051614 0.8 0 0
0.520850 0.038320 0.201587 0.8 0 0
0.696052 0.794368 0.083877 0.8 0 0
0.533923 0.713684 0.077219 0.8 0 0
0.552032 0.527636 0.155678 0.8 0 0
0.484031 0.675430 0.076878 0.8 0 0
0.727433 0.797364 0.117476 0.8 0 0
0.510574 0.303756 0.130677 0.8 0 0
0.401379 0.531132 0.155149 0.8 0 0
0.446956 0.729077 0.066856 0.8 0 0
0.433342 0.799813 0.052257 0.8 0 0
0.522155 0.273935 0.082518 0.8 0 0
0.506951 0.172134 0.091581 0.8 0 0
0.581511 0.475999 0.117131 0.8 0 0
0.354473 0.390758 0.107156 0.8 0 0
0.393364 0.805265 0.080056 0.8 0 0
0.397528 0.663007 0.134079 0.8 0 0
0.517515 0.095714 0.107104 0.8 0 0
0.437615 0.061602 0.129203 0.8 0 0
0.063612 0.797763 0.099349 0.8 0 0
0.454722 0.916408 0.165550 0.8 0 0
0.569780 0.484989 0.115935 0.8 0 0
0.562830 0.542076 0.077922 0.8 0 0
0.454175 0.519159 0.042069 0.8 0 0
0.402474 0.694602 0.096957 0.8 0 0
0.564615 0.813161 0.119669 0.8 0 0
0.506926 0.264433 0.114032 0.8 0 0
0.403838 0.030136 0.151979 0.8 0 0
0.472639 0.861856 0.088536 0.8 0 0
0.483771 0.464120 0.127955 0.8 0 0
0.443575 0.262008 0.123631 0.8 0 0
0.056132 0.793319 0.107438 0.8 0 0
0.544279 0.033322 0.101609 0.8 0 0
0.525377 0.205247 0.069581 0.8 0 0
0.394973 0.473696 0.142002 0.8 0 0
0.412862 0.711573 0.196795 0.8 0 0
0.525313 0.180771 0.123980 0.8 0 0
0.437932 0.351562 0.145667 0.8 0 0
0.557975 0.785711 0.072288 0.8 0 0
0.380411 0.818583 0.095417 0.8 0 0
0.410675 0.047000 0.152774 0.8 0 0
0.549819 0.737984 0.150857 0.8 0 0
0.564520 0.413014 0.134425 0.8 0 0
0.391769 0.709444 0.104573 0.8 0 0
0.448805 0.963440 0.119828 0.8 0 0
0.462459 0.726288 0.182835 0.8 0 0
0.595719 0.775122 0.085731 0.8 0 0
0.360600 0.790932 0.076925 0.8 0 0
0.424436 0.547733 0.051577 0.8 0 0
0.422580 0.025336 0.104206 0.8 0 0
0.530708 0.699476 0.164683 0.8 0 0
0.423072 0.472998 0.156123 0.8 0 0
0.376333 0.470761 0.137553 0.8 0 0
0.540110 0.594298 0.168663 0.8 0 0
0.423153 0.027462 0.167610 0.8 0 0
0.551334 0.619069 0.149816 0.8 0 0
0.497905 0.447701 0.083556 0.8 0 0
0.380318 0.531168 0.082877 0.8 0 0
0.502627 0.398638 0.141853 0.8 0 0
0.397381 0.497753 0.079232 0.8 0 0
0.544448 0.356906 0.145325 0.8 0 0
0.539810 0.036014 0.089799 0.8 0 0
0.454867 0.330081 0.132705 0.8 0 0
0.441802 0.387690 0.182694 0.8 0 0
0.395093 0.508125 0.135548 0.8 0 0
0.543884 0.751244 0.170398 0.8 0 0
0.421537 0.127895 0.085509 0.8 0 0
0.495472 0.518360 0.169619 0.8 0 0
0.447261 0.628078 0.084090 0.8 0 0
0.462145 0.345259 0.114201 0.8 0 0
0.448952 0.539909 0.170764 0.8 0 0
0.371319 0.391999 0.145919 0.8 0 0
0.414131 0.027897 0.135930 0.8 0 0
0.459691 0.329690 0.106564 0.8 0 0
0.579127 0.458605 0.082235 0.8 0 0
0.373902 0.402580 0.147337 0.8 0 0
0.387974 0.599613 0.137576 0.8 0 0
0.367348 0.486647 0.102377 0.8 0 0
0.544864 0.531767 0.152502 0.8 0 0
0.457174 0.537806 0.171320 0.8 0 0
0.265572 0.772406 0.100213 0.8 0 0
0.523859 0.143024 0.119928 0.8 0 0
0.550972 0.316627 0.104930 0.8 0 0
0.409829 0.454796 0.164331 0.8 0 0
0.460466 0.715891 0.209453 0.8 0 0
0.495817 0.724609 0.056099 0.8 0 0
0.400724 0.745404 0.084501 0.8 0 0
0.554664 0.610167 0.147560 0.8 0 0
0.551359 0.159265 0.108049 0.8 0 0
0.425776 0.501532 0.165251 0.8 0 0
0.562522 0.500164 0.135548 0.8 0 0
0.391541 0.604104 0.144993 0.8 0 0
0.553617 0.171349 0.097726 0.8 0 0
0.525739 0.793410 0.142408 0.8 0 0
0.550274 0.546949 0.065949 0.8 0 0
0.284679 0.808082 0.114510 0.8 0 0
0.460585 0.757914 0.193220 0.8 0 0
0.508767 0.673996 0.193528 0.8 0 0
0.360708 0.438441 0.092105 0.8 0 0
0.402270 0.502679 0.143659 0.8 0 0
0.449076 0.261643 0.113155 0.8 0 0
0.475337 0.697809 0.206209 0.8 0 0
0.434524 0.041229 0.087750 0.8 0 0
0.643988 0.783461 0.122118 0.8 0 0
0.437414 0.930576 0.125025 0.8 0 0
0.264333 0.772508 0.108091 0.8 0 0
0.410904 0.598906 0.172986 0.8 0 0
0.477554 0.971844 0.141800 0.8 0 0
0.533039 0.143666 0.125367 0.8 0 0
0.484836 0.903572 0.175274 0.8 0 0
0.422100 0.352763 0.080858 0.8 0 0
0.494796 0.449458 0.176724 0.8 0 0
0.544598 0.818011 0.098997 0.8 0 0
0.517381 0.061703 0.106245 0.8 0 0
0.424497 0.524145 0.164142 0.8 0 0
0.531123 0.508434 0.050380 0.8 0 0
0.502711 0.874860 0.157139 0.8 0 0
0.429517 0.699256 0.166759 0.8 0 0
0.822222 0.807749 0.104418 0.8 0 0
0.397422 0.610143 0.113319 0.8 0 0
0.399085 0.444243 0.146466 0.8 0 0
0.751058 0.780223 0.119821 0.8 0 0
0.549833 0.552027 0.067477 0.8 0 0
0.504748 0.334739 0.088080 0.8 0 0
0.520450 0.315589 0.083511 0.8 0 0
0.431394 0.484246 0.168256 0.8 0 0
0.410698 0.406622 0.084769 0.8 0 0
0.454988 0.746839 0.064407 0.8 0 0
0.545397 0.386089 0.085582 0.8 0 0
0.375169 0.533177 0.092477 0.8 0 0
0.461611 0.729931 0.209217 0.8 0 0
0.416244 0.564913 0.167519 0.8 0 0
0.464325 0.740498 0.179647 0.8 0 0
0.496078 0.404514 0.181999 0.8 0 0
0.400367 0.726775 0.128483 0.8 0 0
0.528587 0.539069 0.164994 0.8 0 0
0.474896 0.497160 0.172556 0.8 0 0
0.411634 0.297183 0.126136 0.8 0 0
0.519616 0.173361 0.118704 0.8 0 0
0.482801 0.754762 0.169053 0.8 0 0
0.441964 0.944483 0.139927 0.8 0 0
0.407391 0.654330 0.166851 0.8 0 0
0.566123 0.526198 0.121922 0.8 0 0
0.153287 0.800472 0.116760 0.8 0 0
0.499990 0.865076 0.129304 0.8 0 0
0.547262 0.071054 0.105827 0.8 0 0
0.396129 0.363155 0.128530 0.8 0 0
0.798759 0.781135 0.092622 0.8 0 0
0.504933 0.926665 0.164377 0.8 0 0
0.425243 0.538183 0.057147 0.8 0 0
0.459042 0.771773 0.063055 0.8 0 0
0.557979 0.460595 0.145784 0.8 0 0
0.516625 0.594249 0.073562 0.8 0 0
0.454442 0.202852 0.084894 0.8 0 0
0.467335 0.549054 0.042791 0.8 0 0
0.675052 0.789044 0.124918 0.8 0 0
0.751538 0.790781 0.081792 0.8 0 0
0.502324 0.869779 0.097899 0.8 0 0
0.404135 0.715517 0.136084 0.8 0 0
0.504184 0.908079 0.164844 0.8 0 0
0.392920 0.412874 0.048951 0.8 0 0
0.556313 0.755590 0.122506 0.8 0 0
0.545137 0.668099 0.115271 0.8 0 0
0.429336 0.400295 0.154521 0.8 0 0
0.488995 0.912413 0.153703 0.8 0 0
0.534846 0.506992 0.154269 0.8 0 0
0.322735 0.811315 0.108480 0.8 0 0
0.544322 0.712366 0.153992 0.8 0 0
0.559876 0.358137 0.124887 0.8 0 0
0.510950 0.883827 0.127069 0.8 0 0
0.555991 0.712047 0.118164 0.8 0 0
0.472373 0.800758 0.139539 0.8 0 0
0.571093 0.506564 0.132890 0.8 0 0
0.503887 0.531601 0.169047 0.8 0 0
0.148917 0.779734 0.099406 0.8 0 0
0.539887 0.140493 0.086827 0.8 0 0
0.559747 0.586316 0.101261 0.8 0 0
0.709810 0.783392 0.122260 0.8 0 0
0.507306 0.493208 0.065460 0.8 0 0
0.463200 0.740043 0.180399 0.8 0 0
0.429234 0.740695 0.192709 0.8 0 0
0.430100 0.721389 0.073450 0.8 0 0
0.467230 0.790678 0.145797 0.8 0 0
0.668392 0.795838 0.080020 0.8 0 0
0.592871 0.389193 0.112733 0.8 0 0
0.364377 0.472530 0.113049 0.8 0 0
0.545892 0.056839 0.112777 0.8 0 0
0.527648 0.143118 0.081053 0.8 0 0
0.579317 0.395765 0.068383 0.8 0 0
0.546968 0.498444 0.160334 0.8 0 0
0.567388 0.423409 0.128798 0.8 0 0
0.391748 0.449813 0.056052 0.8 0 0
0.469135 0.698192 0.174739 0.8 0 0
0.501657 0.703357 0.075097 0.8 0 0
0.448630 0.742571 0.188853 0.8 0 0
0.830737 0.802546 0.094359 0.8 0 0
0.550973 0.496255 0.157349 0.8 0 0
0.447094 0.922207 0.159907 0.8 0 0
0.461749 0.730565 0.209205 0.8 0 0
0.441654 0.214421 0.116794 0.8 0 0
0.542695 0.035330 0.187208 0.8 0 0
0.047229 0.787685 0.115279 0.8 0 0
0.368555 0.421365 0.072148 0.8 0 0
0.377496 0.547337 0.123146 0.8 0 0
0.408030 0.688257 0.111681 0.8 0 0
0.454087 0.476800 0.037374 0.8 0 0
0.516638 0.330746 0.082743 0.8 0 0
0.581324 0.483887 0.104456 0.8 0 0
0.501436 0.726668 0.069314 0.8 0 0
0.473036 0.507736 0.171398 0.8 0 0
0.373869 0.785749 0.122878 0.8 0 0
0.406830 0.348801 0.141021 0.8 0 0
0.403831 0.164366 0.099192 0.8 0 0
0.460074 0.861668 0.154990 0.8 0 0
0.442179 0.894410 0.136159 0.8 0 0
0.496772 0.444639 0.085370 0.8 0 0
0.506225 0.303711 0.089011 0.8 0 0
0.396973 0.525728 0.135276 0.8 0 0
0.503833 0.909300 0.077816 0.8 0 0
0.456596 0.917575 0.165447 0.8 0 0
0.558190 0.497319 0.065209 0.8 0 0
0.893781 0.794162 0.128176 0.8 0 0
0.556473 0.422623 0.146015 0.8 0 0
0.447089 0.797657 0.064998 0.8 0 0
0.419326 0.048687 0.084986 0.8 0 0
0.603136 0.819098 0.105945 0.8 0 0
0.400699 0.805447 0.079942 0.8 0 0
0.441329 0.920859 0.090115 0.8 0 0
0.388946 0.497766 0.101919 0.8 0 0
0.509592 0.545765 0.047215 0.8 0 0
0.426184 0.374170 0.077678 0.8 0 0
0.549603 0.596371 0.160679 0.8 0 0
0.537753 0.136639 0.086069 0.8 0 0
0.563558 0.755595 0.091860 0.8 0 0
0.367013 0.432825 0.078158 0.8 0 0
0.895855 0.767856 0.133724 0.8 0 0
0.461648 0.963425 0.091596 0.8 0 0
0.493897 0.376499 0.100942 0.8 0 0
0.494020 0.692351 0.203642 0.8 0 0
0.491147 0.414620 0.029601 0.8 0 0
0.554751 0.680270 0.150628 0.8 0 0
0.461452 0.740453 0.208237 0.8 0 0
0.432075 0.290628 0.083609 0.8 0 0
0.550106 0.732593 0.142962 0.8 0 0
0.566269 0.533549 0.112830 0.8 0 0
0.575581 0.773504 0.081701 0.8 0 0
0.437038 0.293811 0.136006 0.8 0 0
0.564013 0.527931 0.076410 0.8 0 0
0.379134 0.531095 0.132214 0.8 0 0
0.514833 0.246771 0.078127 0.8 0 0
0.689811 0.780945 0.085269 0.8 0 0
0.327477 0.794966 0.125052 0.8 0 0
0.168186 0.787401 0.086418 0.8 0 0
0.405974 0.442153 0.085239 0.8 0 0
0.465377 0.767565 0.180577 0.8 0 0
0.550966 0.725984 0.084653 0.8 0 0
0.537925 0.074378 0.125898 0.8 0 0
0.397004 0.489570 0.153080 0.8 0 0
0.554548 0.351876 0.134471 0.8 0 0
0.482645 0.813514 0.071690 0.8 0 0
0.553608 0.500109 0.070353 0.8 0 0
0.383339 0.742254 0.154568 0.8 0 0
0.584898 0.456857 0.111297 0.8 0 0
0.518845 0.274023 0.134929 0.8 0 0
0.557557 0.389584 0.100643 0.8 0 0
0.423548 0.205627 0.069520 0.8 0 0
0.418944 0.678558 0.158438 0.8 0 0
0.392261 0.532563 0.126472 0.8 0 0
0.548173 0.435327 0.162584 0.8 0 0
0.543255 0.779303 0.145107 0.8 0 0
0.443941 0.150187 0.099304 0.8 0 0
0.513865 0.418686 0.074140 0.8 0 0
0.536813 0.439782 0.077131 0.8 0 0
0.558740 0.774533 0.073540 0.8 0 0
0.401393 0.523860 0.154855 0.8 0 0
0.090190 0.791832 0.089282 0.8 0 0
0.411000 0.026581 0.156187 0.8 0 0
0.440488 0.208829 0.071048 0.8 0 0
0.546982 0.717488 0.189532 0.8 0 0
0.443666 0.761172 0.061436 0.8 0 0
0.405476 0.156237 0.109271 0.8 0 0
0.483005 0.464953 0.106952 0.8 0 0
0.715831 0.774007 0.099642 0.8 0 0
0.300087 0.808123 0.090269 0.8 0 0
0.358619 0.431826 0.105085 0.8 0 0
0.535476 0.157548 0.080993 0.8 0 0
0.390937 0.512269 0.066798 0.8 0 0
0.592844 0.792665 0.126092 0.8 0 0
0.460339 0.347300 0.101593 0.8 0 0
0.496659 0.548132 0.173072 0.8 0 0
0.532541 0.813470 0.120879 0.8 0 0
0.544740 0.553544 0.064297 0.8 0 0
0.484210 0.856459 0.150791 0.8 0 0
0.545406 0.676011 0.110033 0.8 0 0
0.397243 0.554245 0.070101 0.8 0 0
0.522052 0.194679 0.122647 0.8 0 0
0.496755 0.444112 0.177043 0.8 0 0
0.506524 0.529446 0.168870 0.8 0 0
0.385967 0.409614 0.054245 0.8 0 0
0.397590 0.626995 0.131865 0.8 0 0
0.544667 0.761739 0.068997 0.8 0 0
0.256464 0.799268 0.122044 0.8 0 0
0.415773 0.199334 0.070794 0.8 0 0
0.456241 0.361301 0.091257 0.8 0 0
0.548669 0.796120 0.072224 0.8 0 0
0.472638 0.439828 0.114522 0.8 0 0
0.518788 0.129093 0.086052 0.8 0 0
0.392180 0.541081 0.149108 0.8 0 0
0.479972 0.741061 0.172510 0.8 0 0
0.386455 0.744415 0.162375 0.8 0 0
0.440553 0.903128 0.119506 0.8 0 0
0.488462 0.559289 0.177467 0.8 0 0
0.457244 0.750700 0.049873 0.8 0 0
0.453380 0.334851 0.090231 0.8 0 0
0.521240 0.119355 0.086808 0.8 0 0
0.055346 0.788251 0.094382 0.8 0 0
0.292116 0.808888 0.112752 0.8 0 0
0.440482 0.032944 0.195577 0.8 0 0
0.394649 0.768832 0.120733 0.8 0 0
0.557308 0.721537 0.095839 0.8 0 0
0.530352 0.718283 0.203223 0.8 0 0
0.528668 0.478269 0.045107 0.8 0 0
0.411470 0.046837 0.101668 0.8 0 0
0.521995 0.287990 0.137530 0.8 0 0
0.559902 0.461093 0.060189 0.8 0 0
0.533732 0.718226 0.074556 0.8 0 0
0.480213 0.415400 0.182142 0.8 0 0
0.504242 0.735441 0.189550 0.8 0 0
0.433674 0.155053 0.119412 0.8 0 0
0.513006 0.575640 0.060433 0.8 0 0
0.554024 0.184464 0.106511 0.8 0 0
0.496243 0.713158 0.181481 0.8 0 0
0.512532 0.478335 0.074925 0.8 0 0
0.493538 0.357349 0.106288 0.8 0 0
0.495203 0.394376 0.027249 0.8 0 0
0.426734 0.038405 0.083579 0.8 0 0
0.568947 0.488818 0.107721 0.8 0 0
0.542619 0.510877 0.056577 0.8 0 0
0.474449 0.809483 0.070382 0.8 0 0
0.460064 0.971004 0.128849 0.8 0 0
0.412127 0.543481 0.065534 0.8 0 0
0.548345 0.618484 0.155999 0.8 0 0
0.453549 0.445525 0.146562 0.8 0 0
0.438897 0.422720 0.033536 0.8 0 0
0.427696 0.028452 0.087793 0.8 0 0
0.577737 0.784354 0.076026 0.8 0 0
0.496520 0.520050 0.041997 0.8 0 0
0.438195 0.935164 0.128378 0.8 0 0
0.448657 0.550829 0.173624 0.8 0 0
0.550152 0.702476 0.102306 0.8 0 0
0.522692 0.752437 0.184437 0.8 0 0
0.446291 0.708730 0.185189 0.8 0 0
0.399911 0.752340 0.076268 0.8 0 0
0.394255 0.458795 0.055573 0.8 0 0
0.532948 0.487054 0.065436 0.8 0 0
0.460927 0.835883 0.082631 0.8 0 0
0.463377 0.391774 0.025842 0.8 0 0
0.464187 0.546635 0.042519 0.8 0 0
0.527683 0.549629 0.166226 0.8 0 0
0.408863 0.542964 0.160171 0.8 0 0
0.361844 0.445622 0.092277 0.8 0 0
0.511159 0.375545 0.145344 0.8 0 0
0.426888 0.555159 0.169956 0.8 0 0
0.414301 0.379295 0.082813 0.8 0 0
0.383169 0.465971 0.065564 0.8 0 0
0.402692 0.377553 0.143627 0.8 0 0
0.560939 0.767459 0.120379 0.8 0 0
0.513124 0.955341 0.106759 0.8 0 0
0.415908 0.456414 0.167260 0.8 0 0
0.386624 0.712666 0.114667 0.8 0 0
0.566297 0.717224 0.153587 0.8 0 0
0.619227 0.803502 0.080433 0.8 0 0
0.539650 0.757165 0.168738 0.8 0 0
0.454666 0.914942 0.168047 0.8 0 0
0.553034 0.253201 0.094793 0.8 0 0
0.528036 0.750960 0.183896 0.8 0 0
0.319031 0.789845 0.079356 0.8 0 0
0.676576 0.809376 0.098460 0.8 0 0
0.428463 0.576084 0.176156 0.8 0 0
0.540307 0.292858 0.088376 0.8 0 0
0.175024 0.807555 0.111363 0.8 0 0
0.047243 0.776335 0.092744 0.8 0 0
0.507170 0.492365 0.170585 0.8 0 0
0.559815 0.498757 0.067049 0.8 0 0
0.680301 0.778353 0.118315 0.8 0 0
0.511217 0.388356 0.029752 0.8 0 0
0.431893 0.743801 0.191261 0.8 0 0
0.529932 0.461050 0.166778 0.8 0 0
0.463954 0.410713 0.132287 0.8 0 0
0.388323 0.446058 0.108447 0.8 0 0
0.388417 0.771983 0.080169 0.8 0 0
0.897511 0.798259 0.107260 0.8 0 0
0.626156 0.813714 0.094866 0.8 0 0
0.487352 0.719158 0.175794 0.8 0 0
0.438949 0.086236 0.108457 0.8 0 0
0.572880 0.424314 0.146118 0.8 0 0
0.432360 0.271467 0.136259 0.8 0 0
0.377326 0.558396 0.104010 0.8 0 0
0.404377 0.261870 0.101458 0.8 0 0
0.550153 0.779517 0.139683 0.8 0 0
0.436903 0.173125 0.118292 0.8 0 0
0.377984 0.476830 0.072330 0.8 0 0
0.546981 0.462549 0.052395 0.8 0 0
0.412336 0.094466 0.100641 0.8 0 0
0.377826 0.565594 0.106900 0.8 0 0
0.470559 0.421470 0.029757 0.8 0 0
0.507020 0.757816 0.177132 0.8 0 0
0.518009 0.225585 0.120347 0.8 0 0
0.109035 0.793433 0.091364 0.8 0 0
0.415525 0.490258 0.162491 0.8 0 0
0.471236 0.468213 0.098727 0.8 0 0
0.413514 0.681776 0.105331 0.8 0 0
0.419293 0.555636 0.056686 0.8 0 0
0.285623 0.788327 0.124929 0.8 0 0
0.567607 0.568662 0.133069 0.8 0 0
0.504414 0.692259 0.202260 0.8 0 0
0.530838 0.746152 0.187514 0.8 0 0
0.548484 0.046150 0.133964 0.8 0 0
0.578961 0.502533 0.099893 0.8 0 0
0.372148 0.791008 0.127115 0.8 0 0
0.502440 0.198696 0.098563 0.8 0 0
0.436930 0.439959 0.035983 0.8 0 0
0.499227 0.781487 0.049586 0.8 0 0
0.507694 0.668732 0.085515 0.8 0 0
0.544111 0.681385 0.173079 0.8 0 0
0.762762 0.795775 0.083008 0.8 0 0
0.495959 0.817652 0.072829 0.8 0 0
0.422835 0.040480 0.189638 0.8 0 0
0.412659 0.784297 0.061524 0.8 0 0
0.459705 0.414729 0.088284 0.8 0 0
0.501874 0.707495 0.179620 0.8 0 0
0.508091 0.380616 0.144051 0.8 0 0
0.512927 0.592776 0.183588 0.8 0 0
0.099792 0.801047 0.096248 0.8 0 0
0.511825 0.762127 0.053300 0.8 0 0
0.465412 0.881028 0.162000 0.8 0 0
0.502320 0.330317 0.090564 0.8 0 0
0.304285 0.770550 0.098226 0.8 0 0
0.401598 0.554064 0.158556 0.8 0 0
0.486847 0.922687 0.173214 0.8 0 0
0.518393 0.266394 0.132269 0.8 0 0
0.051373 0.784590 0.101183 0.8 0 0
0.531157 0.027337 0.175139 0.8 0 0
0.412447 0.397450 0.083316 0.8 0 0
0.509388 0.774493 0.061062 0.8 0 0
0.495185 0.355070 0.126660 0.8 0 0
0.558873 0.598489 0.119226 0.8 0 0
0.573045 0.784141 0.125931 0.8 0 0
0.417276 0.469376 0.155695 0.8 0 0
0.835620 0.793721 0.090739 0.8 0 0
0.557639 0.512718 0.152597 0.8 0 0
0.406616 0.154569 0.113424 0.8 0 0
0.563957 0.534706 0.103299 0.8 0 0
0.571545 0.405272 0.061613 0.8 0 0
0.406045 0.728949 0.162893 0.8 0 0
0.831280 0.787347 0.109723 0.8 0 0
0.547321 0.201420 0.121912 0.8 0 0
0.547496 0.027098 0.145838 0.8 0 0
0.378916 0.818704 0.095635 0.8 0 0
0.439861 0.440058 0.175670 0.8 0 0
0.699811 0.773227 0.103698 0.8 0 0
0.396755 0.494534 0.081563 0.8 0 0
0.464199 0.948908 0.077659 0.8 0 0
0.469321 0.412453 0.113217 0.8 0 0
0.505388 0.917207 0.164933 0.8 0 0
0.447136 0.780605 0.156788 0.8 0 0
0.435862 0.376598 0.076588 0.8 0 0
0.456245 0.911752 0.152257 0.8 0 0
0.246384 0.780049 0.089462 0.8 0 0
0.422129 0.053878 0.084340 0.8 0 0
0.500711 0.583237 0.061380 0.8 0 0
0.436455 0.792600 0.063520 0.8 0 0
0.600890 0.819206 0.106653 0.8 0 0
0.552190 0.816512 0.098365 0.8 0 0
0.529187 0.207876 0.069179 0.8 0 0
0.066645 0.773679 0.124841 0.8 0 0
0.499871 0.313354 0.114698 0.8 0 0
0.709056 0.793461 0.084976 0.8 0 0
0.517952 0.593010 0.181385 0.8 0 0
0.400859 0.596884 0.095767 0.8 0 0
0.459771 0.398141 0.183591 0.8 0 0
0.403846 0.776074 0.068453 0.8 0 0
0.343765 0.814788 0.113484 0.8 0 0
0.185539 0.808129 0.112980 0.8 0 0
0.404261 0.631085 0.160666 0.8 0 0
0.674624 0.809613 0.109428 0.8 0 0
0.524685 0.474496 0.072481 0.8 0 0
0.702975 0.800554 0.087967 0.8 0 0
0.411703 0.786904 0.140267 0.8 0 0
0.379973 0.545841 0.131441 0.8 0 0
0.523835 0.669089 0.185457 0.8 0 0
0.539654 0.103886 0.121356 0.8 0 0
0.405311 0.607659 0.100878 0.8 0 0
0.810164 0.780688 0.101078 0.8 0 0
0.407344 0.747034 0.164381 0.8 0 0
0.388845 0.408416 0.124686 0.8 0 0
0.493102 0.528660 0.042234 0.8 0 0
0.881950 0.804386 0.108580 0.8 0 0
0.307604 0.796355 0.125683 0.8 0 0
0.446607 0.323535 0.139000 0.8 0 0
0.549706 0.558164 0.154596 0.8 0 0
0.360137 0.818162 0.095945 0.8 0 0
0.481298 0.732803 0.210703 0.8 0 0
0.552976 0.763594 0.133935 0.8 0 0
0.544920 0.620906 0.161172 0.8 0 0
0.409339 0.558107 0.162932 0.8 0 0
0.891719 0.791239 0.112543 0.8 0 0
0.510849 0.536932 0.046868 0.8 0 0
0.541935 0.812054 0.115680 0.8 0 0
0.522942 0.192318 0.070890 0.8 0 0
0.461874 0.823314 0.127226 0.8 0 0
0.400674 0.230808 0.101236 0.8 0 0
0.360493 0.432262 0.119419 0.8 0 0
0.364201 0.404773 0.136496 0.8 0 0
0.423009 0.729194 0.203894 0.8 0 0
0.782978 0.801325 0.116955 0.8 0 0
0.524286 0.109712 0.086177 0.8 0 0
0.417807 0.621111 0.176571 0.8 0 0
0.492830 0.868845 0.168387 0.8 0 0
0.537527 0.025776 0.104965 0.8 0 0
0.394130 0.477566 0.090726 0.8 0 0
0.425761 0.761131 0.180324 0.8 0 0
0.700192 0.809215 0.100825 0.8 0 0
0.562146 0.533280 0.097964 0.8 0 0
0.418420 0.123576 0.088289 0.8 0 0
0.557195 0.525009 0.069234 0.8 0 0
0.418820 0.737237 0.189785 0.8 0 0
0.528991 0.063119 0.145968 0.8 0 0
0.554638 0.675696 0.133380 0.8 0 0
0.558727 0.692725 0.121317 0.8 0 0
0.515629 0.465157 0.171302 0.8 0 0
0.371127 0.466475 0.131380 0.8 0 0
0.548014 0.046580 0.136366 0.8 0 0
0.377304 0.459985 0.069217 0.8 0 0
0.468878 0.762855 0.165533 0.8 0 0
0.249469 0.795357 0.085378 0.8 0 0
0.397192 0.615175 0.117601 0.8 0 0
0.553456 0.372028 0.142607 0.8 0 0
0.581864 0.794494 0.076116 0.8 0 0
0.548016 0.630699 0.126611 0.8 0 0
0.509335 0.741300 0.062679 0.8 0 0
0.464456 0.373229 0.116551 0.8 0 0
0.526742 0.448725 0.074171 0.8 0 0
0.455168 0.290214 0.109168 0.8 0 0
0.392125 0.600046 0.148480 0.8 0 0
0.518047 0.102622 0.101665 0.8 0 0
0.450813 0.829440 0.111163 0.8 0 0
0.560123 0.816064 0.093501 0.8 0 0
0.414556 0.027242 0.146873 0.8 0 0
0.551304 0.744731 0.077634 0.8 0 0
0.432851 0.629227 0.185360 0.8 0 0
0.394414 0.459842 0.141186 0.8 0 0
0.055874 0.782484 0.089438 0.8 0 0
0.532479 0.055690 0.084216 0.8 0 0
0.446417 0.437649 0.034062 0.8 0 0
0.554932 0.689027 0.113810 0.8 0 0
0.409737 0.797361 0.129997 0.8 0 0
0.551670 0.473320 0.150223 0.8 0 0
0.549268 0.206173 0.118986 0.8 0 0
0.552915 0.232774 0.107918 0.8 0 0
0.520102 0.248639 0.126799 0.8 0 0
0.383750 0.780067 0.076633 0.8 0 0
0.079413 0.778817 0.120398 0.8 0 0
0.403532 0.816584 0.095919 0.8 0 0
0.207306 0.788048 0.121607 0.8 0 0
0.592569 0.403043 0.104099 0.8 0 0
0.515141 0.736202 0.058081 0.8 0 0
0.555401 0.345265 0.129358 0.8 0 0
0.377543 0.561723 0.124669 0.8 0 0
0.396198 0.358033 0.115705 0.8 0 0
0.487938 0.762228 0.064634 0.8 0 0
0.458473 0.368711 0.132965 0.8 0 0
0.506081 0.933249 0.078446 0.8 0 0
0.223647 0.801816 0.088384 0.8 0 0
0.619175 0.813241 0.112752 0.8 0 0
0.414713 0.489048 0.049254 0.8 0 0
0.545605 0.026625 0.155139 0.8 0 0
0.399120 0.806143 0.080682 0.8 0 0
0.888907 0.801360 0.103886 0.8 0 0
0.586731 0.809967 0.124518 0.8 0 0
0.557597 0.388135 0.101256 0.8 0 0
0.415581 0.682949 0.102030 0.8 0 0
0.345545 0.793178 0.078227 0.8 0 0
0.427982 0.110373 0.123776 0.8 0 0
0.473486 0.878804 0.158152 0.8 0 0
0.398106 0.466130 0.145512 0.8 0 0
0.510155 0.782499 0.151276 0.8 0 0
0.515871 0.516622 0.168755 0.8 0 0
0.466447 0.907478 0.071655 0.8 0 0
0.483268 0.534603 0.171313 0.8 0 0
0.563473 0.430057 0.101160 0.8 0 0
0.549920 0.691119 0.113239 0.8 0 0
0.555446 0.754578 0.123840 0.8 0 0
0.420635 0.201917 0.069820 0.8 0 0
0.551427 0.157990 0.107240 0.8 0 0
0.387290 0.510127 0.114870 0.8 0 0
0.495786 0.336832 0.106454 0.8 0 0
0.529253 0.596150 0.177173 0.8 0 0
0.399953 0.752877 0.122131 0.8 0 0
0.535883 0.460454 0.046352 0.8 0 0
0.538214 0.539615 0.155555 0.8 0 0
0.556644 0.465046 0.146775 0.8 0 0
0.551546 0.615397 0.120319 0.8 0 0
0.435451 0.295973 0.084525 0.8 0 0
0.501951 0.483880 0.078105 0.8 0 0
0.494598 0.348403 0.106979 0.8 0 0
0.398958 0.677716 0.162189 0.8 0 0
0.422707 0.520692 0.163563 0.8 0 0
0.554274 0.403419 0.093622 0.8 0 0
0.405525 0.385297 0.146512 0.8 0 0
0.767582 0.805505 0.115101 0.8 0 0
0.904178 0.791993 0.107999 0.8 0 0
0.546318 0.609162 0.163053 0.8 0 0
0.101496 0.784747 0.103889 0.8 0 0
0.865355 0.795689 0.091058 0.8 0 0
0.591631 0.393962 0.091822 0.8 0 0
0.420589 0.511055 0.163527 0.8 0 0
0.517071 0.038942 0.155650 0.8 0 0
0.479977 0.579965 0.057163 0.8 0 0
0.512299 0.169912 0.078400 0.8 0 0
0.513069 0.739164 0.192332 0.8 0 0
0.536794 0.481203 0.155366 0.8 0 0
0.485873 0.893011 0.076168 0.8 0 0
0.390846 0.683864 0.148013 0.8 0 0
0.564780 0.499309 0.094644 0.8 0 0
0.534358 0.499819 0.050902 0.8 0 0
0.416084 0.777271 0.146808 0.8 0 0
0.314834 0.786858 0.124438 0.8 0 0
0.452289 0.272417 0.108156 0.8 0 0
0.516849 0.052882 0.127982 0.8 0 0
0.397860 0.657239 0.139738 0.8 0 0
0.609950 0.804733 0.079638 0.8 0 0
0.440602 0.036926 0.189637 0.8 0 0
0.360038 0.440346 0.104355 0.8 0 0
0.409926 0.741129 0.068801 0.8 0 0
0.438935 0.946610 0.124813 0.8 0 0
0.404176 0.699601 0.093069 0.8 0 0
0.422217 0.430979 0.172453 0.8 0 0
0.186393 0.800778 0.087533 0.8 0 0
0.719746 0.784781 0.084154 0.8 0 0
0.526313 0.247253 0.074818 0.8 0 0
0.464697 0.967352 0.096648 0.8 0 0
0.561226 0.367434 0.112473 0.8 0 0
0.542471 0.175826 0.079545 0.8 0 0
0.534505 0.720735 0.201148 0.8 0 0
0.291140 0.794105 0.126086 0.8 0 0
0.551416 0.283097 0.105184 0.8 0 0
0.583168 0.467452 0.112731 0.8 0 0
0.437063 0.690652 0.082819 0.8 0 0
0.426641 0.666788 0.185966 0.8 0 0
0.502508 0.889711 0.166223 0.8 0 0
0.525173 0.407469 0.074967 0.8 0 0
0.540919 0.238626 0.125307 0.8 0 0
0.526973 0.055725 0.085307 0.8 0 0
0.532826 0.822282 0.073220 0.8 0 0
0.154758 0.797373 0.117537 0.8 0 0
0.537653 0.827006 0.105909 0.8 0 0
0.387905 0.497886 0.105293 0.8 0 0
0.567511 0.521031 0.112296 0.8 0 0
0.459333 0.693604 0.068717 0.8 0 0
0.415909 0.636958 0.173144 0.8 0 0
0.519710 0.827776 0.090746 0.8 0 0
0.484736 0.428628 0.119858 0.8 0 0
0.567277 0.449852 0.131525 0.8 0 0
0.553455 0.691151 0.109230 0.8 0 0
0.105788 0.806652 0.105536 0.8 0 0
0.451709 0.272659 0.111403 0.8 0 0
0.520695 0.816322 0.122832 0.8 0 0
0.513326 0.704445 0.070847 0.8 0 0
0.528628 0.685756 0.087560 0.8 0 0
0.517007 0.762331 0.174267 0.8 0 0
0.034938 0.778533 0.112836 0.8 0 0
0.554304 0.234451 0.083036 0.8 0 0
0.518354 0.125536 0.111568 0.8 0 0
0.483272 0.557095 0.046115 0.8 0 0
0.473483 0.969513 0.147132 0.8 0 0
0.410747 0.079283 0.103599 0.8 0 0
0.412705 0.747806 0.072773 0.8 0 0
0.478577 0.974251 0.114890 0.8 0 0
0.465452 0.918241 0.071007 0.8 0 0
0.529160 0.219576 0.069370 0.8 0 0
0.459952 0.914051 0.165359 0.8 0 0
0.430333 0.436331 0.074792 0.8 0 0
0.434903 0.316299 0.083171 0.8 0 0
0.441789 0.684366 0.083930 0.8 0 0
0.455212 0.350060 0.090423 0.8 0 0
0.429087 0.485423 0.155563 0.8 0 0
0.464022 0.879357 0.150276 0.8 0 0
0.700138 0.780640 0.087984 0.8 0 0
0.436847 0.922248 0.117695 0.8 0 0
0.500727 0.738948 0.053663 0.8 0 0
0.530301 0.812663 0.118333 0.8 0 0
0.550846 0.038617 0.136278 0.8 0 0
0.537034 0.755814 0.178514 0.8 0 0
0.418421 0.511793 0.153614 0.8 0 0
0.541680 0.282145 0.130932 0.8 0 0
0.442310 0.897122 0.140111 0.8 0 0
0.604355 0.817754 0.095175 0.8 0 0
0.370698 0.468001 0.129773 0.8 0 0
0.418919 0.033645 0.194882 0.8 0 0
0.555764 0.190389 0.093257 0.8 0 0
0.548393 0.290325 0.095571 0.8 0 0
0.543960 0.660150 0.162676 0.8 0 0
0.494034 0.882844 0.171187 0.8 0 0
0.540004 0.653656 0.111291 0.8 0 0
0.529129 0.673769 0.094544 0.8 0 0
0.368559 0.429652 0.137757 0.8 0 0
0.438020 0.046461 0.166604 0.8 0 0
0.496349 0.701311 0.066696 0.8 0 0
0.430946 0.185054 0.124364 0.8 0 0
0.492821 0.699116 0.066664 0.8 0 0
0.485587 0.807599 0.069621 0.8 0 0
0.448093 0.194228 0.074479 0.8 0 0
0.550224 0.269781 0.092385 0.8 0 0
0.443963 0.770995 0.061291 0.8 0 0
0.281974 0.808636 0.094944 0.8 0 0
0.475489 0.502383 0.172032 0.8 0 0
0.543289 0.036901 0.193279 0.8 0 0
0.414130 0.367083 0.148336 0.8 0 0
0.544213 0.399435 0.152337 0.8 0 0
0.682125 0.795002 0.081717 0.8 0 0
0.548835 0.745990 0.077973 0.8 0 0
0.463430 0.533960 0.041625 0.8 0 0
0.114287 0.805119 0.098642 0.8 0 0
0.712369 0.779094 0.090461 0.8 0 0
0.408261 0.472449 0.049821 0.8 0 0
0.423795 0.282144 0.138078 0.8 0 0
0.547581 0.594181 0.094223 0.8 0 0
0.511035 0.155581 0.099238 0.8 0 0
0.563798 0.390901 0.109333 0.8 0 0
0.469434 0.825779 0.076326 0.8 0 0
0.400596 0.664349 0.157148 0.8 0 0
0.551358 0.665353 0.135254 0.8 0 0
0.386828 0.568331 0.088104 0.8 0 0
0.475134 0.390911 0.185007 0.8 0 0
0.557051 0.713292 0.110102 0.8 0 0
0.418141 0.678933 0.091222 0.8 0 0
0.426729 0.178534 0.126369 0.8 0 0
0.573790 0.529265 0.117629 0.8 0 0
0.483185 0.869018 0.173926 0.8 0 0
0.452527 0.413087 0.181505 0.8 0 0
0.391711 0.527092 0.126333 0.8 0 0
0.546170 0.526040 0.150230 0.8 0 0
0.408435 0.723640 0.148470 0.8 0 0
0.445900 0.464905 0.150781 0.8 0 0
0.438388 0.339960 0.081054 0.8 0 0
0.444759 0.616934 0.081546 0.8 0 0
0.542334 0.472283 0.051314 0.8 0 0
0.503771 0.620799 0.189624 0.8 0 0
0.419396 0.225825 0.070154 0.8 0 0
0.569471 0.495650 0.075957 0.8 0 0
0.560138 0.752456 0.087787 0.8 0 0
0.186000 0.809702 0.104192 0.8 0 0
0.383074 0.524216 0.138717 0.8 0 0
0.441692 0.041042 0.173977 0.8 0 0
0.428930 0.365718 0.149240 0.8 0 0
0.868965 0.782995 0.130315 0.8 0 0
0.500177 0.403290 0.140396 0.8 0 0
0.468347 0.882978 0.148616 0.8 0 0
0.504517 0.277758 0.114580 0.8 0 0
0.425412 0.027544 0.179633 0.8 0 0
0.466103 0.592236 0.064728 0.8 0 0
0.494830 0.411039 0.091934 0.8 0 0
0.377141 0.463943 0.070121 0.8 0 0
0.428045 0.036489 0.192228 0.8 0 0
0.438949 0.411256 0.074810 0.8 0 0
0.480817 0.535844 0.171573 0.8 0 0
0.485718 0.720716 0.174404 0.8 0 0
0.032547 0.783052 0.119290 0.8 0 0
0.541487 0.683227 0.176723 0.8 0 0
0.447692 0.839751 0.098337 0.8 0 0
0.396617 0.473390 0.143972 0.8 0 0
0.396740 0.665338 0.143041 0.8 0 0
0.460290 0.939191 0.075009 0.8 0 0
0.466406 0.415139 0.102200 0.8 0 0
0.452782 0.413208 0.079304 0.8 0 0
0.390855 0.538033 0.119202 0.8 0 0
0.442531 0.413155 0.179708 0.8 0 0
0.477879 0.836199 0.080615 0.8 0 0
0.413006 0.695772 0.187631 0.8 0 0
0.420698 0.366950 0.149300 0.8 0 0
0.258684 0.798199 0.122975 0.8 0 0
0.588957 0.436514 0.100801 0.8 0 0
0.470511 0.435423 0.126892 0.8 0 0
0.575913 0.770461 0.107793 0.8 0 0
0.444771 0.898744 0.153063 0.8 0 0
0.537388 0.551929 0.162804 0.8 0 0
0.517518 0.703166 0.072697 0.8 0 0
0.435107 0.315085 0.139936 0.8 0 0
0.544516 0.742086 0.185031 0.8 0 0
0.416727 0.829226 0.102958 0.8 0 0
0.426260 0.789741 0.141405 0.8 0 0
0.472060 0.766470 0.064910 0.8 0 0
0.511820 0.882327 0.130603 0.8 0 0
0.506593 0.431597 0.033965 0.8 0 0
0.393441 0.554871 0.125228 0.8 0 0
0.406398 0.232856 0.114867 0.8 0 0
0.458986 0.475305 0.144352 0.8 0 0
0.506464 0.698666 0.204586 0.8 0 0
0.422250 0.638084 0.098216 0.8 0 0
0.515383 0.706280 0.075859 0.8 0 0
0.895582 0.801351 0.112904 0.8 0 0
0.418276 0.662115 0.180143 0.8 0 0
0.488418 0.415444 0.105130 0.8 0 0
0.443769 0.662202 0.085746 0.8 0 0
0.490132 0.881990 0.148770 0.8 0 0
0.503892 0.200826 0.101234 0.8 0 0
0.564467 0.803438 0.078995 0.8 0 0
0.371671 0.513334 0.115787 0.8 0 0
0.398400 0.384804 0.102907 0.8 0 0
0.558015 0.535682 0.089076 0.8 0 0
0.598152 0.819638 0.103051 0.8 0 0
0.462164 0.664912 0.197608 0.8 0 0
0.398231 0.749173 0.179389 0.8 0 0
0.533834 0.071819 0.088922 0.8 0 0
0.510842 0.241036 0.078315 0.8 0 0
0.392998 0.420091 0.103097 0.8 0 0
0.456104 0.768783 0.062906 0.8 0 0
0.498569 0.799565 0.139526 0.8 0 0
0.569651 0.508681 0.136020 0.8 0 0
0.466578 0.623617 0.193362 0.8 0 0
0.465252 0.605275 0.073635 0.8 0 0
0.898778 0.793050 0.118755 0.8 0 0
0.510163 0.834474 0.087794 0.8 0 0
0.730259 0.793599 0.083753 0.8 0 0
0.411841 0.815912 0.085568 0.8 0 0
0.560680 0.530341 0.073624 0.8 0 0
0.418303 0.028341 0.140678 0.8 0 0
0.436235 0.066285 0.129087 0.8 0 0
0.469048 0.962637 0.088051 0.8 0 0
0.585563 0.412835 0.129960 0.8 0 0
0.399402 0.380641 0.139466 0.8 0 0
0.515571 0.159351 0.080534 0.8 0 0
0.400473 0.819297 0.068517 0.8 0 0
0.439508 0.411083 0.074806 0.8 0 0
0.483877 0.670074 0.198736 0.8 0 0
0.755504 0.801602 0.117896 0.8 0 0
0.509846 0.951621 0.090939 0.8 0 0
0.532069 0.706332 0.180872 0.8 0 0
0.561140 0.472031 0.142142 0.8 0 0
0.500584 0.921047 0.163101 0.8 0 0
0.571947 0.553532 0.106455 0.8 0 0
0.526339 0.036835 0.206218 0.8 0 0
0.422366 0.542238 0.051895 0.8 0 0
0.391038 0.468874 0.059811 0.8 0 0
0.479200 0.452319 0.177684 0.8 0 0
0.504826 0.474462 0.172188 0.8 0 0
0.518977 0.149894 0.081081 0.8 0 0
0.578879 0.811437 0.123091 0.8 0 0
0.351110 0.802991 0.078593 0.8 0 0
0.698457 0.801941 0.088683 0.8 0 0
0.589087 0.406367 0.087816 0.8 0 0
0.462115 0.392700 0.184340 0.8 0 0
0.484764 0.788295 0.047600 0.8 0 0
0.460915 0.486662 0.037340 0.8 0 0
0.438139 0.215918 0.070479 0.8 0 0
0.542674 0.619030 0.165477 0.8 0 0
0.472633 0.455961 0.107757 0.8 0 0
0.466025 0.673742 0.198926 0.8 0 0
0.539247 0.443590 0.077523 0.8 0 0
0.543073 0.650669 0.161642 0.8 0 0
0.607807 0.818439 0.103672 0.8 0 0
0.511711 0.933743 0.084636 0.8 0 0
0.596706 0.808403 0.124467 0.8 0 0
0.604708 0.799829 0.124579 0.8 0 0
0.556811 0.777462 0.133365 0.8 0 0
0.554941 0.687088 0.117148 0.8 0 0
0.509973 0.801599 0.050854 0.8 0 0
0.458862 0.394500 0.026537 0.8 0 0
0.343804 0.817424 0.105284 0.8 0 0
0.446090 0.911898 0.158246 0.8 0 0
0.436240 0.180215 0.119572 0.8 0 0
0.438768 0.395480 0.151578 0.8 0 0
0.503747 0.334216 0.089125 0.8 0 0
0.359210 0.405736 0.124302 0.8 0 0
0.406274 0.474723 0.076432 0.8 0 0
0.525484 0.259261 0.132970 0.8 0 0
0.393081 0.753694 0.111277 0.8 0 0
0.406395 0.307826 0.101680 0.8 0 0
0.388216 0.455704 0.105430 0.8 0 0
0.410593 0.703944 0.147998 0.8 0 0
0.393237 0.597964 0.108106 0.8 0 0
0.591888 0.818876 0.110251 0.8 0 0
0.460731 0.334410 0.110747 0.8 0 0
0.112830 0.807235 0.105830 0.8 0 0
0.478313 0.686291 0.071539 0.8 0 0
0.439554 0.443678 0.035982 0.8 0 0
0.553150 0.672957 0.137423 0.8 0 0
0.545637 0.725311 0.182577 0.8 0 0
0.554283 0.245223 0.098140 0.8 0 0
0.051187 0.793528 0.103077 0.8 0 0
0.398858 0.719929 0.120246 0.8 0 0
0.397178 0.796411 0.130185 0.8 0 0
0.506689 0.841195 0.090521 0.8 0 0
0.909456 0.790046 0.106034 0.8 0 0
0.572729 0.501533 0.130081 0.8 0 0
0.489489 0.817023 0.130611 0.8 0 0
0.447395 0.746581 0.187257 0.8 0 0
0.335893 0.772487 0.096427 0.8 0 0
0.526748 0.475858 0.156045 0.8 0 0
0.499223 0.794564 0.049014 0.8 0 0
0.475381 0.543480 0.042679 0.8 0 0
0.256180 0.792471 0.123837 0.8 0 0
0.549498 0.147759 0.110300 0.8 0 0
0.496957 0.396215 0.090068 0.8 0 0
0.460720 0.896579 0.172417 0.8 0 0
0.531194 0.546948 0.164726 0.8 0 0
0.466223 0.669487 0.078931 0.8 0 0
0.551592 0.668861 0.137890 0.8 0 0
0.536269 0.489535 0.050553 0.8 0 0
0.134343 0.784072 0.106846 0.8 0 0
0.100572 0.784463 0.107167 0.8 0 0
0.569110 0.732629 0.141913 0.8 0 0
0.416481 0.493863 0.162578 0.8 0 0
0.566033 0.744903 0.099492 0.8 0 0
0.191888 0.783824 0.120683 0.8 0 0
0.560682 0.503252 0.068691 0.8 0 0
0.401301 0.362116 0.101968 0.8 0 0
0.491657 0.428718 0.095556 0.8 0 0
0.626126 0.809433 0.116144 0.8 0 0
0.457456 0.924244 0.169944 0.8 0 0
0.446926 0.495823 0.040749 0.8 0 0
0.443222 0.923921 0.148913 0.8 0 0
0.404000 0.636782 0.155982 0.8 0 0
0.460233 0.714962 0.059175 0.8 0 0
0.317716 0.812266 0.105270 0.8 0 0
0.445717 0.620125 0.082225 0.8 0 0
0.570033 0.565354 0.122614 0.8 0 0
0.737981 0.786714 0.083375 0.8 0 0
0.510330 0.486313 0.041543 0.8 0 0
0.191814 0.778679 0.089588 0.8 0 0
0.431962 0.249796 0.075915 0.8 0 0
0.509715 0.692666 0.079440 0.8 0 0
0.555814 0.816496 0.096174 0.8 0 0
0.426353 0.654602 0.183884 0.8 0 0
0.908019 0.786568 0.126700 0.8 0 0
0.414610 0.140373 0.088205 0.8 0 0
0.407318 0.554801 0.061729 0.8 0 0
0.554212 0.807613 0.124360 0.8 0 0
0.513863 0.897694 0.142106 0.8 0 0
0.490320 0.399243 0.105096 0.8 0 0
0.053146 0.789572 0.110842 0.8 0 0
0.481210 0.456964 0.177222 0.8 0 0
0.519023 0.676891 0.189922 0.8 0 0
0.871841 0.786451 0.102995 0.8 0 0
0.534037 0.718142 0.079592 0.8 0 0
0.469940 0.429865 0.180058 0.8 0 0
0.537355 0.826958 0.093246 0.8 0 0
0.518745 0.939155 0.112324 0.8 0 0
0.566495 0.722970 0.115375 0.8 0 0
0.452461 0.276781 0.111487 0.8 0 0
0.512258 0.512962 0.169187 0.8 0 0
0.458343 0.391341 0.089178 0.8 0 0
0.401851 0.332197 0.114744 0.8 0 0
0.442384 0.815686 0.118798 0.8 0 0
0.517041 0.637158 0.183833 0.8 0 0
0.506681 0.478101 0.039672 0.8 0 0
0.403689 0.166193 0.100650 0.8 0 0
0.458271 0.317247 0.109025 0.8 0 0
0.437283 0.109692 0.094571 0.8 0 0
0.464843 0.760534 0.189996 0.8 0 0
0.550394 0.688448 0.168238 0.8 0 0
0.501229 0.916272 0.166943 0.8 0 0
0.401512 0.691517 0.173979 0.8 0 0
0.394942 0.792623 0.074362 0.8 0 0
0.549502 0.334370 0.132934 0.8 0 0
0.407253 0.674207 0.104939 0.8 0 0
0.569486 0.511552 0.135823 0.8 0 0
0.546114 0.309615 0.126359 0.8 0 0
0.534581 0.742445 0.192548 0.8 0 0
0.444494 0.362931 0.145031 0.8 0 0
0.651579 0.784595 0.079821 0.8 0 0
0.387424 0.697719 0.154174 0.8 0 0
0.532001 0.029703 0.189494 0.8 0 0
0.558919 0.469903 0.144681 0.8 0 0
0.393442 0.533790 0.067918 0.8 0 0
0.540702 0.658242 0.168549 0.8 0 0
0.555306 0.593868 0.102512 0.8 0 0
0.432024 0.048625 0.171945 0.8 0 0
0.448546 0.351596 0.084243 0.8 0 0
0.491585 0.865193 0.168391 0.8 0 0
0.543152 0.644922 0.116435 0.8 0 0
0.413404 0.039287 0.178040 0.8 0 0
0.546458 0.741047 0.183701 0.8 0 0
0.522185 0.699769 0.075951 0.8 0 0
0.454805 0.914995 0.168044 0.8 0 0
0.579437 0.486829 0.093671 0.8 0 0
0.210744 0.808953 0.112304 0.8 0 0
0.434068 0.054562 0.091443 0.8 0 0
0.544312 0.819299 0.093145 0.8 0 0
0.565976 0.722253 0.114175 0.8 0 0
0.453825 0.211161 0.082206 0.8 0 0
0.448754 0.450818 0.035260 0.8 0 0
0.468020 0.575963 0.183302 0.8 0 0
0.464443 0.419699 0.133594 0.8 0 0
0.459139 0.409709 0.182147 0.8 0 0
0.387957 0.416961 0.124362 0.8 0 0
0.549467 0.691476 0.120322 0.8 0 0
0.428421 0.362503 0.148621 0.8 0 0
0.566358 0.721017 0.154716 0.8 0 0
0.569038 0.567793 0.104483 0.8 0 0
0.399081 0.747870 0.120310 0.8 0 0
0.417168 0.492050 0.163134 0.8 0 0
0.475250 0.842639 0.136229 0.8 0 0
0.410481 0.479823 0.152360 0.8 0 0
0.410736 0.055367 0.102480 0.8 0 0
0.390031 0.448783 0.102459 0.8 0 0
0.412300 0.028609 0.110394 0.8 0 0
0.373208 0.461706 0.136163 0.8 0 0
0.554773 0.350224 0.107763 0.8 0 0
0.794141 0.799642 0.088613 0.8 0 0
0.430450 0.031824 0.152177 0.8 0 0
0.440837 0.951284 0.113899 0.8 0 0
0.487992 0.713982 0.059884 0.8 0 0
0.546923 0.277948 0.118413 0.8 0 0
0.340150 0.771607 0.098209 0.8 0 0
0.454896 0.796130 0.141403 0.8 0 0
0.412782 0.542198 0.064289 0.8 0 0
0.393187 0.421221 0.160521 0.8 0 0
0.569826 0.552319 0.097205 0.8 0 0
0.425658 0.504259 0.155095 0.8 0 0
0.459694 0.868197 0.091581 0.8 0 0
0.440931 0.291524 0.086481 0.8 0 0
0.413340 0.028472 0.115647 0.8 0 0
0.489022 0.397486 0.116993 0.8 0 0
0.399720 0.775021 0.072444 0.8 0 0
0.486956 0.626344 0.080786 0.8 0 0
0.546320 0.726011 0.084958 0.8 0 0
0.450393 0.214510 0.104814 0.8 0 0
0.256034 0.781801 0.087101 0.8 0 0
0.565574 0.405100 0.055656 0.8 0 0
0.500797 0.454759 0.035449 0.8 0 0
0.583697 0.466915 0.107149 0.8 0 0
0.544880 0.542505 0.153545 0.8 0 0
0.495224 0.339257 0.121027 0.8 0 0
0.558184 0.568356 0.149126 0.8 0 0
0.453605 0.663684 0.083654 0.8 0 0
0.451753 0.544001 0.172509 0.8 0 0
0.517868 0.601747 0.079385 0.8 0 0
0.398013 0.207003 0.087284 0.8 0 0
0.537294 0.565886 0.066189 0.8 0 0
0.530566 0.108619 0.124781 0.8 0 0
0.460124 0.897443 0.171704 0.8 0 0
0.378550 0.574415 0.110433 0.8 0 0
0.576314 0.774526 0.116060 0.8 0 0
0.468347 0.677962 0.075031 0.8 0 0
0.389789 0.411974 0.128657 0.8 0 0
0.474451 0.595273 0.190657 0.8 0 0
0.422271 0.736440 0.070721 0.8 0 0
0.478996 0.706204 0.208838 0.8 0 0
0.229172 0.775411 0.095403 0.8 0 0
0.253487 0.780433 0.088692 0.8 0 0
0.394080 0.424104 0.160574 0.8 0 0
0.532763 0.709237 0.186189 0.8 0 0
0.512747 0.773998 0.061397 0.8 0 0
0.555981 0.715938 0.100076 0.8 0 0
0.545483 0.748642 0.170451 0.8 0 0
0.523773 0.705104 0.078952 0.8 0 0
0.545792 0.638177 0.126002 0.8 0 0
0.401513 0.233516 0.102380 0.8 0 0
0.552078 0.200044 0.115686 0.8 0 0
0.488905 0.733107 0.069288 0.8 0 0
0.449951 0.573742 0.180849 0.8 0 0
0.489639 0.750611 0.174174 0.8 0 0
0.567019 0.547785 0.131597 0.8 0 0
0.413926 0.371560 0.083816 0.8 0 0
0.395871 0.358278 0.117967 0.8 0 0
0.474302 0.781262 0.152386 0.8 0 0
0.578322 0.499094 0.114782 0.8 0 0
0.468722 0.649635 0.081939 0.8 0 0
0.522493 0.819956 0.063256 0.8 0 0
0.751504 0.773060 0.098842 0.8 0 0
0.502324 0.909242 0.160545 0.8 0 0
0.365143 0.476374 0.113422 0.8 0 0
0.550550 0.604467 0.157294 0.8 0 0
0.548112 0.555466 0.067446 0.8 0 0
0.509520 0.342115 0.142181 0.8 0 0
