0.230302 0.429796 0.100475 0.8 0 0
0.055126 0.781689 0.047003 0.8 0 0
0.156324 0.631686 0.040632 0.8 0 0
0.193124 0.394326 0.123947 0.8 0 0
0.214666 0.151889 0.078302 0.8 0 0
0.182858 0.080975 0.080648 0.8 0 0
0.208048 0.251700 0.110991 0.8 0 0
0.184944 0.843718 0.045967 0.8 0 0
0.133589 0.869143 0.074810 0.8 0 0
0.212904 0.117058 0.082104 0.8 0 0
0.208773 0.573703 0.048111 0.8 0 0
0.221524 0.319848 0.077586 0.8 0 0
0.085251 0.351940 0.084274 0.8 0 0
0.216810 0.827456 0.037367 0.8 0 0
0.165897 0.414500 0.065199 0.8 0 0
0.139006 0.303801 0.080935 0.8 0 0
0.085610 0.416429 0.100144 0.8 0 0
0.123541 0.925810 0.040987 0.8 0 0
0.160008 0.894774 0.033007 0.8 0 0
0.204795 0.493311 0.121450 0.8 0 0
0.183058 0.236824 0.058782 0.8 0 0
0.115657 0.118194 0.070323 0.8 0 0
0.249692 0.635546 0.053352 0.8 0 0
0.251163 0.805227 0.042258 0.8 0 0
0.066261 0.770350 0.066315 0.8 0 0
0.146288 0.546876 0.032606 0.8 0 0
0.263779 0.667750 0.092450 0.8 0 0
0.223772 0.523268 0.053173 0.8 0 0
0.167686 0.487509 0.037983 0.8 0 0
0.172734 0.818966 0.032749 0.8 0 0
0.136969 0.797601 0.027116 0.8 0 0
0.150288 0.405128 0.077183 0.8 0 0
0.161205 0.820889 0.032725 0.8 0 0
0.109086 0.914905 0.071861 0.8 0 0
0.222637 0.366165 0.108424 0.8 0 0
0.125891 0.152234 0.084918 0.8 0 0
0.127477 0.809435 0.099038 0.8 0 0
0.109737 0.909018 0.064861 0.8 0 0
0.219670 0.473109 0.056690 0.8 0 0
0.230785 0.721137 0.039756 0.8 0 0
0.038765 0.534104 0.166754 0.8 0 0
0.030703 0.635423 0.098599 0.8 0 0
0.132825 0.440095 0.050031 0.8 0 0
0.164544 0.552265 0.129890 0.8 0 0
0.107674 0.931368 0.086726 0.8 0 0
0.215770 0.166538 0.080818 0.8 0 0
0.154604 0.464738 0.112456 0.8 0 0
0.214059 0.396453 0.064719 0.8 0 0
0.160622 0.916598 0.031846 0.8 0 0
0.135569 0.971439 0.079614 0.8 0 0
0.174612 0.208379 0.067344 0.8 0 0
0.227431 0.562514 0.109622 0.8 0 0
0.135687 0.850838 0.048686 0.8 0 0
0.135468 0.905658 0.034903 0.8 0 0
0.162820 0.402321 0.096003 0.8 0 0
0.174840 0.158326 0.071709 0.8 0 0
0.169681 0.510025 0.034753 0.8 0 0
0.193021 0.705046 0.128535 0.8 0 0
0.146913 0.378619 0.077594 0.8 0 0
0.268730 0.679175 0.062262 0.8 0 0
0.207560 0.047935 0.121280 0.8 0 0
0.132283 0.943214 0.113209 0.8 0 0
0.178236 0.045552 0.087794 0.8 0 0
0.125047 0.888535 0.088643 0.8 0 0
0.231752 0.561508 0.103230 0.8 0 0
0.128804 0.432081 0.123626 0.8 0 0
0.084864 0.347863 0.099934 0.8 0 0
0.174601 0.182938 0.070423 0.8 0 0
0.125835 0.964631 0.093644 0.8 0 0
0.027877 0.568004 0.133250 0.8 0 0
0.162344 0.459699 0.052515 0.8 0 0
0.188074 0.034930 0.059401 0.8 0 0
0.197666 0.114841 0.094842 0.8 0 0
0.139370 0.482842 0.125692 0.8 0 0
0.128641 0.240722 0.107004 0.8 0 0
0.200770 0.113425 0.057775 0.8 0 0
0.075443 0.564950 0.084622 0.8 0 0
0.209450 0.079383 0.085809 0.8 0 0
0.093496 0.823323 0.035984 0.8 0 0
0.085136 0.309956 0.081525 0.8 0 0
0.069319 0.754755 0.044933 0.8 0 0
0.255077 0.688572 0.094007 0.8 0 0
0.174922 0.411580 0.053678 0.8 0 0
0.147722 0.732005 0.137584 0.8 0 0
0.164621 0.670907 0.128815 0.8 0 0
0.179700 0.118583 0.076997 0.8 0 0
0.117254 0.058723 0.083051 0.8 0 0
0.125521 0.201319 0.102804 0.8 0 0
0.083464 0.331584 0.090332 0.8 0 0
0.200924 0.944749 0.068850 0.8 0 0
0.040590 0.533458 0.152956 0.8 0 0
0.120097 0.391513 0.121955 0.8 0 0
0.247219 0.782074 0.043879 0.8 0 0
0.114745 0.067043 0.089548 0.8 0 0
0.227405 0.357425 0.098215 0.8 0 0
0.056398 0.774531 0.088572 0.8 0 0
0.201421 0.556390 0.125085 0.8 0 0
0.060826 0.733262 0.094732 0.8 0 0
0.229330 0.546209 0.059104 0.8 0 0
0.248743 0.732010 0.040791 0.8 0 0
0.214435 0.558100 0.048900 0.8 0 0
0.048820 0.587008 0.097674 0.8 0 0
0.158451 0.692079 0.030427 0.8 0 0
0.170010 0.248079 0.096871 0.8 0 0
0.145658 0.905631 0.032899 0.8 0 0
0.167018 0.730912 0.137344 0.8 0 0
0.181807 0.854119 0.054495 0.8 0 0
0.220667 0.472177 0.057513 0.8 0 0
0.108449 0.069705 0.094344 0.8 0 0
0.070222 0.716099 0.090000 0.8 0 0
0.167838 0.745333 0.025773 0.8 0 0
0.039741 0.523132 0.167361 0.8 0 0
0.064019 0.784596 0.094454 0.8 0 0
0.227074 0.744080 0.028115 0.8 0 0
0.217687 0.250337 0.101902 0.8 0 0
0.242423 0.801604 0.033292 0.8 0 0
0.222524 0.315196 0.080679 0.8 0 0
0.132037 0.803483 0.103466 0.8 0 0
0.177554 0.169036 0.060813 0.8 0 0
0.269199 0.674850 0.063047 0.8 0 0
0.058355 0.798056 0.041527 0.8 0 0
0.172803 0.685164 0.129127 0.8 0 0
0.091782 0.619565 0.098758 0.8 0 0
0.098457 0.165918 0.056773 0.8 0 0
0.167181 0.338968 0.109064 0.8 0 0
0.180203 0.843333 0.044236 0.8 0 0
0.095243 0.825565 0.067724 0.8 0 0
0.246869 0.665409 0.092810 0.8 0 0
0.222389 0.592779 0.061629 0.8 0 0
0.101285 0.110497 0.059860 0.8 0 0
0.193701 0.510256 0.038362 0.8 0 0
0.177834 0.135705 0.081991 0.8 0 0
0.122383 0.326453 0.061342 0.8 0 0
0.197872 0.097200 0.056748 0.8 0 0
0.083542 0.184267 0.071219 0.8 0 0
0.167725 0.348129 0.118083 0.8 0 0
0.135045 0.651118 0.126089 0.8 0 0
0.159287 0.659423 0.128417 0.8 0 0
0.209575 0.218929 0.106597 0.8 0 0
0.097047 0.043853 0.131797 0.8 0 0
0.149827 0.840023 0.090586 0.8 0 0
0.217739 0.687608 0.037994 0.8 0 0
0.276237 0.570124 0.093657 0.8 0 0
0.157789 0.488795 0.105589 0.8 0 0
0.033741 0.629489 0.079795 0.8 0 0
0.219864 0.409342 0.066336 0.8 0 0
0.135750 0.265265 0.089700 0.8 0 0
0.167764 0.334473 0.080970 0.8 0 0
0.161456 0.475643 0.122373 0.8 0 0
0.085048 0.246553 0.073907 0.8 0 0
0.234788 0.703622 0.090909 0.8 0 0
0.173300 0.939480 0.121197 0.8 0 0
0.198040 0.949615 0.057476 0.8 0 0
0.266271 0.519280 0.073491 0.8 0 0
0.115337 0.137504 0.066760 0.8 0 0
0.160604 0.635612 0.126149 0.8 0 0
0.193737 0.888696 0.052155 0.8 0 0
0.067536 0.644649 0.081003 0.8 0 0
0.202523 0.031481 0.139422 0.8 0 0
0.187850 0.263796 0.058557 0.8 0 0
0.210382 0.155004 0.088482 0.8 0 0
0.273335 0.496796 0.075529 0.8 0 0
0.040141 0.667422 0.053429 0.8 0 0
0.153364 0.597215 0.128615 0.8 0 0
0.186130 0.392897 0.123164 0.8 0 0
0.231617 0.678373 0.093302 0.8 0 0
0.232083 0.725602 0.058489 0.8 0 0
0.129983 0.251071 0.107780 0.8 0 0
0.256992 0.785097 0.050845 0.8 0 0
0.226763 0.526608 0.110599 0.8 0 0
0.268977 0.501157 0.082578 0.8 0 0
0.154856 0.598738 0.041020 0.8 0 0
0.134302 0.298350 0.066743 0.8 0 0
0.156241 0.836325 0.093397 0.8 0 0
0.222505 0.265579 0.081508 0.8 0 0
0.189660 0.959972 0.099593 0.8 0 0
0.044323 0.727269 0.061892 0.8 0 0
0.099195 0.633204 0.063883 0.8 0 0
0.141624 0.378293 0.061591 0.8 0 0
0.242260 0.754221 0.085322 0.8 0 0
0.214364 0.063033 0.079235 0.8 0 0
0.181219 0.091362 0.082603 0.8 0 0
0.242569 0.657333 0.050784 0.8 0 0
0.067406 0.642863 0.081109 0.8 0 0
0.121339 0.601182 0.122992 0.8 0 0
0.113104 0.810580 0.096759 0.8 0 0
0.261616 0.756977 0.067085 0.8 0 0
0.187111 0.880179 0.086566 0.8 0 0
0.141203 0.524478 0.035103 0.8 0 0
0.208945 0.335170 0.067316 0.8 0 0
0.177963 0.366406 0.063599 0.8 0 0
0.114758 0.668167 0.039261 0.8 0 0
0.081711 0.242197 0.084451 0.8 0 0
0.152960 0.428679 0.078241 0.8 0 0
0.259352 0.654397 0.094949 0.8 0 0
0.189158 0.631215 0.048692 0.8 0 0
0.214707 0.174465 0.076369 0.8 0 0
0.084898 0.767936 0.117950 0.8 0 0
0.215520 0.607829 0.062013 0.8 0 0
0.204860 0.478678 0.121189 0.8 0 0
0.251602 0.794033 0.076930 0.8 0 0
0.116752 0.258181 0.114038 0.8 0 0
0.175384 0.223096 0.062442 0.8 0 0
0.061399 0.583042 0.100015 0.8 0 0
0.179903 0.578154 0.039248 0.8 0 0
0.094382 0.511733 0.113186 0.8 0 0
0.063383 0.789107 0.045605 0.8 0 0
0.195413 0.141098 0.057736 0.8 0 0
0.048000 0.753687 0.075887 0.8 0 0
0.247817 0.600118 0.058399 0.8 0 0
0.236796 0.737802 0.077922 0.8 0 0
0.201634 0.219324 0.110509 0.8 0 0
0.206047 0.348054 0.066696 0.8 0 0
0.140806 0.796244 0.027022 0.8 0 0
0.114642 0.605136 0.119113 0.8 0 0
0.131226 0.829962 0.082998 0.8 0 0
0.201382 0.126392 0.091992 0.8 0 0
0.055145 0.778649 0.081179 0.8 0 0
0.182156 0.870517 0.077796 0.8 0 0
0.195218 0.824918 0.080864 0.8 0 0
0.212205 0.047470 0.058505 0.8 0 0
0.186884 0.796487 0.027807 0.8 0 0
0.126696 0.837211 0.068348 0.8 0 0
0.195726 0.907167 0.080612 0.8 0 0
0.265354 0.740501 0.062872 0.8 0 0
0.178776 0.368356 0.063037 0.8 0 0
0.174579 0.370776 0.063076 0.8 0 0
0.182013 0.401139 0.122639 0.8 0 0
0.206701 0.098209 0.056980 0.8 0 0
0.181129 0.196781 0.059327 0.8 0 0
0.178181 0.567270 0.129168 0.8 0 0
0.227563 0.452351 0.067257 0.8 0 0
0.252486 0.560329 0.071310 0.8 0 0
0.141745 0.458548 0.045096 0.8 0 0
0.110488 0.357430 0.059312 0.8 0 0
0.087936 0.354012 0.073392 0.8 0 0
0.172603 0.868902 0.048005 0.8 0 0
0.232712 0.714657 0.102617 0.8 0 0
0.174240 0.811035 0.030773 0.8 0 0
0.197559 0.121344 0.094317 0.8 0 0
0.238192 0.741313 0.080411 0.8 0 0
0.077513 0.546586 0.089721 0.8 0 0
0.111829 0.817711 0.089239 0.8 0 0
0.161324 0.963172 0.048979 0.8 0 0
0.104562 0.170372 0.054200 0.8 0 0
0.130527 0.396566 0.057803 0.8 0 0
0.165677 0.527868 0.127680 0.8 0 0
0.137072 0.325370 0.069483 0.8 0 0
0.220247 0.208509 0.076009 0.8 0 0
0.194118 0.106853 0.057747 0.8 0 0
0.088765 0.082076 0.068285 0.8 0 0
0.232730 0.692558 0.094423 0.8 0 0
0.213647 0.460676 0.054412 0.8 0 0
0.204039 0.727079 0.025745 0.8 0 0
0.201229 0.361198 0.122305 0.8 0 0
0.109418 0.921870 0.081847 0.8 0 0
0.210843 0.070836 0.055242 0.8 0 0
0.084218 0.664887 0.069614 0.8 0 0
0.144223 0.351344 0.098865 0.8 0 0
0.129242 0.827369 0.085029 0.8 0 0
0.066423 0.615145 0.077059 0.8 0 0
0.186142 0.535348 0.035835 0.8 0 0
0.198048 0.150282 0.105593 0.8 0 0
0.131877 0.846624 0.053998 0.8 0 0
0.264464 0.549525 0.062012 0.8 0 0
0.181287 0.273147 0.060453 0.8 0 0
0.196649 0.058022 0.112589 0.8 0 0
0.142083 0.974811 0.071966 0.8 0 0
0.214024 0.829671 0.038970 0.8 0 0
0.159281 0.499314 0.039879 0.8 0 0
0.042883 0.515343 0.145669 0.8 0 0
0.131250 0.905309 0.035790 0.8 0 0
0.102903 0.427899 0.056329 0.8 0 0
0.234782 0.744844 0.039053 0.8 0 0
0.236045 0.541076 0.096530 0.8 0 0
0.261080 0.738370 0.073641 0.8 0 0
0.214911 0.540221 0.116351 0.8 0 0
0.166398 0.378595 0.079536 0.8 0 0
0.044780 0.589382 0.096803 0.8 0 0
0.164557 0.399468 0.114166 0.8 0 0
0.187383 0.554303 0.036401 0.8 0 0
0.109635 0.751773 0.136878 0.8 0 0
0.134901 0.238084 0.085353 0.8 0 0
0.183603 0.198637 0.105543 0.8 0 0
0.213598 0.530025 0.046903 0.8 0 0
0.177691 0.684570 0.032624 0.8 0 0
0.076845 0.820613 0.064932 0.8 0 0
0.152443 0.528298 0.127858 0.8 0 0
0.280563 0.581291 0.082826 0.8 0 0
0.094990 0.508948 0.113492 0.8 0 0
0.164892 0.378630 0.107202 0.8 0 0
0.177942 0.181040 0.060744 0.8 0 0
0.240028 0.754587 0.058454 0.8 0 0
0.185525 0.508747 0.037358 0.8 0 0
0.144443 0.387033 0.065216 0.8 0 0
0.232716 0.449285 0.080960 0.8 0 0
0.045781 0.611495 0.081134 0.8 0 0
0.074902 0.526396 0.082107 0.8 0 0
0.228411 0.631361 0.087815 0.8 0 0
0.088671 0.131292 0.066638 0.8 0 0
0.035927 0.541212 0.177885 0.8 0 0
0.142852 0.593248 0.127780 0.8 0 0
0.175167 0.961457 0.107892 0.8 0 0
0.169236 0.246553 0.090413 0.8 0 0
0.206156 0.746355 0.139716 0.8 0 0
0.175882 0.797778 0.105578 0.8 0 0
0.143675 0.636310 0.041384 0.8 0 0
0.196875 0.804649 0.030174 0.8 0 0
0.254748 0.814326 0.058148 0.8 0 0
0.213884 0.112999 0.081372 0.8 0 0
0.217851 0.234266 0.099573 0.8 0 0
0.226122 0.356969 0.100657 0.8 0 0
0.237975 0.574987 0.091217 0.8 0 0
0.223751 0.254931 0.090972 0.8 0 0
0.086956 0.302161 0.104542 0.8 0 0
0.148146 0.421063 0.057066 0.8 0 0
0.090867 0.097494 0.058296 0.8 0 0
0.104118 0.253234 0.059025 0.8 0 0
0.209224 0.075255 0.053782 0.8 0 0
0.152493 0.950016 0.036508 0.8 0 0
0.205033 0.064533 0.101153 0.8 0 0
0.087434 0.410220 0.104414 0.8 0 0
0.175464 0.871062 0.048488 0.8 0 0
0.085938 0.602061 0.079544 0.8 0 0
0.159622 0.482034 0.092339 0.8 0 0
0.190750 0.215924 0.055748 0.8 0 0
0.132630 0.389532 0.118633 0.8 0 0
0.271603 0.506055 0.103845 0.8 0 0
0.263836 0.552089 0.085521 0.8 0 0
0.130034 0.407506 0.121521 0.8 0 0
0.094740 0.435325 0.112902 0.8 0 0
0.181470 0.090852 0.081677 0.8 0 0
0.031171 0.608993 0.099628 0.8 0 0
0.089684 0.343629 0.111775 0.8 0 0
0.088490 0.424959 0.106770 0.8 0 0
0.205998 0.050349 0.116901 0.8 0 0
0.142842 0.525210 0.127012 0.8 0 0
0.219663 0.135700 0.083005 0.8 0 0
0.175881 0.898512 0.037293 0.8 0 0
0.183218 0.378814 0.060013 0.8 0 0
0.118044 0.434689 0.122876 0.8 0 0
0.124971 0.819845 0.090921 0.8 0 0
0.206606 0.373468 0.120379 0.8 0 0
0.197766 0.032911 0.048432 0.8 0 0
0.113842 0.222598 0.111653 0.8 0 0
0.185769 0.524180 0.125610 0.8 0 0
0.125416 0.784124 0.116675 0.8 0 0
0.113296 0.161156 0.061986 0.8 0 0
0.216239 0.138019 0.090132 0.8 0 0
0.091655 0.550990 0.109619 0.8 0 0
0.079180 0.690758 0.085391 0.8 0 0
0.237923 0.508752 0.076337 0.8 0 0
0.112976 0.140446 0.061122 0.8 0 0
0.102834 0.465951 0.117403 0.8 0 0
0.134161 0.228028 0.084639 0.8 0 0
0.204292 0.041595 0.136406 0.8 0 0
0.184831 0.876998 0.099287 0.8 0 0
0.112831 0.356569 0.058239 0.8 0 0
0.066983 0.768775 0.040022 0.8 0 0
0.083028 0.272465 0.093664 0.8 0 0
0.094835 0.455433 0.113078 0.8 0 0
0.106182 0.790257 0.112358 0.8 0 0
0.143406 0.403043 0.117340 0.8 0 0
0.238684 0.497492 0.091316 0.8 0 0
0.221397 0.767549 0.123218 0.8 0 0
0.214377 0.480756 0.051917 0.8 0 0
0.091563 0.707769 0.036556 0.8 0 0
0.224046 0.332570 0.084954 0.8 0 0
0.158641 0.495642 0.062317 0.8 0 0
0.230074 0.511563 0.058091 0.8 0 0
0.141634 0.866194 0.121861 0.8 0 0
0.081672 0.691212 0.059780 0.8 0 0
0.241146 0.691274 0.074109 0.8 0 0
0.164825 0.413466 0.123372 0.8 0 0
0.092811 0.436819 0.111885 0.8 0 0
0.073412 0.730288 0.052510 0.8 0 0
0.131897 0.959254 0.050300 0.8 0 0
0.079933 0.513174 0.071142 0.8 0 0
0.221482 0.616624 0.110686 0.8 0 0
0.037016 0.519223 0.187523 0.8 0 0
0.041472 0.511955 0.174684 0.8 0 0
0.252450 0.700595 0.044710 0.8 0 0
0.204599 0.835765 0.051294 0.8 0 0
0.081947 0.168338 0.074072 0.8 0 0
0.162253 0.850668 0.045937 0.8 0 0
0.080778 0.412313 0.085456 0.8 0 0
0.227277 0.767378 0.121297 0.8 0 0
0.167107 0.739477 0.025518 0.8 0 0
0.043549 0.559087 0.140537 0.8 0 0
0.151887 0.412843 0.084683 0.8 0 0
0.071553 0.732151 0.081762 0.8 0 0
0.180064 0.143245 0.059305 0.8 0 0
0.132941 0.272989 0.109351 0.8 0 0
0.221457 0.744160 0.132684 0.8 0 0
0.124393 0.259425 0.112099 0.8 0 0
0.106535 0.485226 0.119493 0.8 0 0
0.076951 0.517915 0.077236 0.8 0 0
0.172828 0.271555 0.066804 0.8 0 0
0.139148 0.788474 0.026831 0.8 0 0
0.127651 0.671385 0.126508 0.8 0 0
0.108883 0.922975 0.072324 0.8 0 0
0.211932 0.169478 0.067120 0.8 0 0
0.174123 0.470130 0.041686 0.8 0 0
0.153285 0.805887 0.099816 0.8 0 0
0.226963 0.533258 0.055817 0.8 0 0
0.185548 0.828957 0.081486 0.8 0 0
0.174420 0.798913 0.104789 0.8 0 0
0.046344 0.501425 0.167297 0.8 0 0
0.266019 0.572768 0.101509 0.8 0 0
0.188696 0.261127 0.058247 0.8 0 0
0.095612 0.319793 0.067158 0.8 0 0
0.273537 0.545712 0.102767 0.8 0 0
0.137433 0.299984 0.076630 0.8 0 0
0.111111 0.819566 0.087159 0.8 0 0
0.174577 0.145400 0.073847 0.8 0 0
0.098402 0.255033 0.109962 0.8 0 0
0.138819 0.354915 0.066389 0.8 0 0
0.079578 0.704922 0.102093 0.8 0 0
0.202935 0.371312 0.121515 0.8 0 0
0.235804 0.716229 0.079253 0.8 0 0
0.281679 0.567598 0.078336 0.8 0 0
0.253474 0.790867 0.081501 0.8 0 0
0.152459 0.969397 0.097928 0.8 0 0
0.102727 0.273616 0.113447 0.8 0 0
0.204509 0.561498 0.042435 0.8 0 0
0.182598 0.190161 0.058532 0.8 0 0
0.224619 0.283898 0.093155 0.8 0 0
0.199285 0.494746 0.041643 0.8 0 0
0.209907 0.625401 0.120779 0.8 0 0
0.186208 0.968243 0.078146 0.8 0 0
0.162338 0.419949 0.100686 0.8 0 0
0.246035 0.616107 0.063730 0.8 0 0
0.160151 0.484314 0.053225 0.8 0 0
0.213577 0.808990 0.091747 0.8 0 0
0.075148 0.731039 0.103046 0.8 0 0
0.080764 0.697136 0.058941 0.8 0 0
0.104956 0.081201 0.096126 0.8 0 0
0.211720 0.107864 0.073926 0.8 0 0
0.107200 0.343083 0.120514 0.8 0 0
0.233016 0.698042 0.058826 0.8 0 0
0.144733 0.621575 0.125392 0.8 0 0
0.228854 0.667729 0.099564 0.8 0 0
0.088551 0.647846 0.071286 0.8 0 0
0.102126 0.715610 0.028823 0.8 0 0
0.037979 0.515581 0.190408 0.8 0 0
0.124166 0.280884 0.114069 0.8 0 0
0.124038 0.557956 0.037193 0.8 0 0
0.058758 0.588777 0.118120 0.8 0 0
0.055207 0.557404 0.132027 0.8 0 0
0.267726 0.697284 0.078069 0.8 0 0
0.216092 0.313662 0.070743 0.8 0 0
0.112827 0.301447 0.118941 0.8 0 0
0.160117 0.471308 0.094415 0.8 0 0
0.209162 0.655092 0.050207 0.8 0 0
0.261901 0.649061 0.095291 0.8 0 0
0.120736 0.252308 0.061034 0.8 0 0
0.221957 0.314294 0.078987 0.8 0 0
0.114120 0.736244 0.141863 0.8 0 0
0.111392 0.783476 0.027102 0.8 0 0
0.094226 0.041719 0.136501 0.8 0 0
0.098005 0.044473 0.130412 0.8 0 0
0.131233 0.898578 0.123372 0.8 0 0
0.231001 0.761378 0.120255 0.8 0 0
0.165771 0.418800 0.057744 0.8 0 0
0.193917 0.960155 0.067345 0.8 0 0
0.205215 0.514274 0.040852 0.8 0 0
0.112112 0.143889 0.092941 0.8 0 0
0.158102 0.497346 0.110381 0.8 0 0
0.217504 0.732973 0.133826 0.8 0 0
0.122107 0.381384 0.120508 0.8 0 0
0.234047 0.596198 0.082669 0.8 0 0
0.105175 0.393325 0.117447 0.8 0 0
0.038230 0.698575 0.069147 0.8 0 0
0.112661 0.141096 0.056444 0.8 0 0
0.160544 0.475045 0.065732 0.8 0 0
0.246996 0.781156 0.044519 0.8 0 0
0.179529 0.281272 0.061214 0.8 0 0
0.189421 0.443461 0.048191 0.8 0 0
0.099869 0.168747 0.056341 0.8 0 0
0.216460 0.176207 0.067044 0.8 0 0
0.136359 0.260944 0.087446 0.8 0 0
0.069500 0.682975 0.081860 0.8 0 0
0.257202 0.680107 0.094563 0.8 0 0
0.107983 0.142751 0.053483 0.8 0 0
0.138824 0.806810 0.029135 0.8 0 0
0.162625 0.755973 0.131415 0.8 0 0
0.096951 0.776233 0.118207 0.8 0 0
0.227229 0.419160 0.075612 0.8 0 0
0.092087 0.357586 0.111464 0.8 0 0
0.167003 0.732745 0.025155 0.8 0 0
0.087630 0.097975 0.069346 0.8 0 0
0.138110 0.501109 0.126052 0.8 0 0
0.033305 0.654822 0.088073 0.8 0 0
0.087924 0.730589 0.026729 0.8 0 0
0.083100 0.736090 0.127318 0.8 0 0
0.079746 0.173620 0.081570 0.8 0 0
0.056816 0.765826 0.039246 0.8 0 0
0.253554 0.808731 0.048787 0.8 0 0
0.105062 0.061721 0.106495 0.8 0 0
0.138118 0.608217 0.125234 0.8 0 0
0.237297 0.731755 0.096485 0.8 0 0
0.188976 0.582582 0.126020 0.8 0 0
0.087768 0.353976 0.074057 0.8 0 0
0.145861 0.586440 0.041318 0.8 0 0
0.191526 0.654893 0.127951 0.8 0 0
0.245693 0.628598 0.067154 0.8 0 0
0.202060 0.235366 0.059021 0.8 0 0
0.035195 0.529235 0.149878 0.8 0 0
0.117362 0.206995 0.059999 0.8 0 0
0.092625 0.156480 0.094721 0.8 0 0
0.060111 0.757952 0.040755 0.8 0 0
0.083083 0.688864 0.108539 0.8 0 0
0.143684 0.357215 0.112316 0.8 0 0
0.222272 0.761385 0.027080 0.8 0 0
0.209395 0.111439 0.085479 0.8 0 0
0.206678 0.254185 0.111745 0.8 0 0
0.218899 0.190083 0.072948 0.8 0 0
0.130885 0.733064 0.139575 0.8 0 0
0.254027 0.813937 0.055763 0.8 0 0
0.134360 0.392715 0.057790 0.8 0 0
0.082727 0.489230 0.098542 0.8 0 0
0.092538 0.457594 0.111868 0.8 0 0
0.133338 0.560974 0.036180 0.8 0 0
0.159653 0.493580 0.043817 0.8 0 0
0.182322 0.959626 0.105761 0.8 0 0
0.257333 0.770440 0.044351 0.8 0 0
0.123604 0.135270 0.070048 0.8 0 0
0.221741 0.454793 0.113612 0.8 0 0
0.254587 0.755700 0.039630 0.8 0 0
0.160380 0.494229 0.121435 0.8 0 0
0.071632 0.723865 0.076503 0.8 0 0
0.169815 0.368956 0.068027 0.8 0 0
0.145997 0.410483 0.056546 0.8 0 0
0.150525 0.948792 0.120471 0.8 0 0
0.201503 0.408294 0.056394 0.8 0 0
0.220921 0.278127 0.099405 0.8 0 0
0.080449 0.062499 0.082949 0.8 0 0
0.217386 0.271218 0.105091 0.8 0 0
0.120278 0.535475 0.039145 0.8 0 0
0.163484 0.937853 0.119785 0.8 0 0
0.065793 0.626891 0.085158 0.8 0 0
0.117065 0.614901 0.056200 0.8 0 0
0.183895 0.089917 0.070458 0.8 0 0
0.206101 0.035704 0.136336 0.8 0 0
0.069785 0.764912 0.098077 0.8 0 0
0.225492 0.810776 0.082404 0.8 0 0
0.118575 0.149489 0.088845 0.8 0 0
0.070639 0.713470 0.083466 0.8 0 0
0.067670 0.757046 0.092709 0.8 0 0
0.119694 0.333685 0.119967 0.8 0 0
0.210308 0.089089 0.085033 0.8 0 0
0.087286 0.511884 0.056245 0.8 0 0
0.186786 0.966947 0.090774 0.8 0 0
0.211176 0.200177 0.103601 0.8 0 0
0.128102 0.968804 0.061845 0.8 0 0
0.106788 0.612131 0.115455 0.8 0 0
0.119541 0.959362 0.066645 0.8 0 0
0.103875 0.263918 0.113691 0.8 0 0
0.172378 0.253711 0.109538 0.8 0 0
0.108657 0.111973 0.059930 0.8 0 0
0.184187 0.124146 0.060778 0.8 0 0
0.214682 0.792095 0.028571 0.8 0 0
0.101318 0.033720 0.049217 0.8 0 0
0.092132 0.651748 0.112496 0.8 0 0
0.234430 0.820836 0.061120 0.8 0 0
0.041233 0.513270 0.174186 0.8 0 0
0.139643 0.293186 0.085533 0.8 0 0
0.209604 0.483586 0.118865 0.8 0 0
0.071919 0.739176 0.050145 0.8 0 0
0.219822 0.375907 0.071294 0.8 0 0
0.088722 0.681583 0.117348 0.8 0 0
0.132561 0.272694 0.109542 0.8 0 0
0.143169 0.343373 0.100048 0.8 0 0
0.074923 0.722096 0.057062 0.8 0 0
0.253673 0.809330 0.059904 0.8 0 0
0.229584 0.375923 0.095999 0.8 0 0
0.216262 0.591543 0.113596 0.8 0 0
0.038567 0.595440 0.093761 0.8 0 0
0.217116 0.463328 0.114748 0.8 0 0
0.216560 0.171534 0.067386 0.8 0 0
0.104744 0.052787 0.066204 0.8 0 0
0.166197 0.330366 0.098378 0.8 0 0
0.155140 0.444450 0.082818 0.8 0 0
0.194862 0.928701 0.100930 0.8 0 0
0.112671 0.511057 0.122921 0.8 0 0
0.174217 0.800503 0.028032 0.8 0 0
0.183783 0.050221 0.050023 0.8 0 0
0.229615 0.677318 0.081967 0.8 0 0
0.283194 0.539092 0.082837 0.8 0 0
0.123613 0.894911 0.093033 0.8 0 0
0.175599 0.237609 0.108596 0.8 0 0
0.090033 0.032001 0.150813 0.8 0 0
0.177600 0.811341 0.096764 0.8 0 0
0.158817 0.497583 0.104276 0.8 0 0
0.163386 0.576177 0.036091 0.8 0 0
0.039730 0.541121 0.161089 0.8 0 0
0.168492 0.320752 0.112292 0.8 0 0
0.273857 0.559389 0.100235 0.8 0 0
0.085763 0.495478 0.060222 0.8 0 0
0.133268 0.257461 0.072834 0.8 0 0
0.103746 0.052285 0.065986 0.8 0 0
0.159778 0.473184 0.087880 0.8 0 0
0.083073 0.602044 0.089653 0.8 0 0
0.225213 0.368075 0.103631 0.8 0 0
0.122437 0.506066 0.040888 0.8 0 0
0.112967 0.157275 0.103789 0.8 0 0
0.043396 0.700088 0.055366 0.8 0 0
0.199568 0.787314 0.027955 0.8 0 0
0.175841 0.344558 0.120930 0.8 0 0
0.246663 0.605176 0.062259 0.8 0 0
0.072699 0.732305 0.067604 0.8 0 0
0.175929 0.490834 0.125362 0.8 0 0
0.037655 0.644885 0.102739 0.8 0 0
0.147287 0.431060 0.119683 0.8 0 0
0.093812 0.786695 0.109823 0.8 0 0
0.181521 0.156625 0.088098 0.8 0 0
0.273614 0.501784 0.075143 0.8 0 0
0.044169 0.547847 0.138528 0.8 0 0
0.103433 0.185440 0.110376 0.8 0 0
0.130677 0.835937 0.039752 0.8 0 0
0.181590 0.306236 0.061876 0.8 0 0
0.211059 0.548512 0.118781 0.8 0 0
0.189681 0.441989 0.123218 0.8 0 0
0.121786 0.574253 0.042419 0.8 0 0
0.205441 0.036059 0.056530 0.8 0 0
0.228674 0.605502 0.075244 0.8 0 0
0.219534 0.817910 0.033945 0.8 0 0
0.202643 0.706751 0.030068 0.8 0 0
0.105212 0.239274 0.113803 0.8 0 0
0.138583 0.287429 0.088748 0.8 0 0
0.136390 0.320860 0.068286 0.8 0 0
0.126464 0.272755 0.062607 0.8 0 0
0.071958 0.724908 0.072992 0.8 0 0
0.167689 0.572340 0.129842 0.8 0 0
0.132542 0.635563 0.125903 0.8 0 0
0.215821 0.566907 0.050364 0.8 0 0
0.032851 0.584414 0.143010 0.8 0 0
0.128609 0.967335 0.087965 0.8 0 0
0.168344 0.849382 0.087503 0.8 0 0
0.233781 0.742817 0.037368 0.8 0 0
0.214247 0.310134 0.069541 0.8 0 0
0.152709 0.439895 0.063689 0.8 0 0
0.114327 0.838641 0.047995 0.8 0 0
0.080012 0.562962 0.075203 0.8 0 0
0.183654 0.379797 0.122977 0.8 0 0
0.108608 0.064366 0.048673 0.8 0 0
0.266437 0.695285 0.058520 0.8 0 0
0.269274 0.550393 0.069691 0.8 0 0
0.169794 0.721812 0.136273 0.8 0 0
0.174991 0.311180 0.117311 0.8 0 0
0.039806 0.610724 0.135149 0.8 0 0
0.090571 0.029541 0.150012 0.8 0 0
0.179608 0.334180 0.120987 0.8 0 0
0.103817 0.546062 0.047422 0.8 0 0
0.174880 0.502550 0.036715 0.8 0 0
0.124084 0.803764 0.103361 0.8 0 0
0.161482 0.468021 0.118936 0.8 0 0
0.232540 0.467085 0.099619 0.8 0 0
0.188691 0.177138 0.055380 0.8 0 0
0.192790 0.102756 0.057327 0.8 0 0
0.070020 0.716906 0.092921 0.8 0 0
0.099697 0.212519 0.108482 0.8 0 0
0.122169 0.903009 0.086604 0.8 0 0
0.113038 0.236955 0.113146 0.8 0 0
0.100085 0.811009 0.092206 0.8 0 0
0.157701 0.501932 0.046252 0.8 0 0
0.036040 0.508254 0.180677 0.8 0 0
0.112063 0.473023 0.046617 0.8 0 0
0.034371 0.666155 0.069580 0.8 0 0
0.180251 0.146970 0.072517 0.8 0 0
0.063721 0.761050 0.093126 0.8 0 0
0.100236 0.376498 0.114861 0.8 0 0
0.230252 0.419506 0.083592 0.8 0 0
0.124134 0.616641 0.124510 0.8 0 0
0.265623 0.710349 0.057009 0.8 0 0
0.133274 0.925972 0.034320 0.8 0 0
0.095912 0.163977 0.057747 0.8 0 0
0.085149 0.071337 0.074112 0.8 0 0
0.098860 0.451797 0.056085 0.8 0 0
0.262708 0.745813 0.069204 0.8 0 0
0.084917 0.116590 0.078508 0.8 0 0
0.245429 0.671829 0.088025 0.8 0 0
0.269506 0.551925 0.070752 0.8 0 0
0.109366 0.492826 0.121048 0.8 0 0
0.123177 0.164636 0.093419 0.8 0 0
0.203465 0.932455 0.098104 0.8 0 0
0.202208 0.292265 0.061876 0.8 0 0
0.086668 0.600499 0.095395 0.8 0 0
0.136180 0.361815 0.062685 0.8 0 0
0.219360 0.583494 0.057637 0.8 0 0
0.168889 0.933402 0.122369 0.8 0 0
0.080954 0.677543 0.083374 0.8 0 0
0.204081 0.054695 0.046861 0.8 0 0
0.076179 0.721625 0.046272 0.8 0 0
0.203406 0.569096 0.123973 0.8 0 0
0.092368 0.306729 0.068129 0.8 0 0
0.232695 0.721307 0.039868 0.8 0 0
0.055194 0.788320 0.049999 0.8 0 0
0.226383 0.659394 0.105588 0.8 0 0
0.083268 0.661056 0.079729 0.8 0 0
0.274996 0.583815 0.067323 0.8 0 0
0.227018 0.464613 0.062999 0.8 0 0
0.163628 0.427667 0.079796 0.8 0 0
0.129757 0.957140 0.050540 0.8 0 0
0.165117 0.810432 0.097071 0.8 0 0
0.210903 0.591160 0.055304 0.8 0 0
0.198632 0.039200 0.142770 0.8 0 0
0.179405 0.306004 0.062356 0.8 0 0
0.268859 0.537904 0.105153 0.8 0 0
0.176425 0.733878 0.025281 0.8 0 0
0.162126 0.429277 0.104207 0.8 0 0
0.205258 0.135839 0.056166 0.8 0 0
0.045568 0.573850 0.149086 0.8 0 0
0.103418 0.053318 0.115390 0.8 0 0
0.108782 0.207896 0.111702 0.8 0 0
0.166754 0.333248 0.103690 0.8 0 0
0.195310 0.683408 0.033668 0.8 0 0
0.046756 0.719111 0.051211 0.8 0 0
0.042926 0.556048 0.165537 0.8 0 0
0.190784 0.465470 0.044945 0.8 0 0
0.048565 0.653007 0.057220 0.8 0 0
0.196132 0.583469 0.044669 0.8 0 0
0.073451 0.727942 0.090438 0.8 0 0
0.097090 0.357618 0.065879 0.8 0 0
0.166278 0.883615 0.126615 0.8 0 0
0.120923 0.904973 0.078400 0.8 0 0
0.064186 0.643156 0.103551 0.8 0 0
0.180063 0.884898 0.040164 0.8 0 0
0.249298 0.621345 0.080946 0.8 0 0
0.229420 0.677070 0.077832 0.8 0 0
0.039767 0.710668 0.068941 0.8 0 0
0.237854 0.820643 0.050093 0.8 0 0
0.081957 0.665933 0.087843 0.8 0 0
0.212881 0.062016 0.052555 0.8 0 0
0.118670 0.126560 0.079267 0.8 0 0
0.139075 0.435952 0.122512 0.8 0 0
0.131214 0.674759 0.127081 0.8 0 0
0.153733 0.583198 0.129787 0.8 0 0
0.040918 0.639912 0.112146 0.8 0 0
0.071926 0.727875 0.074919 0.8 0 0
0.103268 0.074999 0.097406 0.8 0 0
0.201830 0.328639 0.120405 0.8 0 0
0.043747 0.505308 0.157941 0.8 0 0
0.080281 0.705639 0.105734 0.8 0 0
0.191645 0.073654 0.050399 0.8 0 0
0.044147 0.521046 0.143973 0.8 0 0
0.171188 0.943908 0.037156 0.8 0 0
0.101058 0.176527 0.056315 0.8 0 0
0.181876 0.051851 0.110135 0.8 0 0
0.187074 0.728743 0.025464 0.8 0 0
0.191578 0.768543 0.124854 0.8 0 0
0.184403 0.217353 0.107906 0.8 0 0
0.104945 0.140829 0.061129 0.8 0 0
0.199793 0.695510 0.031834 0.8 0 0
0.087421 0.264748 0.067699 0.8 0 0
0.149519 0.556216 0.130360 0.8 0 0
0.036906 0.536932 0.143501 0.8 0 0
0.084516 0.664218 0.100388 0.8 0 0
0.108058 0.160781 0.107412 0.8 0 0
0.210815 0.716943 0.028185 0.8 0 0
0.191297 0.716672 0.027286 0.8 0 0
0.080989 0.690329 0.065643 0.8 0 0
0.129748 0.213843 0.090712 0.8 0 0
0.199614 0.956772 0.092777 0.8 0 0
0.106332 0.500265 0.119478 0.8 0 0
0.134918 0.414374 0.053990 0.8 0 0
0.132864 0.226606 0.078734 0.8 0 0
0.192206 0.364721 0.124053 0.8 0 0
0.274942 0.500400 0.079623 0.8 0 0
0.128349 0.305966 0.063068 0.8 0 0
0.259983 0.676109 0.049251 0.8 0 0
0.193961 0.803952 0.029856 0.8 0 0
0.221102 0.324906 0.076225 0.8 0 0
0.234544 0.584317 0.078189 0.8 0 0
0.101783 0.809163 0.094587 0.8 0 0
0.158846 0.715057 0.026768 0.8 0 0
0.153604 0.655599 0.127853 0.8 0 0
0.128156 0.886869 0.056362 0.8 0 0
0.083811 0.713086 0.045526 0.8 0 0
0.124199 0.147036 0.069257 0.8 0 0
0.194809 0.232068 0.055564 0.8 0 0
0.235288 0.581163 0.078484 0.8 0 0
0.206497 0.241909 0.110695 0.8 0 0
0.038472 0.563835 0.148440 0.8 0 0
0.245338 0.609506 0.057584 0.8 0 0
0.155945 0.928360 0.032425 0.8 0 0
0.114580 0.804553 0.029015 0.8 0 0
0.147301 0.418974 0.055676 0.8 0 0
0.193984 0.934479 0.110626 0.8 0 0
0.195499 0.148908 0.051720 0.8 0 0
0.149194 0.465131 0.042477 0.8 0 0
0.068452 0.757900 0.064313 0.8 0 0
0.190437 0.618417 0.127750 0.8 0 0
0.220667 0.216697 0.076915 0.8 0 0
0.270025 0.693371 0.076353 0.8 0 0
0.200772 0.532688 0.039175 0.8 0 0
0.215638 0.059590 0.083674 0.8 0 0
0.177829 0.158824 0.079939 0.8 0 0
0.225493 0.520215 0.054154 0.8 0 0
0.239560 0.544801 0.090390 0.8 0 0
0.117915 0.153041 0.073509 0.8 0 0
0.169871 0.826528 0.085149 0.8 0 0
0.198688 0.589338 0.047275 0.8 0 0
0.214160 0.057032 0.099332 0.8 0 0
0.199736 0.032087 0.149669 0.8 0 0
0.268990 0.485914 0.086713 0.8 0 0
0.282592 0.559735 0.079787 0.8 0 0
0.134220 0.594240 0.126434 0.8 0 0
0.149679 0.786077 0.026610 0.8 0 0
0.229199 0.458877 0.070262 0.8 0 0
0.171924 0.865689 0.121496 0.8 0 0
0.087002 0.128331 0.072235 0.8 0 0
0.159484 0.489152 0.095601 0.8 0 0
0.038333 0.571211 0.131840 0.8 0 0
0.119676 0.230022 0.060782 0.8 0 0
0.125851 0.170179 0.089051 0.8 0 0
0.114843 0.837094 0.042952 0.8 0 0
0.207155 0.714883 0.028529 0.8 0 0
0.121449 0.338590 0.119933 0.8 0 0
0.254221 0.690765 0.046028 0.8 0 0
0.081206 0.188231 0.078964 0.8 0 0
0.138565 0.726197 0.025825 0.8 0 0
0.118827 0.436368 0.050672 0.8 0 0
0.193168 0.910546 0.091757 0.8 0 0
0.100623 0.457847 0.054488 0.8 0 0
0.178739 0.049022 0.099582 0.8 0 0
0.052542 0.671862 0.053569 0.8 0 0
0.098957 0.151771 0.099283 0.8 0 0
0.169418 0.856510 0.100028 0.8 0 0
0.220816 0.626487 0.113962 0.8 0 0
0.086988 0.226111 0.100562 0.8 0 0
0.265205 0.742521 0.063323 0.8 0 0
0.069505 0.670256 0.073425 0.8 0 0
0.030475 0.598118 0.126957 0.8 0 0
0.173719 0.614437 0.128621 0.8 0 0
0.087515 0.504274 0.106107 0.8 0 0
0.166769 0.329014 0.102233 0.8 0 0
0.138908 0.325330 0.113788 0.8 0 0
0.225462 0.438965 0.109679 0.8 0 0
0.221101 0.826338 0.060996 0.8 0 0
0.052659 0.587646 0.146699 0.8 0 0
0.049777 0.607062 0.083732 0.8 0 0
0.241467 0.704179 0.084241 0.8 0 0
0.115662 0.903068 0.063561 0.8 0 0
0.086339 0.197250 0.097661 0.8 0 0
0.186409 0.733357 0.139391 0.8 0 0
0.280345 0.605004 0.080104 0.8 0 0
0.111246 0.726229 0.026255 0.8 0 0
0.100158 0.028025 0.049690 0.8 0 0
0.104549 0.781916 0.027164 0.8 0 0
0.114633 0.771641 0.125081 0.8 0 0
0.071334 0.725220 0.080900 0.8 0 0
0.165678 0.413740 0.073639 0.8 0 0
0.136180 0.858526 0.073129 0.8 0 0
0.176840 0.053968 0.077894 0.8 0 0
0.092568 0.802108 0.029037 0.8 0 0
0.116576 0.280736 0.116092 0.8 0 0
0.205822 0.759171 0.131561 0.8 0 0
0.184419 0.558314 0.127928 0.8 0 0
0.170740 0.348474 0.066793 0.8 0 0
0.239878 0.520192 0.078118 0.8 0 0
0.096381 0.629325 0.067651 0.8 0 0
0.118180 0.147290 0.075112 0.8 0 0
0.083226 0.406088 0.077472 0.8 0 0
0.090835 0.323123 0.110918 0.8 0 0
0.067215 0.660955 0.092428 0.8 0 0
0.212942 0.766028 0.027266 0.8 0 0
0.121972 0.935510 0.109829 0.8 0 0
0.088234 0.577589 0.063627 0.8 0 0
0.223862 0.304957 0.084891 0.8 0 0
0.177524 0.422197 0.122776 0.8 0 0
0.098820 0.223185 0.060127 0.8 0 0
0.183663 0.767590 0.125038 0.8 0 0
0.063910 0.610152 0.091491 0.8 0 0
0.184947 0.387258 0.057834 0.8 0 0
0.094197 0.516598 0.052325 0.8 0 0
0.111840 0.921827 0.058713 0.8 0 0
0.167867 0.350096 0.078238 0.8 0 0
0.140022 0.509216 0.126399 0.8 0 0
0.114362 0.106856 0.069332 0.8 0 0
0.217221 0.189528 0.068717 0.8 0 0
0.218657 0.603185 0.110685 0.8 0 0
0.156179 0.455397 0.081306 0.8 0 0
0.201020 0.552339 0.039729 0.8 0 0
0.214393 0.051298 0.065422 0.8 0 0
0.153767 0.500497 0.126346 0.8 0 0
0.120635 0.769418 0.125645 0.8 0 0
0.184829 0.721926 0.026185 0.8 0 0
0.060541 0.729241 0.045278 0.8 0 0
0.232501 0.423708 0.095543 0.8 0 0
0.102496 0.033683 0.147726 0.8 0 0
0.150105 0.412323 0.105864 0.8 0 0
0.128915 0.190583 0.074186 0.8 0 0
0.100236 0.486083 0.051781 0.8 0 0
0.167719 0.313114 0.084051 0.8 0 0
0.182490 0.462874 0.044094 0.8 0 0
0.096004 0.398816 0.113326 0.8 0 0
0.030278 0.642579 0.092389 0.8 0 0
0.180127 0.529783 0.126453 0.8 0 0
0.081212 0.716168 0.117477 0.8 0 0
0.238828 0.715212 0.041089 0.8 0 0
0.083484 0.214059 0.092775 0.8 0 0
0.196663 0.517383 0.124267 0.8 0 0
0.178761 0.036495 0.106679 0.8 0 0
0.103970 0.132792 0.097625 0.8 0 0
0.114436 0.953358 0.087454 0.8 0 0
0.213938 0.187824 0.065083 0.8 0 0
0.269481 0.482314 0.080212 0.8 0 0
0.065509 0.796018 0.088967 0.8 0 0
0.212387 0.125643 0.072767 0.8 0 0
0.195097 0.178462 0.053083 0.8 0 0
0.198369 0.339737 0.122892 0.8 0 0
0.200637 0.140965 0.094520 0.8 0 0
0.166902 0.402327 0.067216 0.8 0 0
0.243306 0.654008 0.051309 0.8 0 0
0.146226 0.637510 0.125704 0.8 0 0
0.223581 0.325626 0.083678 0.8 0 0
0.092712 0.147837 0.058117 0.8 0 0
0.233611 0.595682 0.092981 0.8 0 0
0.188036 0.463095 0.044901 0.8 0 0
0.104682 0.210738 0.056375 0.8 0 0
0.261417 0.735603 0.074081 0.8 0 0
0.182537 0.439614 0.122901 0.8 0 0
0.094928 0.769783 0.121282 0.8 0 0
0.163207 0.822785 0.033312 0.8 0 0
0.050760 0.600202 0.140128 0.8 0 0
0.083579 0.580052 0.073921 0.8 0 0
0.171662 0.425065 0.123453 0.8 0 0
0.168422 0.405287 0.123071 0.8 0 0
0.202121 0.144724 0.057721 0.8 0 0
0.164284 0.731252 0.137155 0.8 0 0
0.281442 0.547048 0.077756 0.8 0 0
0.096124 0.712727 0.125511 0.8 0 0
0.117020 0.107970 0.078902 0.8 0 0
0.127682 0.681119 0.127265 0.8 0 0
0.152301 0.417607 0.083654 0.8 0 0
0.214054 0.514617 0.046644 0.8 0 0
0.192336 0.579124 0.042223 0.8 0 0
0.116431 0.944496 0.053257 0.8 0 0
0.166263 0.396780 0.076143 0.8 0 0
0.222023 0.385615 0.111722 0.8 0 0
0.192851 0.386421 0.123972 0.8 0 0
0.228158 0.738072 0.127414 0.8 0 0
0.162277 0.458171 0.058469 0.8 0 0
0.169143 0.405143 0.122995 0.8 0 0
0.086654 0.215162 0.064932 0.8 0 0
0.125683 0.494677 0.042174 0.8 0 0
0.166255 0.346995 0.106190 0.8 0 0
0.032974 0.669709 0.074034 0.8 0 0
0.139170 0.284310 0.086812 0.8 0 0
0.087330 0.330834 0.076140 0.8 0 0
0.100248 0.471559 0.116060 0.8 0 0
0.263564 0.704416 0.081163 0.8 0 0
0.236794 0.753802 0.101790 0.8 0 0
0.090710 0.162143 0.062470 0.8 0 0
0.210941 0.182078 0.063130 0.8 0 0
0.176953 0.856692 0.076826 0.8 0 0
0.093937 0.702894 0.036180 0.8 0 0
0.053178 0.776401 0.076203 0.8 0 0
0.259122 0.669742 0.048885 0.8 0 0
0.207401 0.100301 0.088420 0.8 0 0
0.218296 0.605776 0.062937 0.8 0 0
0.155261 0.681490 0.032171 0.8 0 0
0.122295 0.647174 0.126243 0.8 0 0
0.096333 0.539108 0.052220 0.8 0 0
0.030117 0.553864 0.133404 0.8 0 0
0.203648 0.464996 0.047812 0.8 0 0
0.179663 0.341834 0.063913 0.8 0 0
0.085182 0.803320 0.030267 0.8 0 0
0.208375 0.123445 0.059031 0.8 0 0
0.142316 0.427868 0.050205 0.8 0 0
0.163165 0.445091 0.123356 0.8 0 0
0.138100 0.971076 0.084777 0.8 0 0
0.192710 0.272072 0.057839 0.8 0 0
0.248713 0.785419 0.058834 0.8 0 0
0.227556 0.656081 0.100058 0.8 0 0
0.226282 0.658542 0.105650 0.8 0 0
0.194972 0.891520 0.054165 0.8 0 0
0.158250 0.499281 0.054530 0.8 0 0
0.210304 0.054415 0.110379 0.8 0 0
0.132454 0.838529 0.072468 0.8 0 0
0.203165 0.924852 0.056835 0.8 0 0
0.109120 0.627414 0.059435 0.8 0 0
0.169544 0.287123 0.079395 0.8 0 0
0.044750 0.731327 0.081855 0.8 0 0
0.086412 0.591337 0.073629 0.8 0 0
0.233459 0.780615 0.032777 0.8 0 0
0.173336 0.713663 0.134250 0.8 0 0
0.101715 0.677462 0.120905 0.8 0 0
0.079431 0.715883 0.108507 0.8 0 0
0.174381 0.506781 0.126079 0.8 0 0
0.137923 0.973412 0.071764 0.8 0 0
0.193643 0.183866 0.107996 0.8 0 0
0.116542 0.503349 0.042536 0.8 0 0
0.119174 0.902713 0.069397 0.8 0 0
0.034826 0.572880 0.157323 0.8 0 0
0.246813 0.718470 0.041947 0.8 0 0
0.133783 0.499413 0.125682 0.8 0 0
0.030907 0.576851 0.118124 0.8 0 0
0.046213 0.605203 0.085417 0.8 0 0
0.219406 0.299501 0.104909 0.8 0 0
0.194955 0.462511 0.123671 0.8 0 0
0.055088 0.636176 0.115505 0.8 0 0
0.204337 0.321218 0.064133 0.8 0 0
0.049929 0.500189 0.187798 0.8 0 0
0.206738 0.557514 0.043693 0.8 0 0
0.232003 0.543940 0.064615 0.8 0 0
0.254232 0.707764 0.092835 0.8 0 0
0.214137 0.828638 0.037892 0.8 0 0
0.193605 0.553774 0.037831 0.8 0 0
0.247577 0.798223 0.033404 0.8 0 0
0.080526 0.780746 0.107686 0.8 0 0
0.064941 0.802009 0.032977 0.8 0 0
0.159634 0.484475 0.094895 0.8 0 0
0.088463 0.145906 0.068778 0.8 0 0
0.114247 0.169532 0.062337 0.8 0 0
0.271677 0.513181 0.092488 0.8 0 0
0.125031 0.730536 0.025572 0.8 0 0
0.116705 0.827155 0.036365 0.8 0 0
0.032761 0.583946 0.143224 0.8 0 0
0.113750 0.307630 0.119244 0.8 0 0
0.036030 0.641049 0.065789 0.8 0 0
0.182636 0.962748 0.055324 0.8 0 0
0.165086 0.964256 0.107307 0.8 0 0
0.181977 0.705896 0.029219 0.8 0 0
0.141469 0.676120 0.033804 0.8 0 0
0.180214 0.671348 0.127036 0.8 0 0
0.145965 0.364587 0.097766 0.8 0 0
0.073116 0.732434 0.048084 0.8 0 0
0.138175 0.279560 0.083876 0.8 0 0
0.061111 0.793338 0.076191 0.8 0 0
0.182022 0.849844 0.055089 0.8 0 0
0.077711 0.448850 0.087367 0.8 0 0
0.187084 0.490660 0.124261 0.8 0 0
0.069880 0.768702 0.099057 0.8 0 0
0.125040 0.763978 0.128209 0.8 0 0
0.121067 0.730292 0.025661 0.8 0 0
0.215616 0.276417 0.109032 0.8 0 0
0.159346 0.486918 0.090174 0.8 0 0
0.103388 0.340724 0.118487 0.8 0 0
0.041406 0.547507 0.131177 0.8 0 0
0.215253 0.144953 0.080992 0.8 0 0
0.118020 0.630889 0.122877 0.8 0 0
0.273906 0.534607 0.095390 0.8 0 0
0.173023 0.143548 0.081015 0.8 0 0
0.117277 0.043112 0.094382 0.8 0 0
0.086174 0.372955 0.101723 0.8 0 0
0.134683 0.428521 0.122805 0.8 0 0
0.088538 0.772558 0.116723 0.8 0 0
0.142200 0.422046 0.119974 0.8 0 0
0.118734 0.608204 0.055101 0.8 0 0
0.100342 0.560865 0.115787 0.8 0 0
0.121847 0.266950 0.061316 0.8 0 0
0.198435 0.547332 0.038851 0.8 0 0
0.108570 0.488669 0.120598 0.8 0 0
0.161060 0.799700 0.027205 0.8 0 0
0.210615 0.680835 0.037140 0.8 0 0
0.201962 0.158932 0.096003 0.8 0 0
0.133068 0.856409 0.052321 0.8 0 0
0.146160 0.756827 0.131128 0.8 0 0
0.147385 0.372942 0.091886 0.8 0 0
0.093186 0.309698 0.067866 0.8 0 0
0.171530 0.944469 0.121179 0.8 0 0
0.186613 0.209676 0.056743 0.8 0 0
0.200033 0.253197 0.114216 0.8 0 0
0.105636 0.371287 0.060401 0.8 0 0
0.092520 0.354357 0.111997 0.8 0 0
0.106704 0.419561 0.118638 0.8 0 0
0.113057 0.392415 0.121060 0.8 0 0
0.123169 0.896679 0.094488 0.8 0 0
0.167065 0.670494 0.034496 0.8 0 0
0.131271 0.383342 0.118252 0.8 0 0
0.109324 0.498281 0.045513 0.8 0 0
0.193755 0.390573 0.124046 0.8 0 0
0.160590 0.761561 0.025994 0.8 0 0
0.252326 0.802854 0.053042 0.8 0 0
0.172535 0.523973 0.033716 0.8 0 0
0.258300 0.612360 0.096530 0.8 0 0
0.176448 0.871433 0.119157 0.8 0 0
0.159843 0.508353 0.122283 0.8 0 0
0.220631 0.330287 0.106515 0.8 0 0
0.232976 0.584416 0.075100 0.8 0 0
0.031059 0.634594 0.086004 0.8 0 0
0.198616 0.152827 0.051700 0.8 0 0
0.094669 0.025647 0.154250 0.8 0 0
0.090534 0.173218 0.064154 0.8 0 0
0.095027 0.722253 0.130153 0.8 0 0
0.168241 0.385767 0.070759 0.8 0 0
0.181703 0.723944 0.025948 0.8 0 0
0.210397 0.072698 0.058220 0.8 0 0
0.046536 0.555546 0.128774 0.8 0 0
0.206011 0.572952 0.121955 0.8 0 0
0.041317 0.567792 0.156971 0.8 0 0
0.048140 0.752730 0.059848 0.8 0 0
0.154431 0.811231 0.029988 0.8 0 0
0.198313 0.629385 0.126676 0.8 0 0
0.223744 0.419633 0.067462 0.8 0 0
0.179528 0.059300 0.095605 0.8 0 0
0.123639 0.523587 0.125764 0.8 0 0
0.173396 0.190126 0.074320 0.8 0 0
0.199280 0.753226 0.134988 0.8 0 0
0.193626 0.610328 0.051942 0.8 0 0
0.185078 0.327125 0.062035 0.8 0 0
0.255543 0.792499 0.065729 0.8 0 0
0.217283 0.055504 0.062901 0.8 0 0
0.119757 0.732968 0.140777 0.8 0 0
0.119353 0.525992 0.125595 0.8 0 0
0.182308 0.227574 0.059059 0.8 0 0
0.196055 0.947575 0.054047 0.8 0 0
0.273022 0.607581 0.092131 0.8 0 0
0.083722 0.159552 0.086752 0.8 0 0
0.087331 0.452889 0.061762 0.8 0 0
0.207956 0.448594 0.052771 0.8 0 0
0.042020 0.592817 0.094925 0.8 0 0
0.201699 0.129251 0.092086 0.8 0 0
0.174947 0.132760 0.085406 0.8 0 0
0.242089 0.761169 0.058051 0.8 0 0
0.109098 0.629370 0.117850 0.8 0 0
0.087389 0.093416 0.071762 0.8 0 0
0.250266 0.785455 0.089258 0.8 0 0
0.157486 0.691192 0.030531 0.8 0 0
0.196639 0.400210 0.124127 0.8 0 0
0.070873 0.715399 0.081554 0.8 0 0
0.179624 0.196511 0.060070 0.8 0 0
0.212063 0.817541 0.080378 0.8 0 0
0.064416 0.796017 0.088142 0.8 0 0
0.037565 0.597648 0.141686 0.8 0 0
0.252777 0.581115 0.082671 0.8 0 0
0.089556 0.087460 0.063003 0.8 0 0
0.226418 0.317820 0.092360 0.8 0 0
0.218794 0.151600 0.073413 0.8 0 0
0.167218 0.551820 0.129504 0.8 0 0
0.108750 0.936152 0.087808 0.8 0 0
0.051522 0.758729 0.050788 0.8 0 0
0.067482 0.762748 0.072322 0.8 0 0
0.064612 0.777659 0.069785 0.8 0 0
0.239632 0.758205 0.044303 0.8 0 0
0.215593 0.594764 0.113603 0.8 0 0
0.083744 0.369440 0.085732 0.8 0 0
0.113280 0.453615 0.122298 0.8 0 0
0.222089 0.817547 0.074032 0.8 0 0
0.085887 0.749229 0.029704 0.8 0 0
0.179064 0.209497 0.105906 0.8 0 0
0.083732 0.193088 0.092132 0.8 0 0
0.119783 0.146161 0.060989 0.8 0 0
0.104465 0.169102 0.062308 0.8 0 0
0.046228 0.570862 0.150236 0.8 0 0
0.102595 0.167331 0.109036 0.8 0 0
0.082861 0.068674 0.087824 0.8 0 0
0.174100 0.221439 0.067873 0.8 0 0
0.208790 0.545824 0.120070 0.8 0 0
0.036344 0.637553 0.066645 0.8 0 0
0.152895 0.422008 0.084787 0.8 0 0
0.213401 0.820369 0.034312 0.8 0 0
0.266086 0.729254 0.059930 0.8 0 0
0.178102 0.715322 0.026975 0.8 0 0
0.172852 0.938973 0.121297 0.8 0 0
0.035914 0.505191 0.173142 0.8 0 0
0.264373 0.489460 0.073347 0.8 0 0
0.245210 0.677090 0.090015 0.8 0 0
0.187738 0.416916 0.123176 0.8 0 0
0.238636 0.750826 0.056732 0.8 0 0
0.124841 0.708712 0.029092 0.8 0 0
0.109166 0.250555 0.056239 0.8 0 0
0.075048 0.776559 0.107915 0.8 0 0
0.092956 0.473281 0.112188 0.8 0 0
0.134477 0.266890 0.096278 0.8 0 0
0.212472 0.135246 0.084568 0.8 0 0
0.142218 0.622079 0.047217 0.8 0 0
0.247851 0.688496 0.093967 0.8 0 0
0.183232 0.073823 0.085414 0.8 0 0
0.175614 0.174007 0.099100 0.8 0 0
0.161847 0.968503 0.056579 0.8 0 0
0.173231 0.163802 0.087856 0.8 0 0
0.165711 0.415882 0.067103 0.8 0 0
0.170761 0.307654 0.071179 0.8 0 0
0.069517 0.667001 0.055762 0.8 0 0
0.198439 0.887221 0.050839 0.8 0 0
0.256460 0.762433 0.077183 0.8 0 0
0.190195 0.801601 0.029068 0.8 0 0
0.085574 0.609934 0.084246 0.8 0 0
0.138096 0.316241 0.075008 0.8 0 0
0.252811 0.669177 0.049156 0.8 0 0
0.263191 0.489657 0.068447 0.8 0 0
0.101138 0.439951 0.056055 0.8 0 0
0.156684 0.863221 0.123752 0.8 0 0
0.143615 0.390778 0.060537 0.8 0 0
0.195267 0.628677 0.128138 0.8 0 0
0.140800 0.905650 0.124817 0.8 0 0
0.194204 0.356938 0.124335 0.8 0 0
0.035828 0.519499 0.160877 0.8 0 0
0.240773 0.680844 0.046906 0.8 0 0
0.102051 0.698999 0.124465 0.8 0 0
0.211282 0.112717 0.083762 0.8 0 0
0.176702 0.766648 0.125266 0.8 0 0
0.148999 0.410406 0.113932 0.8 0 0
0.268004 0.658596 0.088861 0.8 0 0
0.116287 0.811130 0.097218 0.8 0 0
0.185810 0.563496 0.036936 0.8 0 0
0.203719 0.252591 0.112740 0.8 0 0
0.190417 0.842686 0.047947 0.8 0 0
0.062403 0.788254 0.071066 0.8 0 0
0.175784 0.575412 0.037957 0.8 0 0
0.276350 0.485287 0.088691 0.8 0 0
0.278810 0.581420 0.073656 0.8 0 0
0.154412 0.752008 0.025596 0.8 0 0
0.163448 0.790223 0.109657 0.8 0 0
0.123667 0.892298 0.058201 0.8 0 0
0.177406 0.715524 0.134550 0.8 0 0
0.029507 0.615476 0.101699 0.8 0 0
0.204908 0.267339 0.062583 0.8 0 0
0.036573 0.618958 0.077519 0.8 0 0
0.214049 0.188765 0.100661 0.8 0 0
0.174856 0.284312 0.114058 0.8 0 0
0.218231 0.722946 0.027022 0.8 0 0
0.207704 0.325732 0.117876 0.8 0 0
0.142555 0.351544 0.113730 0.8 0 0
0.158323 0.473913 0.082568 0.8 0 0
0.100001 0.701720 0.124236 0.8 0 0
0.086677 0.048677 0.064162 0.8 0 0
0.050113 0.620223 0.074633 0.8 0 0
0.229909 0.787372 0.031286 0.8 0 0
0.153595 0.805487 0.100031 0.8 0 0
0.185860 0.077199 0.064418 0.8 0 0
0.181681 0.960910 0.104825 0.8 0 0
0.084903 0.136056 0.091388 0.8 0 0
0.231231 0.607741 0.082008 0.8 0 0
0.186226 0.876235 0.047598 0.8 0 0
0.251373 0.798262 0.053009 0.8 0 0
0.212300 0.422953 0.117290 0.8 0 0
0.118494 0.897040 0.046983 0.8 0 0
0.084006 0.494029 0.064315 0.8 0 0
0.152378 0.862882 0.123598 0.8 0 0
0.235696 0.718267 0.059086 0.8 0 0
0.068454 0.648123 0.073687 0.8 0 0
0.145140 0.816716 0.093300 0.8 0 0
0.131714 0.807527 0.029460 0.8 0 0
0.124815 0.135938 0.083503 0.8 0 0
0.130121 0.470802 0.045347 0.8 0 0
0.163511 0.698310 0.029616 0.8 0 0
0.189628 0.198078 0.107885 0.8 0 0
0.211907 0.676904 0.122613 0.8 0 0
0.151973 0.467008 0.042474 0.8 0 0
0.128120 0.892824 0.115076 0.8 0 0
0.184425 0.749948 0.136340 0.8 0 0
0.156521 0.480507 0.109457 0.8 0 0
0.062102 0.623096 0.071292 0.8 0 0
0.092057 0.763636 0.123792 0.8 0 0
0.090610 0.588940 0.064158 0.8 0 0
0.226034 0.618481 0.076497 0.8 0 0
0.173512 0.144239 0.083477 0.8 0 0
0.100045 0.384578 0.061905 0.8 0 0
0.189226 0.598163 0.124126 0.8 0 0
0.077467 0.715135 0.071582 0.8 0 0
0.250757 0.785793 0.088158 0.8 0 0
0.134699 0.868365 0.099906 0.8 0 0
0.058437 0.662215 0.055667 0.8 0 0
0.185512 0.685621 0.032822 0.8 0 0
0.057822 0.806361 0.069191 0.8 0 0
0.165465 0.332372 0.093542 0.8 0 0
0.160904 0.821227 0.089604 0.8 0 0
0.076634 0.478004 0.089212 0.8 0 0
0.183086 0.051282 0.050672 0.8 0 0
0.198929 0.278682 0.116965 0.8 0 0
0.086634 0.560284 0.101558 0.8 0 0
0.118111 0.152050 0.099750 0.8 0 0
0.219811 0.251822 0.074085 0.8 0 0
0.084485 0.820969 0.037552 0.8 0 0
0.056695 0.563247 0.113115 0.8 0 0
0.081849 0.448371 0.074530 0.8 0 0
0.125779 0.795949 0.109224 0.8 0 0
0.220436 0.323369 0.074311 0.8 0 0
0.209287 0.584117 0.118643 0.8 0 0
0.088164 0.361620 0.070693 0.8 0 0
0.168190 0.287146 0.097509 0.8 0 0
0.212866 0.163515 0.070935 0.8 0 0
0.181158 0.642368 0.042079 0.8 0 0
0.230441 0.564281 0.105403 0.8 0 0
0.080672 0.409373 0.086707 0.8 0 0
0.090304 0.147589 0.059138 0.8 0 0
0.191119 0.548471 0.037178 0.8 0 0
0.035074 0.688445 0.081597 0.8 0 0
0.080252 0.062359 0.080738 0.8 0 0
0.100361 0.544404 0.116454 0.8 0 0
0.192014 0.660889 0.127798 0.8 0 0
0.161416 0.452878 0.108916 0.8 0 0
0.143995 0.514568 0.126834 0.8 0 0
0.083867 0.223158 0.075287 0.8 0 0
0.118287 0.771627 0.124668 0.8 0 0
0.100672 0.682073 0.040215 0.8 0 0
0.220559 0.206764 0.090819 0.8 0 0
0.110303 0.832843 0.065039 0.8 0 0
0.132138 0.619728 0.125305 0.8 0 0
0.084687 0.645897 0.084336 0.8 0 0
0.059851 0.646979 0.106994 0.8 0 0
0.090754 0.048552 0.120024 0.8 0 0
0.117948 0.567046 0.040263 0.8 0 0
0.269824 0.551473 0.093543 0.8 0 0
0.223385 0.212236 0.085112 0.8 0 0
0.196860 0.043480 0.046349 0.8 0 0
0.196878 0.354326 0.062086 0.8 0 0
0.203997 0.502999 0.122004 0.8 0 0
0.045030 0.716226 0.056243 0.8 0 0
0.086577 0.083643 0.078359 0.8 0 0
0.187190 0.342853 0.062268 0.8 0 0
0.213207 0.296440 0.068453 0.8 0 0
0.149033 0.417810 0.061644 0.8 0 0
0.238772 0.730231 0.085032 0.8 0 0
0.038242 0.663308 0.058449 0.8 0 0
0.094608 0.517976 0.052168 0.8 0 0
0.138341 0.867013 0.115053 0.8 0 0
0.180943 0.692120 0.031502 0.8 0 0
0.092846 0.151493 0.058288 0.8 0 0
0.146543 0.901742 0.033336 0.8 0 0
0.252091 0.573190 0.074611 0.8 0 0
0.070456 0.675308 0.063548 0.8 0 0
0.093987 0.304059 0.111171 0.8 0 0
0.188101 0.682166 0.127077 0.8 0 0
0.056817 0.672712 0.053797 0.8 0 0
0.042513 0.656381 0.101871 0.8 0 0
0.100722 0.289947 0.062834 0.8 0 0
0.160671 0.629714 0.125617 0.8 0 0
0.109142 0.397534 0.056034 0.8 0 0
0.118150 0.057103 0.063685 0.8 0 0
0.089988 0.037452 0.049658 0.8 0 0
0.262318 0.689007 0.087622 0.8 0 0
0.151329 0.440061 0.055931 0.8 0 0
0.146662 0.492628 0.038304 0.8 0 0
0.160469 0.763294 0.026039 0.8 0 0
0.121191 0.212856 0.107319 0.8 0 0
0.249353 0.771392 0.089657 0.8 0 0
0.240186 0.573657 0.087839 0.8 0 0
0.039491 0.714650 0.076670 0.8 0 0
0.150352 0.440307 0.052801 0.8 0 0
0.084690 0.171647 0.084491 0.8 0 0
0.198265 0.772652 0.027505 0.8 0 0
0.278754 0.631888 0.074110 0.8 0 0
0.218278 0.680073 0.120711 0.8 0 0
0.205198 0.272011 0.062916 0.8 0 0
0.068391 0.759901 0.047359 0.8 0 0
0.112129 0.377143 0.120349 0.8 0 0
0.227601 0.720414 0.122613 0.8 0 0
0.187122 0.912442 0.038929 0.8 0 0
0.089565 0.366801 0.109623 0.8 0 0
0.195560 0.739395 0.141062 0.8 0 0
0.235823 0.442967 0.089517 0.8 0 0
0.091012 0.568026 0.056202 0.8 0 0
0.194199 0.916370 0.088879 0.8 0 0
0.134530 0.870999 0.054465 0.8 0 0
0.090566 0.277604 0.107590 0.8 0 0
0.233567 0.721974 0.046814 0.8 0 0
0.062250 0.789245 0.070080 0.8 0 0
0.189867 0.265469 0.058180 0.8 0 0
0.168435 0.473061 0.125469 0.8 0 0
0.095898 0.331795 0.114081 0.8 0 0
0.179929 0.300981 0.117064 0.8 0 0
0.204367 0.249285 0.061635 0.8 0 0
0.189768 0.723647 0.026029 0.8 0 0
0.237309 0.745155 0.037658 0.8 0 0
0.149854 0.866447 0.046208 0.8 0 0
0.214772 0.060462 0.062913 0.8 0 0
0.178706 0.610385 0.047857 0.8 0 0
0.083876 0.388119 0.096396 0.8 0 0
0.139918 0.519176 0.126640 0.8 0 0
0.200231 0.580972 0.045367 0.8 0 0
0.206283 0.091694 0.057469 0.8 0 0
0.150042 0.880282 0.125886 0.8 0 0
0.160519 0.484459 0.116486 0.8 0 0
0.048462 0.742900 0.055670 0.8 0 0
0.274127 0.602883 0.066003 0.8 0 0
0.259289 0.721893 0.081234 0.8 0 0
