0.333068 0.406776 0.586562 0.8 0 0
0.484377 0.488084 0.543927 0.8 0 0
0.427405 0.417016 0.373310 0.8 0 0
0.619501 0.747810 0.513686 0.8 0 0
0.505277 0.280568 0.195354 0.8 0 0
0.252271 0.414341 0.425141 0.8 0 0
0.642284 0.483774 0.574632 0.8 0 0
0.402994 0.288825 0.229593 0.8 0 0
0.266280 0.056353 0.370037 0.8 0 0
0.265436 0.571237 0.316009 0.8 0 0
0.480047 0.555200 0.241231 0.8 0 0
0.145807 0.754603 0.666278 0.8 0 0
0.283240 0.519758 0.153969 0.8 0 0
0.406516 0.715764 0.251066 0.8 0 0
0.382121 0.621659 0.242668 0.8 0 0
0.351404 0.446255 0.422798 0.8 0 0
0.347037 0.605952 0.531947 0.8 0 0
0.206670 0.580751 0.542843 0.8 0 0
0.523400 0.503555 0.349800 0.8 0 0
0.334240 0.839550 0.254309 0.8 0 0
0.322155 0.642907 0.428853 0.8 0 0
0.411009 0.212051 0.536418 0.8 0 0
0.465020 0.541781 0.205901 0.8 0 0
0.391052 0.341440 0.199730 0.8 0 0
0.408193 0.524516 0.515010 0.8 0 0
0.626022 0.839997 0.568380 0.8 0 0
0.282790 0.596205 0.491671 0.8 0 0
0.245122 0.240023 0.405592 0.8 0 0
0.390933 0.451866 0.310961 0.8 0 0
0.462661 0.405051 0.320722 0.8 0 0
0.239352 0.288779 0.268339 0.8 0 0
0.388149 0.479438 0.362691 0.8 0 0
0.358728 0.454346 0.337005 0.8 0 0
0.468803 0.649083 0.221525 0.8 0 0
0.276547 0.472101 0.457829 0.8 0 0
0.443735 0.745648 0.556287 0.8 0 0
0.623746 0.494641 0.329226 0.8 0 0
0.280131 0.308684 0.476342 0.8 0 0
0.412351 0.738206 0.180496 0.8 0 0
0.322157 0.358203 0.550542 0.8 0 0
0.456538 0.270365 0.295378 0.8 0 0
0.618450 0.742483 0.513796 0.8 0 0
0.220733 0.453097 0.265173 0.8 0 0
0.479406 0.568000 0.291914 0.8 0 0
0.310827 0.807719 0.409055 0.8 0 0
0.195933 0.440609 0.421047 0.8 0 0
0.453695 0.341521 0.364983 0.8 0 0
0.328434 0.633369 0.206988 0.8 0 0
0.523074 0.330022 0.212439 0.8 0 0
0.535807 0.501401 0.490516 0.8 0 0
0.337600 0.479548 0.189664 0.8 0 0
0.500250 0.738770 0.617870 0.8 0 0
0.318005 0.508091 0.120211 0.8 0 0
0.322870 0.772286 0.617872 0.8 0 0
0.492485 0.650657 0.565686 0.8 0 0
0.223634 0.556238 0.495682 0.8 0 0
0.600837 0.348365 0.405429 0.8 0 0
0.571753 0.848046 0.601958 0.8 0 0
0.665604 0.525868 0.444063 0.8 0 0
0.545748 0.482644 0.423476 0.8 0 0
0.282882 0.685732 0.225851 0.8 0 0
0.516237 0.564798 0.608816 0.8 0 0
0.351964 0.600381 0.466080 0.8 0 0
0.399973 0.687040 0.587741 0.8 0 0
0.427442 0.595285 0.382659 0.8 0 0
0.532324 0.118056 0.464211 0.8 0 0
0.300093 0.839293 0.167462 0.8 0 0
0.556875 0.839046 0.614748 0.8 0 0
0.382875 0.302314 0.169225 0.8 0 0
0.443910 0.689687 0.332297 0.8 0 0
0.416448 0.891579 0.222859 0.8 0 0
0.397194 0.148812 0.213417 0.8 0 0
0.523665 0.725191 0.491073 0.8 0 0
0.293940 0.466600 0.455313 0.8 0 0
0.534899 0.341523 0.448776 0.8 0 0
0.430485 0.685503 0.567959 0.8 0 0
0.532014 0.535999 0.329541 0.8 0 0
0.424647 0.512545 0.391015 0.8 0 0
0.412825 0.811874 0.170349 0.8 0 0
0.203953 0.540490 0.302825 0.8 0 0
0.467151 0.551799 0.467265 0.8 0 0
0.556998 0.280604 0.241604 0.8 0 0
0.272241 0.571729 0.488521 0.8 0 0
0.374365 0.099621 0.223891 0.8 0 0
0.320346 0.492767 0.165500 0.8 0 0
0.346051 0.547991 0.526381 0.8 0 0
0.299862 0.498962 0.456133 0.8 0 0
0.291819 0.797133 0.573619 0.8 0 0
0.453768 0.804572 0.366840 0.8 0 0
0.398418 0.283012 0.298969 0.8 0 0
0.572487 0.846624 0.452264 0.8 0 0
0.555868 0.079986 0.335730 0.8 0 0
0.419221 0.269824 0.334247 0.8 0 0
0.268917 0.575343 0.566837 0.8 0 0
0.542106 0.580973 0.326751 0.8 0 0
0.302326 0.605250 0.223169 0.8 0 0
0.162375 0.827690 0.490514 0.8 0 0
0.656869 0.831874 0.508855 0.8 0 0
0.380138 0.407483 0.420462 0.8 0 0
0.388290 0.462995 0.390647 0.8 0 0
0.669670 0.656566 0.484907 0.8 0 0
0.256804 0.203209 0.313388 0.8 0 0
0.503797 0.025135 0.406571 0.8 0 0
0.276878 0.426854 0.496027 0.8 0 0
0.144577 0.671839 0.619592 0.8 0 0
0.309151 0.379172 0.239826 0.8 0 0
0.346374 0.368327 0.374673 0.8 0 0
0.544327 0.341412 0.315273 0.8 0 0
0.286159 0.645336 0.184191 0.8 0 0
0.472889 0.509812 0.394829 0.8 0 0
0.444232 0.557842 0.461919 0.8 0 0
0.349094 0.531274 0.334606 0.8 0 0
0.562302 0.110944 0.391234 0.8 0 0
0.310880 0.400306 0.392944 0.8 0 0
0.208050 0.487982 0.414630 0.8 0 0
0.465861 0.375806 0.268362 0.8 0 0
0.380412 0.517138 0.319644 0.8 0 0
0.574744 0.833135 0.468940 0.8 0 0
0.328336 0.025044 0.288656 0.8 0 0
0.430807 0.341638 0.493398 0.8 0 0
0.478112 0.048154 0.242710 0.8 0 0
0.393064 0.627668 0.407313 0.8 0 0
0.345240 0.411977 0.252380 0.8 0 0
0.382583 0.414493 0.435715 0.8 0 0
0.569316 0.239630 0.305819 0.8 0 0
0.498108 0.498206 0.242411 0.8 0 0
0.512308 0.341416 0.289324 0.8 0 0
0.227989 0.847859 0.407878 0.8 0 0
0.417990 0.449955 0.372993 0.8 0 0
0.373102 0.394174 0.309472 0.8 0 0
0.366598 0.280843 0.547755 0.8 0 0
0.344232 0.076818 0.238767 0.8 0 0
0.488288 0.456933 0.267092 0.8 0 0
0.178673 0.504460 0.326879 0.8 0 0
0.491886 0.529584 0.408175 0.8 0 0
0.247715 0.488953 0.397604 0.8 0 0
0.547784 0.655735 0.599282 0.8 0 0
0.411436 0.527235 0.459106 0.8 0 0
0.259490 0.873146 0.273733 0.8 0 0
0.537496 0.392765 0.409951 0.8 0 0
0.274104 0.128384 0.440393 0.8 0 0
0.185339 0.731365 0.565527 0.8 0 0
0.337890 0.588765 0.322500 0.8 0 0
0.510086 0.423798 0.471795 0.8 0 0
0.102630 0.738582 0.505481 0.8 0 0
0.130730 0.871668 0.537440 0.8 0 0
0.573990 0.603145 0.197513 0.8 0 0
0.235180 0.865836 0.266747 0.8 0 0
0.525023 0.463382 0.497093 0.8 0 0
0.453415 0.759218 0.486540 0.8 0 0
0.131806 0.663930 0.499652 0.8 0 0
0.353092 0.641105 0.135325 0.8 0 0
0.266065 0.427523 0.451779 0.8 0 0
0.438714 0.814806 0.524832 0.8 0 0
0.529500 0.721545 0.281650 0.8 0 0
0.618608 0.683146 0.537581 0.8 0 0
0.400518 0.440668 0.291378 0.8 0 0
0.626816 0.428711 0.334355 0.8 0 0
0.217882 0.811758 0.615469 0.8 0 0
0.453698 0.438724 0.386507 0.8 0 0
0.449090 0.352479 0.569885 0.8 0 0
0.281465 0.251330 0.481039 0.8 0 0
0.310138 0.432400 0.288271 0.8 0 0
0.313885 0.801567 0.090082 0.8 0 0
0.408217 0.719093 0.381144 0.8 0 0
0.250521 0.860275 0.513685 0.8 0 0
0.586193 0.316633 0.410487 0.8 0 0
0.568736 0.354343 0.258341 0.8 0 0
0.321590 0.596550 0.488519 0.8 0 0
0.236008 0.889694 0.561096 0.8 0 0
0.354597 0.452460 0.333364 0.8 0 0
0.515442 0.698272 0.303510 0.8 0 0
0.076664 0.752973 0.533951 0.8 0 0
0.567682 0.597547 0.475569 0.8 0 0
0.544254 0.570572 0.281406 0.8 0 0
0.315002 0.889334 0.269561 0.8 0 0
0.349509 0.367172 0.557775 0.8 0 0
0.393652 0.341403 0.461674 0.8 0 0
0.393535 0.718032 0.496477 0.8 0 0
0.389862 0.558209 0.424621 0.8 0 0
0.431327 0.308502 0.392006 0.8 0 0
0.456993 0.725467 0.127645 0.8 0 0
0.618027 0.635033 0.571507 0.8 0 0
0.572488 0.586111 0.489502 0.8 0 0
0.469975 0.342735 0.175183 0.8 0 0
0.290125 0.557784 0.451409 0.8 0 0
0.342073 0.308496 0.296147 0.8 0 0
0.164540 0.554815 0.354580 0.8 0 0
0.424705 0.308525 0.415971 0.8 0 0
0.523236 0.538111 0.584585 0.8 0 0
0.202018 0.535284 0.354434 0.8 0 0
0.238521 0.656360 0.359296 0.8 0 0
0.576887 0.753432 0.528879 0.8 0 0
0.538377 0.741656 0.268585 0.8 0 0
0.323774 0.462512 0.452228 0.8 0 0
0.339457 0.393209 0.524863 0.8 0 0
0.439731 0.452873 0.561571 0.8 0 0
0.549353 0.837383 0.560303 0.8 0 0
0.466719 0.155102 0.518368 0.8 0 0
0.284579 0.804078 0.563712 0.8 0 0
0.329129 0.308632 0.457803 0.8 0 0
0.473085 0.551082 0.389674 0.8 0 0
0.475711 0.442378 0.278630 0.8 0 0
0.203213 0.484455 0.330836 0.8 0 0
0.503011 0.326744 0.419629 0.8 0 0
0.618487 0.810101 0.618798 0.8 0 0
0.191955 0.848670 0.562042 0.8 0 0
0.118803 0.502936 0.551543 0.8 0 0
0.584612 0.265509 0.360768 0.8 0 0
0.477510 0.462554 0.211599 0.8 0 0
0.559188 0.189414 0.300524 0.8 0 0
0.473796 0.469029 0.533816 0.8 0 0
0.455673 0.631795 0.643130 0.8 0 0
0.515136 0.308450 0.409397 0.8 0 0
0.428197 0.297739 0.572053 0.8 0 0
0.291387 0.544299 0.316003 0.8 0 0
0.419960 0.585555 0.403612 0.8 0 0
0.569006 0.156191 0.385924 0.8 0 0
0.514990 0.509920 0.401674 0.8 0 0
0.182975 0.588871 0.578864 0.8 0 0
0.642775 0.634364 0.598982 0.8 0 0
0.554988 0.719894 0.549877 0.8 0 0
0.570044 0.565525 0.342478 0.8 0 0
0.262643 0.726941 0.367155 0.8 0 0
0.427756 0.341676 0.538313 0.8 0 0
0.329623 0.319529 0.554661 0.8 0 0
0.538566 0.533226 0.328161 0.8 0 0
0.354422 0.605385 0.550471 0.8 0 0
0.229247 0.473511 0.317777 0.8 0 0
0.432270 0.421456 0.529379 0.8 0 0
0.186045 0.489230 0.437133 0.8 0 0
0.651323 0.480713 0.426709 0.8 0 0
0.436738 0.308524 0.426299 0.8 0 0
0.545955 0.355120 0.359132 0.8 0 0
0.550229 0.832967 0.578958 0.8 0 0
0.477194 0.808318 0.483545 0.8 0 0
0.559344 0.803039 0.450485 0.8 0 0
0.389587 0.605281 0.394083 0.8 0 0
0.292107 0.505252 0.571915 0.8 0 0
0.539835 0.824022 0.456243 0.8 0 0
0.544346 0.341514 0.447069 0.8 0 0
0.643636 0.649643 0.437693 0.8 0 0
0.604436 0.581748 0.242081 0.8 0 0
0.445327 0.847810 0.566366 0.8 0 0
0.353077 0.581627 0.445574 0.8 0 0
0.665138 0.718156 0.445624 0.8 0 0
0.574545 0.308417 0.427802 0.8 0 0
0.583791 0.577803 0.573659 0.8 0 0
0.370026 0.357873 0.283313 0.8 0 0
0.463456 0.456180 0.224735 0.8 0 0
0.543730 0.236926 0.264073 0.8 0 0
0.321733 0.287520 0.550364 0.8 0 0
0.208904 0.397934 0.531645 0.8 0 0
0.446274 0.613444 0.535540 0.8 0 0
0.515985 0.693514 0.318230 0.8 0 0
0.358589 0.470040 0.396843 0.8 0 0
0.635543 0.592425 0.423934 0.8 0 0
0.280411 0.295735 0.380199 0.8 0 0
0.444240 0.325094 0.372009 0.8 0 0
0.363482 0.615211 0.374170 0.8 0 0
0.314439 0.526932 0.190635 0.8 0 0
0.402808 0.267105 0.329823 0.8 0 0
0.240376 0.266801 0.342011 0.8 0 0
0.160400 0.747220 0.533223 0.8 0 0
0.387985 0.461248 0.438419 0.8 0 0
0.148511 0.833503 0.494805 0.8 0 0
0.509059 0.555506 0.322099 0.8 0 0
0.272981 0.405309 0.498650 0.8 0 0
0.582104 0.784274 0.383918 0.8 0 0
0.363401 0.809697 0.169730 0.8 0 0
0.139688 0.597281 0.431713 0.8 0 0
0.333484 0.561094 0.385798 0.8 0 0
0.425110 0.584742 0.503443 0.8 0 0
0.474308 0.797902 0.581118 0.8 0 0
0.434654 0.716907 0.290553 0.8 0 0
0.391604 0.637201 0.500321 0.8 0 0
0.351424 0.588490 0.358135 0.8 0 0
0.432729 0.058144 0.513482 0.8 0 0
0.368603 0.468112 0.426020 0.8 0 0
0.160183 0.693951 0.629909 0.8 0 0
0.227378 0.325850 0.327746 0.8 0 0
0.512390 0.772869 0.408570 0.8 0 0
0.254739 0.488275 0.430851 0.8 0 0
0.550460 0.610238 0.328908 0.8 0 0
0.457969 0.803177 0.466945 0.8 0 0
0.115806 0.492600 0.475974 0.8 0 0
0.382749 0.723931 0.595418 0.8 0 0
0.253991 0.729669 0.376281 0.8 0 0
0.532924 0.661927 0.233521 0.8 0 0
0.282806 0.590082 0.421551 0.8 0 0
0.650883 0.530909 0.344405 0.8 0 0
0.450959 0.705930 0.345562 0.8 0 0
0.359840 0.585349 0.456062 0.8 0 0
0.453496 0.341592 0.456485 0.8 0 0
0.215484 0.740147 0.362542 0.8 0 0
0.170398 0.551915 0.366547 0.8 0 0
0.358406 0.628824 0.425440 0.8 0 0
0.119700 0.650685 0.601126 0.8 0 0
0.373223 0.308589 0.445886 0.8 0 0
0.240097 0.613270 0.298898 0.8 0 0
0.477523 0.640635 0.573510 0.8 0 0
0.329044 0.698389 0.483464 0.8 0 0
0.573829 0.869331 0.618678 0.8 0 0
0.554608 0.432169 0.524997 0.8 0 0
0.323548 0.740513 0.241192 0.8 0 0
0.348442 0.563003 0.245466 0.8 0 0
0.379318 0.413942 0.561530 0.8 0 0
0.595005 0.910827 0.526788 0.8 0 0
0.305675 0.308642 0.447648 0.8 0 0
0.401802 0.472039 0.152298 0.8 0 0
0.393111 0.551648 0.437715 0.8 0 0
0.556772 0.090554 0.406164 0.8 0 0
0.086679 0.762903 0.561651 0.8 0 0
0.322692 0.780057 0.102194 0.8 0 0
0.279133 0.323997 0.483416 0.8 0 0
0.408961 0.278410 0.321244 0.8 0 0
0.314761 0.168186 0.242575 0.8 0 0
0.295925 0.521943 0.555447 0.8 0 0
0.367319 0.329459 0.556155 0.8 0 0
0.123900 0.687640 0.528572 0.8 0 0
0.375477 0.398058 0.488517 0.8 0 0
0.307563 0.600503 0.228552 0.8 0 0
0.449072 0.669343 0.455983 0.8 0 0
0.344898 0.430450 0.462771 0.8 0 0
0.547761 0.815239 0.452078 0.8 0 0
0.272780 0.435668 0.347507 0.8 0 0
0.433259 0.308359 0.210003 0.8 0 0
0.182891 0.729037 0.381660 0.8 0 0
0.421683 0.724444 0.261261 0.8 0 0
0.675632 0.669909 0.585892 0.8 0 0
0.542528 0.844542 0.607458 0.8 0 0
0.344502 0.025123 0.392216 0.8 0 0
0.599616 0.310481 0.290952 0.8 0 0
0.479836 0.175925 0.516017 0.8 0 0
0.368194 0.632761 0.524470 0.8 0 0
0.166673 0.810933 0.575414 0.8 0 0
0.260686 0.461104 0.505456 0.8 0 0
0.241625 0.243759 0.378841 0.8 0 0
0.346805 0.944154 0.197229 0.8 0 0
0.227495 0.438886 0.452265 0.8 0 0
0.237948 0.295438 0.445639 0.8 0 0
0.564024 0.736837 0.539623 0.8 0 0
0.334180 0.538050 0.483073 0.8 0 0
0.480916 0.206628 0.219620 0.8 0 0
0.527379 0.341448 0.345411 0.8 0 0
0.348217 0.341709 0.501761 0.8 0 0
0.518908 0.293176 0.209371 0.8 0 0
0.356670 0.367740 0.354074 0.8 0 0
0.493236 0.525499 0.520089 0.8 0 0
0.474839 0.817482 0.561409 0.8 0 0
0.450909 0.025027 0.268504 0.8 0 0
0.338051 0.498996 0.482897 0.8 0 0
0.488014 0.324298 0.180846 0.8 0 0
0.366551 0.439320 0.377599 0.8 0 0
0.483727 0.835461 0.313968 0.8 0 0
0.354242 0.025185 0.470668 0.8 0 0
0.404814 0.341592 0.407037 0.8 0 0
0.605518 0.633188 0.536438 0.8 0 0
0.731753 0.673356 0.490030 0.8 0 0
0.463939 0.739391 0.353048 0.8 0 0
0.422872 0.673715 0.398988 0.8 0 0
0.230897 0.832499 0.524180 0.8 0 0
0.542907 0.819393 0.456129 0.8 0 0
0.212786 0.319070 0.382301 0.8 0 0
0.539322 0.416196 0.508502 0.8 0 0
0.384778 0.912619 0.310525 0.8 0 0
0.188568 0.488974 0.440341 0.8 0 0
0.403042 0.412481 0.514307 0.8 0 0
0.567492 0.469446 0.516020 0.8 0 0
0.458403 0.731773 0.116443 0.8 0 0
0.445062 0.691076 0.264070 0.8 0 0
0.515591 0.438940 0.505240 0.8 0 0
0.130237 0.676694 0.514476 0.8 0 0
0.452534 0.341513 0.353075 0.8 0 0
0.292617 0.501031 0.384202 0.8 0 0
0.458625 0.800104 0.467048 0.8 0 0
0.404385 0.552692 0.425627 0.8 0 0
0.382513 0.025133 0.405043 0.8 0 0
0.254497 0.867794 0.271927 0.8 0 0
0.482203 0.532153 0.400200 0.8 0 0
0.451896 0.341520 0.361304 0.8 0 0
0.182474 0.665896 0.571576 0.8 0 0
0.269206 0.775938 0.263463 0.8 0 0
0.560318 0.814461 0.246934 0.8 0 0
0.548726 0.586405 0.485303 0.8 0 0
0.220037 0.341752 0.314454 0.8 0 0
0.561296 0.429984 0.566854 0.8 0 0
0.282246 0.805505 0.385012 0.8 0 0
0.320408 0.404708 0.395542 0.8 0 0
0.581398 0.366942 0.260953 0.8 0 0
0.520021 0.860900 0.661267 0.8 0 0
0.654206 0.625118 0.627178 0.8 0 0
0.298411 0.025107 0.370621 0.8 0 0
0.337606 0.786525 0.386054 0.8 0 0
0.691762 0.799481 0.549553 0.8 0 0
0.301698 0.535407 0.315896 0.8 0 0
0.565969 0.803824 0.436448 0.8 0 0
0.336694 0.753458 0.475788 0.8 0 0
0.329636 0.308531 0.329215 0.8 0 0
0.091123 0.641693 0.365459 0.8 0 0
0.534526 0.308390 0.350592 0.8 0 0
0.290108 0.341637 0.351091 0.8 0 0
0.203145 0.405031 0.544752 0.8 0 0
0.516258 0.364475 0.316067 0.8 0 0
0.546898 0.484894 0.451817 0.8 0 0
0.616241 0.731688 0.672587 0.8 0 0
0.517998 0.025160 0.435886 0.8 0 0
0.448928 0.299884 0.558879 0.8 0 0
0.591025 0.751328 0.481029 0.8 0 0
0.279820 0.574825 0.282213 0.8 0 0
0.239152 0.645476 0.370626 0.8 0 0
0.306680 0.486758 0.403898 0.8 0 0
0.386206 0.460529 0.202476 0.8 0 0
0.417992 0.349563 0.338875 0.8 0 0
0.193560 0.868218 0.533883 0.8 0 0
0.377743 0.867637 0.100567 0.8 0 0
0.413266 0.822405 0.526123 0.8 0 0
0.532489 0.562018 0.541248 0.8 0 0
0.605852 0.500478 0.443536 0.8 0 0
0.310392 0.384030 0.263155 0.8 0 0
0.415842 0.941009 0.167794 0.8 0 0
0.412382 0.228245 0.353613 0.8 0 0
0.306307 0.312406 0.381660 0.8 0 0
0.596672 0.639563 0.526581 0.8 0 0
0.496466 0.809656 0.448969 0.8 0 0
0.517853 0.517038 0.335936 0.8 0 0
0.211559 0.461105 0.252140 0.8 0 0
0.398921 0.341644 0.468231 0.8 0 0
0.262209 0.308596 0.344206 0.8 0 0
0.188928 0.480916 0.282397 0.8 0 0
0.269886 0.201843 0.286303 0.8 0 0
0.370085 0.025164 0.444873 0.8 0 0
0.557254 0.341520 0.467151 0.8 0 0
0.076936 0.662396 0.502474 0.8 0 0
0.215879 0.434161 0.415702 0.8 0 0
0.252757 0.681679 0.195479 0.8 0 0
0.524982 0.148824 0.479650 0.8 0 0
0.285114 0.701499 0.438736 0.8 0 0
0.368288 0.574474 0.347927 0.8 0 0
0.563619 0.771082 0.420118 0.8 0 0
0.417630 0.640451 0.350407 0.8 0 0
0.489795 0.906663 0.311256 0.8 0 0
0.604921 0.555303 0.593414 0.8 0 0
0.463367 0.277017 0.286011 0.8 0 0
0.496134 0.337796 0.218041 0.8 0 0
0.408654 0.724532 0.205437 0.8 0 0
0.534745 0.615845 0.649865 0.8 0 0
0.393285 0.749122 0.489721 0.8 0 0
0.521533 0.622879 0.621739 0.8 0 0
0.577741 0.662238 0.335232 0.8 0 0
0.384607 0.304637 0.304008 0.8 0 0
0.607227 0.636646 0.428052 0.8 0 0
0.420173 0.266364 0.295796 0.8 0 0
0.325572 0.297006 0.396523 0.8 0 0
0.582663 0.897074 0.491170 0.8 0 0
0.509686 0.811159 0.696443 0.8 0 0
0.455877 0.516302 0.363455 0.8 0 0
0.429891 0.577328 0.450860 0.8 0 0
0.273529 0.661387 0.194346 0.8 0 0
0.369655 0.668615 0.536707 0.8 0 0
0.487487 0.547726 0.569556 0.8 0 0
0.272334 0.302019 0.400349 0.8 0 0
0.119217 0.492562 0.475192 0.8 0 0
0.550676 0.102161 0.430192 0.8 0 0
0.679769 0.655345 0.448942 0.8 0 0
0.444112 0.748723 0.597110 0.8 0 0
0.371569 0.556715 0.558750 0.8 0 0
0.462756 0.340750 0.370833 0.8 0 0
0.427779 0.308451 0.323853 0.8 0 0
0.454240 0.490765 0.285521 0.8 0 0
0.477297 0.944742 0.236450 0.8 0 0
0.499564 0.622548 0.272314 0.8 0 0
0.369346 0.633774 0.274665 0.8 0 0
0.548626 0.864598 0.612195 0.8 0 0
0.520049 0.726319 0.573263 0.8 0 0
0.417070 0.025170 0.452152 0.8 0 0
0.377032 0.376943 0.249512 0.8 0 0
0.444796 0.495333 0.647913 0.8 0 0
0.356480 0.752657 0.607362 0.8 0 0
0.336999 0.555010 0.436723 0.8 0 0
0.594227 0.596597 0.561014 0.8 0 0
0.245233 0.569673 0.362106 0.8 0 0
0.575964 0.787986 0.446257 0.8 0 0
0.598867 0.341191 0.325609 0.8 0 0
0.199341 0.742817 0.361974 0.8 0 0
0.349156 0.292894 0.562026 0.8 0 0
0.217161 0.319796 0.415817 0.8 0 0
0.436698 0.681006 0.458531 0.8 0 0
0.501215 0.839959 0.383083 0.8 0 0
0.144554 0.437377 0.384068 0.8 0 0
0.517297 0.811830 0.616400 0.8 0 0
0.437109 0.692391 0.442764 0.8 0 0
0.163726 0.756673 0.483050 0.8 0 0
0.200043 0.700224 0.339656 0.8 0 0
0.318297 0.364468 0.535891 0.8 0 0
0.432041 0.308465 0.345942 0.8 0 0
0.317318 0.588950 0.578426 0.8 0 0
0.310232 0.533175 0.309441 0.8 0 0
0.356562 0.341714 0.516331 0.8 0 0
0.579078 0.576488 0.563851 0.8 0 0
0.553361 0.308342 0.308934 0.8 0 0
0.327490 0.106307 0.243275 0.8 0 0
0.223808 0.701757 0.172017 0.8 0 0
0.346371 0.538983 0.228713 0.8 0 0
0.215850 0.704438 0.325285 0.8 0 0
0.306738 0.451738 0.302319 0.8 0 0
0.315113 0.533799 0.093339 0.8 0 0
0.338523 0.605212 0.513708 0.8 0 0
0.272363 0.341730 0.453815 0.8 0 0
0.546159 0.280799 0.492323 0.8 0 0
0.432175 0.632651 0.461126 0.8 0 0
0.636050 0.516115 0.329354 0.8 0 0
0.550353 0.740519 0.291224 0.8 0 0
0.275061 0.280609 0.248504 0.8 0 0
0.298985 0.491539 0.468902 0.8 0 0
0.470164 0.408049 0.457081 0.8 0 0
0.389819 0.308429 0.256839 0.8 0 0
0.320203 0.785303 0.610160 0.8 0 0
0.438979 0.265602 0.300821 0.8 0 0
0.473405 0.522939 0.336567 0.8 0 0
0.536737 0.514968 0.271607 0.8 0 0
0.166917 0.633049 0.521337 0.8 0 0
0.544114 0.723685 0.553381 0.8 0 0
0.383868 0.512987 0.202077 0.8 0 0
0.437341 0.529430 0.306996 0.8 0 0
0.482789 0.367172 0.558096 0.8 0 0
0.528889 0.464701 0.301690 0.8 0 0
0.403827 0.456532 0.476226 0.8 0 0
0.370066 0.384255 0.330012 0.8 0 0
0.392661 0.244710 0.538999 0.8 0 0
0.285680 0.423300 0.283549 0.8 0 0
0.361820 0.308427 0.226568 0.8 0 0
0.251884 0.510023 0.368204 0.8 0 0
0.359339 0.069181 0.232906 0.8 0 0
0.401163 0.341474 0.252893 0.8 0 0
0.360016 0.439071 0.560256 0.8 0 0
0.230575 0.664211 0.457006 0.8 0 0
0.615160 0.500408 0.433158 0.8 0 0
0.557078 0.420912 0.532575 0.8 0 0
0.381062 0.837442 0.162410 0.8 0 0
0.457139 0.363497 0.299603 0.8 0 0
0.256694 0.434981 0.293225 0.8 0 0
0.388267 0.394801 0.310912 0.8 0 0
0.309487 0.809261 0.096700 0.8 0 0
0.114992 0.603833 0.433381 0.8 0 0
0.504990 0.453976 0.406343 0.8 0 0
0.563928 0.813533 0.459058 0.8 0 0
0.640815 0.576007 0.427753 0.8 0 0
0.561233 0.134032 0.328223 0.8 0 0
0.439979 0.280845 0.551235 0.8 0 0
0.551199 0.799030 0.243309 0.8 0 0
0.308079 0.702186 0.587647 0.8 0 0
0.248171 0.308664 0.420015 0.8 0 0
0.406052 0.273215 0.256919 0.8 0 0
0.329099 0.341683 0.449586 0.8 0 0
0.373326 0.797824 0.344598 0.8 0 0
0.279261 0.308571 0.329789 0.8 0 0
0.623407 0.808930 0.616545 0.8 0 0
0.603924 0.659441 0.337468 0.8 0 0
0.650316 0.732145 0.568315 0.8 0 0
0.608833 0.821480 0.359955 0.8 0 0
0.349538 0.391817 0.264361 0.8 0 0
0.331007 0.299107 0.555435 0.8 0 0
0.214446 0.291717 0.398948 0.8 0 0
0.264459 0.096222 0.337805 0.8 0 0
0.622408 0.608260 0.399999 0.8 0 0
0.517832 0.414008 0.326659 0.8 0 0
0.451092 0.757757 0.538293 0.8 0 0
0.366758 0.355085 0.337276 0.8 0 0
0.370545 0.606765 0.572508 0.8 0 0
0.482556 0.474555 0.192374 0.8 0 0
0.518946 0.569005 0.327683 0.8 0 0
0.601912 0.832063 0.428376 0.8 0 0
0.377875 0.367546 0.346174 0.8 0 0
0.577282 0.841706 0.461653 0.8 0 0
0.452907 0.656756 0.252660 0.8 0 0
0.502233 0.306242 0.539423 0.8 0 0
0.572395 0.322484 0.293310 0.8 0 0
0.355448 0.937933 0.155465 0.8 0 0
0.326979 0.759690 0.401631 0.8 0 0
0.571728 0.521425 0.338564 0.8 0 0
0.610201 0.280720 0.390852 0.8 0 0
0.521352 0.410870 0.531783 0.8 0 0
0.459312 0.341554 0.413111 0.8 0 0
0.403631 0.254138 0.198319 0.8 0 0
0.208660 0.655466 0.382636 0.8 0 0
0.432385 0.497324 0.453215 0.8 0 0
0.206188 0.467450 0.237142 0.8 0 0
0.452045 0.504779 0.420565 0.8 0 0
0.560847 0.726853 0.611514 0.8 0 0
0.418691 0.529169 0.303351 0.8 0 0
0.393099 0.268198 0.270334 0.8 0 0
0.185539 0.482539 0.259447 0.8 0 0
0.446003 0.218017 0.206059 0.8 0 0
0.440847 0.721569 0.160163 0.8 0 0
0.667832 0.547306 0.332998 0.8 0 0
0.215582 0.315877 0.410299 0.8 0 0
0.322820 0.781298 0.618877 0.8 0 0
0.377317 0.728417 0.220172 0.8 0 0
0.106380 0.464145 0.392839 0.8 0 0
0.385635 0.397326 0.458962 0.8 0 0
0.542399 0.689091 0.445448 0.8 0 0
0.235855 0.721855 0.436586 0.8 0 0
0.293127 0.341630 0.345034 0.8 0 0
0.309387 0.308564 0.349965 0.8 0 0
0.476736 0.592790 0.313723 0.8 0 0
0.613131 0.641731 0.439899 0.8 0 0
0.354464 0.518493 0.498394 0.8 0 0
0.558341 0.202011 0.295367 0.8 0 0
0.642809 0.501408 0.440030 0.8 0 0
0.613737 0.283153 0.386027 0.8 0 0
0.349165 0.880039 0.199642 0.8 0 0
0.535632 0.603285 0.257457 0.8 0 0
0.290039 0.448414 0.300867 0.8 0 0
0.605234 0.577731 0.485184 0.8 0 0
0.573009 0.509605 0.508662 0.8 0 0
0.598698 0.486449 0.527535 0.8 0 0
0.527869 0.486823 0.489967 0.8 0 0
0.338930 0.312582 0.558808 0.8 0 0
0.424602 0.308446 0.314336 0.8 0 0
0.255221 0.155416 0.345639 0.8 0 0
0.506870 0.425107 0.405469 0.8 0 0
0.599907 0.557950 0.587703 0.8 0 0
0.696362 0.653551 0.501256 0.8 0 0
0.575096 0.679353 0.451900 0.8 0 0
0.442727 0.728047 0.353250 0.8 0 0
0.401815 0.571865 0.346182 0.8 0 0
0.349774 0.752093 0.183816 0.8 0 0
0.408146 0.692514 0.611248 0.8 0 0
0.227657 0.878285 0.558928 0.8 0 0
0.378450 0.341645 0.448883 0.8 0 0
0.147601 0.833791 0.506702 0.8 0 0
0.451991 0.726919 0.440951 0.8 0 0
0.518213 0.411447 0.562632 0.8 0 0
0.578461 0.502896 0.374371 0.8 0 0
0.153006 0.723820 0.563439 0.8 0 0
0.226740 0.706804 0.316205 0.8 0 0
0.353092 0.416528 0.374311 0.8 0 0
0.487712 0.618604 0.485663 0.8 0 0
0.528020 0.341548 0.474415 0.8 0 0
0.367696 0.250277 0.358824 0.8 0 0
0.367147 0.112610 0.224276 0.8 0 0
0.458182 0.116153 0.224405 0.8 0 0
0.400699 0.186344 0.207914 0.8 0 0
0.595148 0.326444 0.313534 0.8 0 0
0.601389 0.308238 0.339715 0.8 0 0
0.638833 0.652313 0.558057 0.8 0 0
0.534464 0.600345 0.335410 0.8 0 0
0.468764 0.497053 0.445305 0.8 0 0
0.437006 0.775408 0.499095 0.8 0 0
0.368833 0.757180 0.325235 0.8 0 0
0.377571 0.308487 0.319744 0.8 0 0
0.442165 0.728623 0.355804 0.8 0 0
0.420825 0.747920 0.154597 0.8 0 0
0.366833 0.584519 0.305777 0.8 0 0
0.549804 0.871819 0.621794 0.8 0 0
0.080146 0.624363 0.424180 0.8 0 0
0.303622 0.605938 0.396364 0.8 0 0
0.136749 0.439713 0.384021 0.8 0 0
0.370550 0.197232 0.528667 0.8 0 0
0.159401 0.597764 0.417636 0.8 0 0
0.166727 0.737938 0.375648 0.8 0 0
0.539088 0.341550 0.489443 0.8 0 0
0.471741 0.400740 0.500086 0.8 0 0
0.419412 0.611797 0.604942 0.8 0 0
0.513761 0.094727 0.259887 0.8 0 0
0.441217 0.362279 0.343650 0.8 0 0
0.626121 0.811042 0.601640 0.8 0 0
0.231269 0.677155 0.311253 0.8 0 0
0.109002 0.785427 0.463612 0.8 0 0
0.125142 0.652888 0.603828 0.8 0 0
0.243778 0.858884 0.510908 0.8 0 0
0.319883 0.308524 0.310133 0.8 0 0
0.529805 0.340042 0.499341 0.8 0 0
0.612609 0.486389 0.535762 0.8 0 0
0.436423 0.670224 0.397243 0.8 0 0
0.446732 0.293656 0.570170 0.8 0 0
0.172690 0.808419 0.542426 0.8 0 0
0.512299 0.589708 0.505369 0.8 0 0
0.597645 0.343469 0.287082 0.8 0 0
0.282713 0.069929 0.300317 0.8 0 0
0.440355 0.681896 0.326114 0.8 0 0
0.368512 0.594334 0.477915 0.8 0 0
0.364745 0.903061 0.256895 0.8 0 0
0.256025 0.629090 0.376943 0.8 0 0
0.374024 0.680832 0.551988 0.8 0 0
0.557251 0.283541 0.495333 0.8 0 0
0.211638 0.511979 0.332327 0.8 0 0
0.576751 0.824251 0.468256 0.8 0 0
0.260742 0.341614 0.291805 0.8 0 0
0.268903 0.836572 0.613698 0.8 0 0
0.528701 0.152046 0.475827 0.8 0 0
0.190440 0.659683 0.552823 0.8 0 0
0.440053 0.341460 0.272871 0.8 0 0
0.469600 0.640041 0.319096 0.8 0 0
0.298647 0.841591 0.161147 0.8 0 0
0.389441 0.282627 0.270074 0.8 0 0
0.638711 0.661765 0.433593 0.8 0 0
0.639501 0.504998 0.438175 0.8 0 0
0.544676 0.434266 0.405900 0.8 0 0
0.529235 0.414540 0.496782 0.8 0 0
0.580965 0.636395 0.489814 0.8 0 0
0.407029 0.889464 0.200983 0.8 0 0
0.720241 0.787378 0.422282 0.8 0 0
0.511734 0.696968 0.502430 0.8 0 0
0.350220 0.565544 0.377400 0.8 0 0
0.317992 0.653501 0.224685 0.8 0 0
0.253867 0.824761 0.587317 0.8 0 0
0.346580 0.025110 0.374596 0.8 0 0
0.532214 0.333126 0.205778 0.8 0 0
0.578701 0.430111 0.517011 0.8 0 0
0.285785 0.853444 0.129960 0.8 0 0
0.451785 0.903297 0.342294 0.8 0 0
0.622234 0.490157 0.329792 0.8 0 0
0.441042 0.428854 0.384041 0.8 0 0
0.561350 0.597917 0.199869 0.8 0 0
0.268872 0.777290 0.266802 0.8 0 0
0.348753 0.417539 0.396524 0.8 0 0
0.573681 0.721016 0.386842 0.8 0 0
0.536178 0.865155 0.533905 0.8 0 0
0.523718 0.828340 0.166821 0.8 0 0
0.536134 0.476777 0.425347 0.8 0 0
0.404718 0.308622 0.521124 0.8 0 0
0.557289 0.341387 0.296429 0.8 0 0
0.191857 0.658622 0.487687 0.8 0 0
0.314521 0.639693 0.446175 0.8 0 0
0.545910 0.769604 0.502225 0.8 0 0
0.620930 0.474844 0.548317 0.8 0 0
0.460654 0.273103 0.536941 0.8 0 0
0.369578 0.631411 0.429358 0.8 0 0
0.333743 0.868244 0.518074 0.8 0 0
0.361457 0.755125 0.333242 0.8 0 0
0.423157 0.308487 0.364881 0.8 0 0
0.480467 0.562084 0.233176 0.8 0 0
0.446922 0.457886 0.230132 0.8 0 0
0.570481 0.512539 0.237939 0.8 0 0
0.431293 0.312643 0.490408 0.8 0 0
0.132169 0.774138 0.478053 0.8 0 0
0.550450 0.709636 0.433011 0.8 0 0
0.357636 0.326814 0.533059 0.8 0 0
0.307000 0.308202 0.373204 0.8 0 0
0.385027 0.341571 0.359962 0.8 0 0
0.559422 0.757296 0.606547 0.8 0 0
0.297415 0.341621 0.337655 0.8 0 0
0.475860 0.738047 0.472098 0.8 0 0
0.499277 0.025108 0.372668 0.8 0 0
0.561499 0.591020 0.513331 0.8 0 0
0.408544 0.718853 0.383851 0.8 0 0
0.363203 0.758837 0.561375 0.8 0 0
0.184149 0.543850 0.348867 0.8 0 0
0.272227 0.142269 0.440877 0.8 0 0
0.291854 0.052542 0.451378 0.8 0 0
0.430661 0.540950 0.545194 0.8 0 0
0.404119 0.713897 0.458128 0.8 0 0
0.306071 0.308567 0.350504 0.8 0 0
0.554267 0.432402 0.467409 0.8 0 0
0.456200 0.445549 0.484499 0.8 0 0
0.323605 0.493584 0.320999 0.8 0 0
0.362806 0.341570 0.336171 0.8 0 0
0.437497 0.428661 0.450471 0.8 0 0
0.627116 0.647961 0.573694 0.8 0 0
0.463458 0.501339 0.647893 0.8 0 0
0.232108 0.330338 0.346277 0.8 0 0
0.479411 0.545698 0.452073 0.8 0 0
0.350552 0.581048 0.580873 0.8 0 0
0.505568 0.526555 0.530250 0.8 0 0
0.221635 0.301346 0.309291 0.8 0 0
0.697242 0.756977 0.427627 0.8 0 0
0.541018 0.675748 0.514296 0.8 0 0
0.461622 0.378219 0.592182 0.8 0 0
0.387066 0.308545 0.402927 0.8 0 0
0.483924 0.608318 0.071807 0.8 0 0
0.444289 0.653694 0.560555 0.8 0 0
0.505479 0.290261 0.550186 0.8 0 0
0.318041 0.390426 0.548327 0.8 0 0
0.345115 0.308601 0.433577 0.8 0 0
0.352289 0.838793 0.248639 0.8 0 0
0.419439 0.685824 0.422523 0.8 0 0
0.593929 0.307512 0.309587 0.8 0 0
0.246128 0.331691 0.255778 0.8 0 0
0.432456 0.455844 0.563882 0.8 0 0
0.269513 0.576347 0.571264 0.8 0 0
0.542531 0.738102 0.550629 0.8 0 0
0.403721 0.718248 0.463905 0.8 0 0
0.568390 0.280558 0.484275 0.8 0 0
0.497186 0.514922 0.468821 0.8 0 0
0.417602 0.601249 0.508954 0.8 0 0
0.163627 0.738331 0.511267 0.8 0 0
0.167181 0.678889 0.511253 0.8 0 0
0.447413 0.537911 0.326033 0.8 0 0
0.348360 0.370701 0.292910 0.8 0 0
0.187651 0.384989 0.478129 0.8 0 0
0.255380 0.622059 0.190922 0.8 0 0
0.308049 0.190890 0.495697 0.8 0 0
0.238514 0.279492 0.343268 0.8 0 0
0.568339 0.752210 0.521269 0.8 0 0
0.479418 0.568320 0.123498 0.8 0 0
0.532569 0.561519 0.646180 0.8 0 0
0.391278 0.275427 0.334015 0.8 0 0
0.620049 0.586349 0.579912 0.8 0 0
0.431335 0.633037 0.396010 0.8 0 0
0.378184 0.888301 0.178758 0.8 0 0
0.489478 0.341395 0.238266 0.8 0 0
0.412245 0.341495 0.289471 0.8 0 0
0.501837 0.679505 0.160919 0.8 0 0
0.342866 0.215810 0.521832 0.8 0 0
0.189083 0.723742 0.387310 0.8 0 0
0.354652 0.203916 0.524678 0.8 0 0
0.380983 0.497829 0.344937 0.8 0 0
0.365276 0.536874 0.277856 0.8 0 0
0.268152 0.236575 0.460140 0.8 0 0
0.565853 0.235074 0.439960 0.8 0 0
0.231901 0.488925 0.401651 0.8 0 0
0.435628 0.783822 0.543490 0.8 0 0
0.242032 0.619476 0.395943 0.8 0 0
0.377832 0.647311 0.523180 0.8 0 0
0.515742 0.538721 0.272685 0.8 0 0
0.440444 0.383583 0.511287 0.8 0 0
0.358314 0.555572 0.547840 0.8 0 0
0.430397 0.549513 0.237107 0.8 0 0
0.127300 0.766627 0.455769 0.8 0 0
0.432156 0.692044 0.327672 0.8 0 0
0.352519 0.808745 0.371328 0.8 0 0
0.543996 0.607157 0.461420 0.8 0 0
0.436074 0.308384 0.245936 0.8 0 0
0.602264 0.631749 0.429630 0.8 0 0
0.691462 0.801775 0.548327 0.8 0 0
0.584647 0.846387 0.567272 0.8 0 0
0.467437 0.110518 0.228084 0.8 0 0
0.415233 0.280326 0.296005 0.8 0 0
0.332319 0.341568 0.304237 0.8 0 0
0.304488 0.557136 0.266997 0.8 0 0
0.522736 0.411258 0.533138 0.8 0 0
0.104436 0.616014 0.414312 0.8 0 0
0.541135 0.702500 0.356997 0.8 0 0
0.672772 0.856810 0.498657 0.8 0 0
0.447383 0.280559 0.183036 0.8 0 0
0.312848 0.786715 0.403041 0.8 0 0
0.262380 0.790620 0.463537 0.8 0 0
0.539875 0.681108 0.448525 0.8 0 0
0.352155 0.408980 0.401819 0.8 0 0
0.582765 0.500011 0.423840 0.8 0 0
0.603281 0.306461 0.381010 0.8 0 0
0.586340 0.840168 0.621518 0.8 0 0
0.509856 0.495861 0.297250 0.8 0 0
0.507588 0.560127 0.330445 0.8 0 0
0.458421 0.437745 0.439110 0.8 0 0
0.366374 0.505595 0.540218 0.8 0 0
0.550842 0.870190 0.628237 0.8 0 0
0.402320 0.611171 0.386346 0.8 0 0
0.412917 0.653977 0.442621 0.8 0 0
0.498962 0.313313 0.198432 0.8 0 0
0.333677 0.832438 0.294701 0.8 0 0
0.538416 0.569612 0.229017 0.8 0 0
0.494971 0.848366 0.435018 0.8 0 0
0.424404 0.414014 0.233081 0.8 0 0
0.260556 0.163013 0.319743 0.8 0 0
0.560640 0.515542 0.411354 0.8 0 0
0.533727 0.109402 0.460671 0.8 0 0
0.247156 0.316667 0.305095 0.8 0 0
0.344759 0.308521 0.330620 0.8 0 0
0.390916 0.411111 0.328508 0.8 0 0
0.329933 0.349200 0.184782 0.8 0 0
0.630461 0.464807 0.331169 0.8 0 0
0.598522 0.856289 0.503163 0.8 0 0
0.385851 0.367180 0.567662 0.8 0 0
0.645847 0.661080 0.478727 0.8 0 0
0.464358 0.341437 0.268103 0.8 0 0
0.540842 0.498009 0.333604 0.8 0 0
0.409348 0.658834 0.362950 0.8 0 0
0.658451 0.869098 0.529477 0.8 0 0
0.187962 0.420086 0.568312 0.8 0 0
0.635042 0.868788 0.473307 0.8 0 0
0.430832 0.423798 0.525862 0.8 0 0
0.386547 0.656752 0.419853 0.8 0 0
0.372819 0.564412 0.398348 0.8 0 0
0.372555 0.158204 0.523770 0.8 0 0
0.539258 0.482392 0.497897 0.8 0 0
0.371791 0.582713 0.262793 0.8 0 0
0.543660 0.809482 0.696776 0.8 0 0
0.426952 0.550400 0.239155 0.8 0 0
0.468029 0.362360 0.320583 0.8 0 0
0.321437 0.289350 0.550201 0.8 0 0
0.334147 0.302812 0.557152 0.8 0 0
0.412279 0.230418 0.200829 0.8 0 0
0.370181 0.528621 0.284225 0.8 0 0
0.201554 0.520306 0.474701 0.8 0 0
0.458226 0.655637 0.292962 0.8 0 0
0.502863 0.830222 0.378820 0.8 0 0
0.492752 0.308478 0.423355 0.8 0 0
0.466886 0.569316 0.299886 0.8 0 0
0.278773 0.025112 0.374899 0.8 0 0
0.512324 0.518651 0.498970 0.8 0 0
0.472424 0.506385 0.239190 0.8 0 0
0.360032 0.585381 0.343610 0.8 0 0
0.677476 0.834903 0.541224 0.8 0 0
0.502172 0.521366 0.658097 0.8 0 0
0.511504 0.664745 0.229769 0.8 0 0
0.531181 0.605590 0.331131 0.8 0 0
0.193815 0.855435 0.603153 0.8 0 0
0.161041 0.510869 0.523489 0.8 0 0
0.437032 0.665897 0.399146 0.8 0 0
0.372243 0.554467 0.310031 0.8 0 0
0.345562 0.563672 0.375461 0.8 0 0
0.278258 0.685933 0.448552 0.8 0 0
0.185021 0.486335 0.287462 0.8 0 0
0.289462 0.406451 0.482816 0.8 0 0
0.231388 0.344120 0.314702 0.8 0 0
0.174989 0.494280 0.380254 0.8 0 0
0.251111 0.176572 0.357787 0.8 0 0
0.246787 0.624039 0.284258 0.8 0 0
0.464897 0.531450 0.534702 0.8 0 0
0.445926 0.282645 0.559198 0.8 0 0
0.483710 0.323073 0.528073 0.8 0 0
0.592949 0.465918 0.405774 0.8 0 0
0.370561 0.931159 0.202767 0.8 0 0
0.547254 0.281278 0.507085 0.8 0 0
0.341346 0.466596 0.358717 0.8 0 0
0.186322 0.530024 0.512172 0.8 0 0
0.429115 0.642308 0.212242 0.8 0 0
0.348939 0.777424 0.580989 0.8 0 0
0.389372 0.308439 0.269748 0.8 0 0
0.572012 0.748666 0.393546 0.8 0 0
0.611655 0.334593 0.406823 0.8 0 0
0.419968 0.737670 0.168906 0.8 0 0
0.596271 0.619059 0.538500 0.8 0 0
0.403803 0.741373 0.342123 0.8 0 0
0.080866 0.634567 0.385497 0.8 0 0
0.459612 0.806752 0.353696 0.8 0 0
0.180089 0.489915 0.482708 0.8 0 0
0.524225 0.341441 0.332541 0.8 0 0
0.310606 0.414172 0.484111 0.8 0 0
0.449875 0.308566 0.494402 0.8 0 0
0.421692 0.613694 0.508957 0.8 0 0
0.250422 0.579161 0.421175 0.8 0 0
0.436535 0.673183 0.341351 0.8 0 0
0.580837 0.260088 0.333559 0.8 0 0
0.533698 0.308339 0.286745 0.8 0 0
0.330811 0.821241 0.125512 0.8 0 0
0.329577 0.698984 0.492657 0.8 0 0
0.601320 0.667654 0.522956 0.8 0 0
0.534979 0.628231 0.628347 0.8 0 0
0.606971 0.770460 0.603231 0.8 0 0
0.280378 0.511869 0.333813 0.8 0 0
0.563771 0.537503 0.356830 0.8 0 0
0.162533 0.446190 0.422226 0.8 0 0
0.293683 0.720500 0.426662 0.8 0 0
0.343741 0.433893 0.348246 0.8 0 0
0.560521 0.612682 0.327460 0.8 0 0
0.493150 0.359569 0.429490 0.8 0 0
0.253555 0.446659 0.303165 0.8 0 0
0.208816 0.611048 0.372954 0.8 0 0
0.225794 0.524253 0.405600 0.8 0 0
0.471836 0.751970 0.682219 0.8 0 0
0.218110 0.681163 0.344118 0.8 0 0
0.389270 0.504341 0.361770 0.8 0 0
0.382447 0.750895 0.300808 0.8 0 0
0.397367 0.679049 0.390916 0.8 0 0
0.621474 0.506400 0.433177 0.8 0 0
0.558790 0.193491 0.441169 0.8 0 0
0.556509 0.780791 0.482958 0.8 0 0
0.373993 0.604185 0.107608 0.8 0 0
0.516573 0.571909 0.520472 0.8 0 0
0.408846 0.266449 0.264737 0.8 0 0
0.553521 0.802085 0.252780 0.8 0 0
0.292866 0.308567 0.337220 0.8 0 0
0.598537 0.280732 0.406574 0.8 0 0
0.356594 0.401281 0.412326 0.8 0 0
0.298041 0.141807 0.477842 0.8 0 0
0.458083 0.308506 0.424852 0.8 0 0
0.407778 0.469234 0.394252 0.8 0 0
0.657275 0.649881 0.494898 0.8 0 0
0.563864 0.723977 0.683945 0.8 0 0
0.503702 0.308378 0.306377 0.8 0 0
0.597274 0.476374 0.332265 0.8 0 0
0.340731 0.523396 0.212568 0.8 0 0
0.583021 0.557218 0.343809 0.8 0 0
0.628098 0.680691 0.526413 0.8 0 0
0.506137 0.643975 0.322710 0.8 0 0
0.381598 0.497535 0.546335 0.8 0 0
0.468332 0.663737 0.283663 0.8 0 0
0.420122 0.357067 0.415366 0.8 0 0
0.271702 0.308676 0.457610 0.8 0 0
0.263679 0.341698 0.403086 0.8 0 0
0.518166 0.290566 0.530708 0.8 0 0
0.347309 0.270768 0.207824 0.8 0 0
0.506485 0.586638 0.295595 0.8 0 0
0.552225 0.064063 0.408706 0.8 0 0
0.409720 0.341506 0.301216 0.8 0 0
0.394020 0.685038 0.352405 0.8 0 0
0.484771 0.646790 0.590154 0.8 0 0
0.607491 0.847989 0.415087 0.8 0 0
0.304928 0.551168 0.519580 0.8 0 0
0.542377 0.798913 0.302324 0.8 0 0
0.160293 0.656134 0.583770 0.8 0 0
0.521980 0.612194 0.183586 0.8 0 0
0.335274 0.336046 0.181966 0.8 0 0
0.364629 0.387399 0.326219 0.8 0 0
0.398085 0.562451 0.429159 0.8 0 0
0.407227 0.492189 0.566845 0.8 0 0
0.184546 0.858300 0.453719 0.8 0 0
0.451978 0.559711 0.158166 0.8 0 0
0.379336 0.605157 0.511789 0.8 0 0
0.599988 0.333459 0.329256 0.8 0 0
0.667567 0.753341 0.513679 0.8 0 0
0.408215 0.275292 0.233061 0.8 0 0
0.338770 0.321191 0.337598 0.8 0 0
0.542801 0.634586 0.437761 0.8 0 0
0.341509 0.532158 0.453286 0.8 0 0
0.378298 0.357784 0.558866 0.8 0 0
0.486619 0.109230 0.237843 0.8 0 0
0.252691 0.733067 0.244782 0.8 0 0
0.325524 0.313208 0.199753 0.8 0 0
0.299305 0.416862 0.354147 0.8 0 0
0.533189 0.111851 0.461844 0.8 0 0
0.414156 0.175521 0.208548 0.8 0 0
0.378198 0.656287 0.448491 0.8 0 0
0.423380 0.631920 0.724910 0.8 0 0
0.545936 0.088190 0.434962 0.8 0 0
0.546681 0.580405 0.216428 0.8 0 0
0.436748 0.471785 0.387203 0.8 0 0
0.603079 0.666788 0.330281 0.8 0 0
0.162604 0.826835 0.503257 0.8 0 0
0.233176 0.367083 0.443824 0.8 0 0
0.605332 0.814235 0.556581 0.8 0 0
0.505133 0.572277 0.224642 0.8 0 0
0.309658 0.789549 0.520917 0.8 0 0
0.173112 0.853585 0.549165 0.8 0 0
0.356178 0.556512 0.283885 0.8 0 0
0.291978 0.621217 0.406650 0.8 0 0
0.262157 0.101575 0.390236 0.8 0 0
0.126188 0.637781 0.468876 0.8 0 0
0.587270 0.866077 0.441159 0.8 0 0
0.269745 0.499378 0.387231 0.8 0 0
0.365313 0.595304 0.380758 0.8 0 0
0.324113 0.405670 0.582497 0.8 0 0
0.316686 0.868319 0.179185 0.8 0 0
0.335860 0.141866 0.506662 0.8 0 0
0.496381 0.341527 0.414805 0.8 0 0
0.314308 0.282120 0.533769 0.8 0 0
0.342837 0.176969 0.515845 0.8 0 0
0.528021 0.669620 0.595931 0.8 0 0
0.308068 0.160340 0.249485 0.8 0 0
0.640702 0.671374 0.561222 0.8 0 0
0.362999 0.274255 0.289340 0.8 0 0
0.623451 0.739374 0.537438 0.8 0 0
0.332206 0.425951 0.614158 0.8 0 0
0.404786 0.168430 0.209960 0.8 0 0
0.713003 0.671242 0.476335 0.8 0 0
0.327726 0.369408 0.249271 0.8 0 0
0.461860 0.307863 0.184192 0.8 0 0
0.653541 0.660290 0.624552 0.8 0 0
0.420023 0.681917 0.431992 0.8 0 0
0.596433 0.738411 0.344689 0.8 0 0
0.450972 0.321578 0.384115 0.8 0 0
0.380224 0.726957 0.138017 0.8 0 0
0.442609 0.399116 0.335524 0.8 0 0
0.430590 0.449595 0.544691 0.8 0 0
0.200161 0.739957 0.492965 0.8 0 0
0.503366 0.520931 0.135772 0.8 0 0
0.506439 0.544943 0.334163 0.8 0 0
0.476716 0.294247 0.562344 0.8 0 0
0.512205 0.856768 0.141896 0.8 0 0
0.475105 0.632980 0.280433 0.8 0 0
0.268929 0.621643 0.199117 0.8 0 0
0.225951 0.300162 0.444403 0.8 0 0
0.323412 0.704824 0.480288 0.8 0 0
0.263731 0.484289 0.462749 0.8 0 0
0.286037 0.296826 0.526671 0.8 0 0
0.539970 0.596552 0.471284 0.8 0 0
0.502958 0.239884 0.226423 0.8 0 0
0.390684 0.512378 0.314922 0.8 0 0
0.484958 0.688599 0.121817 0.8 0 0
0.448435 0.524321 0.331175 0.8 0 0
0.529663 0.114266 0.466630 0.8 0 0
0.316583 0.737335 0.379053 0.8 0 0
0.309189 0.555571 0.509190 0.8 0 0
0.351913 0.492416 0.305561 0.8 0 0
0.579556 0.630476 0.712756 0.8 0 0
0.421417 0.834915 0.104440 0.8 0 0
0.598858 0.731038 0.526524 0.8 0 0
0.562857 0.848415 0.605985 0.8 0 0
0.287508 0.308538 0.295450 0.8 0 0
0.383389 0.890909 0.231505 0.8 0 0
0.362433 0.298082 0.253026 0.8 0 0
0.415333 0.025001 0.229919 0.8 0 0
0.527491 0.582446 0.470185 0.8 0 0
0.255197 0.221569 0.429606 0.8 0 0
0.512903 0.577505 0.297598 0.8 0 0
0.351158 0.341494 0.228813 0.8 0 0
0.537874 0.601728 0.706404 0.8 0 0
0.643172 0.483446 0.449562 0.8 0 0
0.253468 0.341719 0.419678 0.8 0 0
0.551285 0.520161 0.260726 0.8 0 0
0.517360 0.564723 0.307754 0.8 0 0
0.657393 0.643927 0.596161 0.8 0 0
0.368557 0.275609 0.301988 0.8 0 0
0.192336 0.612705 0.373113 0.8 0 0
0.289044 0.474222 0.531617 0.8 0 0
0.419434 0.842897 0.282900 0.8 0 0
0.589778 0.308373 0.386088 0.8 0 0
0.366164 0.539905 0.504245 0.8 0 0
0.275550 0.423556 0.283585 0.8 0 0
0.320179 0.308682 0.513988 0.8 0 0
0.576907 0.753842 0.534482 0.8 0 0
0.320647 0.151018 0.499102 0.8 0 0
0.570084 0.567288 0.372782 0.8 0 0
0.504472 0.458296 0.267140 0.8 0 0
0.282845 0.454835 0.537691 0.8 0 0
0.596183 0.727428 0.656131 0.8 0 0
0.243785 0.840138 0.526677 0.8 0 0
0.535456 0.680032 0.454167 0.8 0 0
0.479110 0.570628 0.287482 0.8 0 0
0.413445 0.025061 0.311912 0.8 0 0
0.389852 0.025078 0.333666 0.8 0 0
0.505540 0.045705 0.261772 0.8 0 0
0.591961 0.308400 0.276544 0.8 0 0
0.419000 0.435962 0.498404 0.8 0 0
0.316398 0.458998 0.447043 0.8 0 0
0.244594 0.881285 0.271034 0.8 0 0
0.283383 0.488819 0.477237 0.8 0 0
0.386266 0.583402 0.369617 0.8 0 0
0.542070 0.331341 0.228251 0.8 0 0
0.465492 0.344154 0.296542 0.8 0 0
0.430246 0.660468 0.421542 0.8 0 0
0.407244 0.631431 0.733720 0.8 0 0
0.576149 0.634009 0.365436 0.8 0 0
0.453152 0.277426 0.539881 0.8 0 0
0.491862 0.575899 0.291592 0.8 0 0
0.422952 0.030682 0.510744 0.8 0 0
0.303082 0.402022 0.400347 0.8 0 0
0.273177 0.593426 0.624352 0.8 0 0
0.440847 0.284241 0.559713 0.8 0 0
0.417809 0.689399 0.395248 0.8 0 0
0.304879 0.747452 0.469537 0.8 0 0
0.431851 0.336177 0.571651 0.8 0 0
0.364655 0.308465 0.278315 0.8 0 0
0.560675 0.675665 0.454630 0.8 0 0
0.271129 0.547759 0.166702 0.8 0 0
0.545916 0.030532 0.413699 0.8 0 0
0.482181 0.761377 0.224481 0.8 0 0
0.486643 0.367170 0.555736 0.8 0 0
0.504162 0.593951 0.284650 0.8 0 0
0.082435 0.793934 0.434475 0.8 0 0
0.465149 0.585651 0.334047 0.8 0 0
0.351260 0.283393 0.177001 0.8 0 0
0.593657 0.774188 0.354082 0.8 0 0
0.602405 0.280667 0.322023 0.8 0 0
0.412539 0.406089 0.419808 0.8 0 0
0.665074 0.688053 0.419391 0.8 0 0
0.546593 0.400885 0.408780 0.8 0 0
0.442125 0.688688 0.322688 0.8 0 0
0.551838 0.028791 0.383976 0.8 0 0
0.675121 0.833639 0.540669 0.8 0 0
0.480511 0.242594 0.525900 0.8 0 0
0.268412 0.283185 0.245865 0.8 0 0
0.539757 0.351102 0.226310 0.8 0 0
0.238802 0.308654 0.397778 0.8 0 0
0.325777 0.745396 0.253221 0.8 0 0
0.531657 0.732718 0.387735 0.8 0 0
0.088181 0.644789 0.480392 0.8 0 0
0.475342 0.835367 0.360786 0.8 0 0
0.659123 0.456535 0.335444 0.8 0 0
0.246213 0.311905 0.308018 0.8 0 0
0.337946 0.662878 0.044037 0.8 0 0
0.467499 0.341389 0.208982 0.8 0 0
0.581931 0.651292 0.409634 0.8 0 0
0.536126 0.246625 0.252777 0.8 0 0
0.451633 0.341403 0.210094 0.8 0 0
0.596987 0.618126 0.541398 0.8 0 0
0.492610 0.518162 0.446526 0.8 0 0
0.427969 0.341573 0.406062 0.8 0 0
0.367133 0.044509 0.234013 0.8 0 0
0.615468 0.604478 0.474748 0.8 0 0
0.365671 0.508245 0.299131 0.8 0 0
0.296117 0.308664 0.465471 0.8 0 0
0.351944 0.025088 0.346937 0.8 0 0
0.412011 0.412351 0.293905 0.8 0 0
0.182645 0.702943 0.416217 0.8 0 0
0.506173 0.341467 0.348398 0.8 0 0
0.433232 0.592838 0.503911 0.8 0 0
0.404142 0.294378 0.227055 0.8 0 0
0.503400 0.130022 0.245095 0.8 0 0
0.552231 0.075193 0.326210 0.8 0 0
0.275602 0.331647 0.237036 0.8 0 0
0.536866 0.878717 0.611634 0.8 0 0
0.158943 0.520650 0.541762 0.8 0 0
0.425865 0.684489 0.588225 0.8 0 0
0.457403 0.713000 0.393626 0.8 0 0
0.516666 0.572153 0.315099 0.8 0 0
0.215375 0.601371 0.389408 0.8 0 0
0.237486 0.299694 0.294916 0.8 0 0
0.288401 0.464903 0.496481 0.8 0 0
0.441999 0.457640 0.580745 0.8 0 0
0.076677 0.512639 0.447818 0.8 0 0
0.563948 0.621760 0.450994 0.8 0 0
0.543376 0.687680 0.617492 0.8 0 0
0.257807 0.259050 0.447475 0.8 0 0
0.381851 0.034265 0.509135 0.8 0 0
0.429417 0.658808 0.397992 0.8 0 0
0.376005 0.313310 0.180973 0.8 0 0
0.529593 0.546415 0.364602 0.8 0 0
0.356228 0.667793 0.394903 0.8 0 0
0.598604 0.609033 0.208825 0.8 0 0
0.260969 0.556086 0.352817 0.8 0 0
0.617869 0.535616 0.431399 0.8 0 0
0.508385 0.328756 0.548565 0.8 0 0
0.451323 0.725104 0.441811 0.8 0 0
0.364091 0.390305 0.351047 0.8 0 0
0.227926 0.311468 0.325978 0.8 0 0
0.361342 0.944817 0.206948 0.8 0 0
0.360940 0.660651 0.470779 0.8 0 0
0.317044 0.647230 0.431620 0.8 0 0
0.314049 0.762843 0.281530 0.8 0 0
0.226801 0.425796 0.397809 0.8 0 0
0.302010 0.454280 0.496111 0.8 0 0
0.320202 0.580695 0.572383 0.8 0 0
0.403935 0.329335 0.422886 0.8 0 0
0.150088 0.674758 0.621496 0.8 0 0
0.585178 0.356729 0.263896 0.8 0 0
0.374122 0.341600 0.387177 0.8 0 0
0.434186 0.647316 0.466639 0.8 0 0
0.451596 0.846209 0.488818 0.8 0 0
0.262819 0.308623 0.381598 0.8 0 0
0.150199 0.775414 0.500256 0.8 0 0
0.535572 0.576601 0.326377 0.8 0 0
0.335929 0.341588 0.333051 0.8 0 0
0.597548 0.280721 0.391715 0.8 0 0
0.449440 0.205254 0.208950 0.8 0 0
0.372733 0.532523 0.525565 0.8 0 0
0.382596 0.402154 0.500652 0.8 0 0
0.630088 0.814702 0.532133 0.8 0 0
0.378825 0.365822 0.319759 0.8 0 0
0.407872 0.130477 0.214857 0.8 0 0
0.334798 0.308637 0.469864 0.8 0 0
0.376483 0.569493 0.397505 0.8 0 0
0.522700 0.042751 0.459872 0.8 0 0
0.422887 0.915783 0.208444 0.8 0 0
0.487417 0.680220 0.288009 0.8 0 0
0.272841 0.090357 0.313489 0.8 0 0
0.504654 0.132207 0.245743 0.8 0 0
0.451381 0.843068 0.485313 0.8 0 0
0.489980 0.365116 0.302561 0.8 0 0
0.508859 0.444591 0.405492 0.8 0 0
0.323347 0.667485 0.243539 0.8 0 0
0.469309 0.437693 0.408935 0.8 0 0
0.268357 0.048385 0.379868 0.8 0 0
0.440197 0.458570 0.547362 0.8 0 0
0.505660 0.173947 0.239193 0.8 0 0
0.164494 0.702827 0.632035 0.8 0 0
0.420154 0.308544 0.435574 0.8 0 0
0.364948 0.319759 0.172686 0.8 0 0
0.288049 0.605337 0.544281 0.8 0 0
0.399372 0.364464 0.198048 0.8 0 0
0.552123 0.760269 0.631006 0.8 0 0
0.132721 0.757614 0.374361 0.8 0 0
0.213737 0.537818 0.481236 0.8 0 0
0.545613 0.659517 0.344928 0.8 0 0
0.424999 0.456976 0.411282 0.8 0 0
0.268425 0.418426 0.392914 0.8 0 0
0.304886 0.543370 0.298939 0.8 0 0
0.401732 0.370714 0.324539 0.8 0 0
0.383183 0.025180 0.464181 0.8 0 0
0.210633 0.812382 0.565918 0.8 0 0
0.165768 0.489231 0.427671 0.8 0 0
0.258433 0.836782 0.585093 0.8 0 0
0.326570 0.552057 0.219789 0.8 0 0
0.377134 0.399291 0.308168 0.8 0 0
0.239501 0.525747 0.306284 0.8 0 0
0.364295 0.504461 0.301357 0.8 0 0
0.236507 0.610517 0.416206 0.8 0 0
0.343634 0.279800 0.207674 0.8 0 0
0.346218 0.660258 0.153905 0.8 0 0
0.386206 0.527890 0.298131 0.8 0 0
0.258765 0.505614 0.376948 0.8 0 0
0.443818 0.689349 0.344837 0.8 0 0
0.321915 0.025032 0.270144 0.8 0 0
0.398134 0.221941 0.536461 0.8 0 0
0.227811 0.365441 0.326310 0.8 0 0
0.554734 0.545348 0.224458 0.8 0 0
0.638451 0.545993 0.422869 0.8 0 0
0.192312 0.869467 0.568625 0.8 0 0
0.587759 0.797403 0.377350 0.8 0 0
0.426255 0.465896 0.348315 0.8 0 0
0.352570 0.073668 0.234730 0.8 0 0
0.260029 0.308628 0.385103 0.8 0 0
0.329370 0.377820 0.272043 0.8 0 0
0.521051 0.801136 0.581814 0.8 0 0
0.385820 0.562349 0.429833 0.8 0 0
0.419849 0.327844 0.561814 0.8 0 0
0.133341 0.620197 0.374506 0.8 0 0
0.495090 0.365187 0.391392 0.8 0 0
0.272221 0.858074 0.608178 0.8 0 0
0.600665 0.854514 0.502587 0.8 0 0
0.374649 0.277068 0.374814 0.8 0 0
0.475970 0.681854 0.126921 0.8 0 0
0.523374 0.424528 0.332761 0.8 0 0
0.406483 0.577014 0.421233 0.8 0 0
0.387151 0.635050 0.467070 0.8 0 0
0.490664 0.404288 0.408780 0.8 0 0
0.178866 0.859473 0.462325 0.8 0 0
0.313213 0.596259 0.581421 0.8 0 0
0.277535 0.318712 0.481558 0.8 0 0
0.267087 0.400313 0.474904 0.8 0 0
0.434452 0.530144 0.472956 0.8 0 0
0.333050 0.512023 0.327404 0.8 0 0
0.519228 0.857950 0.448970 0.8 0 0
0.272969 0.293131 0.515795 0.8 0 0
0.304301 0.862571 0.170654 0.8 0 0
0.349506 0.505627 0.393811 0.8 0 0
0.436897 0.295762 0.571169 0.8 0 0
0.437970 0.631530 0.426317 0.8 0 0
0.600056 0.610201 0.554168 0.8 0 0
0.533675 0.059289 0.290653 0.8 0 0
0.452171 0.593553 0.479142 0.8 0 0
0.710054 0.676712 0.467680 0.8 0 0
0.290148 0.650370 0.274134 0.8 0 0
0.321093 0.866838 0.263197 0.8 0 0
0.142828 0.738463 0.644348 0.8 0 0
0.636016 0.436496 0.471670 0.8 0 0
0.535972 0.817527 0.182601 0.8 0 0
0.367222 0.614607 0.058521 0.8 0 0
0.523438 0.666890 0.602750 0.8 0 0
0.375194 0.466592 0.188723 0.8 0 0
0.407224 0.466518 0.585461 0.8 0 0
0.339376 0.731221 0.235872 0.8 0 0
0.352124 0.025201 0.487749 0.8 0 0
0.539275 0.308466 0.455762 0.8 0 0
0.433423 0.489474 0.384366 0.8 0 0
0.297851 0.579143 0.256830 0.8 0 0
0.254747 0.317331 0.494390 0.8 0 0
0.381617 0.376006 0.332832 0.8 0 0
0.497945 0.308345 0.257365 0.8 0 0
0.359316 0.764930 0.559611 0.8 0 0
0.340259 0.421375 0.245782 0.8 0 0
0.476150 0.341606 0.497586 0.8 0 0
0.199570 0.520914 0.476764 0.8 0 0
0.146017 0.645945 0.477082 0.8 0 0
0.622127 0.868222 0.397245 0.8 0 0
0.525224 0.477480 0.491765 0.8 0 0
0.489519 0.458885 0.327055 0.8 0 0
0.351861 0.804463 0.238339 0.8 0 0
0.472299 0.453164 0.476682 0.8 0 0
0.601806 0.434028 0.408912 0.8 0 0
0.445935 0.530146 0.416346 0.8 0 0
0.537342 0.468288 0.261187 0.8 0 0
0.506719 0.298426 0.190167 0.8 0 0
0.323705 0.852400 0.508325 0.8 0 0
0.353595 0.560773 0.265984 0.8 0 0
0.674216 0.794986 0.544211 0.8 0 0
0.288685 0.452694 0.432134 0.8 0 0
0.271483 0.674834 0.311765 0.8 0 0
0.350958 0.341684 0.473165 0.8 0 0
0.494982 0.392131 0.296779 0.8 0 0
0.359670 0.396052 0.504016 0.8 0 0
0.579294 0.637630 0.572148 0.8 0 0
0.261240 0.319823 0.460580 0.8 0 0
0.427351 0.654173 0.400976 0.8 0 0
0.601532 0.699551 0.405305 0.8 0 0
0.461279 0.487566 0.542347 0.8 0 0
0.411843 0.335759 0.419586 0.8 0 0
0.269262 0.432267 0.405599 0.8 0 0
0.289683 0.293529 0.360840 0.8 0 0
0.339367 0.664351 0.131003 0.8 0 0
0.451194 0.802909 0.210633 0.8 0 0
0.299029 0.280827 0.528671 0.8 0 0
0.604069 0.477993 0.440367 0.8 0 0
0.424538 0.453356 0.367774 0.8 0 0
0.404728 0.544536 0.284746 0.8 0 0
0.572585 0.560290 0.422510 0.8 0 0
0.621345 0.668462 0.543653 0.8 0 0
