0.347736 0.257235 0.320079 0.8 0 0
0.336316 0.614530 0.378514 0.8 0 0
0.389652 0.387316 0.368626 0.8 0 0
0.336248 0.242320 0.330131 0.8 0 0
0.347023 0.344104 0.320421 0.8 0 0
0.377897 0.596976 0.394821 0.8 0 0
0.389343 0.302335 0.296646 0.8 0 0
0.337004 0.427828 0.334138 0.8 0 0
0.241786 0.208914 0.372421 0.8 0 0
0.339309 0.259344 0.381152 0.8 0 0
0.328966 0.351318 0.279343 0.8 0 0
0.428586 0.518358 0.349536 0.8 0 0
0.331488 0.386763 0.311817 0.8 0 0
0.473740 0.696717 0.285973 0.8 0 0
0.331644 0.370627 0.342840 0.8 0 0
0.392432 0.428102 0.368028 0.8 0 0
0.305794 0.323370 0.326273 0.8 0 0
0.348103 0.525502 0.283028 0.8 0 0
0.280399 0.257687 0.312555 0.8 0 0
0.325845 0.354480 0.321646 0.8 0 0
0.430101 0.637331 0.276136 0.8 0 0
0.344657 0.426975 0.342830 0.8 0 0
0.329920 0.305792 0.331178 0.8 0 0
0.314113 0.325120 0.318128 0.8 0 0
0.273363 0.535047 0.304390 0.8 0 0
0.343653 0.259605 0.342237 0.8 0 0
0.317514 0.298004 0.319956 0.8 0 0
0.398381 0.246670 0.218434 0.8 0 0
0.317215 0.451406 0.334451 0.8 0 0
0.209135 0.448592 0.251740 0.8 0 0
0.320978 0.273943 0.341201 0.8 0 0
0.301921 0.347081 0.308636 0.8 0 0
0.357477 0.230235 0.344992 0.8 0 0
0.302599 0.480772 0.321908 0.8 0 0
0.362278 0.556256 0.205500 0.8 0 0
0.375985 0.605926 0.402827 0.8 0 0
0.305548 0.325206 0.298685 0.8 0 0
0.277111 0.458831 0.281448 0.8 0 0
0.201596 0.655631 0.333423 0.8 0 0
0.408015 0.196465 0.217375 0.8 0 0
0.337591 0.259538 0.322118 0.8 0 0
0.333102 0.377853 0.329022 0.8 0 0
0.307762 0.453231 0.254376 0.8 0 0
0.330565 0.387195 0.322276 0.8 0 0
0.348630 0.377707 0.309893 0.8 0 0
0.352841 0.375485 0.339323 0.8 0 0
0.318449 0.530912 0.369953 0.8 0 0
0.328791 0.056899 0.420851 0.8 0 0
0.287591 0.584314 0.368588 0.8 0 0
0.352975 0.225679 0.455225 0.8 0 0
0.428000 0.246686 0.240088 0.8 0 0
0.331553 0.663402 0.209245 0.8 0 0
0.314522 0.321524 0.309149 0.8 0 0
0.298616 0.277296 0.350481 0.8 0 0
0.328629 0.291910 0.316991 0.8 0 0
0.317416 0.583351 0.271453 0.8 0 0
0.498801 0.738692 0.242284 0.8 0 0
0.365176 0.437461 0.313974 0.8 0 0
0.388524 0.245097 0.436149 0.8 0 0
0.351639 0.230229 0.331564 0.8 0 0
0.254225 0.424380 0.316629 0.8 0 0
0.402427 0.589053 0.282601 0.8 0 0
0.337299 0.230315 0.426339 0.8 0 0
0.327357 0.404516 0.325874 0.8 0 0
0.239490 0.230340 0.360612 0.8 0 0
0.391214 0.424648 0.328863 0.8 0 0
0.570231 0.918335 0.379969 0.8 0 0
0.317307 0.297411 0.325782 0.8 0 0
0.404810 0.587914 0.286186 0.8 0 0
0.298075 0.416136 0.326926 0.8 0 0
0.216858 0.754516 0.393462 0.8 0 0
0.322186 0.423415 0.313054 0.8 0 0
0.259520 0.230237 0.249458 0.8 0 0
0.448746 0.234355 0.367741 0.8 0 0
0.383094 0.623863 0.295819 0.8 0 0
0.244682 0.631885 0.214520 0.8 0 0
0.318567 0.331478 0.311828 0.8 0 0
0.380859 0.182615 0.223974 0.8 0 0
0.192878 0.686489 0.370500 0.8 0 0
0.339303 0.218093 0.320954 0.8 0 0
0.404006 0.208729 0.296780 0.8 0 0
0.383717 0.504101 0.332820 0.8 0 0
0.349098 0.346944 0.327255 0.8 0 0
0.341724 0.355476 0.330604 0.8 0 0
0.327419 0.245495 0.316851 0.8 0 0
0.212958 0.783379 0.480817 0.8 0 0
0.182565 0.696207 0.332449 0.8 0 0
0.310672 0.296825 0.306917 0.8 0 0
0.323810 0.296803 0.345325 0.8 0 0
0.374847 0.156664 0.224739 0.8 0 0
0.434021 0.682085 0.215098 0.8 0 0
0.235455 0.435096 0.337473 0.8 0 0
0.341340 0.436111 0.304948 0.8 0 0
0.396069 0.207066 0.210250 0.8 0 0
0.343752 0.260693 0.343357 0.8 0 0
0.428748 0.208706 0.293353 0.8 0 0
0.320184 0.276873 0.312730 0.8 0 0
0.355913 0.308263 0.330760 0.8 0 0
0.245641 0.089273 0.376033 0.8 0 0
0.315131 0.318762 0.316571 0.8 0 0
0.339098 0.253411 0.322899 0.8 0 0
0.341980 0.267077 0.322492 0.8 0 0
0.325277 0.548732 0.370977 0.8 0 0
0.426310 0.595264 0.311693 0.8 0 0
0.315851 0.295508 0.316247 0.8 0 0
0.273405 0.573559 0.307261 0.8 0 0
0.323157 0.276936 0.337449 0.8 0 0
0.314622 0.249803 0.318129 0.8 0 0
0.135295 0.727627 0.320038 0.8 0 0
0.308501 0.611368 0.243324 0.8 0 0
0.274887 0.552872 0.357871 0.8 0 0
0.312757 0.288078 0.307652 0.8 0 0
0.266174 0.457385 0.243662 0.8 0 0
0.249809 0.214642 0.417306 0.8 0 0
0.363132 0.471352 0.301565 0.8 0 0
0.338362 0.290853 0.330858 0.8 0 0
0.299702 0.208912 0.428410 0.8 0 0
0.295362 0.235131 0.331950 0.8 0 0
0.269349 0.230256 0.283710 0.8 0 0
0.379945 0.544749 0.235129 0.8 0 0
0.323248 0.230315 0.412102 0.8 0 0
0.352946 0.356437 0.322086 0.8 0 0
0.288539 0.443266 0.319625 0.8 0 0
0.295280 0.430907 0.316609 0.8 0 0
0.389261 0.357828 0.438488 0.8 0 0
0.317088 0.245840 0.314711 0.8 0 0
0.289583 0.228557 0.441839 0.8 0 0
0.311093 0.223240 0.447896 0.8 0 0
0.390971 0.421227 0.264182 0.8 0 0
0.374288 0.593081 0.374163 0.8 0 0
0.354592 0.417139 0.312646 0.8 0 0
0.314416 0.265192 0.312931 0.8 0 0
0.289429 0.301799 0.317519 0.8 0 0
0.317970 0.262894 0.319882 0.8 0 0
0.338156 0.208705 0.321681 0.8 0 0
0.251630 0.749885 0.266812 0.8 0 0
0.348986 0.267065 0.318634 0.8 0 0
0.316530 0.351193 0.317026 0.8 0 0
0.318044 0.336866 0.316055 0.8 0 0
0.296653 0.551895 0.343874 0.8 0 0
0.262638 0.142606 0.243429 0.8 0 0
0.266691 0.208862 0.330875 0.8 0 0
0.338923 0.365477 0.312229 0.8 0 0
0.314607 0.491294 0.346032 0.8 0 0
0.331748 0.560842 0.396514 0.8 0 0
0.314950 0.025083 0.343767 0.8 0 0
0.393595 0.684844 0.475558 0.8 0 0
0.361531 0.230194 0.296137 0.8 0 0
0.210362 0.246786 0.366957 0.8 0 0
0.265599 0.402360 0.270784 0.8 0 0
0.421435 0.320089 0.248325 0.8 0 0
0.258789 0.397091 0.309514 0.8 0 0
0.313448 0.379508 0.324546 0.8 0 0
0.355772 0.532432 0.264871 0.8 0 0
0.340844 0.312127 0.330073 0.8 0 0
0.360027 0.504424 0.306064 0.8 0 0
0.318850 0.278453 0.328453 0.8 0 0
0.437793 0.148499 0.346637 0.8 0 0
0.349565 0.352928 0.318306 0.8 0 0
0.338549 0.348563 0.328572 0.8 0 0
0.318055 0.223122 0.448604 0.8 0 0
0.366150 0.477612 0.346916 0.8 0 0
0.315929 0.220239 0.320466 0.8 0 0
0.374831 0.411168 0.309799 0.8 0 0
0.300805 0.274523 0.388060 0.8 0 0
0.322822 0.335231 0.311091 0.8 0 0
0.339241 0.307221 0.324578 0.8 0 0
0.285164 0.126075 0.419261 0.8 0 0
0.318223 0.230301 0.389657 0.8 0 0
0.302602 0.389539 0.312030 0.8 0 0
0.317177 0.325453 0.312268 0.8 0 0
0.342884 0.285448 0.328019 0.8 0 0
0.268273 0.112121 0.244169 0.8 0 0
0.396624 0.677396 0.424640 0.8 0 0
0.410734 0.179838 0.245180 0.8 0 0
0.308177 0.297409 0.324183 0.8 0 0
0.330163 0.295078 0.344611 0.8 0 0
0.291189 0.462796 0.334099 0.8 0 0
0.305279 0.394057 0.286537 0.8 0 0
0.209876 0.704644 0.426396 0.8 0 0
0.258448 0.406935 0.332409 0.8 0 0
0.357530 0.428519 0.310773 0.8 0 0
0.454753 0.196682 0.343799 0.8 0 0
0.359323 0.230238 0.351173 0.8 0 0
0.398244 0.193889 0.219571 0.8 0 0
0.342440 0.271914 0.326182 0.8 0 0
0.394720 0.307125 0.291583 0.8 0 0
0.382747 0.367616 0.377343 0.8 0 0
0.334016 0.481068 0.313371 0.8 0 0
0.332630 0.444711 0.337003 0.8 0 0
0.379359 0.432017 0.300128 0.8 0 0
0.231402 0.626541 0.368562 0.8 0 0
0.302424 0.492302 0.343574 0.8 0 0
0.332479 0.381325 0.314944 0.8 0 0
0.332577 0.230283 0.380766 0.8 0 0
0.336563 0.409546 0.330361 0.8 0 0
0.355859 0.507407 0.288694 0.8 0 0
0.345285 0.300779 0.300310 0.8 0 0
0.435222 0.612518 0.327688 0.8 0 0
0.324447 0.343539 0.317614 0.8 0 0
0.348781 0.529122 0.281522 0.8 0 0
0.347874 0.501336 0.301474 0.8 0 0
0.348178 0.249763 0.313844 0.8 0 0
0.402767 0.230129 0.253199 0.8 0 0
0.426625 0.414445 0.311390 0.8 0 0
0.296650 0.025029 0.275215 0.8 0 0
0.342574 0.230395 0.320810 0.8 0 0
0.395974 0.129754 0.408659 0.8 0 0
0.370912 0.286610 0.289312 0.8 0 0
0.214896 0.228690 0.268745 0.8 0 0
0.351605 0.433397 0.278450 0.8 0 0
0.324407 0.412089 0.325600 0.8 0 0
0.309587 0.604923 0.429962 0.8 0 0
0.235065 0.719601 0.401030 0.8 0 0
0.448043 0.561574 0.271234 0.8 0 0
0.355051 0.208764 0.292629 0.8 0 0
0.336124 0.465757 0.342365 0.8 0 0
0.285457 0.597194 0.197543 0.8 0 0
0.313333 0.365098 0.304389 0.8 0 0
0.324375 0.308298 0.308767 0.8 0 0
0.310776 0.400606 0.330581 0.8 0 0
0.275337 0.498108 0.276008 0.8 0 0
0.238692 0.453315 0.322158 0.8 0 0
0.216517 0.246715 0.276672 0.8 0 0
0.311361 0.384050 0.278063 0.8 0 0
0.336260 0.442348 0.302438 0.8 0 0
0.427039 0.230118 0.262542 0.8 0 0
0.343756 0.286335 0.326140 0.8 0 0
0.303441 0.340030 0.328509 0.8 0 0
0.256926 0.201421 0.227183 0.8 0 0
0.333522 0.368566 0.330111 0.8 0 0
0.186704 0.825442 0.158202 0.8 0 0
0.298161 0.413804 0.314329 0.8 0 0
0.320328 0.203667 0.324629 0.8 0 0
0.338818 0.287749 0.323015 0.8 0 0
0.346805 0.308885 0.306506 0.8 0 0
0.331996 0.230295 0.394961 0.8 0 0
0.446886 0.209716 0.339628 0.8 0 0
0.336279 0.469905 0.351553 0.8 0 0
0.302088 0.791709 0.560574 0.8 0 0
0.336359 0.280790 0.327809 0.8 0 0
0.322011 0.381736 0.281692 0.8 0 0
0.280302 0.506510 0.305233 0.8 0 0
0.439774 0.205924 0.400992 0.8 0 0
0.275902 0.025087 0.349138 0.8 0 0
0.349820 0.297423 0.335008 0.8 0 0
0.509919 0.781385 0.153919 0.8 0 0
0.348760 0.316713 0.325704 0.8 0 0
0.337627 0.410328 0.348765 0.8 0 0
0.500874 0.829483 0.523653 0.8 0 0
0.209093 0.213694 0.324338 0.8 0 0
0.324518 0.304541 0.319751 0.8 0 0
0.341459 0.214357 0.316882 0.8 0 0
0.346545 0.245007 0.455865 0.8 0 0
0.342022 0.350341 0.284714 0.8 0 0
0.345314 0.253094 0.319590 0.8 0 0
0.380173 0.276591 0.322733 0.8 0 0
0.462122 0.213934 0.309270 0.8 0 0
0.230375 0.445080 0.333060 0.8 0 0
0.264295 0.491302 0.294828 0.8 0 0
0.314452 0.522787 0.216020 0.8 0 0
0.505986 0.638218 0.246316 0.8 0 0
0.399590 0.687167 0.428719 0.8 0 0
0.236530 0.586205 0.327254 0.8 0 0
0.337640 0.436560 0.388364 0.8 0 0
0.370564 0.347423 0.338321 0.8 0 0
0.329593 0.460309 0.243360 0.8 0 0
0.301812 0.471385 0.363725 0.8 0 0
0.227052 0.499112 0.209798 0.8 0 0
0.379968 0.540078 0.390223 0.8 0 0
0.334544 0.472829 0.440826 0.8 0 0
0.315632 0.424978 0.353038 0.8 0 0
0.438750 0.224265 0.261460 0.8 0 0
0.249615 0.025077 0.335774 0.8 0 0
0.277898 0.500877 0.333230 0.8 0 0
0.405730 0.557852 0.322042 0.8 0 0
0.341080 0.400695 0.245850 0.8 0 0
0.288113 0.563012 0.270301 0.8 0 0
0.182584 0.669129 0.315073 0.8 0 0
0.317874 0.443590 0.252682 0.8 0 0
0.301809 0.264976 0.339379 0.8 0 0
0.374456 0.360270 0.328751 0.8 0 0
0.378906 0.522577 0.349323 0.8 0 0
0.336502 0.533691 0.448753 0.8 0 0
0.347987 0.540344 0.366210 0.8 0 0
0.322796 0.295375 0.316218 0.8 0 0
0.424247 0.208767 0.367843 0.8 0 0
0.265341 0.219489 0.429733 0.8 0 0
0.228823 0.732119 0.406607 0.8 0 0
0.327553 0.574999 0.252636 0.8 0 0
0.272135 0.262111 0.323171 0.8 0 0
0.313469 0.354141 0.323402 0.8 0 0
0.426862 0.528220 0.279047 0.8 0 0
0.247768 0.552975 0.307137 0.8 0 0
0.329179 0.474704 0.297083 0.8 0 0
0.319829 0.266527 0.314633 0.8 0 0
0.325327 0.230246 0.327594 0.8 0 0
0.391793 0.298632 0.293428 0.8 0 0
0.335968 0.661870 0.210977 0.8 0 0
0.322461 0.475314 0.324555 0.8 0 0
0.339712 0.258116 0.327515 0.8 0 0
0.306849 0.299412 0.325341 0.8 0 0
0.316368 0.359611 0.308714 0.8 0 0
0.322314 0.218569 0.436043 0.8 0 0
0.307839 0.492990 0.410109 0.8 0 0
0.277011 0.109105 0.412226 0.8 0 0
0.321155 0.247229 0.316254 0.8 0 0
0.298437 0.208817 0.205786 0.8 0 0
0.244113 0.581235 0.344284 0.8 0 0
0.276600 0.105802 0.411496 0.8 0 0
0.327100 0.251769 0.317978 0.8 0 0
0.337800 0.505317 0.295386 0.8 0 0
0.323055 0.279547 0.313272 0.8 0 0
0.313104 0.487606 0.265247 0.8 0 0
0.359068 0.025107 0.375382 0.8 0 0
0.374976 0.191710 0.449675 0.8 0 0
0.318149 0.272450 0.318647 0.8 0 0
0.343465 0.500480 0.340866 0.8 0 0
0.303935 0.230309 0.387276 0.8 0 0
0.324638 0.300532 0.305246 0.8 0 0
0.319565 0.516140 0.355393 0.8 0 0
0.237735 0.595355 0.349089 0.8 0 0
0.441654 0.171817 0.339882 0.8 0 0
0.337936 0.392643 0.317978 0.8 0 0
0.181688 0.783592 0.190737 0.8 0 0
0.306006 0.555101 0.379237 0.8 0 0
0.317115 0.486444 0.389906 0.8 0 0
0.315664 0.236124 0.320778 0.8 0 0
0.480650 0.693498 0.303817 0.8 0 0
0.401415 0.455019 0.351429 0.8 0 0
0.237907 0.066252 0.349379 0.8 0 0
0.452936 0.771331 0.291172 0.8 0 0
0.278395 0.508205 0.372224 0.8 0 0
0.454432 0.462662 0.330206 0.8 0 0
0.336549 0.208824 0.351713 0.8 0 0
0.326213 0.408052 0.271774 0.8 0 0
0.152253 0.733941 0.350572 0.8 0 0
0.432614 0.152306 0.285116 0.8 0 0
0.319085 0.238146 0.317603 0.8 0 0
0.344016 0.208843 0.383277 0.8 0 0
0.313846 0.433330 0.328087 0.8 0 0
0.355183 0.347403 0.331455 0.8 0 0
0.366057 0.160622 0.429167 0.8 0 0
0.345258 0.025108 0.376256 0.8 0 0
0.405603 0.581039 0.414805 0.8 0 0
0.320270 0.287002 0.315159 0.8 0 0
0.323596 0.306704 0.317397 0.8 0 0
0.342780 0.500165 0.342156 0.8 0 0
0.401252 0.058255 0.259521 0.8 0 0
0.318801 0.325291 0.308481 0.8 0 0
0.247307 0.702973 0.413031 0.8 0 0
0.387897 0.556170 0.358761 0.8 0 0
0.327485 0.604307 0.374889 0.8 0 0
0.308149 0.457274 0.334834 0.8 0 0
0.364995 0.542447 0.365021 0.8 0 0
0.318581 0.318179 0.312930 0.8 0 0
0.294862 0.553753 0.344533 0.8 0 0
0.251214 0.028157 0.368962 0.8 0 0
0.435044 0.232807 0.395542 0.8 0 0
0.310159 0.376464 0.303330 0.8 0 0
0.272909 0.599858 0.262279 0.8 0 0
0.321903 0.505173 0.371323 0.8 0 0
0.189226 0.692333 0.371597 0.8 0 0
0.282341 0.574274 0.226640 0.8 0 0
0.332571 0.300927 0.304346 0.8 0 0
0.273965 0.555562 0.268406 0.8 0 0
0.252932 0.190553 0.222386 0.8 0 0
0.455759 0.190815 0.362858 0.8 0 0
0.325770 0.344205 0.298067 0.8 0 0
0.285180 0.433637 0.264208 0.8 0 0
0.331203 0.231232 0.313882 0.8 0 0
0.223512 0.190838 0.391796 0.8 0 0
0.324418 0.319982 0.293156 0.8 0 0
0.385896 0.509193 0.329049 0.8 0 0
0.322142 0.238333 0.333443 0.8 0 0
0.329081 0.194397 0.193519 0.8 0 0
0.251814 0.420177 0.332795 0.8 0 0
0.305834 0.471427 0.275349 0.8 0 0
0.341798 0.663226 0.243563 0.8 0 0
0.337672 0.326711 0.323616 0.8 0 0
0.355451 0.554588 0.371967 0.8 0 0
0.342142 0.301706 0.305229 0.8 0 0
0.314927 0.239562 0.325715 0.8 0 0
0.343843 0.237147 0.318871 0.8 0 0
0.363179 0.514344 0.357700 0.8 0 0
0.331069 0.367984 0.318172 0.8 0 0
0.307972 0.399241 0.314140 0.8 0 0
0.365129 0.361822 0.321574 0.8 0 0
0.378153 0.230257 0.393902 0.8 0 0
0.400502 0.445091 0.375584 0.8 0 0
0.357048 0.457988 0.310957 0.8 0 0
0.316267 0.397094 0.327199 0.8 0 0
0.341492 0.202536 0.316114 0.8 0 0
0.333434 0.241305 0.320936 0.8 0 0
0.255274 0.073224 0.386113 0.8 0 0
0.343705 0.239475 0.320465 0.8 0 0
0.511887 0.741033 0.333641 0.8 0 0
0.339945 0.385379 0.323424 0.8 0 0
0.321614 0.359273 0.331362 0.8 0 0
0.319208 0.224372 0.321166 0.8 0 0
0.212749 0.190804 0.348159 0.8 0 0
0.382654 0.519427 0.350879 0.8 0 0
0.324759 0.359977 0.319347 0.8 0 0
0.323288 0.337585 0.309842 0.8 0 0
0.300750 0.446200 0.283665 0.8 0 0
0.271607 0.547207 0.313111 0.8 0 0
0.389030 0.344349 0.300386 0.8 0 0
0.323474 0.360256 0.318840 0.8 0 0
0.303198 0.377637 0.318903 0.8 0 0
0.265047 0.332281 0.261332 0.8 0 0
0.315776 0.347880 0.316701 0.8 0 0
0.345721 0.329655 0.317881 0.8 0 0
0.203798 0.631198 0.311237 0.8 0 0
0.349274 0.451838 0.379221 0.8 0 0
0.383943 0.395737 0.345300 0.8 0 0
0.341024 0.498775 0.302667 0.8 0 0
0.336340 0.290479 0.324319 0.8 0 0
0.382228 0.597316 0.423227 0.8 0 0
0.342355 0.214797 0.318932 0.8 0 0
0.429683 0.528822 0.287067 0.8 0 0
0.244780 0.693208 0.230803 0.8 0 0
0.298427 0.489201 0.281895 0.8 0 0
0.317728 0.025012 0.253775 0.8 0 0
0.398535 0.224872 0.233487 0.8 0 0
0.339852 0.208763 0.276218 0.8 0 0
0.391572 0.528680 0.349647 0.8 0 0
0.402262 0.339578 0.356258 0.8 0 0
0.348651 0.299736 0.313202 0.8 0 0
0.338869 0.316446 0.304128 0.8 0 0
0.321745 0.231286 0.194237 0.8 0 0
0.316584 0.334839 0.316323 0.8 0 0
0.361295 0.176123 0.217608 0.8 0 0
0.355241 0.559768 0.268467 0.8 0 0
0.319527 0.325723 0.307411 0.8 0 0
0.339202 0.389306 0.315701 0.8 0 0
0.381603 0.424378 0.342053 0.8 0 0
0.337749 0.336262 0.322555 0.8 0 0
0.339548 0.242511 0.317145 0.8 0 0
0.199154 0.663658 0.336700 0.8 0 0
0.330049 0.307973 0.321838 0.8 0 0
0.307114 0.510900 0.256538 0.8 0 0
0.323709 0.252285 0.332110 0.8 0 0
0.317881 0.220396 0.319283 0.8 0 0
0.328238 0.404351 0.309994 0.8 0 0
0.342306 0.266795 0.313995 0.8 0 0
0.321414 0.379218 0.322634 0.8 0 0
0.286965 0.219221 0.441026 0.8 0 0
0.290578 0.231294 0.442149 0.8 0 0
0.212417 0.237922 0.377028 0.8 0 0
0.319890 0.254235 0.317597 0.8 0 0
0.292095 0.497332 0.278700 0.8 0 0
0.325636 0.329367 0.286197 0.8 0 0
0.375914 0.297267 0.299613 0.8 0 0
0.288376 0.208807 0.281604 0.8 0 0
0.265135 0.542910 0.368407 0.8 0 0
0.354075 0.465707 0.312331 0.8 0 0
0.300782 0.403817 0.263685 0.8 0 0
0.343546 0.385483 0.316616 0.8 0 0
0.382143 0.697044 0.435524 0.8 0 0
0.361544 0.381608 0.312931 0.8 0 0
0.311977 0.457832 0.392916 0.8 0 0
0.327267 0.388388 0.343164 0.8 0 0
0.376651 0.669366 0.265569 0.8 0 0
0.346664 0.320734 0.335044 0.8 0 0
0.376268 0.672060 0.420037 0.8 0 0
0.361885 0.430420 0.299226 0.8 0 0
0.280122 0.429503 0.393125 0.8 0 0
0.384322 0.551704 0.397369 0.8 0 0
0.365751 0.562215 0.263807 0.8 0 0
0.400002 0.570709 0.292665 0.8 0 0
0.386967 0.474719 0.368022 0.8 0 0
0.222476 0.790050 0.261531 0.8 0 0
0.335053 0.461984 0.382251 0.8 0 0
0.400677 0.221749 0.220882 0.8 0 0
0.312958 0.303277 0.327234 0.8 0 0
0.338032 0.239123 0.315521 0.8 0 0
0.296783 0.543844 0.342052 0.8 0 0
0.429030 0.218184 0.386936 0.8 0 0
0.316915 0.234289 0.326450 0.8 0 0
0.321710 0.541520 0.311367 0.8 0 0
0.393924 0.162127 0.234439 0.8 0 0
0.225982 0.736897 0.213019 0.8 0 0
0.319621 0.209261 0.320194 0.8 0 0
0.264455 0.593246 0.325141 0.8 0 0
0.360695 0.424456 0.291379 0.8 0 0
0.395448 0.208736 0.298182 0.8 0 0
0.318290 0.285367 0.313416 0.8 0 0
0.420923 0.608244 0.314544 0.8 0 0
0.272937 0.635161 0.164032 0.8 0 0
0.235661 0.457343 0.321250 0.8 0 0
0.333661 0.367610 0.354642 0.8 0 0
0.274689 0.627084 0.323227 0.8 0 0
0.339747 0.225214 0.323655 0.8 0 0
0.357561 0.399812 0.314930 0.8 0 0
0.388111 0.203135 0.436408 0.8 0 0
0.381956 0.421754 0.351360 0.8 0 0
0.418855 0.208747 0.335600 0.8 0 0
0.299433 0.398436 0.322509 0.8 0 0
0.278925 0.604445 0.368195 0.8 0 0
0.367968 0.344499 0.339096 0.8 0 0
0.305978 0.430746 0.340506 0.8 0 0
0.237621 0.230326 0.341377 0.8 0 0
0.348023 0.292436 0.323130 0.8 0 0
0.270837 0.436910 0.396920 0.8 0 0
0.323622 0.414414 0.296431 0.8 0 0
0.333145 0.347255 0.285624 0.8 0 0
0.267243 0.462649 0.410399 0.8 0 0
0.328069 0.409328 0.313338 0.8 0 0
0.342006 0.336879 0.332621 0.8 0 0
0.320120 0.280919 0.323359 0.8 0 0
0.332131 0.524505 0.348641 0.8 0 0
0.313834 0.322097 0.324563 0.8 0 0
0.329946 0.460455 0.334347 0.8 0 0
0.435003 0.602916 0.304200 0.8 0 0
0.395030 0.347155 0.324188 0.8 0 0
0.371127 0.357114 0.334294 0.8 0 0
0.340870 0.307480 0.319777 0.8 0 0
0.374817 0.578600 0.257128 0.8 0 0
0.346884 0.347857 0.328875 0.8 0 0
0.321088 0.263051 0.323212 0.8 0 0
0.315606 0.317473 0.315058 0.8 0 0
0.436711 0.465893 0.429786 0.8 0 0
0.341746 0.241790 0.319707 0.8 0 0
0.336922 0.078893 0.227008 0.8 0 0
0.406693 0.554029 0.317647 0.8 0 0
0.342358 0.460587 0.269503 0.8 0 0
0.303171 0.271919 0.338059 0.8 0 0
0.323735 0.281390 0.350704 0.8 0 0
0.281622 0.608653 0.322745 0.8 0 0
0.322041 0.230308 0.402392 0.8 0 0
0.313566 0.025103 0.370090 0.8 0 0
0.298536 0.468457 0.276058 0.8 0 0
0.311073 0.352717 0.346327 0.8 0 0
0.303019 0.208802 0.289534 0.8 0 0
0.370536 0.559396 0.267159 0.8 0 0
0.394883 0.589694 0.349779 0.8 0 0
0.310883 0.302264 0.310034 0.8 0 0
0.260664 0.230304 0.336887 0.8 0 0
0.350851 0.268664 0.325166 0.8 0 0
0.276404 0.716333 0.496602 0.8 0 0
0.314237 0.519602 0.190641 0.8 0 0
0.316531 0.282254 0.316685 0.8 0 0
0.341755 0.313381 0.323349 0.8 0 0
0.349179 0.357074 0.308641 0.8 0 0
0.220193 0.620706 0.403422 0.8 0 0
0.342265 0.246758 0.325260 0.8 0 0
0.308274 0.208905 0.427554 0.8 0 0
0.310011 0.230184 0.231990 0.8 0 0
0.321797 0.352083 0.309107 0.8 0 0
0.206315 0.197061 0.357546 0.8 0 0
0.311925 0.490082 0.387926 0.8 0 0
0.340179 0.279058 0.318695 0.8 0 0
0.377075 0.082748 0.413160 0.8 0 0
0.305018 0.646993 0.375779 0.8 0 0
0.334228 0.243814 0.319503 0.8 0 0
0.339732 0.292880 0.318907 0.8 0 0
0.325184 0.242478 0.325660 0.8 0 0
0.375918 0.648765 0.326093 0.8 0 0
0.511393 0.879425 0.135327 0.8 0 0
0.335867 0.298329 0.331866 0.8 0 0
0.425157 0.210551 0.231635 0.8 0 0
0.321449 0.330308 0.304404 0.8 0 0
0.327510 0.347619 0.321820 0.8 0 0
0.348942 0.316810 0.340555 0.8 0 0
0.280379 0.903171 0.558265 0.8 0 0
0.308127 0.579047 0.274119 0.8 0 0
0.319510 0.245128 0.323528 0.8 0 0
0.354598 0.153861 0.431768 0.8 0 0
0.304172 0.419958 0.371479 0.8 0 0
0.339590 0.283914 0.321964 0.8 0 0
0.221144 0.572109 0.397168 0.8 0 0
0.328122 0.442151 0.263593 0.8 0 0
0.317796 0.398037 0.329684 0.8 0 0
0.241117 0.080880 0.285276 0.8 0 0
0.292627 0.422420 0.307206 0.8 0 0
0.533265 0.767252 0.338355 0.8 0 0
0.318167 0.151667 0.432634 0.8 0 0
0.291009 0.369360 0.330374 0.8 0 0
0.282702 0.206352 0.203243 0.8 0 0
0.343022 0.406100 0.344562 0.8 0 0
0.315275 0.267464 0.327275 0.8 0 0
0.316212 0.233239 0.317548 0.8 0 0
0.391780 0.246667 0.213946 0.8 0 0
0.332865 0.287362 0.300898 0.8 0 0
0.362656 0.559380 0.346596 0.8 0 0
0.295557 0.428822 0.317444 0.8 0 0
0.363528 0.332546 0.303585 0.8 0 0
0.257742 0.025071 0.329291 0.8 0 0
0.328992 0.314671 0.325389 0.8 0 0
0.343594 0.340882 0.313746 0.8 0 0
0.367288 0.438874 0.333971 0.8 0 0
0.323869 0.323150 0.292356 0.8 0 0
0.367124 0.574331 0.295232 0.8 0 0
0.459242 0.643286 0.354117 0.8 0 0
0.275133 0.493962 0.317390 0.8 0 0
0.345856 0.277601 0.319631 0.8 0 0
0.372925 0.458412 0.317065 0.8 0 0
0.321367 0.238042 0.318863 0.8 0 0
0.298125 0.317522 0.304684 0.8 0 0
0.157966 0.881986 0.219151 0.8 0 0
0.300998 0.411808 0.272373 0.8 0 0
0.230986 0.128343 0.355459 0.8 0 0
0.362671 0.230175 0.272971 0.8 0 0
0.221418 0.191664 0.378825 0.8 0 0
0.411059 0.147689 0.398230 0.8 0 0
0.337148 0.305417 0.390176 0.8 0 0
0.182391 0.694927 0.336543 0.8 0 0
0.372244 0.432490 0.293454 0.8 0 0
0.345181 0.421313 0.319478 0.8 0 0
0.297586 0.554755 0.475446 0.8 0 0
0.291182 0.346380 0.307984 0.8 0 0
0.281091 0.062900 0.407340 0.8 0 0
0.300410 0.569764 0.263479 0.8 0 0
0.332028 0.694953 0.448923 0.8 0 0
0.236004 0.393417 0.405834 0.8 0 0
0.304002 0.317507 0.304238 0.8 0 0
0.310225 0.261716 0.317563 0.8 0 0
0.321650 0.203540 0.319324 0.8 0 0
0.365296 0.377783 0.348851 0.8 0 0
0.376238 0.588079 0.251937 0.8 0 0
0.243858 0.560084 0.317756 0.8 0 0
0.369334 0.443820 0.290205 0.8 0 0
0.343478 0.522661 0.350913 0.8 0 0
0.298040 0.511485 0.211344 0.8 0 0
0.317243 0.601913 0.266494 0.8 0 0
0.257279 0.152061 0.404303 0.8 0 0
0.370313 0.590057 0.398267 0.8 0 0
0.377119 0.480036 0.309119 0.8 0 0
0.251041 0.734088 0.207864 0.8 0 0
0.348732 0.159666 0.217117 0.8 0 0
0.343599 0.401647 0.323505 0.8 0 0
0.371866 0.515736 0.394414 0.8 0 0
0.225054 0.148980 0.343068 0.8 0 0
0.320224 0.267964 0.321232 0.8 0 0
0.204441 0.239172 0.350620 0.8 0 0
0.312293 0.356810 0.288157 0.8 0 0
0.227607 0.661538 0.200254 0.8 0 0
0.283988 0.555237 0.174032 0.8 0 0
0.284093 0.217782 0.202799 0.8 0 0
0.324310 0.371528 0.342985 0.8 0 0
0.341683 0.311303 0.318401 0.8 0 0
0.300200 0.411648 0.295492 0.8 0 0
0.289415 0.298427 0.305843 0.8 0 0
0.327390 0.322713 0.322264 0.8 0 0
0.333965 0.259747 0.316710 0.8 0 0
0.338192 0.539255 0.286230 0.8 0 0
0.328281 0.230315 0.417024 0.8 0 0
0.315630 0.326958 0.315205 0.8 0 0
0.280750 0.390650 0.328475 0.8 0 0
0.296274 0.025120 0.391894 0.8 0 0
0.314365 0.447591 0.330006 0.8 0 0
0.311357 0.025025 0.268841 0.8 0 0
0.344520 0.337574 0.318750 0.8 0 0
0.311920 0.159864 0.217355 0.8 0 0
0.297907 0.428803 0.299774 0.8 0 0
0.361065 0.735221 0.165182 0.8 0 0
0.298850 0.230188 0.225608 0.8 0 0
0.329397 0.261221 0.314966 0.8 0 0
0.279051 0.329519 0.294143 0.8 0 0
0.170824 0.618795 0.228031 0.8 0 0
0.339352 0.211854 0.317586 0.8 0 0
0.322240 0.375262 0.321848 0.8 0 0
0.324527 0.331473 0.363476 0.8 0 0
0.315116 0.356225 0.350687 0.8 0 0
0.217635 0.208888 0.314667 0.8 0 0
0.353092 0.322254 0.346134 0.8 0 0
0.339097 0.247542 0.340034 0.8 0 0
0.399741 0.208824 0.413925 0.8 0 0
0.303019 0.477053 0.273791 0.8 0 0
0.261345 0.190702 0.216352 0.8 0 0
0.312451 0.290511 0.319136 0.8 0 0
0.406144 0.716123 0.498994 0.8 0 0
0.372319 0.590254 0.359637 0.8 0 0
0.317034 0.356294 0.322417 0.8 0 0
0.335282 0.377354 0.336370 0.8 0 0
0.340178 0.233442 0.317751 0.8 0 0
0.316431 0.211766 0.316837 0.8 0 0
0.344355 0.096420 0.425215 0.8 0 0
0.259704 0.190709 0.225255 0.8 0 0
0.239438 0.039291 0.337495 0.8 0 0
0.231565 0.089241 0.323690 0.8 0 0
0.336695 0.275765 0.323503 0.8 0 0
0.281827 0.664286 0.239226 0.8 0 0
0.379950 0.393818 0.320306 0.8 0 0
0.359419 0.526588 0.279954 0.8 0 0
0.183074 0.799938 0.402947 0.8 0 0
0.392518 0.025027 0.269784 0.8 0 0
0.280615 0.554774 0.329199 0.8 0 0
0.343286 0.342537 0.326737 0.8 0 0
0.331955 0.379549 0.321326 0.8 0 0
0.334295 0.411993 0.323303 0.8 0 0
0.411036 0.506542 0.288588 0.8 0 0
0.300192 0.379061 0.262605 0.8 0 0
0.300293 0.083922 0.419275 0.8 0 0
0.393098 0.659379 0.415586 0.8 0 0
0.328381 0.325876 0.314655 0.8 0 0
0.298460 0.539799 0.341324 0.8 0 0
0.339177 0.468367 0.307461 0.8 0 0
0.350401 0.393740 0.388193 0.8 0 0
0.456134 0.216012 0.320431 0.8 0 0
0.386803 0.208732 0.284304 0.8 0 0
0.339814 0.521448 0.316185 0.8 0 0
0.411486 0.689211 0.387044 0.8 0 0
0.343427 0.111339 0.223211 0.8 0 0
0.381778 0.491804 0.314328 0.8 0 0
0.415762 0.088593 0.379281 0.8 0 0
0.318548 0.482104 0.305622 0.8 0 0
0.345449 0.433498 0.305177 0.8 0 0
0.311384 0.250197 0.318657 0.8 0 0
0.441940 0.244804 0.382982 0.8 0 0
0.325075 0.410125 0.328675 0.8 0 0
0.326893 0.167708 0.435690 0.8 0 0
0.374539 0.315036 0.329055 0.8 0 0
0.304908 0.454150 0.341681 0.8 0 0
0.306629 0.583890 0.395593 0.8 0 0
0.297321 0.494481 0.350155 0.8 0 0
0.300763 0.413721 0.330869 0.8 0 0
0.366584 0.393926 0.310849 0.8 0 0
0.397884 0.486104 0.297857 0.8 0 0
0.428972 0.244990 0.402958 0.8 0 0
0.223955 0.158104 0.305945 0.8 0 0
0.248660 0.208930 0.400333 0.8 0 0
0.315965 0.394248 0.322650 0.8 0 0
0.472768 0.523257 0.369026 0.8 0 0
0.426497 0.490195 0.362107 0.8 0 0
0.353304 0.527831 0.347569 0.8 0 0
0.264767 0.537928 0.347720 0.8 0 0
0.400085 0.227961 0.234715 0.8 0 0
0.360086 0.459259 0.301378 0.8 0 0
0.331964 0.190692 0.204315 0.8 0 0
0.372865 0.428369 0.322051 0.8 0 0
0.211861 0.190610 0.295074 0.8 0 0
0.463237 0.193263 0.320452 0.8 0 0
0.314511 0.371263 0.274552 0.8 0 0
0.392928 0.526276 0.342496 0.8 0 0
0.429877 0.086048 0.340729 0.8 0 0
0.347384 0.462209 0.311752 0.8 0 0
0.287170 0.454850 0.325700 0.8 0 0
0.315885 0.288475 0.339179 0.8 0 0
0.323941 0.208888 0.420535 0.8 0 0
0.437385 0.235788 0.258913 0.8 0 0
0.169853 0.718161 0.384062 0.8 0 0
0.339176 0.372276 0.336656 0.8 0 0
0.418356 0.077950 0.279112 0.8 0 0
0.293509 0.390640 0.258332 0.8 0 0
0.298631 0.330253 0.309435 0.8 0 0
0.311681 0.253736 0.324362 0.8 0 0
0.420984 0.753931 0.216447 0.8 0 0
0.456306 0.213507 0.328256 0.8 0 0
0.314553 0.279586 0.316401 0.8 0 0
0.318179 0.288507 0.317709 0.8 0 0
0.320532 0.410959 0.326131 0.8 0 0
0.317496 0.236192 0.322952 0.8 0 0
0.328291 0.755569 0.139303 0.8 0 0
0.314211 0.408596 0.367370 0.8 0 0
0.397192 0.025072 0.329271 0.8 0 0
0.321332 0.278242 0.295748 0.8 0 0
0.324492 0.518752 0.368515 0.8 0 0
0.318519 0.447563 0.343528 0.8 0 0
0.336705 0.374276 0.310700 0.8 0 0
0.316927 0.339933 0.295103 0.8 0 0
0.254251 0.209838 0.229404 0.8 0 0
0.325733 0.356973 0.324914 0.8 0 0
0.500178 0.563469 0.386229 0.8 0 0
0.410948 0.172884 0.246727 0.8 0 0
0.289915 0.636117 0.437109 0.8 0 0
0.379463 0.259298 0.299625 0.8 0 0
0.335247 0.392178 0.358583 0.8 0 0
0.316192 0.335344 0.296407 0.8 0 0
0.347986 0.290042 0.323165 0.8 0 0
0.330825 0.217289 0.200495 0.8 0 0
0.355351 0.521954 0.285437 0.8 0 0
0.339495 0.533826 0.206624 0.8 0 0
0.195877 0.830245 0.244867 0.8 0 0
0.367379 0.340478 0.325630 0.8 0 0
0.312759 0.368972 0.338227 0.8 0 0
0.335699 0.507892 0.296057 0.8 0 0
0.307094 0.528996 0.253152 0.8 0 0
0.317858 0.323133 0.315921 0.8 0 0
0.347867 0.421378 0.279982 0.8 0 0
0.325435 0.293324 0.325956 0.8 0 0
0.313785 0.545848 0.373602 0.8 0 0
0.319098 0.219021 0.318327 0.8 0 0
0.429070 0.197326 0.414090 0.8 0 0
0.316112 0.230235 0.303626 0.8 0 0
0.306998 0.311881 0.309063 0.8 0 0
0.372315 0.652060 0.409171 0.8 0 0
0.268875 0.208911 0.396650 0.8 0 0
0.368213 0.414262 0.361438 0.8 0 0
0.351254 0.343460 0.323374 0.8 0 0
0.303419 0.043496 0.236119 0.8 0 0
0.328838 0.025096 0.360972 0.8 0 0
0.439174 0.156773 0.344129 0.8 0 0
0.353622 0.296891 0.328089 0.8 0 0
0.453381 0.518265 0.372243 0.8 0 0
0.313424 0.306370 0.332026 0.8 0 0
0.434841 0.684421 0.278539 0.8 0 0
0.375869 0.025058 0.311638 0.8 0 0
0.375779 0.208827 0.394730 0.8 0 0
0.339493 0.711720 0.467963 0.8 0 0
0.390625 0.190702 0.217051 0.8 0 0
0.369360 0.500528 0.254670 0.8 0 0
0.431477 0.609106 0.332400 0.8 0 0
0.360095 0.324383 0.255889 0.8 0 0
0.317726 0.267967 0.318067 0.8 0 0
0.282106 0.290228 0.300276 0.8 0 0
0.390845 0.411613 0.342788 0.8 0 0
0.427475 0.640413 0.194476 0.8 0 0
0.405394 0.502000 0.381840 0.8 0 0
0.368063 0.547515 0.263128 0.8 0 0
0.294912 0.175616 0.219874 0.8 0 0
0.376254 0.517410 0.377913 0.8 0 0
0.422015 0.066372 0.290389 0.8 0 0
0.284454 0.515399 0.344876 0.8 0 0
0.376661 0.208775 0.329294 0.8 0 0
0.338241 0.221077 0.193673 0.8 0 0
0.385454 0.633057 0.361458 0.8 0 0
0.345300 0.367320 0.329140 0.8 0 0
0.352873 0.598818 0.389723 0.8 0 0
0.300920 0.462404 0.284391 0.8 0 0
0.312470 0.475406 0.340876 0.8 0 0
0.377669 0.635900 0.261883 0.8 0 0
0.407000 0.337428 0.305099 0.8 0 0
0.244099 0.258521 0.322262 0.8 0 0
0.370756 0.532375 0.293649 0.8 0 0
0.320556 0.223615 0.322705 0.8 0 0
0.385681 0.619432 0.363824 0.8 0 0
0.330721 0.362989 0.317546 0.8 0 0
0.336977 0.540517 0.456363 0.8 0 0
0.344105 0.304867 0.320343 0.8 0 0
0.357538 0.633089 0.231095 0.8 0 0
0.193126 0.733976 0.442044 0.8 0 0
0.341362 0.385884 0.317433 0.8 0 0
0.400155 0.547782 0.320661 0.8 0 0
0.342184 0.262417 0.320583 0.8 0 0
0.204698 0.191444 0.352294 0.8 0 0
0.432010 0.630095 0.320771 0.8 0 0
0.402404 0.444425 0.368201 0.8 0 0
0.320833 0.261033 0.315283 0.8 0 0
0.353719 0.316991 0.321898 0.8 0 0
0.450036 0.190600 0.282340 0.8 0 0
0.391076 0.246840 0.437856 0.8 0 0
0.241928 0.764957 0.269751 0.8 0 0
0.536592 0.783487 0.219647 0.8 0 0
0.298296 0.412715 0.322828 0.8 0 0
0.323790 0.268948 0.314886 0.8 0 0
0.371952 0.654551 0.270709 0.8 0 0
0.323595 0.346767 0.313383 0.8 0 0
0.331216 0.242041 0.193266 0.8 0 0
0.269160 0.208913 0.399422 0.8 0 0
0.308394 0.375782 0.357216 0.8 0 0
0.368990 0.285883 0.312886 0.8 0 0
0.342503 0.518731 0.284378 0.8 0 0
0.304067 0.431660 0.323321 0.8 0 0
0.342846 0.244013 0.310884 0.8 0 0
0.314601 0.285318 0.327165 0.8 0 0
0.312394 0.460163 0.309361 0.8 0 0
0.240573 0.711578 0.376144 0.8 0 0
0.343937 0.291969 0.305691 0.8 0 0
0.347023 0.489792 0.329596 0.8 0 0
0.186508 0.705006 0.394188 0.8 0 0
0.285772 0.287652 0.361234 0.8 0 0
0.366731 0.359541 0.324589 0.8 0 0
0.437947 0.501032 0.356337 0.8 0 0
0.322339 0.229027 0.323406 0.8 0 0
0.268681 0.394885 0.319077 0.8 0 0
0.241866 0.223866 0.394340 0.8 0 0
0.307958 0.365129 0.312237 0.8 0 0
0.289137 0.285275 0.299915 0.8 0 0
0.367981 0.348379 0.304539 0.8 0 0
0.268419 0.721493 0.133027 0.8 0 0
0.293210 0.106112 0.420214 0.8 0 0
0.303998 0.352611 0.296283 0.8 0 0
0.348647 0.257688 0.317001 0.8 0 0
0.337707 0.282017 0.328759 0.8 0 0
0.318099 0.271711 0.315678 0.8 0 0
0.242159 0.606876 0.333593 0.8 0 0
0.442647 0.235690 0.253742 0.8 0 0
0.341171 0.218695 0.316150 0.8 0 0
0.398484 0.535032 0.309252 0.8 0 0
0.301301 0.400169 0.317815 0.8 0 0
0.293432 0.376317 0.304848 0.8 0 0
0.311162 0.279923 0.318259 0.8 0 0
0.320821 0.253458 0.315860 0.8 0 0
0.339042 0.249622 0.323440 0.8 0 0
0.318947 0.239863 0.321731 0.8 0 0
0.307650 0.331401 0.321029 0.8 0 0
0.486225 0.813702 0.287107 0.8 0 0
0.294549 0.454088 0.302001 0.8 0 0
0.319199 0.253943 0.318088 0.8 0 0
0.267769 0.190548 0.215351 0.8 0 0
0.250379 0.208828 0.269492 0.8 0 0
0.339669 0.306428 0.313290 0.8 0 0
0.320219 0.237965 0.321875 0.8 0 0
0.421421 0.226825 0.238179 0.8 0 0
0.320833 0.204901 0.320084 0.8 0 0
0.419997 0.230197 0.357127 0.8 0 0
0.324387 0.278277 0.312557 0.8 0 0
0.454096 0.661417 0.288495 0.8 0 0
0.427498 0.230163 0.320775 0.8 0 0
0.285396 0.518618 0.275205 0.8 0 0
0.339075 0.262022 0.319820 0.8 0 0
0.520995 0.585801 0.395125 0.8 0 0
0.324199 0.282797 0.317610 0.8 0 0
0.317964 0.375337 0.299271 0.8 0 0
0.323273 0.472018 0.317565 0.8 0 0
0.339391 0.259800 0.324659 0.8 0 0
0.366712 0.733807 0.166305 0.8 0 0
0.329975 0.248129 0.321391 0.8 0 0
0.292171 0.536503 0.271485 0.8 0 0
0.449968 0.202397 0.363793 0.8 0 0
0.345245 0.367199 0.318564 0.8 0 0
0.367914 0.525558 0.370461 0.8 0 0
0.236665 0.465542 0.274190 0.8 0 0
0.338444 0.337261 0.317254 0.8 0 0
0.330527 0.403875 0.366901 0.8 0 0
0.252842 0.230294 0.315204 0.8 0 0
0.341110 0.446418 0.302412 0.8 0 0
0.339953 0.384587 0.177586 0.8 0 0
0.256504 0.628355 0.254318 0.8 0 0
0.238936 0.223143 0.390919 0.8 0 0
0.462479 0.510491 0.363751 0.8 0 0
0.378959 0.375951 0.295410 0.8 0 0
0.342660 0.312840 0.326229 0.8 0 0
0.337663 0.379613 0.319057 0.8 0 0
0.316102 0.317800 0.313189 0.8 0 0
0.341785 0.415054 0.381007 0.8 0 0
0.352163 0.390210 0.318849 0.8 0 0
0.339310 0.293410 0.329729 0.8 0 0
0.290711 0.479062 0.342390 0.8 0 0
0.427208 0.526884 0.285560 0.8 0 0
0.317040 0.447517 0.296567 0.8 0 0
0.313524 0.384589 0.269290 0.8 0 0
0.372510 0.451580 0.294095 0.8 0 0
0.286420 0.287805 0.240733 0.8 0 0
0.328431 0.389942 0.316681 0.8 0 0
0.332444 0.214440 0.324335 0.8 0 0
0.344368 0.461537 0.308363 0.8 0 0
0.322358 0.452868 0.356592 0.8 0 0
0.346005 0.332910 0.317159 0.8 0 0
0.459692 0.476549 0.338133 0.8 0 0
0.348534 0.208807 0.341312 0.8 0 0
0.268528 0.357673 0.372134 0.8 0 0
0.335646 0.190878 0.443170 0.8 0 0
0.313149 0.437309 0.331934 0.8 0 0
0.293825 0.430233 0.283431 0.8 0 0
0.520558 0.890259 0.126533 0.8 0 0
0.437803 0.230180 0.353709 0.8 0 0
0.282095 0.571134 0.356958 0.8 0 0
0.343241 0.292344 0.324055 0.8 0 0
0.330809 0.301487 0.287612 0.8 0 0
0.314545 0.358527 0.309186 0.8 0 0
0.343219 0.526336 0.352399 0.8 0 0
0.296106 0.513973 0.329997 0.8 0 0
0.288040 0.573277 0.353418 0.8 0 0
0.209889 0.202073 0.316388 0.8 0 0
0.419171 0.230186 0.343641 0.8 0 0
0.415295 0.510804 0.319775 0.8 0 0
0.330447 0.509600 0.215838 0.8 0 0
0.337256 0.356434 0.280564 0.8 0 0
0.325544 0.242480 0.320762 0.8 0 0
0.318098 0.318245 0.302318 0.8 0 0
0.232198 0.602098 0.390844 0.8 0 0
0.361915 0.624494 0.398623 0.8 0 0
0.248839 0.608944 0.381115 0.8 0 0
0.342922 0.265982 0.319869 0.8 0 0
0.306558 0.236451 0.203221 0.8 0 0
0.233717 0.179695 0.379742 0.8 0 0
0.328953 0.458295 0.301385 0.8 0 0
0.348121 0.375429 0.372535 0.8 0 0
0.334296 0.425216 0.337414 0.8 0 0
0.304415 0.535572 0.255140 0.8 0 0
0.347612 0.301445 0.303183 0.8 0 0
0.174935 0.609568 0.233096 0.8 0 0
0.389859 0.352307 0.306879 0.8 0 0
0.339025 0.294196 0.316632 0.8 0 0
0.316936 0.222496 0.320263 0.8 0 0
0.309674 0.357435 0.309270 0.8 0 0
0.302591 0.332745 0.296863 0.8 0 0
0.344155 0.490451 0.357596 0.8 0 0
0.542377 0.856888 0.476794 0.8 0 0
0.369519 0.305633 0.325735 0.8 0 0
0.300261 0.482481 0.238298 0.8 0 0
0.325556 0.211872 0.316073 0.8 0 0
0.460902 0.804213 0.353214 0.8 0 0
0.281794 0.459759 0.320427 0.8 0 0
0.349733 0.489753 0.285445 0.8 0 0
0.340614 0.333607 0.330252 0.8 0 0
0.391870 0.573130 0.427723 0.8 0 0
0.276714 0.417165 0.290388 0.8 0 0
0.444300 0.397040 0.268251 0.8 0 0
0.357849 0.065311 0.232379 0.8 0 0
0.342656 0.495110 0.342453 0.8 0 0
0.204067 0.800303 0.497863 0.8 0 0
0.343074 0.253727 0.325878 0.8 0 0
0.284508 0.429634 0.270245 0.8 0 0
0.245591 0.624385 0.395350 0.8 0 0
0.343116 0.277576 0.313295 0.8 0 0
0.230162 0.114909 0.346664 0.8 0 0
0.461378 0.245716 0.348560 0.8 0 0
0.140266 0.779616 0.432911 0.8 0 0
0.405695 0.208777 0.361641 0.8 0 0
0.331419 0.208815 0.335125 0.8 0 0
0.455256 0.241392 0.370646 0.8 0 0
0.394211 0.482046 0.370654 0.8 0 0
0.313861 0.343391 0.316469 0.8 0 0
0.298263 0.510638 0.212081 0.8 0 0
0.334530 0.447180 0.411786 0.8 0 0
0.305520 0.497493 0.222341 0.8 0 0
0.305116 0.475766 0.328661 0.8 0 0
0.330276 0.572387 0.256188 0.8 0 0
0.339516 0.123670 0.221126 0.8 0 0
0.563546 0.795617 0.334211 0.8 0 0
0.337318 0.214381 0.318920 0.8 0 0
0.329356 0.512055 0.355890 0.8 0 0
0.186941 0.695566 0.373280 0.8 0 0
0.301967 0.409390 0.311954 0.8 0 0
0.360820 0.408529 0.281048 0.8 0 0
0.228527 0.117661 0.315361 0.8 0 0
0.312488 0.352328 0.343395 0.8 0 0
0.307226 0.373467 0.313177 0.8 0 0
0.347116 0.356198 0.322779 0.8 0 0
0.250112 0.462112 0.240091 0.8 0 0
0.394055 0.483928 0.371544 0.8 0 0
0.381632 0.309232 0.376757 0.8 0 0
0.211011 0.701655 0.327829 0.8 0 0
0.339989 0.223129 0.319093 0.8 0 0
0.228072 0.166645 0.286864 0.8 0 0
0.360101 0.230263 0.384166 0.8 0 0
0.305761 0.461879 0.282406 0.8 0 0
0.281927 0.201100 0.211595 0.8 0 0
0.413052 0.711415 0.387372 0.8 0 0
0.298932 0.190876 0.440454 0.8 0 0
0.343342 0.386802 0.344141 0.8 0 0
0.296269 0.410379 0.270787 0.8 0 0
0.213364 0.210122 0.294047 0.8 0 0
0.317040 0.319782 0.309161 0.8 0 0
0.309208 0.511971 0.254432 0.8 0 0
0.335429 0.512332 0.288728 0.8 0 0
0.315498 0.450668 0.278410 0.8 0 0
0.306686 0.442777 0.353152 0.8 0 0
0.321328 0.428148 0.348754 0.8 0 0
0.319406 0.266315 0.325714 0.8 0 0
0.310249 0.025122 0.394545 0.8 0 0
0.393293 0.230178 0.307321 0.8 0 0
0.239821 0.233450 0.243524 0.8 0 0
0.281894 0.389456 0.342749 0.8 0 0
0.325486 0.497441 0.354998 0.8 0 0
0.344340 0.360221 0.319653 0.8 0 0
0.316751 0.324261 0.315664 0.8 0 0
0.325302 0.199682 0.320435 0.8 0 0
0.417658 0.737128 0.335976 0.8 0 0
0.368977 0.318621 0.312879 0.8 0 0
0.344988 0.323124 0.302714 0.8 0 0
0.329659 0.338835 0.306968 0.8 0 0
0.383588 0.696652 0.433492 0.8 0 0
0.316284 0.151887 0.432474 0.8 0 0
0.357623 0.179801 0.434498 0.8 0 0
0.304679 0.356462 0.409136 0.8 0 0
0.385575 0.428339 0.372998 0.8 0 0
0.320583 0.203344 0.328306 0.8 0 0
0.367107 0.342170 0.345674 0.8 0 0
0.322936 0.351088 0.290243 0.8 0 0
0.321261 0.380628 0.312427 0.8 0 0
0.306073 0.411861 0.334659 0.8 0 0
0.382467 0.025073 0.331108 0.8 0 0
0.365515 0.531992 0.386550 0.8 0 0
0.402300 0.306006 0.291093 0.8 0 0
0.317065 0.352672 0.290088 0.8 0 0
0.342911 0.507702 0.283250 0.8 0 0
0.342273 0.288091 0.321880 0.8 0 0
0.441358 0.193426 0.251378 0.8 0 0
0.339802 0.208805 0.329723 0.8 0 0
0.275926 0.565898 0.275201 0.8 0 0
0.412807 0.512666 0.284135 0.8 0 0
0.278847 0.469601 0.202691 0.8 0 0
0.312790 0.025008 0.247829 0.8 0 0
0.432630 0.198309 0.251907 0.8 0 0
0.339214 0.283700 0.326807 0.8 0 0
0.246363 0.190715 0.234277 0.8 0 0
0.337376 0.331096 0.330196 0.8 0 0
0.258415 0.558065 0.383585 0.8 0 0
0.327819 0.368471 0.310966 0.8 0 0
0.310999 0.282791 0.312848 0.8 0 0
0.424444 0.230159 0.312451 0.8 0 0
0.346604 0.344741 0.329576 0.8 0 0
0.324936 0.314842 0.313258 0.8 0 0
0.305319 0.385211 0.324669 0.8 0 0
0.286915 0.406119 0.213499 0.8 0 0
0.323454 0.282089 0.315378 0.8 0 0
0.331228 0.472050 0.416010 0.8 0 0
0.226465 0.140962 0.304254 0.8 0 0
0.321177 0.447594 0.286194 0.8 0 0
0.384719 0.522518 0.228971 0.8 0 0
0.208150 0.623264 0.309230 0.8 0 0
0.361025 0.753523 0.150127 0.8 0 0
0.309239 0.290517 0.313524 0.8 0 0
0.344168 0.208817 0.350381 0.8 0 0
0.298975 0.404482 0.299503 0.8 0 0
0.301865 0.497685 0.331158 0.8 0 0
0.368496 0.344166 0.337433 0.8 0 0
0.411539 0.230137 0.271230 0.8 0 0
0.324864 0.315810 0.322154 0.8 0 0
0.403181 0.572832 0.310301 0.8 0 0
0.302442 0.462529 0.281798 0.8 0 0
0.440698 0.216122 0.364334 0.8 0 0
0.490712 0.707686 0.311638 0.8 0 0
0.311903 0.058914 0.231281 0.8 0 0
0.328835 0.476802 0.301936 0.8 0 0
0.371549 0.564624 0.264376 0.8 0 0
0.290117 0.505665 0.314705 0.8 0 0
0.364936 0.296365 0.312504 0.8 0 0
0.493391 0.724768 0.253130 0.8 0 0
0.318787 0.221555 0.319864 0.8 0 0
0.277577 0.459647 0.314155 0.8 0 0
0.395423 0.227209 0.418879 0.8 0 0
0.390295 0.325017 0.311456 0.8 0 0
0.324659 0.327464 0.316382 0.8 0 0
0.341847 0.249244 0.316098 0.8 0 0
0.334261 0.386772 0.329385 0.8 0 0
0.270784 0.382615 0.315674 0.8 0 0
0.333344 0.351536 0.322835 0.8 0 0
0.405087 0.471067 0.345095 0.8 0 0
0.402149 0.574948 0.312958 0.8 0 0
0.119170 0.762353 0.335297 0.8 0 0
0.350408 0.411770 0.290219 0.8 0 0
0.305252 0.592482 0.255200 0.8 0 0
0.398658 0.647165 0.370151 0.8 0 0
0.390446 0.232468 0.215270 0.8 0 0
0.300800 0.342686 0.326115 0.8 0 0
0.334449 0.442142 0.323186 0.8 0 0
0.357224 0.440148 0.282105 0.8 0 0
0.333870 0.208850 0.381410 0.8 0 0
0.306988 0.201665 0.195761 0.8 0 0
0.336794 0.258044 0.323875 0.8 0 0
0.281140 0.208839 0.316113 0.8 0 0
0.358588 0.497924 0.353947 0.8 0 0
0.313567 0.310404 0.312976 0.8 0 0
0.294512 0.641457 0.212024 0.8 0 0
0.376562 0.369221 0.297908 0.8 0 0
0.281298 0.390180 0.326633 0.8 0 0
0.351944 0.355200 0.309966 0.8 0 0
0.404910 0.569202 0.291242 0.8 0 0
0.337733 0.428377 0.311040 0.8 0 0
0.224679 0.246101 0.399545 0.8 0 0
0.257678 0.246676 0.225237 0.8 0 0
0.324088 0.316532 0.357751 0.8 0 0
0.380424 0.541634 0.409634 0.8 0 0
0.347376 0.293004 0.303214 0.8 0 0
0.323200 0.332454 0.316840 0.8 0 0
0.287760 0.417003 0.340748 0.8 0 0
0.311898 0.296665 0.317745 0.8 0 0
0.355893 0.426854 0.220645 0.8 0 0
0.337293 0.322186 0.327601 0.8 0 0
0.390719 0.230155 0.273833 0.8 0 0
0.279357 0.531790 0.188369 0.8 0 0
0.311895 0.272713 0.334182 0.8 0 0
0.410260 0.052464 0.271679 0.8 0 0
0.418250 0.713220 0.294629 0.8 0 0
0.282135 0.315084 0.247759 0.8 0 0
0.417033 0.709897 0.298576 0.8 0 0
0.351147 0.373015 0.323257 0.8 0 0
0.399788 0.619613 0.237097 0.8 0 0
0.312282 0.537381 0.356261 0.8 0 0
0.171600 0.681473 0.427826 0.8 0 0
0.316779 0.560118 0.379664 0.8 0 0
0.317744 0.438931 0.340806 0.8 0 0
0.302574 0.550315 0.318425 0.8 0 0
0.327811 0.372738 0.316774 0.8 0 0
0.296805 0.409598 0.312459 0.8 0 0
0.343706 0.025051 0.302968 0.8 0 0
0.325059 0.587766 0.219951 0.8 0 0
0.355076 0.025069 0.326310 0.8 0 0
0.339463 0.212096 0.316956 0.8 0 0
0.348460 0.273324 0.338697 0.8 0 0
0.450989 0.213958 0.289940 0.8 0 0
0.372141 0.497916 0.381441 0.8 0 0
0.435970 0.122884 0.320418 0.8 0 0
0.295416 0.306172 0.287263 0.8 0 0
0.350969 0.343213 0.349708 0.8 0 0
0.436812 0.230160 0.326946 0.8 0 0
0.337062 0.422116 0.275681 0.8 0 0
0.293084 0.512000 0.320085 0.8 0 0
0.259990 0.398498 0.304405 0.8 0 0
0.285004 0.025010 0.248299 0.8 0 0
0.310502 0.228445 0.324383 0.8 0 0
0.361177 0.456479 0.305648 0.8 0 0
0.343373 0.237076 0.314236 0.8 0 0
0.270092 0.413207 0.311718 0.8 0 0
0.350355 0.401171 0.313956 0.8 0 0
0.287877 0.182072 0.429304 0.8 0 0
0.332805 0.385737 0.315456 0.8 0 0
0.352579 0.633754 0.229107 0.8 0 0
0.407921 0.495983 0.283302 0.8 0 0
0.461245 0.505700 0.200431 0.8 0 0
0.321563 0.469964 0.288844 0.8 0 0
0.301395 0.387674 0.324890 0.8 0 0
0.318414 0.359866 0.322499 0.8 0 0
0.347587 0.214399 0.321534 0.8 0 0
0.311274 0.469498 0.394937 0.8 0 0
0.331906 0.433756 0.385167 0.8 0 0
0.437180 0.780958 0.203018 0.8 0 0
0.286623 0.357483 0.320923 0.8 0 0
0.254664 0.588449 0.235970 0.8 0 0
0.359003 0.541280 0.304427 0.8 0 0
0.316013 0.385751 0.310256 0.8 0 0
0.236461 0.242029 0.236412 0.8 0 0
0.339592 0.444244 0.292904 0.8 0 0
0.184064 0.599018 0.238075 0.8 0 0
0.358133 0.461995 0.311080 0.8 0 0
0.418516 0.056192 0.365018 0.8 0 0
0.330481 0.428017 0.374975 0.8 0 0
0.346365 0.349611 0.325569 0.8 0 0
0.341292 0.393884 0.313842 0.8 0 0
0.216850 0.624630 0.400305 0.8 0 0
0.324880 0.209161 0.320114 0.8 0 0
0.284470 0.422729 0.384776 0.8 0 0
0.342889 0.397610 0.309037 0.8 0 0
0.331043 0.363274 0.343030 0.8 0 0
0.356015 0.025080 0.340563 0.8 0 0
0.331093 0.358595 0.315313 0.8 0 0
0.366043 0.620041 0.255871 0.8 0 0
0.315648 0.327114 0.322435 0.8 0 0
0.436211 0.535857 0.273818 0.8 0 0
0.387764 0.334973 0.356681 0.8 0 0
0.298498 0.400935 0.378584 0.8 0 0
0.316583 0.348603 0.361475 0.8 0 0
0.338659 0.472598 0.439997 0.8 0 0
0.364234 0.251877 0.428076 0.8 0 0
0.331461 0.403235 0.318117 0.8 0 0
0.409827 0.234987 0.228104 0.8 0 0
0.354022 0.535071 0.432300 0.8 0 0
0.239244 0.522228 0.263900 0.8 0 0
0.318769 0.272765 0.318628 0.8 0 0
0.303364 0.190537 0.200565 0.8 0 0
0.229946 0.475114 0.273357 0.8 0 0
0.350472 0.466085 0.368909 0.8 0 0
0.342336 0.274654 0.338941 0.8 0 0
0.330900 0.512446 0.428545 0.8 0 0
0.466604 0.351226 0.333190 0.8 0 0
0.271467 0.245063 0.209166 0.8 0 0
0.362292 0.333973 0.348666 0.8 0 0
0.241615 0.108026 0.373939 0.8 0 0
0.395259 0.419745 0.390055 0.8 0 0
0.340480 0.116016 0.222273 0.8 0 0
0.325677 0.468876 0.338862 0.8 0 0
0.344274 0.297889 0.307915 0.8 0 0
0.355000 0.539235 0.314635 0.8 0 0
0.280193 0.427190 0.403858 0.8 0 0
0.334545 0.193338 0.449951 0.8 0 0
0.350907 0.315064 0.320625 0.8 0 0
0.305742 0.253829 0.286431 0.8 0 0
0.327976 0.345491 0.337478 0.8 0 0
0.245853 0.468038 0.425118 0.8 0 0
0.449274 0.190669 0.369406 0.8 0 0
0.350509 0.354602 0.334122 0.8 0 0
0.324160 0.413399 0.356250 0.8 0 0
0.339937 0.682798 0.451754 0.8 0 0
0.217610 0.504033 0.458287 0.8 0 0
0.342659 0.278788 0.324412 0.8 0 0
0.370840 0.503905 0.330453 0.8 0 0
0.306208 0.245928 0.318595 0.8 0 0
0.372731 0.230258 0.390059 0.8 0 0
0.416799 0.233703 0.425720 0.8 0 0
0.299536 0.280215 0.323249 0.8 0 0
0.280987 0.462665 0.323859 0.8 0 0
0.160294 0.722248 0.332613 0.8 0 0
0.348418 0.251622 0.324051 0.8 0 0
0.345499 0.304615 0.320178 0.8 0 0
0.206960 0.238215 0.290764 0.8 0 0
0.321107 0.297935 0.315246 0.8 0 0
0.327564 0.286004 0.321133 0.8 0 0
0.335083 0.442002 0.311902 0.8 0 0
0.281774 0.369581 0.326116 0.8 0 0
0.262875 0.574894 0.242100 0.8 0 0
0.402794 0.444179 0.367286 0.8 0 0
0.319353 0.415833 0.330136 0.8 0 0
0.350863 0.481637 0.397065 0.8 0 0
0.424562 0.047655 0.341550 0.8 0 0
0.393312 0.741357 0.233623 0.8 0 0
0.393828 0.025116 0.384591 0.8 0 0
0.356756 0.258407 0.318845 0.8 0 0
0.342056 0.025007 0.245989 0.8 0 0
0.292237 0.492814 0.266865 0.8 0 0
0.304138 0.221869 0.196518 0.8 0 0
0.385471 0.648056 0.408114 0.8 0 0
0.236358 0.075262 0.348506 0.8 0 0
0.310573 0.393456 0.294389 0.8 0 0
0.376915 0.548457 0.275162 0.8 0 0
0.345916 0.255015 0.320231 0.8 0 0
0.447476 0.211926 0.334006 0.8 0 0
0.313535 0.468474 0.346520 0.8 0 0
0.342465 0.482453 0.292244 0.8 0 0
0.326417 0.454215 0.301646 0.8 0 0
0.348793 0.338647 0.327536 0.8 0 0
0.360184 0.706045 0.188640 0.8 0 0
0.368629 0.364297 0.324484 0.8 0 0
0.429023 0.106728 0.356092 0.8 0 0
0.228901 0.350951 0.296270 0.8 0 0
0.304620 0.417572 0.253753 0.8 0 0
0.224879 0.444923 0.339118 0.8 0 0
0.325224 0.307688 0.309452 0.8 0 0
0.394038 0.656790 0.296078 0.8 0 0
0.351490 0.328659 0.327496 0.8 0 0
0.333688 0.290722 0.343628 0.8 0 0
0.304095 0.492623 0.321390 0.8 0 0
0.120967 0.745775 0.318543 0.8 0 0
0.342868 0.603370 0.430234 0.8 0 0
0.342477 0.353048 0.312239 0.8 0 0
0.363852 0.355687 0.358724 0.8 0 0
0.229507 0.134051 0.297204 0.8 0 0
0.420484 0.181244 0.393942 0.8 0 0
0.393444 0.782288 0.519216 0.8 0 0
0.325207 0.627076 0.384148 0.8 0 0
0.376025 0.435675 0.314941 0.8 0 0
0.329677 0.397064 0.291527 0.8 0 0
0.259132 0.743528 0.212278 0.8 0 0
0.324266 0.325863 0.325088 0.8 0 0
0.317443 0.324359 0.337830 0.8 0 0
0.283652 0.479316 0.268143 0.8 0 0
0.363475 0.326944 0.322654 0.8 0 0
0.416253 0.208783 0.378862 0.8 0 0
0.082811 0.780547 0.320230 0.8 0 0
0.323830 0.201056 0.321212 0.8 0 0
0.335835 0.289609 0.320141 0.8 0 0
0.320562 0.257781 0.322032 0.8 0 0
0.291222 0.419997 0.351455 0.8 0 0
0.224358 0.765248 0.470448 0.8 0 0
0.335225 0.389818 0.308944 0.8 0 0
0.329514 0.277037 0.338866 0.8 0 0
0.333262 0.257906 0.330217 0.8 0 0
0.311226 0.302384 0.306212 0.8 0 0
0.383722 0.530891 0.349803 0.8 0 0
0.160846 0.759390 0.424845 0.8 0 0
0.346302 0.528375 0.346500 0.8 0 0
0.231532 0.225556 0.253665 0.8 0 0
0.319780 0.446579 0.339451 0.8 0 0
0.337465 0.325989 0.310275 0.8 0 0
0.385317 0.431644 0.342137 0.8 0 0
0.398752 0.674312 0.421676 0.8 0 0
0.399105 0.449467 0.350292 0.8 0 0
0.282049 0.519655 0.385630 0.8 0 0
0.289359 0.370914 0.328380 0.8 0 0
0.361934 0.420565 0.316779 0.8 0 0
0.340484 0.423673 0.318443 0.8 0 0
0.265334 0.421515 0.315553 0.8 0 0
0.452483 0.190793 0.334205 0.8 0 0
0.363557 0.190732 0.451104 0.8 0 0
0.332919 0.368939 0.351642 0.8 0 0
0.311065 0.312584 0.325114 0.8 0 0
0.326345 0.417872 0.339921 0.8 0 0
0.328082 0.426484 0.291379 0.8 0 0
0.369972 0.208735 0.269828 0.8 0 0
0.462576 0.236735 0.313797 0.8 0 0
0.370030 0.549706 0.396489 0.8 0 0
0.338146 0.339767 0.330939 0.8 0 0
0.322641 0.401938 0.258010 0.8 0 0
0.305399 0.411502 0.327613 0.8 0 0
0.380436 0.208789 0.350264 0.8 0 0
0.331075 0.339563 0.339480 0.8 0 0
0.304915 0.349619 0.323275 0.8 0 0
0.352073 0.572299 0.277178 0.8 0 0
0.309470 0.383525 0.302286 0.8 0 0
0.589464 0.934353 0.382897 0.8 0 0
0.275270 0.555069 0.265234 0.8 0 0
0.316684 0.498968 0.422789 0.8 0 0
0.424027 0.057867 0.349856 0.8 0 0
0.298807 0.284089 0.347040 0.8 0 0
0.330815 0.545063 0.395781 0.8 0 0
0.323594 0.251328 0.319641 0.8 0 0
0.315142 0.284254 0.321726 0.8 0 0
