0.564801 0.227134 0.311555 0.8 0 0
0.331312 0.271665 0.501672 0.8 0 0
0.766354 0.559146 0.662277 0.8 0 0
0.482972 0.025047 0.392545 0.8 0 0
0.474544 0.170404 0.565683 0.8 0 0
0.403860 0.025045 0.391431 0.8 0 0
0.470848 0.246728 0.415424 0.8 0 0
0.471686 0.363075 0.476594 0.8 0 0
0.438148 0.221847 0.588726 0.8 0 0
0.396311 0.254629 0.548097 0.8 0 0
0.465373 0.250826 0.415062 0.8 0 0
0.421945 0.225076 0.576155 0.8 0 0
0.595394 0.222206 0.355620 0.8 0 0
0.573024 0.221994 0.545342 0.8 0 0
0.641967 0.583926 0.492383 0.8 0 0
0.610562 0.221685 0.380523 0.8 0 0
0.373516 0.143969 0.360961 0.8 0 0
0.405277 0.243401 0.482843 0.8 0 0
0.488011 0.680516 0.553603 0.8 0 0
0.592816 0.228213 0.338778 0.8 0 0
0.454369 0.567757 0.483200 0.8 0 0
0.601016 0.546403 0.380067 0.8 0 0
0.395149 0.361628 0.470807 0.8 0 0
0.505329 0.085545 0.548912 0.8 0 0
0.387839 0.212183 0.541626 0.8 0 0
0.563349 0.541723 0.384395 0.8 0 0
0.559925 0.243227 0.414243 0.8 0 0
0.801276 0.588120 0.674515 0.8 0 0
0.558831 0.262380 0.334803 0.8 0 0
0.327834 0.274991 0.417454 0.8 0 0
0.354996 0.087100 0.443759 0.8 0 0
0.344210 0.754716 0.450070 0.8 0 0
0.391189 0.222004 0.558846 0.8 0 0
0.475523 0.243398 0.547607 0.8 0 0
0.590389 0.665699 0.391180 0.8 0 0
0.684822 0.915061 0.321017 0.8 0 0
0.592325 0.238415 0.536778 0.8 0 0
0.367389 0.154155 0.508842 0.8 0 0
0.528602 0.621084 0.420297 0.8 0 0
0.436563 0.526427 0.460972 0.8 0 0
0.534884 0.381945 0.451116 0.8 0 0
0.399364 0.635969 0.405094 0.8 0 0
0.449937 0.453043 0.385845 0.8 0 0
0.411597 0.436950 0.754343 0.8 0 0
0.567213 0.212914 0.343476 0.8 0 0
0.357637 0.531805 0.331047 0.8 0 0
0.462085 0.173001 0.422675 0.8 0 0
0.433013 0.221804 0.301643 0.8 0 0
0.460399 0.397101 0.390894 0.8 0 0
0.567084 0.257184 0.313432 0.8 0 0
0.564131 0.574276 0.480928 0.8 0 0
0.133076 0.442221 0.446763 0.8 0 0
0.228699 0.629062 0.409492 0.8 0 0
0.453265 0.299946 0.424335 0.8 0 0
0.429185 0.460013 0.426404 0.8 0 0
0.544407 0.121829 0.340460 0.8 0 0
0.463740 0.324363 0.415048 0.8 0 0
0.419960 0.441885 0.753168 0.8 0 0
0.448265 0.356090 0.406526 0.8 0 0
0.534063 0.276226 0.302906 0.8 0 0
0.445009 0.512232 0.514144 0.8 0 0
0.428864 0.243411 0.519920 0.8 0 0
0.376138 0.076830 0.503013 0.8 0 0
0.386054 0.199166 0.337111 0.8 0 0
0.506675 0.025100 0.461699 0.8 0 0
0.416475 0.243361 0.441887 0.8 0 0
0.564196 0.254788 0.311030 0.8 0 0
0.346675 0.287056 0.362429 0.8 0 0
0.511948 0.361890 0.365522 0.8 0 0
0.475428 0.243377 0.520699 0.8 0 0
0.479381 0.857740 0.266098 0.8 0 0
0.540789 0.803836 0.658375 0.8 0 0
0.720536 0.522748 0.627950 0.8 0 0
0.650287 0.590940 0.545337 0.8 0 0
0.430864 0.840946 0.550112 0.8 0 0
0.327163 0.683152 0.673729 0.8 0 0
0.376743 0.604457 0.598801 0.8 0 0
0.350822 0.501621 0.413321 0.8 0 0
0.376955 0.267245 0.341953 0.8 0 0
0.579837 0.243266 0.484217 0.8 0 0
0.366836 0.225289 0.539857 0.8 0 0
0.400524 0.025114 0.477994 0.8 0 0
0.593725 0.248225 0.521737 0.8 0 0
0.501596 0.025064 0.414452 0.8 0 0
0.419146 0.243345 0.424638 0.8 0 0
0.626847 0.793762 0.362856 0.8 0 0
0.451015 0.353964 0.406643 0.8 0 0
0.358815 0.065205 0.423130 0.8 0 0
0.500090 0.348444 0.410170 0.8 0 0
0.404946 0.201520 0.551705 0.8 0 0
0.480147 0.837912 0.446781 0.8 0 0
0.534725 0.459942 0.451254 0.8 0 0
0.518168 0.025045 0.391367 0.8 0 0
0.539697 0.126135 0.335883 0.8 0 0
0.525629 0.359737 0.446394 0.8 0 0
0.448437 0.833249 0.258061 0.8 0 0
0.623825 0.245502 0.473558 0.8 0 0
0.455924 0.219508 0.422252 0.8 0 0
0.381049 0.527952 0.491453 0.8 0 0
0.422393 0.134727 0.550903 0.8 0 0
0.675909 0.770443 0.341098 0.8 0 0
0.608197 0.729381 0.271779 0.8 0 0
0.686366 0.638207 0.509899 0.8 0 0
0.303712 0.837849 0.474877 0.8 0 0
0.583464 0.221833 0.339154 0.8 0 0
0.448174 0.156917 0.313234 0.8 0 0
0.621385 0.223214 0.393468 0.8 0 0
0.438316 0.369852 0.398036 0.8 0 0
0.416061 0.268767 0.375945 0.8 0 0
0.313825 0.681681 0.410076 0.8 0 0
0.571261 0.268693 0.436525 0.8 0 0
0.410848 0.042527 0.344757 0.8 0 0
0.730508 0.678873 0.534670 0.8 0 0
0.728988 0.688220 0.520979 0.8 0 0
0.551720 0.243206 0.378200 0.8 0 0
0.582818 0.626931 0.490404 0.8 0 0
0.537584 0.403280 0.459150 0.8 0 0
0.604183 0.398880 0.287373 0.8 0 0
0.691710 0.415995 0.544000 0.8 0 0
0.449723 0.079173 0.551422 0.8 0 0
0.488834 0.439532 0.428246 0.8 0 0
0.540178 0.832222 0.677004 0.8 0 0
0.562403 0.508100 0.471254 0.8 0 0
0.656172 0.521232 0.443744 0.8 0 0
0.399039 0.600711 0.294766 0.8 0 0
0.532142 0.033629 0.346150 0.8 0 0
0.327802 0.230857 0.457149 0.8 0 0
0.431567 0.433340 0.469148 0.8 0 0
0.512117 0.218606 0.565623 0.8 0 0
0.618480 0.287919 0.422990 0.8 0 0
0.430267 0.469222 0.401250 0.8 0 0
0.494374 0.179969 0.310029 0.8 0 0
0.317802 0.720581 0.709522 0.8 0 0
0.541595 0.222012 0.569288 0.8 0 0
0.545763 0.243261 0.443695 0.8 0 0
0.397555 0.268884 0.508955 0.8 0 0
0.544205 0.243198 0.360300 0.8 0 0
0.196158 0.665812 0.407949 0.8 0 0
0.585552 0.194853 0.372577 0.8 0 0
0.226445 0.706592 0.226456 0.8 0 0
0.518919 0.385675 0.453843 0.8 0 0
0.428655 0.306769 0.452319 0.8 0 0
0.669754 0.715772 0.395051 0.8 0 0
0.495971 0.025133 0.503684 0.8 0 0
0.477721 0.772551 0.394786 0.8 0 0
0.513485 0.100011 0.326709 0.8 0 0
0.490106 0.212925 0.569883 0.8 0 0
0.196244 0.670642 0.410874 0.8 0 0
0.698260 0.706315 0.464496 0.8 0 0
0.717253 0.429969 0.558345 0.8 0 0
0.545474 0.594021 0.327907 0.8 0 0
0.568533 0.254791 0.314640 0.8 0 0
0.487312 0.848203 0.557347 0.8 0 0
0.578378 0.042882 0.466242 0.8 0 0
0.477791 0.810317 0.570548 0.8 0 0
0.452614 0.204768 0.306223 0.8 0 0
0.201075 0.653264 0.402985 0.8 0 0
0.461169 0.268692 0.326641 0.8 0 0
0.585563 0.215423 0.366725 0.8 0 0
0.363546 0.801073 0.349843 0.8 0 0
0.553903 0.468739 0.422294 0.8 0 0
0.341065 0.217880 0.470457 0.8 0 0
0.706730 0.528713 0.430535 0.8 0 0
0.462509 0.508362 0.370068 0.8 0 0
0.569368 0.268654 0.384487 0.8 0 0
0.420799 0.025151 0.524696 0.8 0 0
0.453855 0.268786 0.438643 0.8 0 0
0.419592 0.276276 0.584259 0.8 0 0
0.541167 0.583872 0.418790 0.8 0 0
0.379479 0.257422 0.323749 0.8 0 0
0.543037 0.268714 0.435009 0.8 0 0
0.543075 0.553742 0.466926 0.8 0 0
0.433197 0.554067 0.451522 0.8 0 0
0.475774 0.194462 0.429583 0.8 0 0
0.511532 0.074320 0.545400 0.8 0 0
0.453954 0.265631 0.436152 0.8 0 0
0.461592 0.292812 0.419039 0.8 0 0
0.365896 0.717293 0.220104 0.8 0 0
0.412953 0.243432 0.530465 0.8 0 0
0.552324 0.211148 0.331203 0.8 0 0
0.367799 0.629643 0.617762 0.8 0 0
0.388621 0.268772 0.354932 0.8 0 0
0.463061 0.650946 0.477397 0.8 0 0
0.509544 0.274744 0.589465 0.8 0 0
0.210363 0.779535 0.422584 0.8 0 0
0.370987 0.243342 0.371682 0.8 0 0
0.481709 0.840888 0.275918 0.8 0 0
0.406226 0.069840 0.531844 0.8 0 0
0.585053 0.243273 0.498070 0.8 0 0
0.423159 0.173127 0.318220 0.8 0 0
0.454815 0.251853 0.423639 0.8 0 0
0.448581 0.440431 0.445440 0.8 0 0
0.569507 0.398873 0.206149 0.8 0 0
0.583336 0.288303 0.333924 0.8 0 0
0.431339 0.651945 0.161626 0.8 0 0
0.440764 0.789170 0.278525 0.8 0 0
0.341832 0.243446 0.477433 0.8 0 0
0.482227 0.833479 0.288218 0.8 0 0
0.549156 0.133389 0.532745 0.8 0 0
0.607958 0.243548 0.416385 0.8 0 0
0.540894 0.164251 0.330615 0.8 0 0
0.457528 0.268783 0.438699 0.8 0 0
0.313153 0.588278 0.294114 0.8 0 0
0.430600 0.418729 0.444939 0.8 0 0
0.675123 0.623798 0.505797 0.8 0 0
0.538595 0.673817 0.467101 0.8 0 0
0.304590 0.660285 0.498383 0.8 0 0
0.208215 0.524382 0.528549 0.8 0 0
0.716016 0.679846 0.514583 0.8 0 0
0.488518 0.268821 0.517602 0.8 0 0
0.572881 0.231848 0.556679 0.8 0 0
0.489000 0.264385 0.592691 0.8 0 0
0.532130 0.261546 0.573049 0.8 0 0
0.441090 0.834050 0.257379 0.8 0 0
0.433471 0.589510 0.460636 0.8 0 0
0.534174 0.070969 0.341454 0.8 0 0
0.558808 0.258429 0.557382 0.8 0 0
0.385781 0.065308 0.512249 0.8 0 0
0.377921 0.162417 0.523360 0.8 0 0
0.440321 0.383011 0.418449 0.8 0 0
0.429341 0.407253 0.422847 0.8 0 0
0.461488 0.379783 0.401143 0.8 0 0
0.202272 0.849234 0.225898 0.8 0 0
0.328356 0.221867 0.383149 0.8 0 0
0.530629 0.795976 0.651746 0.8 0 0
0.436886 0.152183 0.558099 0.8 0 0
0.498538 0.352165 0.377765 0.8 0 0
0.452991 0.301834 0.420513 0.8 0 0
0.435238 0.221846 0.586643 0.8 0 0
0.461412 0.396447 0.397368 0.8 0 0
0.682581 0.630643 0.570205 0.8 0 0
0.517381 0.243222 0.364472 0.8 0 0
0.407737 0.243401 0.486054 0.8 0 0
0.171985 0.425939 0.441426 0.8 0 0
0.415830 0.424577 0.719158 0.8 0 0
0.589345 0.230091 0.347846 0.8 0 0
0.568948 0.235831 0.548960 0.8 0 0
0.554858 0.243182 0.351384 0.8 0 0
0.420220 0.496783 0.399317 0.8 0 0
0.532132 0.025117 0.481858 0.8 0 0
0.329257 0.785835 0.474357 0.8 0 0
0.561676 0.170568 0.528931 0.8 0 0
0.702220 0.655295 0.583470 0.8 0 0
0.579031 0.268700 0.454186 0.8 0 0
0.495169 0.870508 0.593049 0.8 0 0
0.527519 0.025103 0.464609 0.8 0 0
0.394138 0.760003 0.518574 0.8 0 0
0.526701 0.288273 0.296319 0.8 0 0
0.620580 0.260169 0.484091 0.8 0 0
0.560711 0.084435 0.363107 0.8 0 0
0.505345 0.283124 0.581894 0.8 0 0
0.489782 0.286331 0.584073 0.8 0 0
0.602996 0.195099 0.440824 0.8 0 0
0.467249 0.243503 0.305158 0.8 0 0
0.831201 0.860067 0.454310 0.8 0 0
0.502249 0.041222 0.543603 0.8 0 0
0.497267 0.318099 0.358169 0.8 0 0
0.578912 0.183939 0.363862 0.8 0 0
0.618616 0.282216 0.424363 0.8 0 0
0.552770 0.245895 0.544931 0.8 0 0
0.617207 0.378586 0.503955 0.8 0 0
0.337722 0.243410 0.426336 0.8 0 0
0.543016 0.143598 0.539597 0.8 0 0
0.466543 0.288266 0.286629 0.8 0 0
0.343346 0.243397 0.415501 0.8 0 0
0.553458 0.764578 0.625983 0.8 0 0
0.275513 0.912137 0.306902 0.8 0 0
0.465568 0.243296 0.408095 0.8 0 0
0.402786 0.221833 0.571314 0.8 0 0
0.486155 0.025113 0.477936 0.8 0 0
0.318458 0.386256 0.418980 0.8 0 0
0.368871 0.246894 0.350651 0.8 0 0
0.385760 0.221825 0.328432 0.8 0 0
0.461235 0.712482 0.513167 0.8 0 0
0.668324 0.863747 0.346180 0.8 0 0
0.541297 0.243239 0.411776 0.8 0 0
0.368530 0.093512 0.381033 0.8 0 0
0.167229 0.768634 0.175046 0.8 0 0
0.448282 0.242921 0.283097 0.8 0 0
0.529680 0.129200 0.329970 0.8 0 0
0.405464 0.240912 0.568593 0.8 0 0
0.337265 0.682561 0.505086 0.8 0 0
0.476250 0.373729 0.351594 0.8 0 0
0.375002 0.714534 0.437984 0.8 0 0
0.437663 0.728961 0.454618 0.8 0 0
0.483069 0.382271 0.411676 0.8 0 0
0.462546 0.207243 0.417271 0.8 0 0
0.450453 0.268804 0.458526 0.8 0 0
0.176499 0.482695 0.499672 0.8 0 0
0.413966 0.223256 0.582537 0.8 0 0
0.364959 0.221988 0.537851 0.8 0 0
0.436795 0.422369 0.400527 0.8 0 0
0.188896 0.797564 0.425646 0.8 0 0
0.536019 0.221809 0.307731 0.8 0 0
0.384828 0.025035 0.374301 0.8 0 0
0.507061 0.055483 0.544126 0.8 0 0
0.411921 0.268728 0.322717 0.8 0 0
0.408309 0.065355 0.342591 0.8 0 0
0.438885 0.529569 0.313411 0.8 0 0
0.384692 0.889113 0.584504 0.8 0 0
0.464477 0.314237 0.417321 0.8 0 0
0.588565 0.663745 0.392333 0.8 0 0
0.524699 0.243236 0.389890 0.8 0 0
0.583480 0.101262 0.476481 0.8 0 0
0.375636 0.399907 0.415768 0.8 0 0
0.480314 0.025068 0.418446 0.8 0 0
0.128919 0.444234 0.447745 0.8 0 0
0.673195 0.627846 0.501282 0.8 0 0
0.359710 0.740265 0.203610 0.8 0 0
0.539714 0.885252 0.600871 0.8 0 0
0.437610 0.025041 0.385375 0.8 0 0
0.497078 0.320487 0.355663 0.8 0 0
0.455104 0.581220 0.488990 0.8 0 0
0.467082 0.176521 0.566376 0.8 0 0
0.449855 0.889941 0.223956 0.8 0 0
0.605122 0.229658 0.519026 0.8 0 0
0.502173 0.243301 0.450851 0.8 0 0
0.432417 0.470204 0.522851 0.8 0 0
0.388555 0.642516 0.265937 0.8 0 0
0.431510 0.247191 0.311273 0.8 0 0
0.503013 0.257752 0.582644 0.8 0 0
0.409599 0.549922 0.314988 0.8 0 0
0.432198 0.243305 0.386896 0.8 0 0
0.381582 0.073625 0.508928 0.8 0 0
0.455032 0.268871 0.549607 0.8 0 0
0.499105 0.441395 0.433327 0.8 0 0
0.450899 0.446250 0.444901 0.8 0 0
0.447265 0.025032 0.373844 0.8 0 0
0.417376 0.507735 0.394582 0.8 0 0
0.588565 0.268705 0.469988 0.8 0 0
0.338961 0.261929 0.405840 0.8 0 0
0.455912 0.280143 0.418634 0.8 0 0
0.498030 0.243241 0.370442 0.8 0 0
0.585245 0.655326 0.328203 0.8 0 0
0.440475 0.383300 0.279682 0.8 0 0
0.360596 0.042562 0.439123 0.8 0 0
0.449789 0.236298 0.282948 0.8 0 0
0.529351 0.825072 0.566677 0.8 0 0
0.469397 0.221792 0.285745 0.8 0 0
0.253567 0.675618 0.244529 0.8 0 0
0.387705 0.140252 0.346169 0.8 0 0
0.437952 0.398726 0.441888 0.8 0 0
0.381001 0.268837 0.431728 0.8 0 0
0.677384 0.757151 0.346157 0.8 0 0
0.572041 0.041404 0.483750 0.8 0 0
0.325984 0.263069 0.435981 0.8 0 0
0.566122 0.258812 0.340606 0.8 0 0
0.419413 0.268745 0.352298 0.8 0 0
0.586987 0.152836 0.487839 0.8 0 0
0.746858 0.826930 0.307714 0.8 0 0
0.319279 0.256125 0.418601 0.8 0 0
0.597252 0.205273 0.479671 0.8 0 0
0.362506 0.151705 0.499525 0.8 0 0
0.674781 0.482882 0.576705 0.8 0 0
0.535715 0.330717 0.463141 0.8 0 0
0.388159 0.647445 0.259368 0.8 0 0
0.605662 0.455303 0.102754 0.8 0 0
0.444977 0.531202 0.468677 0.8 0 0
0.376226 0.027305 0.489504 0.8 0 0
0.615528 0.288424 0.489959 0.8 0 0
0.501123 0.030320 0.332831 0.8 0 0
0.323760 0.221747 0.460946 0.8 0 0
0.494680 0.866789 0.587897 0.8 0 0
0.585135 0.312518 0.511269 0.8 0 0
0.386293 0.025088 0.445631 0.8 0 0
0.485555 0.355991 0.422799 0.8 0 0
0.342285 0.236585 0.522094 0.8 0 0
0.396951 0.025114 0.478047 0.8 0 0
0.371969 0.025109 0.470447 0.8 0 0
0.372189 0.239037 0.556105 0.8 0 0
0.618765 0.278389 0.425857 0.8 0 0
0.461192 0.220081 0.423059 0.8 0 0
0.528709 0.268654 0.344740 0.8 0 0
0.567241 0.037669 0.491530 0.8 0 0
0.505772 0.025048 0.393757 0.8 0 0
0.502929 0.299011 0.447658 0.8 0 0
0.487733 0.025128 0.497014 0.8 0 0
0.408189 0.532031 0.420956 0.8 0 0
0.393768 0.819256 0.541841 0.8 0 0
0.291655 0.692017 0.512364 0.8 0 0
0.336689 0.278846 0.381980 0.8 0 0
0.433661 0.246740 0.310629 0.8 0 0
0.600492 0.602536 0.409056 0.8 0 0
0.599714 0.679321 0.303438 0.8 0 0
0.326267 0.282418 0.387250 0.8 0 0
0.326334 0.258100 0.442427 0.8 0 0
0.766669 0.711813 0.547449 0.8 0 0
0.497936 0.519898 0.416181 0.8 0 0
0.529709 0.601903 0.421499 0.8 0 0
0.505148 0.316246 0.442658 0.8 0 0
0.321788 0.891752 0.280436 0.8 0 0
0.478406 0.025109 0.471774 0.8 0 0
0.507613 0.264762 0.284830 0.8 0 0
0.492172 0.406645 0.432631 0.8 0 0
0.408907 0.385506 0.466104 0.8 0 0
0.498573 0.555879 0.528783 0.8 0 0
0.396748 0.830112 0.540113 0.8 0 0
0.478947 0.249581 0.430331 0.8 0 0
0.340612 0.261183 0.474200 0.8 0 0
0.381147 0.397462 0.419440 0.8 0 0
0.765484 0.459460 0.571621 0.8 0 0
0.548663 0.477618 0.458405 0.8 0 0
0.447227 0.380601 0.436466 0.8 0 0
0.345403 0.231461 0.526970 0.8 0 0
0.323911 0.723098 0.709964 0.8 0 0
0.376406 0.242554 0.559613 0.8 0 0
0.420040 0.052073 0.338285 0.8 0 0
0.495285 0.222019 0.577571 0.8 0 0
0.484486 0.287072 0.432920 0.8 0 0
0.588901 0.268646 0.393029 0.8 0 0
0.537586 0.796216 0.550098 0.8 0 0
0.437277 0.775530 0.439089 0.8 0 0
0.690360 0.769333 0.341318 0.8 0 0
0.155187 0.709354 0.413775 0.8 0 0
0.497857 0.267617 0.450397 0.8 0 0
0.280197 0.643087 0.269981 0.8 0 0
0.494163 0.163555 0.312259 0.8 0 0
0.519511 0.299401 0.463225 0.8 0 0
0.426538 0.185254 0.315437 0.8 0 0
0.394352 0.223992 0.572172 0.8 0 0
0.480241 0.823607 0.435156 0.8 0 0
0.511678 0.525388 0.427729 0.8 0 0
0.611955 0.254655 0.506304 0.8 0 0
0.355170 0.243420 0.458142 0.8 0 0
0.551716 0.498863 0.488153 0.8 0 0
0.226950 0.700193 0.205987 0.8 0 0
0.456420 0.268848 0.521710 0.8 0 0
0.432014 0.093481 0.548286 0.8 0 0
0.490489 0.243381 0.543226 0.8 0 0
0.389727 0.406918 0.425374 0.8 0 0
0.515795 0.656920 0.442134 0.8 0 0
0.433266 0.243264 0.335150 0.8 0 0
0.555346 0.490906 0.474139 0.8 0 0
0.352363 0.110687 0.425604 0.8 0 0
0.340782 0.191799 0.444327 0.8 0 0
0.322845 0.885488 0.284999 0.8 0 0
0.470685 0.781882 0.537085 0.8 0 0
0.483034 0.748610 0.153926 0.8 0 0
0.457501 0.322485 0.410549 0.8 0 0
0.578868 0.878069 0.271819 0.8 0 0
0.562731 0.276148 0.320780 0.8 0 0
0.474541 0.339948 0.433262 0.8 0 0
0.587848 0.210058 0.502496 0.8 0 0
0.446643 0.127095 0.557580 0.8 0 0
0.616615 0.288411 0.472910 0.8 0 0
0.083446 0.460574 0.453674 0.8 0 0
0.445115 0.420612 0.448262 0.8 0 0
0.462690 0.155198 0.423387 0.8 0 0
0.534939 0.243319 0.506800 0.8 0 0
0.416558 0.253641 0.583326 0.8 0 0
0.473303 0.351846 0.434287 0.8 0 0
0.325134 0.288358 0.404768 0.8 0 0
0.338951 0.260322 0.469046 0.8 0 0
0.500639 0.039000 0.543788 0.8 0 0
0.407796 0.328861 0.444931 0.8 0 0
0.471659 0.250029 0.426287 0.8 0 0
0.392777 0.420788 0.389638 0.8 0 0
0.753883 0.774068 0.464763 0.8 0 0
0.478499 0.252054 0.427042 0.8 0 0
0.550750 0.468022 0.467241 0.8 0 0
0.496126 0.455359 0.436185 0.8 0 0
0.318180 0.230812 0.445343 0.8 0 0
0.457636 0.296623 0.416366 0.8 0 0
0.460504 0.246129 0.423966 0.8 0 0
0.723294 0.431027 0.567671 0.8 0 0
0.490058 0.801604 0.289349 0.8 0 0
0.250574 0.805913 0.253664 0.8 0 0
0.589544 0.098463 0.431543 0.8 0 0
0.405474 0.377518 0.417570 0.8 0 0
0.484779 0.842202 0.552256 0.8 0 0
0.504852 0.481480 0.369056 0.8 0 0
0.544883 0.032501 0.518592 0.8 0 0
0.351318 0.221458 0.376216 0.8 0 0
0.607418 0.248295 0.411173 0.8 0 0
0.164819 0.826176 0.437206 0.8 0 0
0.475344 0.268681 0.325172 0.8 0 0
0.555198 0.081789 0.356991 0.8 0 0
0.466643 0.103314 0.556401 0.8 0 0
0.557894 0.092655 0.517211 0.8 0 0
0.481847 0.243404 0.562415 0.8 0 0
0.556603 0.540194 0.386704 0.8 0 0
0.611095 0.222895 0.486360 0.8 0 0
0.560165 0.025121 0.485686 0.8 0 0
0.314458 0.879865 0.488659 0.8 0 0
0.603084 0.199951 0.428473 0.8 0 0
0.443573 0.260832 0.420911 0.8 0 0
0.597009 0.722734 0.289245 0.8 0 0
0.390906 0.102257 0.524885 0.8 0 0
0.473920 0.243392 0.539158 0.8 0 0
0.236710 0.509430 0.533340 0.8 0 0
0.558921 0.511608 0.470027 0.8 0 0
0.531246 0.817249 0.666710 0.8 0 0
0.577911 0.477562 0.492649 0.8 0 0
0.455670 0.242053 0.584076 0.8 0 0
0.383919 0.061178 0.509115 0.8 0 0
0.402877 0.261344 0.298098 0.8 0 0
0.486030 0.656557 0.235985 0.8 0 0
0.500647 0.536538 0.410141 0.8 0 0
0.455792 0.243313 0.419483 0.8 0 0
0.486007 0.268715 0.379484 0.8 0 0
0.622198 0.410241 0.260869 0.8 0 0
0.482834 0.284113 0.290091 0.8 0 0
0.420436 0.820125 0.545190 0.8 0 0
0.456796 0.025040 0.384424 0.8 0 0
0.604173 0.581349 0.472077 0.8 0 0
0.619483 0.221904 0.430122 0.8 0 0
0.391303 0.079961 0.353860 0.8 0 0
0.442050 0.026867 0.541985 0.8 0 0
0.345419 0.252821 0.510127 0.8 0 0
0.461438 0.253690 0.424820 0.8 0 0
0.481136 0.567017 0.446462 0.8 0 0
0.126328 0.717241 0.398324 0.8 0 0
0.568177 0.506312 0.462986 0.8 0 0
0.505832 0.903651 0.599740 0.8 0 0
0.384475 0.284433 0.319569 0.8 0 0
0.402538 0.234838 0.576647 0.8 0 0
0.507588 0.281664 0.459168 0.8 0 0
0.556542 0.221816 0.316596 0.8 0 0
0.607889 0.261707 0.496088 0.8 0 0
0.225886 0.515172 0.533052 0.8 0 0
0.460503 0.210745 0.420586 0.8 0 0
0.366757 0.025091 0.446636 0.8 0 0
0.730966 0.532418 0.626966 0.8 0 0
0.391418 0.243355 0.409227 0.8 0 0
0.682964 0.632570 0.560075 0.8 0 0
0.398462 0.560718 0.439454 0.8 0 0
0.344218 0.167878 0.428988 0.8 0 0
0.412631 0.228790 0.302430 0.8 0 0
0.412103 0.652901 0.469033 0.8 0 0
0.492092 0.086414 0.552520 0.8 0 0
0.526782 0.222011 0.566551 0.8 0 0
0.393706 0.287034 0.312748 0.8 0 0
0.434750 0.410207 0.417669 0.8 0 0
0.595762 0.250452 0.379410 0.8 0 0
0.374266 0.266496 0.344350 0.8 0 0
0.396724 0.268883 0.506938 0.8 0 0
0.384034 0.140316 0.349187 0.8 0 0
0.370145 0.178632 0.357625 0.8 0 0
0.452612 0.204920 0.306202 0.8 0 0
0.236246 0.689633 0.210487 0.8 0 0
0.444771 0.216719 0.305374 0.8 0 0
0.424791 0.692803 0.324568 0.8 0 0
0.395823 0.470757 0.362702 0.8 0 0
0.593972 0.259858 0.353481 0.8 0 0
0.380654 0.111100 0.359348 0.8 0 0
0.414757 0.025072 0.423817 0.8 0 0
0.531597 0.570242 0.423624 0.8 0 0
0.538940 0.183277 0.548404 0.8 0 0
0.373495 0.472794 0.417095 0.8 0 0
0.340148 0.257451 0.374588 0.8 0 0
0.477071 0.268714 0.368677 0.8 0 0
0.582349 0.576017 0.403800 0.8 0 0
0.461953 0.245746 0.422962 0.8 0 0
0.482517 0.243827 0.584845 0.8 0 0
0.377512 0.117622 0.513346 0.8 0 0
0.384437 0.138052 0.349255 0.8 0 0
0.409448 0.536936 0.418522 0.8 0 0
0.345062 0.665375 0.651859 0.8 0 0
0.597956 0.693853 0.301390 0.8 0 0
0.492305 0.243281 0.414745 0.8 0 0
0.515268 0.243331 0.502287 0.8 0 0
0.508176 0.242083 0.293899 0.8 0 0
0.370938 0.268884 0.482311 0.8 0 0
0.462117 0.506219 0.450293 0.8 0 0
0.551053 0.268690 0.411857 0.8 0 0
0.481596 0.682454 0.227531 0.8 0 0
0.544192 0.642435 0.469474 0.8 0 0
0.508369 0.066178 0.329955 0.8 0 0
0.823396 0.847653 0.458142 0.8 0 0
0.228191 0.822296 0.238539 0.8 0 0
0.294951 0.735298 0.546256 0.8 0 0
0.577549 0.573963 0.401184 0.8 0 0
0.454026 0.891924 0.223321 0.8 0 0
0.423769 0.585812 0.465962 0.8 0 0
0.426246 0.126245 0.551129 0.8 0 0
0.565219 0.181830 0.527289 0.8 0 0
0.449525 0.243277 0.368006 0.8 0 0
0.497238 0.268719 0.396252 0.8 0 0
0.391881 0.025102 0.463333 0.8 0 0
0.261661 0.793736 0.586013 0.8 0 0
0.588382 0.629193 0.506187 0.8 0 0
0.466423 0.241063 0.421721 0.8 0 0
0.134180 0.855640 0.445180 0.8 0 0
0.221518 0.453239 0.485852 0.8 0 0
0.418626 0.629778 0.354095 0.8 0 0
0.594361 0.726924 0.295418 0.8 0 0
0.604034 0.413125 0.525280 0.8 0 0
0.695577 0.301129 0.589729 0.8 0 0
0.409720 0.268764 0.366519 0.8 0 0
0.586818 0.248370 0.344742 0.8 0 0
0.462854 0.282562 0.428422 0.8 0 0
0.532850 0.694054 0.503250 0.8 0 0
0.475222 0.264576 0.427258 0.8 0 0
0.583608 0.283489 0.340789 0.8 0 0
0.453053 0.227750 0.583822 0.8 0 0
0.555691 0.477707 0.421873 0.8 0 0
0.471544 0.268670 0.408459 0.8 0 0
0.563195 0.268726 0.470976 0.8 0 0
0.427181 0.484837 0.401126 0.8 0 0
0.485134 0.829834 0.563692 0.8 0 0
0.184084 0.801752 0.426776 0.8 0 0
0.386908 0.278005 0.557332 0.8 0 0
0.677691 0.624661 0.572388 0.8 0 0
0.478873 0.268764 0.434820 0.8 0 0
0.598543 0.266702 0.384314 0.8 0 0
0.591954 0.203981 0.493208 0.8 0 0
0.506589 0.502772 0.439475 0.8 0 0
0.619430 0.221698 0.397350 0.8 0 0
0.455340 0.243310 0.415606 0.8 0 0
0.493054 0.243268 0.399332 0.8 0 0
0.442640 0.834763 0.257008 0.8 0 0
0.531613 0.243197 0.345735 0.8 0 0
0.614549 0.278080 0.475094 0.8 0 0
0.578081 0.174020 0.510041 0.8 0 0
0.322149 0.283005 0.474244 0.8 0 0
0.485017 0.378985 0.437269 0.8 0 0
0.443828 0.243256 0.334596 0.8 0 0
0.478772 0.697250 0.223138 0.8 0 0
0.155559 0.694518 0.402615 0.8 0 0
0.475574 0.025127 0.495638 0.8 0 0
0.597187 0.775003 0.270326 0.8 0 0
0.437840 0.405350 0.443615 0.8 0 0
0.560224 0.281657 0.556185 0.8 0 0
0.606033 0.215456 0.438226 0.8 0 0
0.588239 0.237237 0.541775 0.8 0 0
0.339436 0.605909 0.485527 0.8 0 0
0.592537 0.704542 0.277517 0.8 0 0
0.466199 0.398739 0.317962 0.8 0 0
0.449734 0.554644 0.471253 0.8 0 0
0.336794 0.262561 0.416479 0.8 0 0
0.411578 0.502232 0.512772 0.8 0 0
0.489375 0.358975 0.419788 0.8 0 0
0.558561 0.179158 0.342005 0.8 0 0
0.451853 0.243245 0.328285 0.8 0 0
0.383650 0.652236 0.267770 0.8 0 0
0.564457 0.288292 0.319842 0.8 0 0
0.517298 0.263137 0.296739 0.8 0 0
0.413854 0.260155 0.557269 0.8 0 0
0.508704 0.223687 0.589767 0.8 0 0
0.370297 0.032533 0.395358 0.8 0 0
0.453611 0.269219 0.423978 0.8 0 0
0.564987 0.254652 0.311689 0.8 0 0
0.424771 0.690891 0.118172 0.8 0 0
0.497951 0.025103 0.464075 0.8 0 0
0.594728 0.192569 0.481987 0.8 0 0
0.361136 0.151087 0.378227 0.8 0 0
0.366724 0.030828 0.407652 0.8 0 0
0.376846 0.247090 0.532893 0.8 0 0
0.327277 0.883256 0.280244 0.8 0 0
0.563890 0.780513 0.439777 0.8 0 0
0.615925 0.718192 0.577216 0.8 0 0
0.334607 0.662353 0.653615 0.8 0 0
0.318567 0.260744 0.449189 0.8 0 0
0.519823 0.144499 0.552751 0.8 0 0
0.365901 0.113907 0.380058 0.8 0 0
0.620647 0.221708 0.411026 0.8 0 0
0.447668 0.827742 0.261251 0.8 0 0
0.784839 0.733133 0.543726 0.8 0 0
0.590660 0.388714 0.507360 0.8 0 0
0.377087 0.040649 0.494873 0.8 0 0
0.604936 0.241520 0.373345 0.8 0 0
0.324823 0.671187 0.407987 0.8 0 0
0.764407 0.847701 0.294065 0.8 0 0
0.145982 0.483434 0.487855 0.8 0 0
0.352534 0.255986 0.373136 0.8 0 0
0.519731 0.243182 0.316178 0.8 0 0
0.493557 0.435971 0.393358 0.8 0 0
0.412013 0.243370 0.450667 0.8 0 0
0.301728 0.874374 0.489416 0.8 0 0
0.516182 0.380031 0.452053 0.8 0 0
0.343248 0.282894 0.351029 0.8 0 0
0.231372 0.443376 0.654654 0.8 0 0
0.339635 0.228950 0.357787 0.8 0 0
0.320115 0.251501 0.410228 0.8 0 0
0.463146 0.239468 0.281587 0.8 0 0
0.600215 0.745971 0.273311 0.8 0 0
0.348671 0.243371 0.387457 0.8 0 0
0.476234 0.243282 0.400050 0.8 0 0
0.548340 0.025045 0.389077 0.8 0 0
0.455902 0.281790 0.451695 0.8 0 0
0.587120 0.288462 0.537886 0.8 0 0
0.608507 0.255203 0.494748 0.8 0 0
0.199155 0.848835 0.217653 0.8 0 0
0.356802 0.096848 0.465797 0.8 0 0
0.550789 0.751387 0.620437 0.8 0 0
0.414694 0.437619 0.751775 0.8 0 0
0.467910 0.243248 0.347170 0.8 0 0
0.434282 0.078135 0.328348 0.8 0 0
0.488439 0.025015 0.350892 0.8 0 0
0.420470 0.243261 0.318599 0.8 0 0
0.532764 0.697379 0.505334 0.8 0 0
0.499688 0.511666 0.414276 0.8 0 0
0.531687 0.700417 0.507955 0.8 0 0
0.564186 0.571473 0.479039 0.8 0 0
0.471427 0.914747 0.241599 0.8 0 0
0.598181 0.157744 0.436984 0.8 0 0
0.484541 0.647350 0.244781 0.8 0 0
0.464881 0.170515 0.565340 0.8 0 0
0.585615 0.221841 0.349075 0.8 0 0
0.358138 0.650115 0.482473 0.8 0 0
0.337379 0.856107 0.293269 0.8 0 0
0.561599 0.102401 0.514792 0.8 0 0
0.448695 0.268839 0.502468 0.8 0 0
0.666154 0.402793 0.399590 0.8 0 0
0.563523 0.268706 0.445663 0.8 0 0
0.429025 0.516074 0.441150 0.8 0 0
0.321176 0.283560 0.471081 0.8 0 0
0.398841 0.268808 0.411830 0.8 0 0
0.486199 0.371794 0.420772 0.8 0 0
0.379946 0.243347 0.387127 0.8 0 0
0.537600 0.044448 0.348528 0.8 0 0
0.431535 0.028951 0.336229 0.8 0 0
0.474534 0.243406 0.557006 0.8 0 0
0.554973 0.221983 0.543474 0.8 0 0
0.463676 0.627921 0.394735 0.8 0 0
0.414884 0.178253 0.321491 0.8 0 0
0.525043 0.273273 0.584611 0.8 0 0
0.446944 0.907065 0.436623 0.8 0 0
0.436840 0.332089 0.439759 0.8 0 0
0.527381 0.283783 0.574992 0.8 0 0
0.543540 0.222796 0.298492 0.8 0 0
0.446343 0.904984 0.434161 0.8 0 0
0.403465 0.268911 0.550538 0.8 0 0
0.448178 0.354689 0.435198 0.8 0 0
0.384048 0.223262 0.554994 0.8 0 0
0.338747 0.221869 0.386416 0.8 0 0
0.426355 0.653054 0.167649 0.8 0 0
0.356276 0.221807 0.538288 0.8 0 0
0.552450 0.221821 0.322984 0.8 0 0
0.532652 0.833641 0.570528 0.8 0 0
0.625026 0.236807 0.469661 0.8 0 0
0.118763 0.438648 0.437710 0.8 0 0
0.515180 0.411755 0.340156 0.8 0 0
0.522008 0.132110 0.325353 0.8 0 0
0.491857 0.780975 0.299350 0.8 0 0
0.592940 0.700952 0.309267 0.8 0 0
0.361342 0.738298 0.202472 0.8 0 0
0.592051 0.181969 0.485764 0.8 0 0
0.540402 0.080137 0.344528 0.8 0 0
0.604769 0.273911 0.501878 0.8 0 0
0.402936 0.163689 0.330238 0.8 0 0
0.328649 0.266146 0.465593 0.8 0 0
0.409867 0.243288 0.342367 0.8 0 0
0.543059 0.474716 0.458009 0.8 0 0
0.520767 0.746251 0.308763 0.8 0 0
0.387996 0.469509 0.493665 0.8 0 0
0.488534 0.633710 0.249789 0.8 0 0
0.324737 0.248606 0.392249 0.8 0 0
0.490512 0.367222 0.435125 0.8 0 0
0.752871 0.450022 0.570269 0.8 0 0
0.367952 0.351746 0.509553 0.8 0 0
0.590728 0.268684 0.444920 0.8 0 0
0.594110 0.164632 0.403825 0.8 0 0
0.397570 0.079379 0.526374 0.8 0 0
0.522641 0.223044 0.576523 0.8 0 0
0.484260 0.025054 0.401949 0.8 0 0
0.440501 0.605779 0.466531 0.8 0 0
0.456170 0.575982 0.484299 0.8 0 0
0.358414 0.228925 0.332083 0.8 0 0
0.250845 0.673255 0.225369 0.8 0 0
0.459809 0.263393 0.290424 0.8 0 0
0.183728 0.816859 0.436106 0.8 0 0
0.407111 0.268779 0.382000 0.8 0 0
0.485465 0.179636 0.565834 0.8 0 0
0.550264 0.615744 0.549411 0.8 0 0
0.599303 0.277707 0.512035 0.8 0 0
0.410800 0.025048 0.394930 0.8 0 0
0.521331 0.602639 0.398142 0.8 0 0
0.636251 0.716655 0.528950 0.8 0 0
0.639187 0.660096 0.408716 0.8 0 0
0.722102 0.811562 0.316674 0.8 0 0
0.526213 0.535873 0.525779 0.8 0 0
0.571209 0.252948 0.558055 0.8 0 0
0.328277 0.222607 0.380761 0.8 0 0
0.520656 0.268769 0.483889 0.8 0 0
0.431727 0.025150 0.523611 0.8 0 0
0.589831 0.241381 0.348432 0.8 0 0
0.457985 0.025071 0.422808 0.8 0 0
0.450389 0.356851 0.434225 0.8 0 0
0.503630 0.229360 0.582473 0.8 0 0
0.379719 0.378759 0.469292 0.8 0 0
0.544992 0.025080 0.434353 0.8 0 0
0.610142 0.687316 0.379907 0.8 0 0
0.261328 0.427134 0.623295 0.8 0 0
0.384708 0.389810 0.492640 0.8 0 0
0.674175 0.905449 0.322719 0.8 0 0
0.345001 0.218650 0.483483 0.8 0 0
0.581091 0.230261 0.325114 0.8 0 0
0.497807 0.514046 0.499017 0.8 0 0
0.326902 0.288292 0.448096 0.8 0 0
0.658401 0.888657 0.326399 0.8 0 0
0.593484 0.639033 0.513546 0.8 0 0
0.502831 0.446227 0.505683 0.8 0 0
0.493848 0.506078 0.600801 0.8 0 0
0.513164 0.243345 0.518236 0.8 0 0
0.388008 0.031870 0.367395 0.8 0 0
0.565223 0.659973 0.441138 0.8 0 0
0.480417 0.285288 0.389604 0.8 0 0
0.437993 0.383507 0.271233 0.8 0 0
0.731594 0.809744 0.319034 0.8 0 0
0.559227 0.278267 0.567842 0.8 0 0
0.563106 0.128906 0.518601 0.8 0 0
0.492863 0.503484 0.596093 0.8 0 0
0.317931 0.247502 0.432105 0.8 0 0
0.460615 0.396589 0.397576 0.8 0 0
0.435051 0.377260 0.417343 0.8 0 0
0.447636 0.370076 0.474509 0.8 0 0
0.373954 0.239026 0.557574 0.8 0 0
0.557879 0.077231 0.361216 0.8 0 0
0.543031 0.809659 0.654548 0.8 0 0
0.508527 0.243882 0.589806 0.8 0 0
0.260740 0.905193 0.469848 0.8 0 0
0.344571 0.184150 0.466303 0.8 0 0
0.392099 0.221997 0.549889 0.8 0 0
0.572102 0.268633 0.359998 0.8 0 0
0.313585 0.814182 0.464902 0.8 0 0
0.403767 0.268843 0.462772 0.8 0 0
0.615202 0.398765 0.524634 0.8 0 0
0.461437 0.276288 0.593158 0.8 0 0
0.147797 0.486647 0.495918 0.8 0 0
0.452100 0.431913 0.389387 0.8 0 0
0.351266 0.225559 0.534143 0.8 0 0
0.434509 0.247244 0.564559 0.8 0 0
0.598598 0.747105 0.275848 0.8 0 0
0.568270 0.876853 0.263748 0.8 0 0
0.570399 0.593522 0.487243 0.8 0 0
0.491974 0.031209 0.330195 0.8 0 0
0.404341 0.081923 0.532405 0.8 0 0
0.489219 0.756600 0.325359 0.8 0 0
0.539587 0.268739 0.463565 0.8 0 0
0.352217 0.245770 0.339646 0.8 0 0
0.481366 0.644480 0.493700 0.8 0 0
0.434414 0.638826 0.171848 0.8 0 0
0.502110 0.090671 0.324512 0.8 0 0
0.430042 0.275366 0.296234 0.8 0 0
0.816430 0.470898 0.606507 0.8 0 0
0.408966 0.025074 0.426943 0.8 0 0
0.323762 0.221717 0.422100 0.8 0 0
0.386482 0.228856 0.567858 0.8 0 0
0.583946 0.915980 0.247769 0.8 0 0
0.570039 0.091580 0.501670 0.8 0 0
0.486225 0.810469 0.292872 0.8 0 0
0.514028 0.268724 0.419022 0.8 0 0
0.558999 0.221997 0.548929 0.8 0 0
0.531918 0.061026 0.533421 0.8 0 0
0.339078 0.677805 0.503579 0.8 0 0
0.166011 0.557566 0.551312 0.8 0 0
0.352216 0.256875 0.521954 0.8 0 0
0.373005 0.400952 0.216671 0.8 0 0
0.473192 0.025019 0.356737 0.8 0 0
0.468295 0.816507 0.104272 0.8 0 0
0.455469 0.097997 0.554553 0.8 0 0
0.119978 0.448771 0.450013 0.8 0 0
0.588727 0.246524 0.366927 0.8 0 0
0.362399 0.245338 0.534414 0.8 0 0
0.483033 0.396579 0.435406 0.8 0 0
0.409253 0.222009 0.565230 0.8 0 0
0.733656 0.534156 0.632537 0.8 0 0
0.368250 0.084304 0.490980 0.8 0 0
0.577826 0.797320 0.439601 0.8 0 0
0.319809 0.225493 0.461653 0.8 0 0
0.270260 0.649640 0.237109 0.8 0 0
0.625827 0.442388 0.102206 0.8 0 0
0.433940 0.276774 0.588753 0.8 0 0
0.566610 0.560122 0.478272 0.8 0 0
0.442009 0.357296 0.560506 0.8 0 0
0.702541 0.663038 0.513405 0.8 0 0
0.529942 0.268643 0.330878 0.8 0 0
0.592389 0.656099 0.318616 0.8 0 0
0.510633 0.222012 0.567604 0.8 0 0
0.347654 0.143078 0.428486 0.8 0 0
0.395936 0.548733 0.350502 0.8 0 0
0.462915 0.238161 0.415481 0.8 0 0
0.431452 0.662739 0.512349 0.8 0 0
0.109434 0.744523 0.410736 0.8 0 0
0.378019 0.768956 0.354305 0.8 0 0
0.575592 0.221815 0.548604 0.8 0 0
0.569812 0.200146 0.525617 0.8 0 0
0.522277 0.268681 0.372678 0.8 0 0
0.478972 0.269354 0.593707 0.8 0 0
0.327121 0.739927 0.719116 0.8 0 0
0.428362 0.425335 0.446146 0.8 0 0
0.466538 0.228342 0.418646 0.8 0 0
0.233760 0.437745 0.475027 0.8 0 0
0.415516 0.243402 0.493810 0.8 0 0
0.554735 0.268715 0.448906 0.8 0 0
0.466018 0.221475 0.421944 0.8 0 0
0.612784 0.287723 0.480823 0.8 0 0
0.463331 0.295975 0.423951 0.8 0 0
0.549860 0.287954 0.301903 0.8 0 0
0.589628 0.255212 0.368507 0.8 0 0
0.581802 0.649631 0.337279 0.8 0 0
0.226015 0.821647 0.229031 0.8 0 0
0.410722 0.025065 0.415068 0.8 0 0
0.506030 0.268214 0.293206 0.8 0 0
0.610831 0.356018 0.514543 0.8 0 0
0.455425 0.317091 0.475280 0.8 0 0
0.507383 0.485072 0.431396 0.8 0 0
0.467344 0.269133 0.585242 0.8 0 0
0.475148 0.106316 0.318196 0.8 0 0
0.365678 0.391787 0.471380 0.8 0 0
0.397295 0.336843 0.446579 0.8 0 0
0.451293 0.270706 0.282769 0.8 0 0
0.592420 0.222807 0.351611 0.8 0 0
0.596649 0.157202 0.422515 0.8 0 0
0.517221 0.169295 0.317961 0.8 0 0
0.480924 0.841157 0.286227 0.8 0 0
0.477974 0.266656 0.433319 0.8 0 0
0.604668 0.215977 0.452456 0.8 0 0
0.768358 0.567610 0.643300 0.8 0 0
0.446195 0.153129 0.313953 0.8 0 0
0.482265 0.466185 0.405321 0.8 0 0
0.545854 0.042566 0.519554 0.8 0 0
0.461294 0.208864 0.570182 0.8 0 0
0.497670 0.567649 0.400289 0.8 0 0
0.814965 0.852663 0.452009 0.8 0 0
0.445337 0.491241 0.457671 0.8 0 0
0.347253 0.221857 0.369480 0.8 0 0
0.528612 0.251164 0.316447 0.8 0 0
0.475033 0.886000 0.258536 0.8 0 0
0.460812 0.234223 0.417928 0.8 0 0
0.477069 0.243248 0.356519 0.8 0 0
0.481093 0.434541 0.566663 0.8 0 0
0.477705 0.809501 0.568262 0.8 0 0
0.484051 0.282159 0.434942 0.8 0 0
0.367126 0.029782 0.406837 0.8 0 0
0.512254 0.756070 0.477135 0.8 0 0
0.485531 0.812795 0.297455 0.8 0 0
0.329020 0.785624 0.473004 0.8 0 0
0.541358 0.025113 0.477456 0.8 0 0
0.421604 0.349346 0.476957 0.8 0 0
0.450087 0.320965 0.417070 0.8 0 0
0.565696 0.037863 0.380798 0.8 0 0
0.749808 0.549803 0.634779 0.8 0 0
0.495905 0.418388 0.412340 0.8 0 0
0.689045 0.649365 0.506362 0.8 0 0
0.626256 0.240182 0.458529 0.8 0 0
0.339540 0.285343 0.499173 0.8 0 0
0.763140 0.803884 0.457725 0.8 0 0
0.417964 0.318425 0.443607 0.8 0 0
0.277191 0.639576 0.248147 0.8 0 0
0.469523 0.766387 0.537652 0.8 0 0
0.675548 0.365490 0.557899 0.8 0 0
0.339937 0.245999 0.357213 0.8 0 0
0.518793 0.266113 0.577695 0.8 0 0
0.348407 0.846616 0.292732 0.8 0 0
0.420626 0.234978 0.575734 0.8 0 0
0.652760 0.685547 0.401861 0.8 0 0
0.232975 0.508730 0.526192 0.8 0 0
0.343043 0.681666 0.665686 0.8 0 0
0.570803 0.410091 0.192397 0.8 0 0
0.455190 0.288563 0.459783 0.8 0 0
0.486448 0.268731 0.400709 0.8 0 0
0.515525 0.243283 0.441353 0.8 0 0
0.614757 0.675948 0.523197 0.8 0 0
0.562924 0.880752 0.259438 0.8 0 0
0.493738 0.389980 0.423274 0.8 0 0
0.597156 0.288450 0.522919 0.8 0 0
0.433553 0.216855 0.308742 0.8 0 0
0.454719 0.417475 0.389406 0.8 0 0
0.337444 0.215345 0.443119 0.8 0 0
0.472450 0.243225 0.322177 0.8 0 0
0.453807 0.295723 0.420009 0.8 0 0
0.404739 0.527638 0.391467 0.8 0 0
0.326308 0.239520 0.442186 0.8 0 0
0.450076 0.561122 0.477440 0.8 0 0
0.495184 0.406299 0.421928 0.8 0 0
0.570977 0.158857 0.359614 0.8 0 0
0.416631 0.619563 0.450785 0.8 0 0
0.772116 0.564312 0.659907 0.8 0 0
0.613517 0.282517 0.396429 0.8 0 0
0.104481 0.508000 0.505271 0.8 0 0
0.468249 0.243314 0.433700 0.8 0 0
0.466879 0.361154 0.489712 0.8 0 0
0.338405 0.672990 0.660817 0.8 0 0
0.563065 0.122961 0.357708 0.8 0 0
0.411623 0.724103 0.087634 0.8 0 0
0.200060 0.730320 0.189142 0.8 0 0
0.529265 0.617276 0.419337 0.8 0 0
0.574690 0.044244 0.478742 0.8 0 0
0.580472 0.216999 0.516282 0.8 0 0
0.441401 0.268743 0.370931 0.8 0 0
0.357927 0.218737 0.510132 0.8 0 0
0.442837 0.478413 0.453050 0.8 0 0
0.491618 0.228431 0.291027 0.8 0 0
0.353649 0.112887 0.412151 0.8 0 0
0.424403 0.500286 0.395289 0.8 0 0
0.393723 0.182972 0.541354 0.8 0 0
0.612055 0.386145 0.405005 0.8 0 0
0.433984 0.624445 0.187506 0.8 0 0
0.651724 0.595235 0.496601 0.8 0 0
0.554754 0.268777 0.528254 0.8 0 0
0.466075 0.331494 0.408679 0.8 0 0
0.503413 0.542853 0.407946 0.8 0 0
0.467690 0.074149 0.552552 0.8 0 0
0.386427 0.152211 0.345111 0.8 0 0
0.382868 0.063849 0.508410 0.8 0 0
0.430769 0.440237 0.425722 0.8 0 0
0.603021 0.206851 0.418501 0.8 0 0
0.439818 0.262363 0.284307 0.8 0 0
0.389266 0.632600 0.283609 0.8 0 0
0.560207 0.187210 0.341939 0.8 0 0
0.515285 0.240992 0.287252 0.8 0 0
0.503813 0.268709 0.389858 0.8 0 0
0.365181 0.082788 0.484896 0.8 0 0
0.470195 0.771390 0.153621 0.8 0 0
0.503148 0.036604 0.542671 0.8 0 0
0.389074 0.165874 0.534521 0.8 0 0
0.358351 0.619897 0.616987 0.8 0 0
0.364594 0.221828 0.332749 0.8 0 0
0.325230 0.386785 0.489764 0.8 0 0
0.619219 0.249407 0.386409 0.8 0 0
0.474970 0.243255 0.362825 0.8 0 0
0.438704 0.243260 0.334604 0.8 0 0
0.556358 0.457666 0.400066 0.8 0 0
0.219412 0.456156 0.673962 0.8 0 0
0.466385 0.310910 0.413105 0.8 0 0
0.554331 0.601797 0.473002 0.8 0 0
0.487766 0.514357 0.431626 0.8 0 0
0.778142 0.734656 0.535521 0.8 0 0
0.319232 0.281227 0.455830 0.8 0 0
0.358239 0.137293 0.487574 0.8 0 0
0.492718 0.367368 0.421867 0.8 0 0
0.367537 0.401840 0.498252 0.8 0 0
0.491403 0.285705 0.592430 0.8 0 0
0.535247 0.147476 0.544903 0.8 0 0
0.578435 0.233754 0.334502 0.8 0 0
0.419182 0.567478 0.380206 0.8 0 0
0.624472 0.794551 0.360601 0.8 0 0
0.613993 0.284101 0.397977 0.8 0 0
0.420204 0.426012 0.716766 0.8 0 0
0.457629 0.226857 0.422162 0.8 0 0
0.429084 0.217113 0.564863 0.8 0 0
0.489861 0.174428 0.310334 0.8 0 0
0.395771 0.268793 0.390547 0.8 0 0
0.539825 0.414336 0.460682 0.8 0 0
0.222909 0.401847 0.438784 0.8 0 0
0.378215 0.398810 0.237147 0.8 0 0
0.447052 0.343471 0.413461 0.8 0 0
0.464189 0.734793 0.526946 0.8 0 0
0.627952 0.236327 0.433390 0.8 0 0
0.282428 0.638877 0.271098 0.8 0 0
0.328302 0.222049 0.380682 0.8 0 0
0.478457 0.386865 0.372780 0.8 0 0
0.459847 0.268775 0.429636 0.8 0 0
0.359492 0.095835 0.473995 0.8 0 0
0.469789 0.569233 0.329946 0.8 0 0
0.488236 0.555568 0.407787 0.8 0 0
0.453222 0.273514 0.583803 0.8 0 0
0.467361 0.253282 0.289664 0.8 0 0
0.487093 0.610678 0.268838 0.8 0 0
0.159484 0.828912 0.437478 0.8 0 0
0.338145 0.267792 0.496594 0.8 0 0
0.419218 0.457102 0.790007 0.8 0 0
0.492861 0.407694 0.416033 0.8 0 0
0.575800 0.243228 0.430486 0.8 0 0
0.669452 0.616158 0.503945 0.8 0 0
0.587507 0.101034 0.411727 0.8 0 0
0.358211 0.247072 0.332316 0.8 0 0
0.759189 0.707542 0.537757 0.8 0 0
0.570973 0.266334 0.327649 0.8 0 0
0.043361 0.471527 0.455888 0.8 0 0
0.377380 0.599182 0.399506 0.8 0 0
0.597850 0.268642 0.397164 0.8 0 0
0.508822 0.556332 0.407162 0.8 0 0
0.471202 0.122897 0.559517 0.8 0 0
0.433043 0.316330 0.442305 0.8 0 0
0.550217 0.268658 0.370950 0.8 0 0
0.456259 0.246210 0.420065 0.8 0 0
0.404239 0.243440 0.531468 0.8 0 0
0.356038 0.091653 0.414887 0.8 0 0
0.641323 0.442925 0.551160 0.8 0 0
0.455806 0.269791 0.438455 0.8 0 0
0.579019 0.098561 0.388024 0.8 0 0
0.411465 0.049002 0.343417 0.8 0 0
0.228030 0.821087 0.234362 0.8 0 0
0.619646 0.235946 0.440246 0.8 0 0
0.537272 0.557062 0.335754 0.8 0 0
0.409994 0.372689 0.461155 0.8 0 0
0.468376 0.025121 0.487782 0.8 0 0
0.455211 0.155009 0.562261 0.8 0 0
0.359655 0.099582 0.476233 0.8 0 0
0.455809 0.220148 0.419613 0.8 0 0
0.498784 0.321166 0.351449 0.8 0 0
0.407347 0.261313 0.569609 0.8 0 0
0.422582 0.222021 0.580664 0.8 0 0
0.479337 0.291851 0.430398 0.8 0 0
0.206235 0.723288 0.203480 0.8 0 0
0.347228 0.285985 0.513464 0.8 0 0
0.537248 0.869325 0.702182 0.8 0 0
0.603591 0.371677 0.494487 0.8 0 0
0.317470 0.245265 0.438225 0.8 0 0
0.478544 0.268745 0.410363 0.8 0 0
0.505306 0.150077 0.317009 0.8 0 0
0.512144 0.286250 0.454766 0.8 0 0
0.619680 0.222982 0.439918 0.8 0 0
0.565712 0.268622 0.340293 0.8 0 0
0.405513 0.375728 0.300873 0.8 0 0
0.409459 0.550840 0.314468 0.8 0 0
0.364394 0.382097 0.404431 0.8 0 0
0.489335 0.645230 0.240157 0.8 0 0
0.601313 0.268665 0.429590 0.8 0 0
0.355573 0.253182 0.539388 0.8 0 0
0.090176 0.751558 0.401515 0.8 0 0
0.552807 0.268682 0.403096 0.8 0 0
0.425470 0.413480 0.386643 0.8 0 0
0.513869 0.236768 0.286811 0.8 0 0
0.420903 0.243320 0.394124 0.8 0 0
0.432100 0.234060 0.588209 0.8 0 0
0.364898 0.221812 0.544270 0.8 0 0
0.447801 0.504401 0.463429 0.8 0 0
0.239377 0.695630 0.239865 0.8 0 0
0.389061 0.174823 0.338936 0.8 0 0
0.465043 0.403137 0.344529 0.8 0 0
0.447837 0.284006 0.591769 0.8 0 0
0.368692 0.165327 0.512796 0.8 0 0
0.465940 0.285476 0.422088 0.8 0 0
0.435555 0.073710 0.328585 0.8 0 0
0.551320 0.536840 0.505576 0.8 0 0
0.423438 0.365128 0.479899 0.8 0 0
0.509109 0.221847 0.588433 0.8 0 0
0.332262 0.240055 0.396400 0.8 0 0
0.619420 0.245028 0.387064 0.8 0 0
0.435362 0.851799 0.248250 0.8 0 0
0.493441 0.232848 0.291209 0.8 0 0
0.513503 0.244027 0.588248 0.8 0 0
0.653152 0.596136 0.543122 0.8 0 0
0.330188 0.795105 0.460630 0.8 0 0
0.581224 0.036749 0.442697 0.8 0 0
0.491959 0.644141 0.367038 0.8 0 0
0.427187 0.460659 0.400120 0.8 0 0
0.477565 0.268833 0.521240 0.8 0 0
0.456585 0.255757 0.428498 0.8 0 0
0.501842 0.243284 0.428525 0.8 0 0
0.601903 0.285394 0.524967 0.8 0 0
0.597607 0.247788 0.382693 0.8 0 0
0.592610 0.287128 0.523071 0.8 0 0
0.496449 0.255041 0.591940 0.8 0 0
0.329605 0.246399 0.376429 0.8 0 0
0.552049 0.221833 0.571074 0.8 0 0
0.437729 0.243298 0.382488 0.8 0 0
0.513669 0.240005 0.579320 0.8 0 0
0.627488 0.265998 0.446184 0.8 0 0
0.459945 0.243308 0.418108 0.8 0 0
0.604976 0.450081 0.110170 0.8 0 0
0.442338 0.536727 0.366642 0.8 0 0
0.467972 0.249789 0.420116 0.8 0 0
0.547021 0.266069 0.300366 0.8 0 0
0.587267 0.664689 0.323155 0.8 0 0
0.419789 0.522646 0.395115 0.8 0 0
0.590333 0.119629 0.412298 0.8 0 0
0.441860 0.025080 0.435099 0.8 0 0
0.424272 0.465249 0.421442 0.8 0 0
0.285240 0.863233 0.463640 0.8 0 0
0.611860 0.433288 0.128877 0.8 0 0
0.543139 0.221815 0.315434 0.8 0 0
0.466924 0.749413 0.528515 0.8 0 0
0.431161 0.055177 0.332597 0.8 0 0
0.561853 0.243290 0.496232 0.8 0 0
0.669949 0.365005 0.554186 0.8 0 0
0.443222 0.025079 0.434080 0.8 0 0
0.448729 0.651447 0.487302 0.8 0 0
0.481680 0.292656 0.435135 0.8 0 0
0.657261 0.599504 0.548404 0.8 0 0
0.491376 0.453154 0.422898 0.8 0 0
0.457614 0.026348 0.545054 0.8 0 0
0.454532 0.258910 0.290964 0.8 0 0
0.377098 0.524150 0.489890 0.8 0 0
0.378282 0.253807 0.550170 0.8 0 0
0.433289 0.221668 0.286383 0.8 0 0
0.155783 0.695799 0.404792 0.8 0 0
0.575513 0.268711 0.464353 0.8 0 0
0.405890 0.038839 0.526138 0.8 0 0
0.457802 0.245050 0.425234 0.8 0 0
0.516440 0.262290 0.287597 0.8 0 0
0.293240 0.397696 0.586295 0.8 0 0
0.538542 0.777500 0.539968 0.8 0 0
0.601250 0.249342 0.391696 0.8 0 0
0.435098 0.435463 0.408047 0.8 0 0
0.553169 0.228293 0.303761 0.8 0 0
0.332819 0.252317 0.480343 0.8 0 0
0.427858 0.031583 0.538017 0.8 0 0
0.366315 0.249150 0.539201 0.8 0 0
0.233933 0.694076 0.226279 0.8 0 0
0.418532 0.197840 0.316468 0.8 0 0
0.617624 0.717134 0.568224 0.8 0 0
0.570789 0.243256 0.462198 0.8 0 0
0.510364 0.917240 0.601488 0.8 0 0
0.408091 0.717359 0.109884 0.8 0 0
0.537609 0.059129 0.529256 0.8 0 0
0.365156 0.044174 0.468637 0.8 0 0
0.341539 0.243400 0.417305 0.8 0 0
0.359146 0.243446 0.494556 0.8 0 0
0.449205 0.364937 0.402973 0.8 0 0
0.400131 0.155521 0.333214 0.8 0 0
0.609094 0.249241 0.447737 0.8 0 0
0.485900 0.146097 0.313821 0.8 0 0
0.416613 0.073806 0.336771 0.8 0 0
0.586033 0.243239 0.455170 0.8 0 0
0.541208 0.246570 0.577736 0.8 0 0
0.392718 0.537742 0.452657 0.8 0 0
0.441333 0.791019 0.277718 0.8 0 0
0.432305 0.841108 0.255623 0.8 0 0
0.623582 0.229099 0.474358 0.8 0 0
0.476046 0.322463 0.425651 0.8 0 0
0.345294 0.824676 0.337690 0.8 0 0
0.507276 0.700421 0.408732 0.8 0 0
0.607084 0.221855 0.368457 0.8 0 0
0.543182 0.243196 0.357498 0.8 0 0
0.436607 0.457268 0.421529 0.8 0 0
0.493530 0.776413 0.298106 0.8 0 0
0.598357 0.652633 0.500814 0.8 0 0
0.495367 0.572568 0.565598 0.8 0 0
0.165255 0.422562 0.434920 0.8 0 0
0.455560 0.268788 0.443063 0.8 0 0
0.340966 0.188862 0.442181 0.8 0 0
0.487001 0.415759 0.434134 0.8 0 0
0.591831 0.126864 0.415772 0.8 0 0
0.345908 0.760207 0.451114 0.8 0 0
0.575517 0.081193 0.488636 0.8 0 0
0.609739 0.221876 0.393853 0.8 0 0
0.343850 0.778305 0.455067 0.8 0 0
0.238826 0.687128 0.221683 0.8 0 0
0.591005 0.202235 0.380518 0.8 0 0
0.556128 0.268669 0.389996 0.8 0 0
0.444987 0.530795 0.468269 0.8 0 0
0.364108 0.268839 0.417872 0.8 0 0
0.413742 0.268795 0.410162 0.8 0 0
0.543927 0.926785 0.625485 0.8 0 0
0.349911 0.210887 0.493137 0.8 0 0
0.466940 0.241948 0.427103 0.8 0 0
0.387555 0.268879 0.490597 0.8 0 0
0.395822 0.602140 0.396639 0.8 0 0
0.575379 0.268649 0.384088 0.8 0 0
0.484464 0.243369 0.521171 0.8 0 0
0.543703 0.025068 0.418585 0.8 0 0
0.198969 0.734034 0.201170 0.8 0 0
0.572329 0.202963 0.523165 0.8 0 0
0.650598 0.596168 0.494626 0.8 0 0
0.472102 0.398586 0.529757 0.8 0 0
0.466051 0.306748 0.430777 0.8 0 0
0.534190 0.268688 0.393143 0.8 0 0
0.504943 0.353090 0.443986 0.8 0 0
0.418387 0.611531 0.360905 0.8 0 0
0.515724 0.025047 0.392915 0.8 0 0
0.432559 0.432933 0.402498 0.8 0 0
0.477200 0.747624 0.437319 0.8 0 0
0.526543 0.268719 0.424849 0.8 0 0
0.527137 0.618154 0.394747 0.8 0 0
0.600897 0.772716 0.359004 0.8 0 0
0.539256 0.025035 0.377020 0.8 0 0
0.631774 0.570766 0.522991 0.8 0 0
0.341074 0.678124 0.432282 0.8 0 0
0.480125 0.221802 0.298291 0.8 0 0
0.445340 0.330386 0.397500 0.8 0 0
0.656418 0.694039 0.398258 0.8 0 0
0.448067 0.268764 0.404348 0.8 0 0
0.613749 0.266864 0.502961 0.8 0 0
0.368518 0.282760 0.333006 0.8 0 0
0.441184 0.193227 0.309751 0.8 0 0
0.401542 0.261187 0.566430 0.8 0 0
0.505381 0.258991 0.566009 0.8 0 0
0.594118 0.202193 0.386614 0.8 0 0
0.481161 0.235683 0.443718 0.8 0 0
0.471098 0.243239 0.339119 0.8 0 0
0.506980 0.277317 0.453812 0.8 0 0
0.789579 0.581524 0.662212 0.8 0 0
0.539032 0.243313 0.503488 0.8 0 0
0.446004 0.255014 0.567710 0.8 0 0
0.360832 0.091048 0.399022 0.8 0 0
0.625067 0.362061 0.521260 0.8 0 0
0.320305 0.705909 0.695684 0.8 0 0
0.350223 0.221799 0.528029 0.8 0 0
0.599102 0.243220 0.444847 0.8 0 0
0.468962 0.789919 0.134464 0.8 0 0
0.353650 0.111192 0.462196 0.8 0 0
0.357715 0.652584 0.636600 0.8 0 0
0.558127 0.525079 0.471507 0.8 0 0
0.514227 0.763484 0.480877 0.8 0 0
0.301799 0.911794 0.500575 0.8 0 0
0.617559 0.422409 0.533853 0.8 0 0
0.621767 0.269409 0.480227 0.8 0 0
0.432724 0.430493 0.401607 0.8 0 0
0.419954 0.312908 0.441359 0.8 0 0
0.380405 0.393834 0.416672 0.8 0 0
0.460199 0.314326 0.414103 0.8 0 0
0.580034 0.643731 0.308371 0.8 0 0
0.424805 0.268777 0.398076 0.8 0 0
0.578538 0.243285 0.505748 0.8 0 0
0.432915 0.831241 0.261104 0.8 0 0
0.351530 0.246412 0.353805 0.8 0 0
0.436220 0.386186 0.278803 0.8 0 0
0.372895 0.777696 0.351476 0.8 0 0
0.565802 0.130040 0.515574 0.8 0 0
0.351515 0.243413 0.444586 0.8 0 0
0.353586 0.738413 0.477698 0.8 0 0
0.474509 0.383059 0.493726 0.8 0 0
0.427301 0.756727 0.416478 0.8 0 0
0.713887 0.788612 0.332628 0.8 0 0
0.511152 0.248213 0.564288 0.8 0 0
0.423970 0.247505 0.298158 0.8 0 0
0.320079 0.244733 0.410603 0.8 0 0
0.531516 0.153183 0.547806 0.8 0 0
0.309562 0.383749 0.416149 0.8 0 0
0.392130 0.191469 0.333459 0.8 0 0
0.493231 0.444455 0.435180 0.8 0 0
0.147422 0.699045 0.398874 0.8 0 0
0.351326 0.115084 0.429953 0.8 0 0
0.432246 0.424284 0.445034 0.8 0 0
0.479786 0.708811 0.202313 0.8 0 0
0.697150 0.298690 0.594012 0.8 0 0
0.464317 0.294929 0.415526 0.8 0 0
0.204603 0.455861 0.683280 0.8 0 0
0.583132 0.254583 0.340230 0.8 0 0
0.437636 0.444138 0.411583 0.8 0 0
0.436809 0.025063 0.413988 0.8 0 0
0.558053 0.474720 0.468678 0.8 0 0
0.432885 0.268889 0.552186 0.8 0 0
0.348572 0.503653 0.415748 0.8 0 0
0.526803 0.268667 0.358843 0.8 0 0
0.585415 0.658192 0.300896 0.8 0 0
0.445731 0.243250 0.329139 0.8 0 0
0.709364 0.673526 0.512823 0.8 0 0
0.432170 0.546016 0.446915 0.8 0 0
0.544497 0.276044 0.298975 0.8 0 0
0.572032 0.159970 0.514384 0.8 0 0
0.577892 0.160034 0.506635 0.8 0 0
0.667049 0.309286 0.568147 0.8 0 0
0.389800 0.521321 0.479549 0.8 0 0
0.508551 0.232821 0.285149 0.8 0 0
0.379535 0.397539 0.418596 0.8 0 0
0.537777 0.421660 0.430322 0.8 0 0
0.506882 0.268812 0.524751 0.8 0 0
0.470102 0.324466 0.402291 0.8 0 0
0.435920 0.304111 0.440619 0.8 0 0
0.354850 0.221835 0.342169 0.8 0 0
0.507707 0.285024 0.284844 0.8 0 0
0.616596 0.790926 0.357161 0.8 0 0
0.510172 0.370109 0.450610 0.8 0 0
0.454306 0.470326 0.384905 0.8 0 0
0.435876 0.550113 0.464049 0.8 0 0
0.198143 0.732471 0.188593 0.8 0 0
0.622918 0.647112 0.398770 0.8 0 0
0.508345 0.362253 0.449363 0.8 0 0
0.254706 0.804177 0.595368 0.8 0 0
0.403649 0.253085 0.307329 0.8 0 0
0.456123 0.263214 0.431808 0.8 0 0
0.368696 0.220064 0.524448 0.8 0 0
0.329788 0.257528 0.376069 0.8 0 0
0.432402 0.268746 0.365726 0.8 0 0
0.583445 0.221982 0.530281 0.8 0 0
0.275080 0.479972 0.522566 0.8 0 0
0.567856 0.196317 0.527172 0.8 0 0
0.387319 0.268839 0.440544 0.8 0 0
0.424861 0.025023 0.361296 0.8 0 0
0.434227 0.927981 0.428101 0.8 0 0
0.460783 0.282872 0.421339 0.8 0 0
0.605447 0.221941 0.477163 0.8 0 0
0.597877 0.268713 0.488906 0.8 0 0
0.517946 0.256263 0.577968 0.8 0 0
0.577409 0.265589 0.352401 0.8 0 0
0.438954 0.370996 0.586539 0.8 0 0
0.605329 0.234142 0.356317 0.8 0 0
0.354870 0.769913 0.333813 0.8 0 0
0.455801 0.310008 0.417019 0.8 0 0
0.473136 0.799242 0.539581 0.8 0 0
0.600238 0.361784 0.488439 0.8 0 0
0.461657 0.222160 0.422458 0.8 0 0
0.367697 0.246011 0.352023 0.8 0 0
0.608873 0.256188 0.449904 0.8 0 0
0.415236 0.483163 0.424958 0.8 0 0
