0.141126 0.078955 0.153199 0.8 0 0
0.222951 0.124666 0.645132 0.8 0 0
0.261088 0.128271 0.701162 0.8 0 0
0.206259 0.039171 0.374000 0.8 0 0
0.420361 0.098538 0.163984 0.8 0 0
0.383183 0.039070 0.926972 0.8 0 0
0.287627 0.041458 0.633722 0.8 0 0
0.291147 0.078894 0.480775 0.8 0 0
0.115139 0.108243 0.116763 0.8 0 0
0.271653 0.144652 0.627882 0.8 0 0
0.424609 0.049211 0.149769 0.8 0 0
0.174189 0.039171 0.172499 0.8 0 0
0.087376 0.061583 0.741009 0.8 0 0
0.413364 0.112948 0.131408 0.8 0 0
0.081956 0.096049 0.106333 0.8 0 0
0.037726 0.068805 0.732975 0.8 0 0
0.290130 0.118683 0.448254 0.8 0 0
0.042530 0.113619 0.067918 0.8 0 0
0.102929 0.109732 0.466686 0.8 0 0
0.112369 0.115126 0.153430 0.8 0 0
0.183972 0.109027 0.413462 0.8 0 0
0.097012 0.068282 0.785691 0.8 0 0
0.281701 0.037221 0.639514 0.8 0 0
0.213586 0.159459 0.652235 0.8 0 0
0.389028 0.042911 0.054938 0.8 0 0
0.135992 0.185860 0.088061 0.8 0 0
0.078698 0.086591 0.448521 0.8 0 0
0.224880 0.098722 0.054918 0.8 0 0
0.252103 0.153403 0.284177 0.8 0 0
0.406702 0.115950 0.772598 0.8 0 0
0.097011 0.137378 0.145107 0.8 0 0
0.278204 0.137508 0.577572 0.8 0 0
0.179156 0.115508 0.543232 0.8 0 0
0.353254 0.061095 0.775259 0.8 0 0
0.228503 0.037349 0.518838 0.8 0 0
0.290495 0.070759 0.180618 0.8 0 0
0.198451 0.110681 0.420411 0.8 0 0
0.025966 0.113146 0.143863 0.8 0 0
0.279415 0.074038 0.725875 0.8 0 0
0.409709 0.055930 0.697939 0.8 0 0
0.273370 0.133373 0.680698 0.8 0 0
0.196177 0.037427 0.445048 0.8 0 0
0.181832 0.138467 0.505177 0.8 0 0
0.116822 0.057554 0.121100 0.8 0 0
0.106073 0.042550 0.885082 0.8 0 0
0.382580 0.103989 0.367925 0.8 0 0
0.199235 0.159758 0.626825 0.8 0 0
0.181756 0.084207 0.690082 0.8 0 0
0.125535 0.110502 0.354802 0.8 0 0
0.279328 0.045336 0.466027 0.8 0 0
0.093999 0.108463 0.756948 0.8 0 0
0.179186 0.066678 0.484792 0.8 0 0
0.193904 0.076798 0.815346 0.8 0 0
0.382456 0.080587 0.362497 0.8 0 0
0.252183 0.093226 0.433471 0.8 0 0
0.043092 0.091826 0.780282 0.8 0 0
0.071199 0.120868 0.104214 0.8 0 0
0.112232 0.127483 0.108729 0.8 0 0
0.086251 0.110502 0.385358 0.8 0 0
0.429686 0.116219 0.734525 0.8 0 0
0.181859 0.041021 0.429976 0.8 0 0
0.428909 0.087003 0.723090 0.8 0 0
0.271837 0.067873 0.616991 0.8 0 0
0.232159 0.106690 0.787721 0.8 0 0
0.285668 0.099978 0.576693 0.8 0 0
0.350297 0.112672 0.788377 0.8 0 0
0.216339 0.037066 0.786027 0.8 0 0
0.411802 0.051870 0.104061 0.8 0 0
0.277489 0.045790 0.153361 0.8 0 0
0.311852 0.109731 0.285062 0.8 0 0
0.138687 0.129662 0.050007 0.8 0 0
0.287223 0.110681 0.260558 0.8 0 0
0.219085 0.080850 0.891359 0.8 0 0
0.236227 0.069320 0.642500 0.8 0 0
0.355034 0.033517 0.735177 0.8 0 0
0.342030 0.039070 0.920450 0.8 0 0
0.290495 0.078170 0.319934 0.8 0 0
0.050430 0.114595 0.159871 0.8 0 0
0.392622 0.046496 0.769797 0.8 0 0
0.211167 0.195258 0.423295 0.8 0 0
0.361086 0.064463 0.114105 0.8 0 0
0.180137 0.087727 0.151756 0.8 0 0
0.214713 0.037153 0.704174 0.8 0 0
0.224806 0.109023 0.408025 0.8 0 0
0.401995 0.085717 0.867594 0.8 0 0
0.275985 0.039167 0.573049 0.8 0 0
0.396956 0.048288 0.876282 0.8 0 0
0.109871 0.075876 0.531601 0.8 0 0
0.205506 0.087418 0.865015 0.8 0 0
0.399601 0.039070 0.943676 0.8 0 0
0.244297 0.170150 0.288499 0.8 0 0
0.117392 0.044822 0.107124 0.8 0 0
0.295650 0.039070 0.942011 0.8 0 0
0.137873 0.109732 0.423310 0.8 0 0
0.115161 0.127930 0.781535 0.8 0 0
0.140065 0.109732 0.343131 0.8 0 0
0.139648 0.162678 0.057706 0.8 0 0
0.279521 0.084619 0.594199 0.8 0 0
0.093999 0.116898 0.729913 0.8 0 0
0.172806 0.058795 0.252609 0.8 0 0
0.409537 0.085616 0.164413 0.8 0 0
0.373525 0.078276 0.133628 0.8 0 0
0.192703 0.053441 0.813440 0.8 0 0
0.068663 0.096920 0.093626 0.8 0 0
0.198939 0.043941 0.915895 0.8 0 0
0.284420 0.109583 0.491062 0.8 0 0
0.072835 0.088487 0.778052 0.8 0 0
0.366676 0.110698 0.473655 0.8 0 0
0.391541 0.076265 0.092774 0.8 0 0
0.102676 0.110502 0.390416 0.8 0 0
0.260346 0.050754 0.881104 0.8 0 0
0.186525 0.120910 0.372414 0.8 0 0
0.222070 0.067565 0.945156 0.8 0 0
0.240613 0.177633 0.040141 0.8 0 0
0.201340 0.039307 0.441329 0.8 0 0
0.121618 0.039070 0.929847 0.8 0 0
0.033338 0.068763 0.160879 0.8 0 0
0.101278 0.155602 0.750671 0.8 0 0
0.215123 0.109023 0.408503 0.8 0 0
0.177072 0.076527 0.637411 0.8 0 0
0.208199 0.110681 0.280695 0.8 0 0
0.181139 0.040520 0.670463 0.8 0 0
0.081590 0.082042 0.321811 0.8 0 0
0.333792 0.055185 0.196323 0.8 0 0
0.349171 0.068514 0.151487 0.8 0 0
0.101127 0.040934 0.503586 0.8 0 0
0.368444 0.082743 0.132869 0.8 0 0
0.362597 0.086771 0.138626 0.8 0 0
0.095392 0.097104 0.713238 0.8 0 0
0.358550 0.128568 0.093369 0.8 0 0
0.275351 0.070846 0.433471 0.8 0 0
0.051670 0.103486 0.755039 0.8 0 0
0.222966 0.121302 0.432378 0.8 0 0
0.211101 0.042871 0.151755 0.8 0 0
0.286517 0.126753 0.053132 0.8 0 0
0.284791 0.039171 0.336415 0.8 0 0
0.220194 0.187562 0.350859 0.8 0 0
0.155538 0.099533 0.124821 0.8 0 0
0.284999 0.105146 0.434000 0.8 0 0
0.282391 0.052371 0.496852 0.8 0 0
0.273947 0.144422 0.384840 0.8 0 0
0.064231 0.058046 0.848320 0.8 0 0
0.351691 0.058190 0.245555 0.8 0 0
0.072835 0.071749 0.754095 0.8 0 0
0.401995 0.050996 0.846771 0.8 0 0
0.392625 0.053671 0.767103 0.8 0 0
0.426899 0.061367 0.727723 0.8 0 0
0.121148 0.039070 0.904378 0.8 0 0
0.237702 0.133443 0.070857 0.8 0 0
0.206813 0.043651 0.604004 0.8 0 0
0.226017 0.037371 0.497605 0.8 0 0
0.071196 0.137711 0.078471 0.8 0 0
0.322111 0.046835 0.883702 0.8 0 0
0.430855 0.110318 0.719127 0.8 0 0
0.064252 0.070794 0.900955 0.8 0 0
0.408501 0.100625 0.075454 0.8 0 0
0.384648 0.097230 0.458491 0.8 0 0
0.258610 0.133490 0.680746 0.8 0 0
0.351543 0.067057 0.784758 0.8 0 0
0.288219 0.092522 0.781864 0.8 0 0
0.177025 0.069599 0.512828 0.8 0 0
0.299654 0.036449 0.151755 0.8 0 0
0.118895 0.109731 0.267587 0.8 0 0
0.135992 0.137884 0.053886 0.8 0 0
0.320836 0.171154 0.080106 0.8 0 0
0.176184 0.068816 0.649375 0.8 0 0
0.315857 0.110502 0.345314 0.8 0 0
0.213738 0.128394 0.434000 0.8 0 0
0.181429 0.128467 0.587398 0.8 0 0
0.369784 0.088596 0.818529 0.8 0 0
0.320836 0.152494 0.029524 0.8 0 0
0.392622 0.120438 0.771637 0.8 0 0
0.286314 0.110114 0.533761 0.8 0 0
0.056689 0.141243 0.793800 0.8 0 0
0.345639 0.126605 0.131379 0.8 0 0
0.214156 0.140473 0.644644 0.8 0 0
0.265701 0.149077 0.687878 0.8 0 0
0.151780 0.109732 0.414189 0.8 0 0
0.147328 0.110502 0.356957 0.8 0 0
0.428733 0.127562 0.110847 0.8 0 0
0.072833 0.026585 0.742550 0.8 0 0
0.095024 0.134064 0.704903 0.8 0 0
0.180497 0.069920 0.558361 0.8 0 0
0.201989 0.037010 0.838372 0.8 0 0
0.178701 0.081487 0.469807 0.8 0 0
0.270235 0.054563 0.811707 0.8 0 0
0.396785 0.088422 0.818505 0.8 0 0
0.384531 0.109799 0.444114 0.8 0 0
0.368393 0.072521 0.276647 0.8 0 0
0.288862 0.086338 0.555948 0.8 0 0
0.094296 0.108740 0.098922 0.8 0 0
0.230251 0.101762 0.151756 0.8 0 0
0.401704 0.090681 0.687855 0.8 0 0
0.373284 0.111683 0.129820 0.8 0 0
0.177025 0.109794 0.567461 0.8 0 0
0.072835 0.118541 0.810449 0.8 0 0
0.350297 0.075606 0.790330 0.8 0 0
0.395511 0.144933 0.063863 0.8 0 0
0.231533 0.047032 0.642553 0.8 0 0
0.320836 0.106238 0.048439 0.8 0 0
0.432394 0.039485 0.771117 0.8 0 0
0.200859 0.088763 0.151756 0.8 0 0
0.177237 0.096584 0.618103 0.8 0 0
0.244694 0.127159 0.433471 0.8 0 0
0.177203 0.127699 0.460100 0.8 0 0
0.278610 0.110681 0.221735 0.8 0 0
0.280844 0.039171 0.239791 0.8 0 0
0.288362 0.104847 0.462741 0.8 0 0
0.031204 0.058137 0.790394 0.8 0 0
0.291415 0.039934 0.446441 0.8 0 0
0.194774 0.037287 0.577569 0.8 0 0
0.409135 0.025361 0.102271 0.8 0 0
0.356648 0.110306 0.767381 0.8 0 0
0.263212 0.039193 0.549357 0.8 0 0
0.414641 0.094295 0.136871 0.8 0 0
0.429572 0.055670 0.117524 0.8 0 0
0.052998 0.053384 0.088498 0.8 0 0
0.057740 0.101637 0.727210 0.8 0 0
0.193199 0.043651 0.487072 0.8 0 0
0.392625 0.147171 0.725132 0.8 0 0
0.155598 0.042034 0.890069 0.8 0 0
0.072833 0.100997 0.775480 0.8 0 0
0.286982 0.039796 0.445668 0.8 0 0
0.433249 0.056542 0.119792 0.8 0 0
0.385033 0.092363 0.475359 0.8 0 0
0.220301 0.160607 0.646971 0.8 0 0
0.384722 0.109732 0.436907 0.8 0 0
0.349549 0.094206 0.090916 0.8 0 0
0.115162 0.128460 0.727897 0.8 0 0
0.061061 0.046143 0.705479 0.8 0 0
0.086642 0.099556 0.290213 0.8 0 0
0.141641 0.050436 0.876790 0.8 0 0
0.281068 0.039302 0.446227 0.8 0 0
0.125307 0.110694 0.479234 0.8 0 0
0.213017 0.046720 0.141379 0.8 0 0
0.094295 0.073012 0.129094 0.8 0 0
0.421682 0.084736 0.164295 0.8 0 0
0.171585 0.039070 0.947425 0.8 0 0
0.248554 0.139798 0.647847 0.8 0 0
0.259025 0.039171 0.351581 0.8 0 0
0.143053 0.191958 0.030707 0.8 0 0
0.401995 0.069099 0.871373 0.8 0 0
0.072833 0.107978 0.808081 0.8 0 0
0.288541 0.109731 0.312817 0.8 0 0
0.401003 0.078968 0.689373 0.8 0 0
0.368768 0.039724 0.277345 0.8 0 0
0.064252 0.068723 0.880720 0.8 0 0
0.064414 0.085140 0.106510 0.8 0 0
0.283362 0.094559 0.560579 0.8 0 0
0.141728 0.110501 0.171280 0.8 0 0
0.353634 0.061947 0.247684 0.8 0 0
0.247811 0.108990 0.362096 0.8 0 0
0.239743 0.045336 0.559509 0.8 0 0
0.265977 0.043651 0.600395 0.8 0 0
0.279718 0.067303 0.434000 0.8 0 0
0.078115 0.036719 0.474032 0.8 0 0
0.391541 0.093549 0.147634 0.8 0 0
0.230872 0.046804 0.691056 0.8 0 0
0.136580 0.110692 0.493451 0.8 0 0
0.289943 0.049854 0.574952 0.8 0 0
0.071195 0.049483 0.092830 0.8 0 0
0.242593 0.110681 0.352788 0.8 0 0
0.290368 0.110502 0.456156 0.8 0 0
0.221697 0.068202 0.942086 0.8 0 0
0.128609 0.109732 0.358732 0.8 0 0
0.177025 0.092023 0.485539 0.8 0 0
0.278263 0.137741 0.625751 0.8 0 0
0.175409 0.104672 0.589935 0.8 0 0
0.429172 0.040118 0.140623 0.8 0 0
0.026846 0.120970 0.082842 0.8 0 0
0.184874 0.139926 0.606110 0.8 0 0
0.174330 0.081575 0.586755 0.8 0 0
0.107609 0.068219 0.754422 0.8 0 0
0.230180 0.043651 0.439458 0.8 0 0
0.177743 0.058204 0.442427 0.8 0 0
0.275341 0.125682 0.611070 0.8 0 0
0.029087 0.147051 0.092967 0.8 0 0
0.111028 0.142278 0.779669 0.8 0 0
0.391541 0.145793 0.126704 0.8 0 0
0.253932 0.088137 0.638673 0.8 0 0
0.201967 0.039171 0.216380 0.8 0 0
0.201926 0.092414 0.845491 0.8 0 0
0.381834 0.046141 0.335248 0.8 0 0
0.265350 0.109005 0.381922 0.8 0 0
0.049458 0.154147 0.739823 0.8 0 0
0.272631 0.115152 0.751042 0.8 0 0
0.032735 0.062717 0.729518 0.8 0 0
0.263607 0.142687 0.328443 0.8 0 0
0.175697 0.097835 0.563596 0.8 0 0
0.216808 0.115820 0.751614 0.8 0 0
0.426057 0.134215 0.705032 0.8 0 0
0.079611 0.048200 0.371651 0.8 0 0
0.255877 0.108202 0.841895 0.8 0 0
0.219230 0.163456 0.261224 0.8 0 0
0.170817 0.070759 0.484153 0.8 0 0
0.096734 0.075533 0.271426 0.8 0 0
0.071198 0.082150 0.091431 0.8 0 0
0.178707 0.128275 0.528295 0.8 0 0
0.396491 0.106802 0.162875 0.8 0 0
0.059050 0.147427 0.785335 0.8 0 0
0.270317 0.162019 0.058584 0.8 0 0
0.071199 0.138900 0.111859 0.8 0 0
0.156727 0.110501 0.233749 0.8 0 0
0.266083 0.060595 0.840448 0.8 0 0
0.232902 0.039200 0.542018 0.8 0 0
0.220344 0.208692 0.420830 0.8 0 0
0.095673 0.054404 0.085304 0.8 0 0
0.229437 0.037330 0.536970 0.8 0 0
0.229235 0.099952 0.152634 0.8 0 0
0.246177 0.113775 0.691056 0.8 0 0
0.193531 0.043651 0.589877 0.8 0 0
0.371459 0.122088 0.754837 0.8 0 0
0.314968 0.129951 0.056656 0.8 0 0
0.140915 0.090144 0.151959 0.8 0 0
0.284788 0.043971 0.648074 0.8 0 0
0.249912 0.176962 0.334914 0.8 0 0
0.111929 0.077970 0.243138 0.8 0 0
0.097569 0.062750 0.694528 0.8 0 0
0.398234 0.072790 0.816290 0.8 0 0
0.272215 0.146191 0.622207 0.8 0 0
0.226226 0.125018 0.433471 0.8 0 0
0.214245 0.085043 0.643750 0.8 0 0
0.112834 0.075418 0.096840 0.8 0 0
0.207796 0.107632 0.153199 0.8 0 0
0.362169 0.031710 0.127305 0.8 0 0
0.281978 0.043651 0.581241 0.8 0 0
0.273881 0.130285 0.707890 0.8 0 0
0.184717 0.138387 0.624120 0.8 0 0
0.188868 0.110681 0.226930 0.8 0 0
0.177788 0.058269 0.674452 0.8 0 0
0.064231 0.081965 0.856043 0.8 0 0
0.426086 0.049369 0.803606 0.8 0 0
0.270562 0.043651 0.505571 0.8 0 0
0.109228 0.062990 0.476771 0.8 0 0
0.101730 0.128611 0.763728 0.8 0 0
0.348497 0.039070 0.899582 0.8 0 0
0.197864 0.077602 0.844065 0.8 0 0
0.350288 0.059083 0.769898 0.8 0 0
0.194382 0.045336 0.613293 0.8 0 0
0.391544 0.105022 0.102077 0.8 0 0
0.277544 0.069429 0.745544 0.8 0 0
0.245057 0.039174 0.566802 0.8 0 0
0.071196 0.133967 0.139941 0.8 0 0
0.175680 0.070725 0.602796 0.8 0 0
0.271797 0.057997 0.798150 0.8 0 0
0.079883 0.057458 0.396584 0.8 0 0
0.290495 0.046803 0.381826 0.8 0 0
0.352926 0.129326 0.094464 0.8 0 0
0.178297 0.137888 0.428892 0.8 0 0
0.094295 0.056795 0.093155 0.8 0 0
0.433490 0.101896 0.703313 0.8 0 0
0.112647 0.119544 0.735038 0.8 0 0
0.083742 0.028314 0.772935 0.8 0 0
0.238770 0.110117 0.062521 0.8 0 0
0.290495 0.068605 0.276274 0.8 0 0
0.217012 0.127581 0.049194 0.8 0 0
0.284089 0.037678 0.635165 0.8 0 0
0.409280 0.108504 0.816147 0.8 0 0
0.315849 0.107499 0.151756 0.8 0 0
0.173228 0.106493 0.473356 0.8 0 0
0.414641 0.090919 0.087713 0.8 0 0
0.186233 0.133582 0.659323 0.8 0 0
0.094347 0.103631 0.136581 0.8 0 0
0.395544 0.039150 0.928451 0.8 0 0
0.185267 0.125669 0.680728 0.8 0 0
0.192134 0.075493 0.802038 0.8 0 0
0.319302 0.045065 0.887187 0.8 0 0
0.290495 0.090882 0.263785 0.8 0 0
0.208487 0.082955 0.076728 0.8 0 0
0.240824 0.122082 0.725984 0.8 0 0
0.331211 0.109445 0.189208 0.8 0 0
0.288825 0.076750 0.494298 0.8 0 0
0.165343 0.110502 0.421441 0.8 0 0
0.275966 0.062747 0.600324 0.8 0 0
0.262303 0.151892 0.638317 0.8 0 0
0.197276 0.110681 0.195694 0.8 0 0
0.228334 0.110681 0.242189 0.8 0 0
0.203677 0.043130 0.951916 0.8 0 0
0.289227 0.039070 0.922191 0.8 0 0
0.089320 0.074777 0.772155 0.8 0 0
0.285952 0.080545 0.651145 0.8 0 0
0.285951 0.096063 0.439293 0.8 0 0
0.107242 0.147518 0.721469 0.8 0 0
0.289106 0.084077 0.470621 0.8 0 0
0.176798 0.096452 0.642199 0.8 0 0
0.216134 0.106999 0.786480 0.8 0 0
0.047390 0.081287 0.740051 0.8 0 0
0.392622 0.046758 0.728214 0.8 0 0
0.261435 0.110681 0.265334 0.8 0 0
0.133295 0.039653 0.938661 0.8 0 0
0.241619 0.097211 0.433321 0.8 0 0
0.178754 0.111957 0.640308 0.8 0 0
0.220993 0.119467 0.736476 0.8 0 0
0.258178 0.128765 0.699694 0.8 0 0
0.275166 0.129985 0.699049 0.8 0 0
0.308568 0.109732 0.470700 0.8 0 0
0.385231 0.102988 0.447220 0.8 0 0
0.289133 0.086372 0.536527 0.8 0 0
0.171548 0.098306 0.466651 0.8 0 0
0.181969 0.120752 0.683295 0.8 0 0
0.064252 0.072873 0.869172 0.8 0 0
0.182618 0.111717 0.593052 0.8 0 0
0.368444 0.057662 0.113697 0.8 0 0
0.292274 0.081368 0.432699 0.8 0 0
0.184260 0.098237 0.433321 0.8 0 0
0.246559 0.043651 0.479765 0.8 0 0
0.311609 0.110501 0.194065 0.8 0 0
0.071196 0.135578 0.146442 0.8 0 0
0.430286 0.116369 0.128774 0.8 0 0
0.246886 0.044691 0.950797 0.8 0 0
0.261458 0.178055 0.043098 0.8 0 0
0.044705 0.122107 0.775145 0.8 0 0
0.345347 0.126245 0.118775 0.8 0 0
0.083315 0.040922 0.306610 0.8 0 0
0.187481 0.094784 0.756753 0.8 0 0
0.238494 0.037074 0.778413 0.8 0 0
0.355114 0.142668 0.783295 0.8 0 0
0.097178 0.063153 0.781733 0.8 0 0
0.356883 0.154237 0.086787 0.8 0 0
0.295911 0.043350 0.151755 0.8 0 0
0.428609 0.068220 0.160653 0.8 0 0
0.178194 0.109326 0.455213 0.8 0 0
0.434510 0.036708 0.111865 0.8 0 0
0.219171 0.168251 0.053193 0.8 0 0
0.080182 0.095186 0.346619 0.8 0 0
0.392625 0.095910 0.698315 0.8 0 0
0.177025 0.082771 0.500640 0.8 0 0
0.122049 0.070170 0.100883 0.8 0 0
0.289539 0.067059 0.483926 0.8 0 0
0.210736 0.046578 0.144991 0.8 0 0
0.169966 0.055958 0.478397 0.8 0 0
0.419639 0.120854 0.074773 0.8 0 0
0.196255 0.064530 0.836278 0.8 0 0
0.197685 0.096185 0.434000 0.8 0 0
0.231079 0.073060 0.923114 0.8 0 0
0.408276 0.102318 0.716725 0.8 0 0
0.196602 0.058094 0.721232 0.8 0 0
0.215755 0.039171 0.176420 0.8 0 0
0.165093 0.103379 0.490469 0.8 0 0
0.254646 0.110681 0.256688 0.8 0 0
0.282116 0.112406 0.509379 0.8 0 0
0.072833 0.128656 0.785393 0.8 0 0
0.092351 0.118371 0.124395 0.8 0 0
0.197288 0.043651 0.512965 0.8 0 0
0.284866 0.122989 0.473083 0.8 0 0
0.039723 0.026120 0.761633 0.8 0 0
0.089320 0.099220 0.728560 0.8 0 0
0.291151 0.109732 0.358343 0.8 0 0
0.358516 0.106376 0.528370 0.8 0 0
0.136095 0.101270 0.169313 0.8 0 0
0.135992 0.166277 0.034971 0.8 0 0
0.205735 0.071603 0.153364 0.8 0 0
0.103297 0.119929 0.811331 0.8 0 0
0.413788 0.111412 0.720883 0.8 0 0
0.385770 0.079230 0.470819 0.8 0 0
0.064231 0.074733 0.893079 0.8 0 0
0.052903 0.116142 0.782063 0.8 0 0
0.203687 0.042076 0.153360 0.8 0 0
0.291093 0.097220 0.450316 0.8 0 0
0.384695 0.045798 0.423720 0.8 0 0
0.391541 0.069744 0.096249 0.8 0 0
0.092253 0.151561 0.077375 0.8 0 0
0.401995 0.034711 0.837775 0.8 0 0
0.083056 0.080335 0.304388 0.8 0 0
0.174540 0.110278 0.551453 0.8 0 0
0.180175 0.135807 0.432435 0.8 0 0
0.408501 0.110774 0.095557 0.8 0 0
0.189802 0.045336 0.582524 0.8 0 0
0.247832 0.045336 0.488362 0.8 0 0
0.253347 0.087080 0.082590 0.8 0 0
0.220750 0.043651 0.603205 0.8 0 0
0.286096 0.060545 0.503250 0.8 0 0
0.363851 0.079339 0.266704 0.8 0 0
0.117393 0.134166 0.089952 0.8 0 0
0.251252 0.170478 0.628716 0.8 0 0
0.290495 0.061374 0.288876 0.8 0 0
0.291849 0.078304 0.511412 0.8 0 0
0.252863 0.156944 0.641948 0.8 0 0
0.105677 0.128132 0.743241 0.8 0 0
0.288795 0.109731 0.271970 0.8 0 0
0.371459 0.070120 0.747753 0.8 0 0
0.039603 0.035454 0.788282 0.8 0 0
0.406896 0.143300 0.715464 0.8 0 0
0.065155 0.108662 0.816068 0.8 0 0
0.175305 0.047318 0.518027 0.8 0 0
0.413788 0.060716 0.775359 0.8 0 0
0.263653 0.117218 0.794625 0.8 0 0
0.208487 0.052074 0.114336 0.8 0 0
0.358455 0.107155 0.716417 0.8 0 0
0.141951 0.100132 0.076576 0.8 0 0
0.222287 0.097488 0.099929 0.8 0 0
0.287886 0.098431 0.492920 0.8 0 0
0.217611 0.037324 0.542449 0.8 0 0
0.419523 0.055758 0.771860 0.8 0 0
0.406702 0.071465 0.747895 0.8 0 0
0.269609 0.151076 0.373017 0.8 0 0
0.184666 0.039171 0.231785 0.8 0 0
0.077724 0.069644 0.454322 0.8 0 0
0.381707 0.110502 0.427979 0.8 0 0
0.177025 0.110381 0.554165 0.8 0 0
0.434792 0.115065 0.794637 0.8 0 0
0.128380 0.038233 0.200109 0.8 0 0
0.072836 0.134835 0.775254 0.8 0 0
0.286106 0.075048 0.435343 0.8 0 0
0.290495 0.067016 0.289449 0.8 0 0
0.230753 0.153736 0.079356 0.8 0 0
0.302740 0.159351 0.066650 0.8 0 0
0.418719 0.032847 0.783729 0.8 0 0
0.259057 0.091620 0.153366 0.8 0 0
0.071196 0.138658 0.121344 0.8 0 0
0.044295 0.106744 0.717610 0.8 0 0
0.372118 0.036053 0.476103 0.8 0 0
0.076976 0.139034 0.142960 0.8 0 0
0.087970 0.110502 0.336844 0.8 0 0
0.367192 0.083405 0.272923 0.8 0 0
0.323385 0.130742 0.042677 0.8 0 0
0.320836 0.125205 0.035308 0.8 0 0
0.365852 0.073114 0.816426 0.8 0 0
0.427589 0.084761 0.138357 0.8 0 0
0.391541 0.129377 0.129710 0.8 0 0
0.383968 0.055428 0.808282 0.8 0 0
0.183205 0.138007 0.518534 0.8 0 0
0.355962 0.125143 0.701812 0.8 0 0
0.250768 0.065682 0.151755 0.8 0 0
0.302259 0.103379 0.491980 0.8 0 0
0.144826 0.110502 0.408427 0.8 0 0
0.274392 0.039217 0.525952 0.8 0 0
0.290150 0.042351 0.433321 0.8 0 0
0.239318 0.045336 0.461002 0.8 0 0
0.226390 0.104602 0.434000 0.8 0 0
0.216415 0.037251 0.611452 0.8 0 0
0.391544 0.084806 0.133102 0.8 0 0
0.283028 0.110495 0.471896 0.8 0 0
0.392622 0.138735 0.764677 0.8 0 0
0.247370 0.052246 0.897315 0.8 0 0
0.201734 0.126753 0.068730 0.8 0 0
0.079116 0.056978 0.430220 0.8 0 0
0.181796 0.118544 0.395612 0.8 0 0
0.066919 0.066774 0.160043 0.8 0 0
0.187386 0.037393 0.477238 0.8 0 0
0.333313 0.080781 0.194411 0.8 0 0
0.216160 0.106140 0.642729 0.8 0 0
0.356844 0.155150 0.753894 0.8 0 0
0.318725 0.190490 0.034778 0.8 0 0
0.392625 0.076813 0.740087 0.8 0 0
0.357692 0.039070 0.943005 0.8 0 0
0.306052 0.100584 0.153199 0.8 0 0
0.206827 0.048919 0.897665 0.8 0 0
0.180372 0.129727 0.510301 0.8 0 0
0.178809 0.097694 0.518841 0.8 0 0
0.057739 0.061915 0.777105 0.8 0 0
0.383085 0.035975 0.368563 0.8 0 0
0.406702 0.094736 0.750117 0.8 0 0
0.433650 0.103520 0.703947 0.8 0 0
0.228031 0.135312 0.672924 0.8 0 0
0.273046 0.117127 0.620330 0.8 0 0
0.289659 0.102821 0.496129 0.8 0 0
0.198831 0.051150 0.434000 0.8 0 0
0.392625 0.046779 0.749239 0.8 0 0
0.135977 0.110692 0.499784 0.8 0 0
0.355883 0.111422 0.786668 0.8 0 0
0.125586 0.064914 0.214453 0.8 0 0
0.250773 0.068709 0.152634 0.8 0 0
0.371015 0.052762 0.745734 0.8 0 0
0.218002 0.082552 0.645189 0.8 0 0
0.237069 0.039171 0.382852 0.8 0 0
0.076773 0.041433 0.887773 0.8 0 0
0.034773 0.099836 0.810855 0.8 0 0
0.290495 0.057348 0.363705 0.8 0 0
0.352054 0.118993 0.776730 0.8 0 0
0.172485 0.041295 0.451290 0.8 0 0
0.290495 0.071673 0.306690 0.8 0 0
0.335809 0.109731 0.224038 0.8 0 0
0.089320 0.088469 0.780548 0.8 0 0
0.270301 0.058319 0.072002 0.8 0 0
0.242174 0.135269 0.665514 0.8 0 0
0.435938 0.141017 0.110605 0.8 0 0
0.380011 0.051529 0.473356 0.8 0 0
0.419058 0.042864 0.797897 0.8 0 0
0.283681 0.056756 0.524764 0.8 0 0
0.035681 0.144576 0.781124 0.8 0 0
0.255522 0.037257 0.605282 0.8 0 0
0.335642 0.057442 0.861532 0.8 0 0
0.169400 0.063542 0.447740 0.8 0 0
0.146684 0.110691 0.473518 0.8 0 0
0.027032 0.043154 0.121497 0.8 0 0
0.399253 0.030021 0.123289 0.8 0 0
0.286382 0.061011 0.613580 0.8 0 0
0.051670 0.078029 0.783499 0.8 0 0
0.064231 0.083646 0.846051 0.8 0 0
0.309906 0.110502 0.405847 0.8 0 0
0.290026 0.055394 0.562741 0.8 0 0
0.042273 0.052492 0.108700 0.8 0 0
0.250824 0.099934 0.114284 0.8 0 0
0.112011 0.062017 0.046434 0.8 0 0
0.392625 0.128522 0.802581 0.8 0 0
0.435960 0.124977 0.083575 0.8 0 0
0.176769 0.107456 0.447628 0.8 0 0
0.284818 0.126230 0.537959 0.8 0 0
0.408500 0.098750 0.126628 0.8 0 0
0.244778 0.105728 0.148286 0.8 0 0
0.183229 0.037397 0.473037 0.8 0 0
0.290495 0.094422 0.314971 0.8 0 0
0.277003 0.136780 0.596232 0.8 0 0
0.391544 0.126162 0.150232 0.8 0 0
0.392625 0.053291 0.738244 0.8 0 0
0.131879 0.101730 0.186141 0.8 0 0
0.182203 0.108919 0.153199 0.8 0 0
0.222319 0.097818 0.101867 0.8 0 0
0.079983 0.060132 0.355357 0.8 0 0
0.132525 0.109731 0.285400 0.8 0 0
0.135992 0.144418 0.071626 0.8 0 0
0.269262 0.109864 0.153199 0.8 0 0
0.102951 0.118411 0.725323 0.8 0 0
0.261140 0.101134 0.810003 0.8 0 0
0.297211 0.110501 0.187332 0.8 0 0
0.177163 0.125786 0.470055 0.8 0 0
0.392622 0.055732 0.727376 0.8 0 0
0.172806 0.091419 0.421274 0.8 0 0
0.281420 0.090519 0.151756 0.8 0 0
0.223485 0.039171 0.160657 0.8 0 0
0.072835 0.049246 0.785431 0.8 0 0
0.308436 0.039070 0.938556 0.8 0 0
0.044140 0.071942 0.066182 0.8 0 0
0.224624 0.104702 0.873794 0.8 0 0
0.048099 0.128369 0.106695 0.8 0 0
0.262675 0.081168 0.153199 0.8 0 0
0.257750 0.087440 0.434000 0.8 0 0
0.171946 0.110501 0.178384 0.8 0 0
0.349549 0.100943 0.089648 0.8 0 0
0.241371 0.109618 0.776489 0.8 0 0
0.280593 0.037939 0.690067 0.8 0 0
0.348649 0.038777 0.080347 0.8 0 0
0.112506 0.127958 0.111586 0.8 0 0
0.280245 0.131259 0.641352 0.8 0 0
0.300671 0.154940 0.075952 0.8 0 0
0.358889 0.154731 0.108707 0.8 0 0
0.408500 0.069731 0.110184 0.8 0 0
0.382846 0.072897 0.342737 0.8 0 0
0.112834 0.062549 0.094042 0.8 0 0
0.240696 0.110681 0.167568 0.8 0 0
0.368164 0.052042 0.151952 0.8 0 0
0.108182 0.110502 0.347615 0.8 0 0
0.213151 0.105987 0.640272 0.8 0 0
0.048098 0.067295 0.117768 0.8 0 0
0.216462 0.039125 0.613304 0.8 0 0
0.208487 0.093609 0.151896 0.8 0 0
0.291849 0.043331 0.477615 0.8 0 0
0.225036 0.045336 0.443461 0.8 0 0
0.406702 0.118610 0.771767 0.8 0 0
0.401995 0.077556 0.867051 0.8 0 0
0.089524 0.088851 0.688034 0.8 0 0
0.065693 0.032270 0.782342 0.8 0 0
0.110861 0.142174 0.725558 0.8 0 0
0.336096 0.110501 0.261505 0.8 0 0
0.384553 0.083818 0.758985 0.8 0 0
0.189884 0.045892 0.616858 0.8 0 0
0.078606 0.054653 0.452555 0.8 0 0
0.252180 0.190195 0.034932 0.8 0 0
0.177025 0.094378 0.476030 0.8 0 0
0.270446 0.040088 0.808650 0.8 0 0
0.261266 0.163433 0.622910 0.8 0 0
0.176703 0.110686 0.509127 0.8 0 0
0.053882 0.057630 0.096161 0.8 0 0
0.077387 0.044958 0.469078 0.8 0 0
0.420330 0.070177 0.161476 0.8 0 0
0.265848 0.109031 0.419960 0.8 0 0
0.290495 0.048527 0.429211 0.8 0 0
0.177860 0.104282 0.445619 0.8 0 0
0.209213 0.051772 0.152634 0.8 0 0
0.177056 0.039306 0.441860 0.8 0 0
0.088274 0.110502 0.435159 0.8 0 0
0.274558 0.113278 0.433471 0.8 0 0
0.218062 0.069392 0.642708 0.8 0 0
0.142474 0.110501 0.164177 0.8 0 0
0.102493 0.109732 0.404326 0.8 0 0
0.288457 0.040551 0.580819 0.8 0 0
0.323385 0.164372 0.087442 0.8 0 0
0.354405 0.110501 0.282856 0.8 0 0
0.310173 0.109095 0.577552 0.8 0 0
0.259435 0.156910 0.328260 0.8 0 0
0.179183 0.069544 0.484642 0.8 0 0
0.110968 0.098838 0.766016 0.8 0 0
0.230340 0.063344 0.642567 0.8 0 0
0.189170 0.069056 0.153363 0.8 0 0
0.400596 0.033916 0.720337 0.8 0 0
0.235789 0.177567 0.291462 0.8 0 0
0.276452 0.039185 0.556400 0.8 0 0
0.254763 0.172980 0.343537 0.8 0 0
0.072836 0.072874 0.705463 0.8 0 0
0.277381 0.040534 0.935968 0.8 0 0
0.109692 0.106362 0.534612 0.8 0 0
0.213523 0.043651 0.530243 0.8 0 0
0.285321 0.081798 0.620604 0.8 0 0
0.071198 0.104722 0.150998 0.8 0 0
0.156636 0.103379 0.522730 0.8 0 0
0.240411 0.102145 0.805950 0.8 0 0
0.106050 0.069766 0.133130 0.8 0 0
0.217510 0.162513 0.675127 0.8 0 0
0.240891 0.079325 0.040638 0.8 0 0
0.193836 0.118239 0.334584 0.8 0 0
0.185376 0.140012 0.625348 0.8 0 0
0.180028 0.039169 0.571723 0.8 0 0
0.283365 0.043651 0.550179 0.8 0 0
0.392840 0.137556 0.798589 0.8 0 0
0.035909 0.053907 0.704130 0.8 0 0
0.382636 0.061880 0.333534 0.8 0 0
0.413776 0.120482 0.124126 0.8 0 0
0.291130 0.073716 0.490117 0.8 0 0
0.392622 0.126293 0.733284 0.8 0 0
0.278175 0.141687 0.482232 0.8 0 0
0.114764 0.062602 0.713723 0.8 0 0
0.041529 0.045624 0.705880 0.8 0 0
0.204928 0.108942 0.293972 0.8 0 0
0.241527 0.037081 0.771509 0.8 0 0
0.216434 0.070554 0.691056 0.8 0 0
0.065231 0.144843 0.063744 0.8 0 0
0.238541 0.098461 0.821236 0.8 0 0
0.264744 0.052850 0.626256 0.8 0 0
0.113915 0.120911 0.769742 0.8 0 0
0.312510 0.110502 0.326706 0.8 0 0
0.240123 0.043651 0.517886 0.8 0 0
0.273188 0.042263 0.912062 0.8 0 0
0.229498 0.086190 0.691056 0.8 0 0
0.153656 0.100378 0.073768 0.8 0 0
0.243670 0.039171 0.390618 0.8 0 0
0.238381 0.135276 0.644955 0.8 0 0
0.283800 0.095115 0.519339 0.8 0 0
0.211326 0.142396 0.691056 0.8 0 0
0.392622 0.104817 0.768246 0.8 0 0
0.077829 0.039070 0.953101 0.8 0 0
0.078712 0.038566 0.411029 0.8 0 0
0.253020 0.176324 0.349361 0.8 0 0
0.191440 0.141829 0.639701 0.8 0 0
0.049383 0.118504 0.781153 0.8 0 0
0.148554 0.109732 0.459840 0.8 0 0
0.276056 0.039070 0.919888 0.8 0 0
0.077016 0.054592 0.482951 0.8 0 0
0.057740 0.107784 0.751943 0.8 0 0
0.171272 0.057055 0.493176 0.8 0 0
0.339387 0.072507 0.098336 0.8 0 0
0.092129 0.096924 0.759250 0.8 0 0
0.391544 0.070746 0.064095 0.8 0 0
0.402106 0.144489 0.789603 0.8 0 0
0.367202 0.088390 0.274430 0.8 0 0
0.070320 0.065043 0.849513 0.8 0 0
0.211329 0.108960 0.320307 0.8 0 0
0.096448 0.085487 0.271957 0.8 0 0
0.429515 0.052701 0.110289 0.8 0 0
0.093999 0.119814 0.733261 0.8 0 0
0.235872 0.037385 0.484227 0.8 0 0
0.227227 0.039171 0.326214 0.8 0 0
0.381337 0.108228 0.309618 0.8 0 0
0.281829 0.125906 0.522466 0.8 0 0
0.266441 0.039230 0.513578 0.8 0 0
0.230166 0.039215 0.527975 0.8 0 0
0.289095 0.096644 0.448894 0.8 0 0
0.363791 0.063409 0.266593 0.8 0 0
0.035523 0.118627 0.074035 0.8 0 0
0.381974 0.051573 0.341350 0.8 0 0
0.433515 0.130026 0.141465 0.8 0 0
0.412735 0.093158 0.791873 0.8 0 0
0.235392 0.090244 0.854193 0.8 0 0
0.226593 0.039043 0.690689 0.8 0 0
0.179142 0.119083 0.659448 0.8 0 0
0.170479 0.110073 0.587822 0.8 0 0
0.344764 0.062036 0.855399 0.8 0 0
0.035223 0.141656 0.139563 0.8 0 0
0.224880 0.129845 0.066035 0.8 0 0
0.372008 0.076286 0.062358 0.8 0 0
0.179336 0.083856 0.491057 0.8 0 0
0.244415 0.056437 0.644885 0.8 0 0
0.253347 0.066412 0.048465 0.8 0 0
0.379067 0.073001 0.303572 0.8 0 0
0.080047 0.059671 0.810762 0.8 0 0
0.072833 0.110566 0.801804 0.8 0 0
0.391541 0.063489 0.095505 0.8 0 0
0.283355 0.110681 0.233927 0.8 0 0
0.286248 0.110501 0.267210 0.8 0 0
0.319122 0.110502 0.407009 0.8 0 0
0.282423 0.075283 0.694817 0.8 0 0
0.111163 0.095089 0.244564 0.8 0 0
0.064252 0.056847 0.869875 0.8 0 0
0.240181 0.113770 0.759322 0.8 0 0
0.162831 0.178581 0.039141 0.8 0 0
0.179383 0.127886 0.568261 0.8 0 0
0.249269 0.045336 0.475583 0.8 0 0
0.400002 0.040335 0.888735 0.8 0 0
0.400862 0.109849 0.815581 0.8 0 0
0.328712 0.110502 0.473352 0.8 0 0
0.072833 0.107641 0.747203 0.8 0 0
0.080690 0.106904 0.361245 0.8 0 0
0.385031 0.053569 0.438441 0.8 0 0
0.162278 0.076070 0.099473 0.8 0 0
0.382134 0.062351 0.348395 0.8 0 0
0.284824 0.127246 0.520052 0.8 0 0
0.276003 0.131405 0.668239 0.8 0 0
0.360522 0.129361 0.094723 0.8 0 0
0.192348 0.129797 0.347436 0.8 0 0
0.053883 0.090205 0.114820 0.8 0 0
0.352241 0.083960 0.036314 0.8 0 0
0.391541 0.101816 0.129445 0.8 0 0
0.155732 0.110501 0.254420 0.8 0 0
0.229105 0.043651 0.617626 0.8 0 0
0.190053 0.097702 0.434000 0.8 0 0
0.129924 0.048319 0.197138 0.8 0 0
0.271018 0.039086 0.650203 0.8 0 0
0.175875 0.078445 0.598193 0.8 0 0
0.185398 0.123995 0.379303 0.8 0 0
0.349550 0.118191 0.091751 0.8 0 0
0.099101 0.043062 0.798141 0.8 0 0
0.205938 0.037218 0.642224 0.8 0 0
0.434689 0.042296 0.751606 0.8 0 0
0.109074 0.106679 0.691912 0.8 0 0
0.269009 0.133081 0.432378 0.8 0 0
0.175571 0.120657 0.490335 0.8 0 0
0.282231 0.064995 0.433321 0.8 0 0
0.391542 0.119654 0.055538 0.8 0 0
0.185864 0.057736 0.755436 0.8 0 0
0.095797 0.039848 0.907060 0.8 0 0
0.203133 0.045336 0.471036 0.8 0 0
0.382089 0.147657 0.784798 0.8 0 0
0.402134 0.030447 0.074877 0.8 0 0
0.105049 0.102665 0.163430 0.8 0 0
0.171272 0.098414 0.519391 0.8 0 0
0.073894 0.130242 0.701953 0.8 0 0
0.327597 0.102666 0.772124 0.8 0 0
0.035466 0.092929 0.813584 0.8 0 0
0.117670 0.110502 0.386396 0.8 0 0
0.392622 0.047037 0.746450 0.8 0 0
0.065240 0.039096 0.895702 0.8 0 0
0.261545 0.054378 0.872558 0.8 0 0
0.172806 0.039959 0.332963 0.8 0 0
0.234983 0.037430 0.442012 0.8 0 0
0.345884 0.070456 0.128025 0.8 0 0
0.237813 0.057600 0.642481 0.8 0 0
0.268094 0.039313 0.435412 0.8 0 0
0.192669 0.049716 0.814299 0.8 0 0
0.180893 0.062476 0.690022 0.8 0 0
0.053775 0.030614 0.778404 0.8 0 0
0.172806 0.051488 0.160342 0.8 0 0
0.288955 0.109731 0.223938 0.8 0 0
0.371096 0.142201 0.138857 0.8 0 0
0.291016 0.099301 0.449543 0.8 0 0
0.212301 0.107317 0.153199 0.8 0 0
0.261417 0.090046 0.718182 0.8 0 0
0.180867 0.115115 0.683654 0.8 0 0
0.280603 0.091902 0.683339 0.8 0 0
0.065448 0.026704 0.765982 0.8 0 0
0.072836 0.091016 0.695436 0.8 0 0
0.202466 0.123334 0.792374 0.8 0 0
0.368649 0.106454 0.515296 0.8 0 0
0.220112 0.103093 0.153367 0.8 0 0
0.025003 0.123438 0.078118 0.8 0 0
0.383677 0.153781 0.083393 0.8 0 0
0.270899 0.039171 0.432381 0.8 0 0
0.234692 0.056410 0.715304 0.8 0 0
0.203202 0.042489 0.911161 0.8 0 0
0.196256 0.149583 0.662151 0.8 0 0
0.274441 0.128890 0.606481 0.8 0 0
0.135992 0.176411 0.033419 0.8 0 0
0.349550 0.116667 0.089151 0.8 0 0
0.171272 0.072362 0.499743 0.8 0 0
0.238342 0.118940 0.739100 0.8 0 0
0.323385 0.135432 0.040644 0.8 0 0
0.320836 0.160180 0.063066 0.8 0 0
0.072073 0.039070 0.950325 0.8 0 0
0.419962 0.072137 0.103294 0.8 0 0
0.050394 0.149496 0.726171 0.8 0 0
0.030507 0.079807 0.714131 0.8 0 0
0.222764 0.094245 0.080901 0.8 0 0
0.265509 0.187471 0.032073 0.8 0 0
0.303482 0.110502 0.343408 0.8 0 0
0.281592 0.109803 0.153199 0.8 0 0
0.356316 0.083905 0.713273 0.8 0 0
0.177020 0.178784 0.038927 0.8 0 0
0.258506 0.039277 0.469346 0.8 0 0
0.263541 0.037056 0.795515 0.8 0 0
0.080964 0.103702 0.349261 0.8 0 0
0.169132 0.103379 0.505590 0.8 0 0
0.286063 0.109328 0.153199 0.8 0 0
0.125295 0.109869 0.552389 0.8 0 0
0.119701 0.048142 0.227284 0.8 0 0
0.375121 0.124119 0.758967 0.8 0 0
0.218388 0.052902 0.642704 0.8 0 0
0.197204 0.145214 0.633721 0.8 0 0
0.138541 0.151431 0.070242 0.8 0 0
0.272890 0.040889 0.931442 0.8 0 0
0.072836 0.131817 0.703988 0.8 0 0
0.192178 0.139008 0.712029 0.8 0 0
0.071195 0.061524 0.129097 0.8 0 0
0.360034 0.153689 0.116474 0.8 0 0
0.259413 0.061505 0.884048 0.8 0 0
0.283474 0.102722 0.458014 0.8 0 0
0.284229 0.084016 0.499774 0.8 0 0
0.157462 0.110502 0.411219 0.8 0 0
0.072834 0.111948 0.720341 0.8 0 0
0.267549 0.046911 0.433471 0.8 0 0
0.251737 0.147885 0.272817 0.8 0 0
0.183120 0.129951 0.058095 0.8 0 0
0.236249 0.108892 0.224404 0.8 0 0
0.224930 0.088272 0.151756 0.8 0 0
0.386072 0.081954 0.755479 0.8 0 0
0.373869 0.099968 0.286842 0.8 0 0
0.323385 0.192410 0.041786 0.8 0 0
0.368038 0.109732 0.447527 0.8 0 0
0.290495 0.078284 0.299838 0.8 0 0
0.181986 0.110681 0.193848 0.8 0 0
0.321179 0.110502 0.447347 0.8 0 0
0.290780 0.054140 0.459084 0.8 0 0
0.064231 0.046325 0.927230 0.8 0 0
0.071198 0.125882 0.136754 0.8 0 0
0.253620 0.043651 0.501795 0.8 0 0
0.383184 0.086834 0.357542 0.8 0 0
0.138843 0.044855 0.161531 0.8 0 0
0.273735 0.124585 0.434000 0.8 0 0
0.178687 0.052485 0.469396 0.8 0 0
0.416406 0.124335 0.809200 0.8 0 0
0.413788 0.093169 0.726334 0.8 0 0
0.373525 0.074167 0.130245 0.8 0 0
0.089320 0.107497 0.727037 0.8 0 0
0.382400 0.112375 0.814519 0.8 0 0
0.090402 0.129156 0.097770 0.8 0 0
0.133020 0.110502 0.383267 0.8 0 0
0.287157 0.075081 0.560986 0.8 0 0
0.212798 0.139602 0.648135 0.8 0 0
0.128656 0.109731 0.253311 0.8 0 0
0.327689 0.058152 0.771464 0.8 0 0
0.264289 0.111016 0.311970 0.8 0 0
0.427402 0.100619 0.817420 0.8 0 0
0.194615 0.037322 0.544106 0.8 0 0
0.290495 0.090003 0.235830 0.8 0 0
0.250051 0.084928 0.067078 0.8 0 0
0.071199 0.111894 0.068636 0.8 0 0
0.434951 0.116248 0.714361 0.8 0 0
0.374043 0.121067 0.727819 0.8 0 0
0.286736 0.111509 0.596137 0.8 0 0
0.083184 0.097391 0.303860 0.8 0 0
0.380942 0.152468 0.079534 0.8 0 0
0.064231 0.040162 0.922134 0.8 0 0
0.030386 0.069735 0.155996 0.8 0 0
0.107981 0.061499 0.122645 0.8 0 0
0.162131 0.109732 0.421879 0.8 0 0
0.372166 0.065202 0.813099 0.8 0 0
0.259010 0.182837 0.407429 0.8 0 0
0.309536 0.110502 0.422358 0.8 0 0
0.284306 0.073411 0.496243 0.8 0 0
0.228896 0.048639 0.092601 0.8 0 0
0.420423 0.154732 0.108706 0.8 0 0
0.190946 0.113663 0.757566 0.8 0 0
0.425764 0.043000 0.144358 0.8 0 0
0.137036 0.095961 0.168746 0.8 0 0
0.385030 0.091383 0.438381 0.8 0 0
0.254924 0.041071 0.434000 0.8 0 0
0.171579 0.157128 0.065939 0.8 0 0
0.196950 0.046041 0.433471 0.8 0 0
0.029639 0.069102 0.067903 0.8 0 0
0.085578 0.109732 0.422257 0.8 0 0
0.387306 0.025883 0.093025 0.8 0 0
0.178633 0.098842 0.511442 0.8 0 0
0.039643 0.088847 0.061617 0.8 0 0
0.113364 0.110697 0.509872 0.8 0 0
0.179392 0.126421 0.569297 0.8 0 0
0.273524 0.110681 0.419865 0.8 0 0
0.287013 0.036064 0.494989 0.8 0 0
0.135992 0.140383 0.033261 0.8 0 0
0.434064 0.099183 0.044277 0.8 0 0
0.046384 0.051019 0.100141 0.8 0 0
0.231742 0.118478 0.155952 0.8 0 0
0.303678 0.194877 0.032364 0.8 0 0
0.112733 0.110696 0.477399 0.8 0 0
0.039221 0.154193 0.112729 0.8 0 0
0.034102 0.061851 0.072507 0.8 0 0
0.385679 0.140625 0.711997 0.8 0 0
0.391545 0.074242 0.043196 0.8 0 0
0.265831 0.039171 0.182521 0.8 0 0
0.042286 0.097055 0.164182 0.8 0 0
0.080308 0.099343 0.341126 0.8 0 0
0.356174 0.116366 0.696421 0.8 0 0
0.135852 0.038994 0.170284 0.8 0 0
0.281398 0.084185 0.566270 0.8 0 0
0.232980 0.174338 0.046463 0.8 0 0
0.234045 0.087782 0.863558 0.8 0 0
0.280814 0.135846 0.593054 0.8 0 0
0.038734 0.094750 0.096366 0.8 0 0
0.234894 0.091567 0.906626 0.8 0 0
0.172806 0.087463 0.280448 0.8 0 0
0.419955 0.030998 0.073567 0.8 0 0
0.402016 0.052918 0.916333 0.8 0 0
0.353472 0.104758 0.729584 0.8 0 0
0.392622 0.079575 0.726022 0.8 0 0
0.071195 0.033016 0.072423 0.8 0 0
0.291849 0.081963 0.481656 0.8 0 0
0.079927 0.086089 0.394681 0.8 0 0
0.257226 0.130388 0.775531 0.8 0 0
0.241383 0.130120 0.181026 0.8 0 0
0.402016 0.061688 0.879268 0.8 0 0
0.086363 0.082212 0.817660 0.8 0 0
0.382928 0.116157 0.740103 0.8 0 0
0.356191 0.073046 0.162682 0.8 0 0
0.221632 0.157877 0.237270 0.8 0 0
0.276870 0.037176 0.709347 0.8 0 0
0.032853 0.048707 0.786544 0.8 0 0
0.224263 0.076352 0.152634 0.8 0 0
0.178799 0.117250 0.518419 0.8 0 0
0.152490 0.110695 0.526320 0.8 0 0
0.210800 0.045336 0.503705 0.8 0 0
0.178337 0.096177 0.459327 0.8 0 0
0.218793 0.054215 0.717259 0.8 0 0
0.286117 0.039171 0.225787 0.8 0 0
0.112675 0.110109 0.803323 0.8 0 0
0.072832 0.033789 0.770092 0.8 0 0
0.071196 0.104376 0.085149 0.8 0 0
0.288972 0.110681 0.354932 0.8 0 0
0.288982 0.039070 0.938644 0.8 0 0
0.208487 0.085967 0.070012 0.8 0 0
0.201717 0.129556 0.297803 0.8 0 0
0.082065 0.109732 0.330143 0.8 0 0
0.178350 0.039739 0.595160 0.8 0 0
0.419897 0.069933 0.037805 0.8 0 0
0.254803 0.039121 0.616445 0.8 0 0
0.425442 0.051009 0.100083 0.8 0 0
0.215212 0.043651 0.508364 0.8 0 0
0.391544 0.075207 0.133957 0.8 0 0
0.340673 0.079954 0.222555 0.8 0 0
0.194358 0.083291 0.816764 0.8 0 0
0.425975 0.085328 0.782376 0.8 0 0
0.034514 0.107494 0.134956 0.8 0 0
0.287043 0.120138 0.456088 0.8 0 0
0.237952 0.039171 0.235784 0.8 0 0
0.114226 0.110697 0.510239 0.8 0 0
0.202878 0.128371 0.290497 0.8 0 0
0.283772 0.073699 0.654811 0.8 0 0
0.276986 0.107554 0.736576 0.8 0 0
0.198343 0.110958 0.152678 0.8 0 0
0.180274 0.113765 0.533808 0.8 0 0
0.382727 0.062583 0.337514 0.8 0 0
0.432608 0.037854 0.762210 0.8 0 0
0.385204 0.047125 0.446026 0.8 0 0
0.433029 0.078005 0.702253 0.8 0 0
0.178464 0.081378 0.504354 0.8 0 0
0.357724 0.042235 0.797081 0.8 0 0
0.244596 0.112235 0.765481 0.8 0 0
0.174926 0.093424 0.543494 0.8 0 0
0.179858 0.090868 0.512981 0.8 0 0
0.117392 0.057351 0.127184 0.8 0 0
0.093645 0.054203 0.738898 0.8 0 0
0.406702 0.094701 0.769863 0.8 0 0
0.286964 0.038645 0.575242 0.8 0 0
0.257553 0.097820 0.857103 0.8 0 0
0.272329 0.075125 0.622938 0.8 0 0
0.071199 0.099177 0.064298 0.8 0 0
0.232420 0.109014 0.395617 0.8 0 0
0.127653 0.037624 0.203011 0.8 0 0
0.227187 0.055085 0.786780 0.8 0 0
0.089320 0.096497 0.784551 0.8 0 0
0.261394 0.131836 0.306605 0.8 0 0
0.063971 0.075226 0.816722 0.8 0 0
0.224880 0.088095 0.058035 0.8 0 0
0.277849 0.083319 0.592728 0.8 0 0
0.282136 0.091887 0.508501 0.8 0 0
0.401594 0.149853 0.779576 0.8 0 0
0.211155 0.039171 0.401913 0.8 0 0
0.172806 0.089870 0.271144 0.8 0 0
0.176472 0.099216 0.634690 0.8 0 0
0.321942 0.110501 0.294227 0.8 0 0
0.227760 0.126753 0.059697 0.8 0 0
0.309056 0.103379 0.499381 0.8 0 0
0.144458 0.110691 0.492322 0.8 0 0
0.348021 0.042987 0.074159 0.8 0 0
0.371362 0.154957 0.745874 0.8 0 0
0.078724 0.086976 0.447387 0.8 0 0
0.051670 0.055539 0.759846 0.8 0 0
0.380537 0.036647 0.309615 0.8 0 0
0.053883 0.085938 0.109726 0.8 0 0
0.071196 0.095538 0.082991 0.8 0 0
0.203170 0.110681 0.236302 0.8 0 0
0.205818 0.109020 0.404010 0.8 0 0
0.177901 0.082638 0.446808 0.8 0 0
0.037439 0.127556 0.089707 0.8 0 0
0.337605 0.072327 0.214734 0.8 0 0
0.181038 0.136659 0.509657 0.8 0 0
0.379776 0.052609 0.700502 0.8 0 0
0.320380 0.100009 0.073867 0.8 0 0
0.272411 0.110681 0.370080 0.8 0 0
0.175725 0.117516 0.534666 0.8 0 0
0.430568 0.053237 0.111743 0.8 0 0
0.147309 0.109731 0.267025 0.8 0 0
0.364355 0.067103 0.267642 0.8 0 0
0.382536 0.106052 0.365982 0.8 0 0
0.072835 0.115649 0.807971 0.8 0 0
0.245036 0.113866 0.758936 0.8 0 0
0.432704 0.071941 0.064862 0.8 0 0
0.235366 0.110681 0.278893 0.8 0 0
0.107407 0.025563 0.103768 0.8 0 0
0.391542 0.118587 0.048322 0.8 0 0
0.172806 0.109673 0.271733 0.8 0 0
0.430515 0.099428 0.695246 0.8 0 0
0.094296 0.117349 0.105262 0.8 0 0
0.246436 0.039230 0.514159 0.8 0 0
0.218726 0.137861 0.655616 0.8 0 0
0.150381 0.177942 0.040191 0.8 0 0
0.190459 0.136157 0.669533 0.8 0 0
0.317432 0.087364 0.151756 0.8 0 0
0.260759 0.109252 0.291898 0.8 0 0
0.284608 0.051707 0.482459 0.8 0 0
0.337370 0.070741 0.213795 0.8 0 0
0.373525 0.114242 0.104732 0.8 0 0
0.262988 0.150071 0.630310 0.8 0 0
0.185445 0.114594 0.723644 0.8 0 0
0.286864 0.080294 0.153365 0.8 0 0
0.414641 0.114203 0.107195 0.8 0 0
0.353734 0.142851 0.773686 0.8 0 0
0.107816 0.098385 0.532393 0.8 0 0
0.194939 0.138118 0.654088 0.8 0 0
0.042610 0.064999 0.813001 0.8 0 0
0.180961 0.154568 0.073000 0.8 0 0
0.265328 0.051683 0.628926 0.8 0 0
0.259355 0.044947 0.888669 0.8 0 0
0.382364 0.116581 0.764325 0.8 0 0
0.247570 0.160494 0.682954 0.8 0 0
0.101337 0.110177 0.133827 0.8 0 0
0.153561 0.109732 0.403795 0.8 0 0
0.211476 0.128308 0.701017 0.8 0 0
0.072835 0.060511 0.762218 0.8 0 0
0.371459 0.087688 0.776742 0.8 0 0
0.286096 0.066315 0.526522 0.8 0 0
0.084635 0.081314 0.035341 0.8 0 0
0.382645 0.039548 0.911858 0.8 0 0
0.243048 0.104412 0.152634 0.8 0 0
0.310281 0.058766 0.726220 0.8 0 0
0.176430 0.097927 0.588495 0.8 0 0
0.375552 0.110502 0.380514 0.8 0 0
0.220929 0.087630 0.042083 0.8 0 0
0.396408 0.098471 0.756844 0.8 0 0
0.216472 0.203506 0.419235 0.8 0 0
0.261580 0.042958 0.434000 0.8 0 0
0.373525 0.101318 0.126400 0.8 0 0
0.178016 0.047677 0.485565 0.8 0 0
0.261790 0.086639 0.067065 0.8 0 0
0.255837 0.039152 0.587595 0.8 0 0
0.290495 0.106620 0.270178 0.8 0 0
0.170816 0.095486 0.445698 0.8 0 0
0.232527 0.141137 0.765590 0.8 0 0
0.182063 0.080806 0.711066 0.8 0 0
0.263929 0.147279 0.629505 0.8 0 0
0.046441 0.126961 0.112269 0.8 0 0
0.265391 0.125378 0.712764 0.8 0 0
0.145954 0.110694 0.522177 0.8 0 0
0.129336 0.049374 0.199485 0.8 0 0
0.266001 0.041176 0.925914 0.8 0 0
0.226658 0.166665 0.247928 0.8 0 0
0.371459 0.087499 0.774364 0.8 0 0
0.408501 0.113725 0.124448 0.8 0 0
0.171272 0.094004 0.493014 0.8 0 0
0.304183 0.110502 0.313771 0.8 0 0
0.323385 0.139349 0.050702 0.8 0 0
0.320836 0.110339 0.045546 0.8 0 0
0.371328 0.117738 0.723572 0.8 0 0
0.203062 0.039171 0.350769 0.8 0 0
0.376558 0.081193 0.290359 0.8 0 0
0.384970 0.071075 0.435780 0.8 0 0
0.249967 0.084267 0.066368 0.8 0 0
0.208487 0.094135 0.146444 0.8 0 0
0.346618 0.130812 0.129716 0.8 0 0
0.214502 0.074265 0.928536 0.8 0 0
0.112834 0.094134 0.089523 0.8 0 0
0.091701 0.058471 0.771836 0.8 0 0
0.138541 0.174608 0.030398 0.8 0 0
0.391552 0.125561 0.044637 0.8 0 0
0.363796 0.129914 0.098841 0.8 0 0
0.413788 0.077325 0.729672 0.8 0 0
0.249520 0.139378 0.248882 0.8 0 0
0.239356 0.184891 0.432044 0.8 0 0
0.363743 0.097319 0.266502 0.8 0 0
0.095111 0.098579 0.516159 0.8 0 0
0.204400 0.037099 0.754824 0.8 0 0
0.154960 0.109732 0.432343 0.8 0 0
0.026892 0.097549 0.065942 0.8 0 0
0.244137 0.096367 0.888093 0.8 0 0
0.240414 0.084242 0.878267 0.8 0 0
0.349884 0.120201 0.775166 0.8 0 0
0.284969 0.076621 0.469856 0.8 0 0
0.286096 0.053296 0.520322 0.8 0 0
0.416245 0.104804 0.163143 0.8 0 0
0.392625 0.122348 0.806362 0.8 0 0
0.217124 0.039171 0.162981 0.8 0 0
0.316946 0.110502 0.456485 0.8 0 0
0.392622 0.043269 0.713846 0.8 0 0
0.241681 0.108495 0.151756 0.8 0 0
0.069700 0.044651 0.052930 0.8 0 0
0.286581 0.117066 0.592675 0.8 0 0
0.082247 0.102894 0.311003 0.8 0 0
0.216516 0.049857 0.153198 0.8 0 0
0.036725 0.094869 0.164475 0.8 0 0
0.118027 0.045538 0.884313 0.8 0 0
0.208487 0.057439 0.127355 0.8 0 0
0.407667 0.039703 0.059095 0.8 0 0
0.185536 0.113102 0.727668 0.8 0 0
0.426493 0.080405 0.035464 0.8 0 0
0.092550 0.081592 0.280701 0.8 0 0
0.329678 0.078603 0.179901 0.8 0 0
0.078950 0.035975 0.404573 0.8 0 0
0.435469 0.110620 0.148270 0.8 0 0
0.283614 0.083041 0.530369 0.8 0 0
0.357193 0.051745 0.093618 0.8 0 0
0.073225 0.031764 0.725448 0.8 0 0
0.391543 0.062053 0.138771 0.8 0 0
0.263961 0.067522 0.852911 0.8 0 0
0.193938 0.132953 0.736952 0.8 0 0
0.398319 0.153674 0.082596 0.8 0 0
0.357604 0.110501 0.282046 0.8 0 0
0.300957 0.039070 0.894405 0.8 0 0
0.079372 0.045765 0.418979 0.8 0 0
0.350297 0.054940 0.771152 0.8 0 0
0.208487 0.081996 0.118270 0.8 0 0
0.116899 0.078682 0.235373 0.8 0 0
0.306803 0.170409 0.051556 0.8 0 0
0.117397 0.083961 0.502190 0.8 0 0
0.363773 0.040841 0.268047 0.8 0 0
0.368444 0.082503 0.133003 0.8 0 0
0.381473 0.102560 0.319424 0.8 0 0
0.212559 0.186160 0.372199 0.8 0 0
0.229590 0.080741 0.153199 0.8 0 0
0.410742 0.093562 0.138686 0.8 0 0
0.071196 0.124796 0.093024 0.8 0 0
0.425154 0.117390 0.764356 0.8 0 0
0.168627 0.049366 0.429976 0.8 0 0
0.290879 0.105343 0.443834 0.8 0 0
0.182967 0.121985 0.673334 0.8 0 0
0.385558 0.057543 0.461516 0.8 0 0
0.274196 0.142445 0.644315 0.8 0 0
0.225261 0.138364 0.177298 0.8 0 0
0.418704 0.051640 0.748104 0.8 0 0
0.080173 0.109848 0.348284 0.8 0 0
0.435994 0.055485 0.090051 0.8 0 0
0.413788 0.089367 0.770759 0.8 0 0
0.072834 0.087008 0.690305 0.8 0 0
0.167578 0.176493 0.042265 0.8 0 0
0.276093 0.147680 0.432378 0.8 0 0
0.051670 0.114318 0.780203 0.8 0 0
0.300021 0.048571 0.151755 0.8 0 0
0.036973 0.125941 0.116379 0.8 0 0
0.273950 0.086596 0.151756 0.8 0 0
0.064231 0.039283 0.881074 0.8 0 0
0.188056 0.039171 0.374846 0.8 0 0
0.367588 0.081946 0.060409 0.8 0 0
0.077816 0.040035 0.450292 0.8 0 0
0.392622 0.039265 0.778022 0.8 0 0
0.330654 0.039694 0.938486 0.8 0 0
0.202333 0.110681 0.261352 0.8 0 0
0.216934 0.085117 0.433321 0.8 0 0
0.304970 0.039070 0.931779 0.8 0 0
0.378054 0.039661 0.900910 0.8 0 0
0.215226 0.108888 0.218102 0.8 0 0
0.347180 0.080223 0.507839 0.8 0 0
0.072833 0.099238 0.748574 0.8 0 0
0.064231 0.040680 0.887855 0.8 0 0
0.317738 0.061680 0.151755 0.8 0 0
0.401995 0.056493 0.919637 0.8 0 0
0.392625 0.064201 0.800228 0.8 0 0
0.088858 0.058511 0.099678 0.8 0 0
0.172198 0.109620 0.583064 0.8 0 0
0.402016 0.042903 0.849557 0.8 0 0
0.177112 0.075765 0.457509 0.8 0 0
0.168489 0.110501 0.268091 0.8 0 0
0.231661 0.135334 0.784816 0.8 0 0
0.072835 0.035264 0.758280 0.8 0 0
0.391544 0.091035 0.068657 0.8 0 0
0.285900 0.098519 0.440874 0.8 0 0
0.192901 0.123313 0.340839 0.8 0 0
0.403053 0.058078 0.810104 0.8 0 0
0.345347 0.110875 0.135869 0.8 0 0
0.226380 0.082876 0.883746 0.8 0 0
0.150060 0.103379 0.478176 0.8 0 0
0.271579 0.108989 0.360149 0.8 0 0
0.292919 0.042305 0.901504 0.8 0 0
0.349329 0.034401 0.108050 0.8 0 0
0.277911 0.142938 0.608566 0.8 0 0
0.290495 0.067981 0.267363 0.8 0 0
0.067448 0.056975 0.862271 0.8 0 0
0.236198 0.050346 0.049172 0.8 0 0
0.051933 0.094828 0.688399 0.8 0 0
0.378283 0.039655 0.903791 0.8 0 0
0.269098 0.150714 0.627389 0.8 0 0
0.382468 0.039070 0.918188 0.8 0 0
0.093195 0.110502 0.346905 0.8 0 0
0.174153 0.040021 0.452642 0.8 0 0
0.089089 0.052103 0.507868 0.8 0 0
0.252484 0.129840 0.687289 0.8 0 0
0.393713 0.116257 0.693722 0.8 0 0
0.218287 0.162163 0.058383 0.8 0 0
0.084767 0.110700 0.494237 0.8 0 0
0.290495 0.067040 0.293405 0.8 0 0
0.248394 0.098453 0.821270 0.8 0 0
0.264234 0.043651 0.545437 0.8 0 0
0.080491 0.060830 0.369953 0.8 0 0
0.350321 0.040045 0.889846 0.8 0 0
0.253347 0.062659 0.149947 0.8 0 0
0.071195 0.081313 0.132040 0.8 0 0
0.068088 0.039118 0.924091 0.8 0 0
0.114000 0.097350 0.154474 0.8 0 0
0.163003 0.074211 0.153199 0.8 0 0
0.143809 0.069830 0.151755 0.8 0 0
0.262931 0.043651 0.484430 0.8 0 0
0.219761 0.037302 0.563327 0.8 0 0
0.036146 0.097635 0.814719 0.8 0 0
0.263011 0.039171 0.164219 0.8 0 0
0.165503 0.040861 0.922439 0.8 0 0
0.252992 0.039282 0.465040 0.8 0 0
0.186849 0.100310 0.749288 0.8 0 0
0.282389 0.110681 0.192900 0.8 0 0
0.278580 0.156084 0.072190 0.8 0 0
0.180937 0.102252 0.673540 0.8 0 0
0.392622 0.073562 0.810708 0.8 0 0
0.072835 0.102214 0.814297 0.8 0 0
0.184075 0.039296 0.451575 0.8 0 0
0.072835 0.067702 0.811328 0.8 0 0
0.381621 0.039070 0.904613 0.8 0 0
0.065361 0.039084 0.919235 0.8 0 0
0.388759 0.132425 0.703651 0.8 0 0
0.241198 0.105699 0.434000 0.8 0 0
0.275430 0.078658 0.602491 0.8 0 0
0.071195 0.059037 0.108664 0.8 0 0
0.373235 0.059836 0.764121 0.8 0 0
0.134610 0.088007 0.178430 0.8 0 0
0.284051 0.079070 0.507887 0.8 0 0
0.426646 0.070070 0.161431 0.8 0 0
0.171148 0.109844 0.434375 0.8 0 0
0.277846 0.139719 0.607441 0.8 0 0
0.187896 0.061100 0.151755 0.8 0 0
0.352960 0.109732 0.431679 0.8 0 0
0.380925 0.052444 0.700630 0.8 0 0
0.110081 0.056129 0.767520 0.8 0 0
0.369146 0.109732 0.321526 0.8 0 0
0.355683 0.127839 0.087312 0.8 0 0
0.254584 0.088387 0.884404 0.8 0 0
0.369003 0.091802 0.688006 0.8 0 0
0.096969 0.122052 0.776555 0.8 0 0
0.151452 0.179027 0.039081 0.8 0 0
0.179548 0.119698 0.499988 0.8 0 0
0.107333 0.110501 0.292480 0.8 0 0
0.180105 0.037286 0.578300 0.8 0 0
0.320028 0.109731 0.185681 0.8 0 0
0.209058 0.141761 0.639433 0.8 0 0
0.069654 0.087923 0.034454 0.8 0 0
0.072834 0.148943 0.731468 0.8 0 0
0.397924 0.056233 0.155187 0.8 0 0
0.371459 0.058288 0.769080 0.8 0 0
0.392625 0.060182 0.801440 0.8 0 0
0.118556 0.101070 0.232007 0.8 0 0
0.172300 0.070596 0.534697 0.8 0 0
0.028941 0.105438 0.044485 0.8 0 0
0.080419 0.090243 0.336242 0.8 0 0
0.328660 0.109732 0.433721 0.8 0 0
0.079738 0.099710 0.402930 0.8 0 0
0.192679 0.037428 0.443645 0.8 0 0
0.220604 0.045336 0.635685 0.8 0 0
0.257059 0.112700 0.764130 0.8 0 0
0.178900 0.130061 0.415845 0.8 0 0
0.246487 0.154285 0.256994 0.8 0 0
0.354897 0.090753 0.712392 0.8 0 0
0.175583 0.103679 0.597488 0.8 0 0
0.084909 0.087377 0.107768 0.8 0 0
0.361347 0.041078 0.262043 0.8 0 0
0.229572 0.074732 0.916409 0.8 0 0
0.259546 0.092626 0.434000 0.8 0 0
0.203042 0.050099 0.153198 0.8 0 0
0.108991 0.059546 0.777389 0.8 0 0
0.414641 0.105062 0.103285 0.8 0 0
0.342696 0.110696 0.510968 0.8 0 0
