0.369000 0.486702 0.187764 0.8 0 0
0.513645 0.875740 0.217294 0.8 0 0
0.251842 0.948893 0.065400 0.8 0 0
0.363226 0.453857 0.180529 0.8 0 0
0.540696 0.177986 0.208951 0.8 0 0
0.044230 0.951458 0.161301 0.8 0 0
0.273257 0.945393 0.214210 0.8 0 0
0.493276 0.910208 0.101178 0.8 0 0
0.314540 0.893894 0.232410 0.8 0 0
0.547486 0.284890 0.119719 0.8 0 0
0.122114 0.791272 0.190700 0.8 0 0
0.219409 0.870537 0.226133 0.8 0 0
0.329060 0.457301 0.138106 0.8 0 0
0.480583 0.290765 0.175942 0.8 0 0
0.092294 0.839156 0.087433 0.8 0 0
0.492295 0.836246 0.219165 0.8 0 0
0.542467 0.169522 0.170249 0.8 0 0
0.102856 0.258604 0.259077 0.8 0 0
0.184866 0.469566 0.237273 0.8 0 0
0.221504 0.628596 0.172804 0.8 0 0
0.278408 0.333113 0.239038 0.8 0 0
0.545147 0.179808 0.150327 0.8 0 0
0.227881 0.870905 0.172876 0.8 0 0
0.146100 0.132050 0.216126 0.8 0 0
0.383182 0.506133 0.205266 0.8 0 0
0.332122 0.777769 0.240902 0.8 0 0
0.106882 0.886320 0.152856 0.8 0 0
0.390892 0.664300 0.172629 0.8 0 0
0.050447 0.246523 0.166802 0.8 0 0
0.397850 0.499745 0.172603 0.8 0 0
0.275461 0.713318 0.116481 0.8 0 0
0.442873 0.699017 0.215404 0.8 0 0
0.365242 0.708672 0.240877 0.8 0 0
0.064594 0.183824 0.142224 0.8 0 0
0.513991 0.897922 0.200439 0.8 0 0
0.200027 0.969199 0.048873 0.8 0 0
0.541187 0.200535 0.217224 0.8 0 0
0.398355 0.974944 0.102213 0.8 0 0
0.374164 0.799310 0.214499 0.8 0 0
0.041387 0.114370 0.161993 0.8 0 0
0.346094 0.386953 0.125407 0.8 0 0
0.331176 0.626266 0.114677 0.8 0 0
0.518816 0.945660 0.219344 0.8 0 0
0.096229 0.881845 0.144010 0.8 0 0
0.236314 0.334456 0.160141 0.8 0 0
0.307564 0.859118 0.237872 0.8 0 0
0.522003 0.246496 0.191957 0.8 0 0
0.397933 0.029207 0.247062 0.8 0 0
0.531418 0.798262 0.256143 0.8 0 0
0.517110 0.147627 0.104544 0.8 0 0
0.307555 0.815230 0.150130 0.8 0 0
0.437001 0.691926 0.240802 0.8 0 0
0.545624 0.854583 0.085616 0.8 0 0
0.476408 0.868816 0.276376 0.8 0 0
0.141307 0.569529 0.241109 0.8 0 0
0.541984 0.882199 0.144226 0.8 0 0
0.326110 0.865373 0.172657 0.8 0 0
0.279429 0.760025 0.130814 0.8 0 0
0.170461 0.737040 0.192044 0.8 0 0
0.242884 0.250099 0.197363 0.8 0 0
0.105088 0.300490 0.166892 0.8 0 0
0.026987 0.836822 0.270308 0.8 0 0
0.295538 0.899171 0.170076 0.8 0 0
0.242869 0.928906 0.067806 0.8 0 0
0.548597 0.845813 0.219618 0.8 0 0
0.234395 0.673902 0.172793 0.8 0 0
0.561755 0.835530 0.226085 0.8 0 0
0.335333 0.415320 0.239038 0.8 0 0
0.367550 0.841955 0.220161 0.8 0 0
0.516614 0.823547 0.160626 0.8 0 0
0.171582 0.545533 0.241079 0.8 0 0
0.051538 0.120541 0.214650 0.8 0 0
0.122114 0.801498 0.225716 0.8 0 0
0.267277 0.489979 0.165860 0.8 0 0
0.388822 0.455667 0.173599 0.8 0 0
0.562274 0.890741 0.224345 0.8 0 0
0.326137 0.788777 0.159087 0.8 0 0
0.355140 0.547956 0.143818 0.8 0 0
0.225198 0.929963 0.066077 0.8 0 0
0.501760 0.303801 0.164971 0.8 0 0
0.189869 0.960754 0.136879 0.8 0 0
0.480438 0.197737 0.243908 0.8 0 0
0.179154 0.531534 0.195277 0.8 0 0
0.533360 0.764627 0.202515 0.8 0 0
0.389794 0.494454 0.172607 0.8 0 0
0.551137 0.866322 0.224837 0.8 0 0
0.448297 0.854883 0.186467 0.8 0 0
0.507287 0.236960 0.212293 0.8 0 0
0.259321 0.143494 0.217494 0.8 0 0
0.531193 0.850269 0.225029 0.8 0 0
0.460122 0.197602 0.179647 0.8 0 0
0.040936 0.886888 0.153518 0.8 0 0
0.137457 0.679461 0.172974 0.8 0 0
0.539376 0.868936 0.219868 0.8 0 0
0.482115 0.300706 0.179663 0.8 0 0
0.356351 0.426199 0.223724 0.8 0 0
0.315466 0.332355 0.109013 0.8 0 0
0.544576 0.862336 0.225389 0.8 0 0
0.089150 0.231788 0.145023 0.8 0 0
0.076502 0.864091 0.141572 0.8 0 0
0.427145 0.627084 0.172592 0.8 0 0
0.104882 0.195921 0.132278 0.8 0 0
0.357841 0.449780 0.141220 0.8 0 0
0.220664 0.478166 0.183451 0.8 0 0
0.133813 0.623333 0.236719 0.8 0 0
0.310521 0.059039 0.241753 0.8 0 0
0.363438 0.958485 0.144668 0.8 0 0
0.235140 0.332677 0.227299 0.8 0 0
0.071589 0.896127 0.193745 0.8 0 0
0.261149 0.936023 0.066077 0.8 0 0
0.535310 0.780872 0.124205 0.8 0 0
0.207442 0.960250 0.143467 0.8 0 0
0.283147 0.468345 0.172744 0.8 0 0
0.356165 0.559904 0.146008 0.8 0 0
0.061734 0.244701 0.196280 0.8 0 0
0.097164 0.255753 0.094548 0.8 0 0
0.241033 0.297566 0.150982 0.8 0 0
0.231980 0.548222 0.241015 0.8 0 0
0.121316 0.169663 0.183582 0.8 0 0
0.221477 0.682906 0.241027 0.8 0 0
0.410088 0.550804 0.172608 0.8 0 0
0.192048 0.769401 0.241089 0.8 0 0
0.385750 0.946165 0.150643 0.8 0 0
0.394082 0.275903 0.181544 0.8 0 0
0.475399 0.814315 0.179311 0.8 0 0
0.204871 0.710089 0.241045 0.8 0 0
0.491474 0.872249 0.186254 0.8 0 0
0.353128 0.844546 0.172597 0.8 0 0
0.428813 0.720909 0.236548 0.8 0 0
0.183900 0.940522 0.114877 0.8 0 0
0.054601 0.182836 0.207632 0.8 0 0
0.261414 0.663294 0.122883 0.8 0 0
0.548350 0.253309 0.178271 0.8 0 0
0.097434 0.877168 0.146091 0.8 0 0
0.504268 0.205299 0.186708 0.8 0 0
0.123543 0.135488 0.245908 0.8 0 0
0.353974 0.394211 0.240817 0.8 0 0
0.120748 0.825658 0.099526 0.8 0 0
0.433227 0.187284 0.180473 0.8 0 0
0.106726 0.225281 0.125838 0.8 0 0
0.489610 0.845894 0.138612 0.8 0 0
0.040629 0.256940 0.260731 0.8 0 0
0.267433 0.508122 0.126862 0.8 0 0
0.097846 0.199159 0.221232 0.8 0 0
0.528014 0.174197 0.151482 0.8 0 0
0.089712 0.819843 0.093533 0.8 0 0
0.118759 0.810612 0.174440 0.8 0 0
0.302794 0.313911 0.239038 0.8 0 0
0.371763 0.946265 0.146385 0.8 0 0
0.358897 0.370479 0.110389 0.8 0 0
0.504064 0.864530 0.085878 0.8 0 0
0.260802 0.777056 0.241006 0.8 0 0
0.065043 0.890173 0.210641 0.8 0 0
0.245607 0.798415 0.241027 0.8 0 0
0.063778 0.234123 0.270306 0.8 0 0
0.520493 0.897803 0.185144 0.8 0 0
0.501787 0.184347 0.141077 0.8 0 0
0.316739 0.501012 0.066013 0.8 0 0
0.485427 0.198421 0.139291 0.8 0 0
0.338950 0.062247 0.241752 0.8 0 0
0.235780 0.863687 0.172859 0.8 0 0
0.478017 0.203940 0.226551 0.8 0 0
0.188699 0.667544 0.241061 0.8 0 0
0.428949 0.709122 0.172574 0.8 0 0
0.532527 0.900838 0.189204 0.8 0 0
0.107159 0.222765 0.240989 0.8 0 0
0.228942 0.903081 0.230436 0.8 0 0
0.465785 0.860420 0.251286 0.8 0 0
0.280569 0.820568 0.172761 0.8 0 0
0.183900 0.953776 0.083154 0.8 0 0
0.355410 0.924199 0.223375 0.8 0 0
0.376210 0.685668 0.240866 0.8 0 0
0.140411 0.636115 0.172888 0.8 0 0
0.233469 0.662458 0.172793 0.8 0 0
0.091726 0.168931 0.181244 0.8 0 0
0.178187 0.476033 0.178467 0.8 0 0
0.467017 0.821865 0.219343 0.8 0 0
0.546028 0.132807 0.119811 0.8 0 0
0.465895 0.906467 0.246910 0.8 0 0
0.524260 0.942306 0.135987 0.8 0 0
0.469913 0.891362 0.203402 0.8 0 0
0.474343 0.848758 0.276516 0.8 0 0
0.278885 0.556473 0.172745 0.8 0 0
0.144834 0.103754 0.224386 0.8 0 0
0.562665 0.836608 0.260714 0.8 0 0
0.550030 0.834180 0.143865 0.8 0 0
0.293015 0.507969 0.164759 0.8 0 0
0.520563 0.768870 0.146289 0.8 0 0
0.243529 0.606107 0.241004 0.8 0 0
0.088161 0.834682 0.218207 0.8 0 0
0.349413 0.626091 0.145391 0.8 0 0
0.271925 0.916384 0.173144 0.8 0 0
0.298543 0.305278 0.107444 0.8 0 0
0.454308 0.031605 0.249099 0.8 0 0
0.553516 0.170905 0.157896 0.8 0 0
0.365932 0.971974 0.125099 0.8 0 0
0.557704 0.899445 0.199304 0.8 0 0
0.096541 0.851170 0.224503 0.8 0 0
0.218410 0.520226 0.162022 0.8 0 0
0.038012 0.949534 0.209302 0.8 0 0
0.239595 0.320428 0.147578 0.8 0 0
0.467359 0.869875 0.131675 0.8 0 0
0.533966 0.176724 0.207483 0.8 0 0
0.419144 0.486075 0.200578 0.8 0 0
0.155533 0.870558 0.193860 0.8 0 0
0.326824 0.603689 0.240918 0.8 0 0
0.549798 0.295661 0.137698 0.8 0 0
0.251906 0.323420 0.241049 0.8 0 0
0.188809 0.972068 0.041185 0.8 0 0
0.334962 0.595576 0.114904 0.8 0 0
0.169780 0.484173 0.179300 0.8 0 0
0.522858 0.113436 0.171782 0.8 0 0
0.393972 0.766645 0.223244 0.8 0 0
0.480438 0.143686 0.220049 0.8 0 0
0.262114 0.446537 0.148450 0.8 0 0
0.052997 0.910266 0.101214 0.8 0 0
0.357831 0.381719 0.236242 0.8 0 0
0.465785 0.904519 0.137472 0.8 0 0
0.360927 0.405601 0.184636 0.8 0 0
0.359039 0.390668 0.199407 0.8 0 0
0.319268 0.293445 0.239038 0.8 0 0
0.374423 0.064961 0.243957 0.8 0 0
0.032932 0.149413 0.174839 0.8 0 0
0.273180 0.153846 0.156912 0.8 0 0
0.329097 0.429702 0.172640 0.8 0 0
0.301864 0.670631 0.172722 0.8 0 0
0.391741 0.643697 0.240850 0.8 0 0
0.333589 0.147747 0.177566 0.8 0 0
0.329858 0.509762 0.172688 0.8 0 0
0.425732 0.631462 0.172593 0.8 0 0
0.106137 0.152461 0.106753 0.8 0 0
0.080242 0.217354 0.273276 0.8 0 0
0.189865 0.530300 0.172838 0.8 0 0
0.224106 0.359713 0.241112 0.8 0 0
0.025000 0.872117 0.108784 0.8 0 0
0.320302 0.533906 0.067531 0.8 0 0
0.465785 0.822060 0.251314 0.8 0 0
0.328324 0.666106 0.120396 0.8 0 0
0.236151 0.802077 0.241043 0.8 0 0
0.359352 0.388290 0.240805 0.8 0 0
0.226813 0.673432 0.241021 0.8 0 0
0.536194 0.823016 0.161493 0.8 0 0
0.031125 0.836910 0.147141 0.8 0 0
0.234263 0.962337 0.135217 0.8 0 0
0.465785 0.906328 0.232271 0.8 0 0
0.310477 0.730798 0.118091 0.8 0 0
0.549157 0.950894 0.203638 0.8 0 0
0.252421 0.064183 0.240947 0.8 0 0
0.120180 0.791968 0.118682 0.8 0 0
0.521276 0.248703 0.183015 0.8 0 0
0.198988 0.952891 0.209968 0.8 0 0
0.237321 0.604566 0.172788 0.8 0 0
0.255174 0.478499 0.142956 0.8 0 0
0.451781 0.644705 0.172566 0.8 0 0
0.552501 0.774166 0.227714 0.8 0 0
0.336376 0.527371 0.240903 0.8 0 0
0.267781 0.493148 0.240982 0.8 0 0
0.094472 0.240734 0.202436 0.8 0 0
0.025990 0.864796 0.269668 0.8 0 0
0.107155 0.141514 0.134412 0.8 0 0
0.091362 0.113098 0.179933 0.8 0 0
0.377264 0.949888 0.211440 0.8 0 0
0.233232 0.480065 0.241029 0.8 0 0
0.300681 0.519913 0.057933 0.8 0 0
0.549286 0.228449 0.138150 0.8 0 0
0.284236 0.279311 0.239038 0.8 0 0
0.330739 0.249892 0.134731 0.8 0 0
0.098094 0.275997 0.109539 0.8 0 0
0.232643 0.155709 0.177116 0.8 0 0
0.546793 0.764061 0.162430 0.8 0 0
0.495315 0.823940 0.091835 0.8 0 0
0.275475 0.077259 0.237558 0.8 0 0
0.260304 0.208467 0.239038 0.8 0 0
0.376770 0.606914 0.173334 0.8 0 0
0.032932 0.181180 0.239029 0.8 0 0
0.550544 0.167050 0.165493 0.8 0 0
0.032932 0.156194 0.214952 0.8 0 0
0.537062 0.178201 0.146870 0.8 0 0
0.235151 0.721133 0.165812 0.8 0 0
0.098459 0.785886 0.118335 0.8 0 0
0.122114 0.860995 0.106424 0.8 0 0
0.494419 0.852773 0.209792 0.8 0 0
0.235839 0.039063 0.247098 0.8 0 0
0.452846 0.651198 0.231395 0.8 0 0
0.326740 0.796674 0.161687 0.8 0 0
0.354873 0.042967 0.247252 0.8 0 0
0.243881 0.435391 0.154255 0.8 0 0
0.240959 0.558899 0.137370 0.8 0 0
0.282050 0.949949 0.211550 0.8 0 0
0.354142 0.422791 0.239038 0.8 0 0
0.107159 0.227206 0.254914 0.8 0 0
0.224697 0.489751 0.241041 0.8 0 0
0.330963 0.682575 0.131539 0.8 0 0
0.229107 0.659380 0.172797 0.8 0 0
0.555133 0.147227 0.159867 0.8 0 0
0.077643 0.167592 0.161921 0.8 0 0
0.479115 0.820916 0.196769 0.8 0 0
0.170061 0.736517 0.224141 0.8 0 0
0.436108 0.161859 0.180225 0.8 0 0
0.480438 0.286830 0.163443 0.8 0 0
0.253243 0.197148 0.239038 0.8 0 0
0.046643 0.901240 0.176296 0.8 0 0
0.045574 0.220541 0.135960 0.8 0 0
0.338436 0.493968 0.239038 0.8 0 0
0.339055 0.591934 0.172683 0.8 0 0
0.480438 0.179392 0.107668 0.8 0 0
0.350143 0.382580 0.136820 0.8 0 0
0.328937 0.080682 0.242785 0.8 0 0
0.398355 0.899781 0.109573 0.8 0 0
0.341387 0.235726 0.176556 0.8 0 0
0.544671 0.858886 0.137636 0.8 0 0
0.319178 0.838540 0.168176 0.8 0 0
0.328563 0.420181 0.240874 0.8 0 0
0.332838 0.190101 0.239038 0.8 0 0
0.554445 0.262441 0.175298 0.8 0 0
0.364522 0.506869 0.181777 0.8 0 0
0.095927 0.780351 0.124815 0.8 0 0
0.042550 0.229545 0.138699 0.8 0 0
0.025000 0.846389 0.239343 0.8 0 0
0.377744 0.046135 0.248211 0.8 0 0
0.359294 0.637134 0.158337 0.8 0 0
0.267269 0.115331 0.190901 0.8 0 0
0.343464 0.451380 0.160160 0.8 0 0
0.330098 0.322765 0.240849 0.8 0 0
0.547494 0.296484 0.139551 0.8 0 0
0.512845 0.897814 0.161892 0.8 0 0
0.480438 0.227276 0.238712 0.8 0 0
0.126916 0.113311 0.222380 0.8 0 0
0.305884 0.307983 0.109381 0.8 0 0
0.269551 0.358102 0.240993 0.8 0 0
0.106329 0.215563 0.127969 0.8 0 0
0.407870 0.516504 0.182842 0.8 0 0
0.287004 0.641550 0.240959 0.8 0 0
0.469581 0.831355 0.220327 0.8 0 0
0.317414 0.186746 0.239038 0.8 0 0
0.026268 0.809144 0.188859 0.8 0 0
0.345335 0.776011 0.170443 0.8 0 0
0.110879 0.884144 0.089235 0.8 0 0
0.466438 0.939234 0.203297 0.8 0 0
0.291222 0.956208 0.058144 0.8 0 0
0.060042 0.849868 0.224209 0.8 0 0
0.485856 0.765724 0.207082 0.8 0 0
0.060688 0.861675 0.085653 0.8 0 0
0.280227 0.501436 0.172738 0.8 0 0
0.075797 0.251080 0.191914 0.8 0 0
0.515722 0.830018 0.152387 0.8 0 0
0.032932 0.166856 0.126945 0.8 0 0
0.248418 0.470648 0.189366 0.8 0 0
0.234125 0.353296 0.160821 0.8 0 0
0.555133 0.176422 0.238898 0.8 0 0
0.524666 0.901729 0.174079 0.8 0 0
0.039109 0.182118 0.143525 0.8 0 0
0.273119 0.966777 0.051932 0.8 0 0
0.160334 0.723774 0.213102 0.8 0 0
0.041683 0.856695 0.277141 0.8 0 0
0.554244 0.884743 0.215704 0.8 0 0
0.559219 0.817094 0.158327 0.8 0 0
0.535735 0.948417 0.149900 0.8 0 0
0.505212 0.863347 0.221075 0.8 0 0
0.048188 0.197790 0.135826 0.8 0 0
0.363277 0.455118 0.205995 0.8 0 0
0.398355 0.957528 0.162493 0.8 0 0
0.103990 0.901480 0.183252 0.8 0 0
0.073038 0.196707 0.139703 0.8 0 0
0.319895 0.616400 0.172703 0.8 0 0
0.512909 0.893300 0.155622 0.8 0 0
0.106712 0.258695 0.156084 0.8 0 0
0.504784 0.818952 0.171790 0.8 0 0
0.219301 0.961243 0.136366 0.8 0 0
0.255353 0.508056 0.141856 0.8 0 0
0.223957 0.440299 0.185170 0.8 0 0
0.094315 0.839334 0.216937 0.8 0 0
0.171941 0.511828 0.230606 0.8 0 0
0.139001 0.853567 0.186086 0.8 0 0
0.115808 0.843286 0.139391 0.8 0 0
0.206908 0.505445 0.172825 0.8 0 0
0.298696 0.508285 0.099614 0.8 0 0
0.553195 0.839425 0.220838 0.8 0 0
0.234847 0.335492 0.224017 0.8 0 0
0.425940 0.532930 0.172590 0.8 0 0
0.503565 0.192046 0.083684 0.8 0 0
0.531775 0.227386 0.193626 0.8 0 0
0.286974 0.738095 0.114380 0.8 0 0
0.111039 0.226283 0.216526 0.8 0 0
0.126998 0.181238 0.218422 0.8 0 0
0.392625 0.538517 0.172625 0.8 0 0
0.067041 0.864172 0.138053 0.8 0 0
0.307603 0.483507 0.130264 0.8 0 0
0.452371 0.094632 0.226105 0.8 0 0
0.496854 0.211093 0.187322 0.8 0 0
0.297124 0.340025 0.102427 0.8 0 0
0.247550 0.220914 0.178581 0.8 0 0
0.367668 0.581061 0.240875 0.8 0 0
0.394526 0.950062 0.145554 0.8 0 0
0.562902 0.780954 0.172579 0.8 0 0
0.517124 0.177993 0.152451 0.8 0 0
0.482259 0.176567 0.091969 0.8 0 0
0.256034 0.687230 0.240991 0.8 0 0
0.178256 0.925411 0.103198 0.8 0 0
0.078209 0.169930 0.168550 0.8 0 0
0.555133 0.218592 0.248071 0.8 0 0
0.507664 0.127199 0.227755 0.8 0 0
0.553316 0.819711 0.160156 0.8 0 0
0.279192 0.804279 0.148253 0.8 0 0
0.440779 0.663393 0.240799 0.8 0 0
0.320998 0.675554 0.172703 0.8 0 0
0.488049 0.113504 0.185077 0.8 0 0
0.443030 0.518562 0.209007 0.8 0 0
0.315015 0.493583 0.140442 0.8 0 0
0.268571 0.534876 0.072827 0.8 0 0
0.231899 0.728129 0.169055 0.8 0 0
0.101053 0.210372 0.133676 0.8 0 0
0.106693 0.127293 0.152123 0.8 0 0
0.091349 0.826367 0.206106 0.8 0 0
0.178256 0.945995 0.083659 0.8 0 0
0.248512 0.708839 0.172788 0.8 0 0
0.227648 0.391011 0.215216 0.8 0 0
0.556368 0.825394 0.157625 0.8 0 0
0.199644 0.875600 0.195595 0.8 0 0
0.487900 0.861750 0.224729 0.8 0 0
0.322338 0.744312 0.172697 0.8 0 0
0.046783 0.199913 0.217075 0.8 0 0
0.509203 0.902091 0.184450 0.8 0 0
0.368908 0.682732 0.173139 0.8 0 0
0.507648 0.876832 0.145885 0.8 0 0
0.465952 0.897512 0.141043 0.8 0 0
0.280467 0.508096 0.131705 0.8 0 0
0.487885 0.875451 0.221980 0.8 0 0
0.498710 0.170612 0.190300 0.8 0 0
0.295336 0.593703 0.172728 0.8 0 0
0.084959 0.303887 0.189934 0.8 0 0
0.435559 0.029207 0.247546 0.8 0 0
0.510508 0.247206 0.165903 0.8 0 0
0.554075 0.157407 0.106430 0.8 0 0
0.183900 0.906668 0.104140 0.8 0 0
0.510049 0.168395 0.159984 0.8 0 0
0.528439 0.210663 0.137932 0.8 0 0
0.280442 0.494009 0.138620 0.8 0 0
0.219060 0.829790 0.185367 0.8 0 0
0.323175 0.334774 0.239038 0.8 0 0
0.211355 0.459898 0.172863 0.8 0 0
0.414780 0.137614 0.217384 0.8 0 0
0.329795 0.738497 0.147268 0.8 0 0
0.267521 0.184435 0.146653 0.8 0 0
0.343852 0.519055 0.121402 0.8 0 0
0.327262 0.679828 0.240917 0.8 0 0
0.219409 0.833747 0.212608 0.8 0 0
0.270711 0.665126 0.240976 0.8 0 0
0.092163 0.222728 0.136542 0.8 0 0
0.270466 0.585641 0.079489 0.8 0 0
0.148609 0.642299 0.172880 0.8 0 0
0.558832 0.933443 0.125711 0.8 0 0
0.230138 0.386690 0.158457 0.8 0 0
0.035171 0.288698 0.131840 0.8 0 0
0.184378 0.956957 0.145708 0.8 0 0
0.552578 0.883230 0.273576 0.8 0 0
0.104721 0.223200 0.132817 0.8 0 0
0.499685 0.206745 0.137961 0.8 0 0
0.561903 0.919019 0.245740 0.8 0 0
0.367550 0.844001 0.215748 0.8 0 0
0.480438 0.276622 0.214997 0.8 0 0
0.554239 0.261479 0.180127 0.8 0 0
0.122114 0.901736 0.130202 0.8 0 0
0.480835 0.275925 0.126244 0.8 0 0
0.490195 0.841988 0.139929 0.8 0 0
0.099300 0.231797 0.270865 0.8 0 0
0.087977 0.232681 0.140620 0.8 0 0
0.330277 0.741922 0.172684 0.8 0 0
0.195732 0.770367 0.219187 0.8 0 0
0.465785 0.931349 0.210347 0.8 0 0
0.496345 0.860039 0.277067 0.8 0 0
0.338540 0.210168 0.227224 0.8 0 0
0.068768 0.235156 0.212909 0.8 0 0
0.066194 0.861521 0.221220 0.8 0 0
0.347043 0.645430 0.145375 0.8 0 0
0.518870 0.287261 0.122844 0.8 0 0
0.071641 0.248652 0.195940 0.8 0 0
0.522994 0.303857 0.190323 0.8 0 0
0.235519 0.325304 0.191941 0.8 0 0
0.363379 0.895238 0.232125 0.8 0 0
0.357618 0.735400 0.172646 0.8 0 0
0.283541 0.344730 0.240960 0.8 0 0
0.279929 0.791930 0.172764 0.8 0 0
0.490776 0.113960 0.165138 0.8 0 0
0.214682 0.381249 0.112535 0.8 0 0
0.538637 0.209958 0.189368 0.8 0 0
0.192567 0.874220 0.194967 0.8 0 0
0.034220 0.825090 0.271233 0.8 0 0
0.038475 0.779551 0.126086 0.8 0 0
0.056667 0.900933 0.191828 0.8 0 0
0.094071 0.851486 0.138063 0.8 0 0
0.543805 0.845565 0.223176 0.8 0 0
0.473385 0.951934 0.199302 0.8 0 0
0.054157 0.884869 0.215597 0.8 0 0
0.228980 0.380919 0.185643 0.8 0 0
0.112368 0.901412 0.178475 0.8 0 0
0.231442 0.801891 0.172863 0.8 0 0
0.500606 0.878216 0.146733 0.8 0 0
0.122114 0.782679 0.200026 0.8 0 0
0.183900 0.971211 0.045396 0.8 0 0
0.305292 0.046072 0.241782 0.8 0 0
0.512233 0.221724 0.219761 0.8 0 0
0.284723 0.625155 0.240961 0.8 0 0
0.240865 0.279411 0.168616 0.8 0 0
0.224273 0.427521 0.179806 0.8 0 0
0.331248 0.442002 0.160083 0.8 0 0
0.540139 0.238129 0.150519 0.8 0 0
0.482046 0.190233 0.140795 0.8 0 0
0.273580 0.874873 0.174309 0.8 0 0
0.364836 0.518822 0.155712 0.8 0 0
0.351928 0.336222 0.235798 0.8 0 0
0.422454 0.645261 0.172597 0.8 0 0
0.251422 0.345501 0.119401 0.8 0 0
0.034479 0.166129 0.202684 0.8 0 0
0.340046 0.472544 0.239038 0.8 0 0
0.219106 0.595411 0.241029 0.8 0 0
0.121316 0.223635 0.215872 0.8 0 0
0.318433 0.762851 0.141774 0.8 0 0
0.501925 0.951675 0.162205 0.8 0 0
0.424806 0.634849 0.172594 0.8 0 0
0.480706 0.272217 0.124118 0.8 0 0
0.553658 0.217074 0.227209 0.8 0 0
0.069441 0.856984 0.141157 0.8 0 0
0.347004 0.450708 0.239038 0.8 0 0
0.514271 0.172736 0.153545 0.8 0 0
0.104844 0.137902 0.118670 0.8 0 0
0.155533 0.844548 0.181042 0.8 0 0
0.362329 0.784734 0.240852 0.8 0 0
0.133813 0.615223 0.190306 0.8 0 0
0.218562 0.485877 0.187115 0.8 0 0
0.492989 0.879373 0.142495 0.8 0 0
0.440518 0.702830 0.192997 0.8 0 0
0.093862 0.297911 0.142997 0.8 0 0
0.241893 0.265276 0.225320 0.8 0 0
0.403999 0.950217 0.162131 0.8 0 0
0.495265 0.859113 0.137654 0.8 0 0
0.500022 0.818583 0.200326 0.8 0 0
0.280750 0.093605 0.187148 0.8 0 0
0.345979 0.277491 0.236016 0.8 0 0
0.035647 0.777679 0.233447 0.8 0 0
0.116277 0.899316 0.164473 0.8 0 0
0.333110 0.454311 0.151319 0.8 0 0
0.328442 0.522690 0.240909 0.8 0 0
0.326101 0.879545 0.172657 0.8 0 0
0.245920 0.563953 0.129495 0.8 0 0
0.278537 0.781758 0.140414 0.8 0 0
0.122114 0.787312 0.173547 0.8 0 0
0.516216 0.953177 0.189663 0.8 0 0
0.352220 0.337310 0.214032 0.8 0 0
0.328678 0.861405 0.172652 0.8 0 0
0.093276 0.897006 0.172489 0.8 0 0
0.042341 0.765516 0.156374 0.8 0 0
0.316659 0.180414 0.146061 0.8 0 0
0.187188 0.060680 0.247690 0.8 0 0
0.552998 0.801635 0.258992 0.8 0 0
0.300000 0.472859 0.125815 0.8 0 0
0.499939 0.878091 0.159722 0.8 0 0
0.320237 0.210837 0.154781 0.8 0 0
0.272556 0.089673 0.240408 0.8 0 0
0.043940 0.251210 0.191504 0.8 0 0
0.032932 0.255589 0.228944 0.8 0 0
0.525566 0.181051 0.269683 0.8 0 0
0.511252 0.820475 0.158909 0.8 0 0
0.058758 0.902159 0.179014 0.8 0 0
0.080468 0.866641 0.086044 0.8 0 0
0.235428 0.075027 0.245188 0.8 0 0
0.361357 0.154874 0.222629 0.8 0 0
0.219409 0.839754 0.218490 0.8 0 0
0.086025 0.907275 0.263209 0.8 0 0
0.054552 0.229653 0.138765 0.8 0 0
0.290944 0.140880 0.156030 0.8 0 0
0.468699 0.207528 0.176638 0.8 0 0
0.265504 0.899299 0.231609 0.8 0 0
0.251030 0.190181 0.217540 0.8 0 0
0.266189 0.754132 0.146360 0.8 0 0
0.332180 0.167323 0.222647 0.8 0 0
0.531385 0.894304 0.155910 0.8 0 0
0.337808 0.706568 0.148172 0.8 0 0
0.417484 0.844674 0.194878 0.8 0 0
0.499717 0.266618 0.254478 0.8 0 0
0.240211 0.725363 0.241008 0.8 0 0
0.224331 0.659376 0.172802 0.8 0 0
0.539229 0.261331 0.258040 0.8 0 0
0.481349 0.279655 0.121802 0.8 0 0
0.061265 0.165547 0.172947 0.8 0 0
0.324688 0.698616 0.126594 0.8 0 0
0.391142 0.800589 0.240804 0.8 0 0
0.352101 0.524655 0.172664 0.8 0 0
0.194788 0.509926 0.182842 0.8 0 0
0.472893 0.239839 0.202895 0.8 0 0
0.090729 0.869403 0.224097 0.8 0 0
0.243897 0.467654 0.134025 0.8 0 0
0.275789 0.584335 0.067372 0.8 0 0
0.273518 0.482444 0.081390 0.8 0 0
0.283742 0.508014 0.152593 0.8 0 0
0.523044 0.824912 0.209814 0.8 0 0
0.219409 0.836595 0.213653 0.8 0 0
0.185494 0.565632 0.241064 0.8 0 0
0.253001 0.585641 0.240994 0.8 0 0
0.335170 0.697193 0.142331 0.8 0 0
0.367550 0.885431 0.230103 0.8 0 0
0.183900 0.920463 0.081403 0.8 0 0
0.276711 0.093164 0.239038 0.8 0 0
0.025000 0.924229 0.191820 0.8 0 0
0.351042 0.949924 0.150643 0.8 0 0
0.484998 0.844019 0.086448 0.8 0 0
0.085093 0.853258 0.085720 0.8 0 0
0.391221 0.508558 0.240839 0.8 0 0
0.231924 0.474673 0.241040 0.8 0 0
0.187548 0.958332 0.206825 0.8 0 0
0.290222 0.319574 0.104879 0.8 0 0
0.341653 0.308268 0.137786 0.8 0 0
0.218920 0.938743 0.218155 0.8 0 0
0.499192 0.211521 0.176509 0.8 0 0
0.247199 0.851011 0.238661 0.8 0 0
0.137753 0.678598 0.172894 0.8 0 0
0.120547 0.928057 0.236051 0.8 0 0
0.507301 0.848667 0.137947 0.8 0 0
0.481149 0.220585 0.090569 0.8 0 0
0.381767 0.782936 0.172566 0.8 0 0
0.095499 0.259159 0.259371 0.8 0 0
0.107159 0.156589 0.130505 0.8 0 0
0.053194 0.250638 0.165136 0.8 0 0
0.251385 0.374108 0.115389 0.8 0 0
0.040562 0.295707 0.137676 0.8 0 0
0.276989 0.833413 0.160784 0.8 0 0
0.471521 0.823233 0.209732 0.8 0 0
0.243801 0.639724 0.241003 0.8 0 0
0.282007 0.488003 0.182507 0.8 0 0
0.282407 0.499663 0.172734 0.8 0 0
0.247725 0.971193 0.042163 0.8 0 0
0.095669 0.829958 0.152439 0.8 0 0
0.086768 0.883725 0.145161 0.8 0 0
0.102322 0.188017 0.217176 0.8 0 0
0.282540 0.793699 0.141321 0.8 0 0
0.241414 0.634740 0.241006 0.8 0 0
0.264095 0.665700 0.117537 0.8 0 0
0.474794 0.847945 0.276452 0.8 0 0
0.376607 0.696523 0.172641 0.8 0 0
0.511303 0.899030 0.197766 0.8 0 0
0.398946 0.209727 0.191712 0.8 0 0
0.045997 0.873966 0.218028 0.8 0 0
0.235896 0.321924 0.199436 0.8 0 0
0.086586 0.780444 0.124707 0.8 0 0
0.391452 0.765517 0.240829 0.8 0 0
0.331473 0.731855 0.146955 0.8 0 0
0.536483 0.299454 0.209287 0.8 0 0
0.545912 0.816213 0.168127 0.8 0 0
0.108023 0.862828 0.141472 0.8 0 0
0.051479 0.142585 0.108849 0.8 0 0
0.291827 0.713287 0.101132 0.8 0 0
0.466666 0.911275 0.175729 0.8 0 0
0.312051 0.514128 0.059078 0.8 0 0
0.337016 0.412211 0.146471 0.8 0 0
0.481332 0.203952 0.227563 0.8 0 0
0.401240 0.711069 0.240839 0.8 0 0
0.033478 0.831640 0.216211 0.8 0 0
0.411227 0.488583 0.182842 0.8 0 0
0.252484 0.427520 0.241029 0.8 0 0
0.267940 0.152510 0.162597 0.8 0 0
0.219409 0.853057 0.220152 0.8 0 0
0.391707 0.737743 0.240848 0.8 0 0
0.555133 0.274919 0.156183 0.8 0 0
0.287589 0.818159 0.172746 0.8 0 0
0.478976 0.184661 0.215685 0.8 0 0
0.307703 0.059820 0.214849 0.8 0 0
0.453146 0.614496 0.227686 0.8 0 0
0.032932 0.191015 0.114942 0.8 0 0
0.456059 0.091907 0.242571 0.8 0 0
0.074840 0.944574 0.221966 0.8 0 0
0.346471 0.700473 0.156464 0.8 0 0
0.087959 0.870794 0.182936 0.8 0 0
0.246186 0.230179 0.177112 0.8 0 0
0.053040 0.248642 0.183773 0.8 0 0
0.537190 0.942644 0.226049 0.8 0 0
0.072172 0.898870 0.166277 0.8 0 0
0.465785 0.923786 0.150770 0.8 0 0
0.312212 0.949988 0.064712 0.8 0 0
0.363660 0.470171 0.226334 0.8 0 0
0.481225 0.125136 0.147819 0.8 0 0
0.276475 0.224459 0.239038 0.8 0 0
0.530337 0.901802 0.188127 0.8 0 0
0.027143 0.847054 0.272355 0.8 0 0
0.497493 0.842105 0.171091 0.8 0 0
0.403999 0.944411 0.126083 0.8 0 0
0.524011 0.239317 0.268924 0.8 0 0
0.461981 0.050889 0.250984 0.8 0 0
0.266321 0.616670 0.097661 0.8 0 0
0.276227 0.032510 0.243065 0.8 0 0
0.046598 0.866662 0.224031 0.8 0 0
0.059907 0.900635 0.190051 0.8 0 0
0.316502 0.081361 0.241318 0.8 0 0
0.547246 0.241732 0.267924 0.8 0 0
0.044246 0.827314 0.150073 0.8 0 0
0.248353 0.848206 0.172831 0.8 0 0
0.088781 0.113172 0.180876 0.8 0 0
0.235478 0.402363 0.131590 0.8 0 0
0.271951 0.677020 0.106805 0.8 0 0
0.302906 0.480808 0.074516 0.8 0 0
0.210499 0.693699 0.172820 0.8 0 0
0.505092 0.259462 0.259186 0.8 0 0
0.111039 0.234278 0.213102 0.8 0 0
0.465785 0.781027 0.199963 0.8 0 0
0.354163 0.524858 0.240883 0.8 0 0
0.355677 0.701134 0.172667 0.8 0 0
0.379596 0.610327 0.175932 0.8 0 0
0.547991 0.890940 0.209742 0.8 0 0
0.046889 0.762266 0.185245 0.8 0 0
0.071062 0.116981 0.204895 0.8 0 0
0.331294 0.882789 0.234125 0.8 0 0
0.191895 0.477411 0.234715 0.8 0 0
0.221251 0.647413 0.172805 0.8 0 0
0.391264 0.513193 0.234715 0.8 0 0
0.339988 0.536342 0.115656 0.8 0 0
0.532487 0.845298 0.276244 0.8 0 0
0.398355 0.908449 0.062724 0.8 0 0
0.130883 0.189724 0.176403 0.8 0 0
0.180602 0.897401 0.113470 0.8 0 0
0.347587 0.684006 0.172674 0.8 0 0
0.085401 0.147216 0.104894 0.8 0 0
0.562902 0.786830 0.182829 0.8 0 0
0.398962 0.045008 0.248564 0.8 0 0
0.533158 0.197891 0.202372 0.8 0 0
0.061326 0.195200 0.215724 0.8 0 0
0.277988 0.246156 0.120694 0.8 0 0
0.352980 0.943694 0.146947 0.8 0 0
0.536291 0.856506 0.221396 0.8 0 0
0.226318 0.576180 0.241021 0.8 0 0
0.243778 0.443042 0.239038 0.8 0 0
0.325900 0.080532 0.242470 0.8 0 0
0.122114 0.787330 0.151698 0.8 0 0
0.178256 0.923199 0.127349 0.8 0 0
0.404923 0.752126 0.175967 0.8 0 0
0.335869 0.387400 0.239038 0.8 0 0
0.478028 0.839080 0.141134 0.8 0 0
0.094845 0.179222 0.269241 0.8 0 0
0.273551 0.953959 0.060243 0.8 0 0
0.485313 0.164640 0.175511 0.8 0 0
0.498844 0.276792 0.245769 0.8 0 0
0.040489 0.913502 0.259392 0.8 0 0
0.104122 0.232912 0.217814 0.8 0 0
0.278226 0.764856 0.240975 0.8 0 0
0.562902 0.815072 0.234319 0.8 0 0
0.259671 0.515163 0.093886 0.8 0 0
0.328102 0.164075 0.239038 0.8 0 0
0.344483 0.640827 0.140794 0.8 0 0
0.100439 0.766100 0.208647 0.8 0 0
0.334315 0.921943 0.224141 0.8 0 0
0.107159 0.243916 0.247102 0.8 0 0
0.253344 0.482730 0.167014 0.8 0 0
0.264267 0.641330 0.240982 0.8 0 0
0.533952 0.937231 0.127707 0.8 0 0
0.485345 0.222301 0.140172 0.8 0 0
0.364903 0.158838 0.223956 0.8 0 0
0.525008 0.953386 0.175571 0.8 0 0
0.398355 0.912695 0.039993 0.8 0 0
0.111039 0.229878 0.183362 0.8 0 0
0.232495 0.400928 0.138949 0.8 0 0
0.337324 0.451263 0.172647 0.8 0 0
0.368026 0.828762 0.238656 0.8 0 0
0.033203 0.136709 0.218485 0.8 0 0
0.480438 0.221014 0.255879 0.8 0 0
0.500187 0.244865 0.151918 0.8 0 0
0.468885 0.858677 0.133228 0.8 0 0
0.091340 0.113993 0.164718 0.8 0 0
0.032932 0.224476 0.255818 0.8 0 0
0.520158 0.765114 0.204543 0.8 0 0
0.562610 0.803502 0.119038 0.8 0 0
0.058680 0.178925 0.151360 0.8 0 0
0.214895 0.517003 0.241038 0.8 0 0
0.045908 0.768981 0.216568 0.8 0 0
0.122114 0.920549 0.134281 0.8 0 0
0.426010 0.531421 0.172589 0.8 0 0
0.098053 0.199783 0.221382 0.8 0 0
0.339873 0.218538 0.200308 0.8 0 0
0.032932 0.222972 0.235179 0.8 0 0
0.346952 0.877980 0.172611 0.8 0 0
0.285967 0.713948 0.103761 0.8 0 0
0.304172 0.557102 0.172719 0.8 0 0
0.481063 0.178564 0.096252 0.8 0 0
0.137621 0.532273 0.221950 0.8 0 0
0.263213 0.542886 0.088167 0.8 0 0
0.553031 0.859350 0.277122 0.8 0 0
0.245223 0.443956 0.138631 0.8 0 0
0.554708 0.849580 0.142065 0.8 0 0
0.480438 0.147830 0.147815 0.8 0 0
0.382261 0.963887 0.140335 0.8 0 0
0.551668 0.896325 0.093689 0.8 0 0
0.507440 0.896889 0.201094 0.8 0 0
0.133142 0.118941 0.220864 0.8 0 0
0.415810 0.864748 0.196978 0.8 0 0
0.517646 0.227961 0.271786 0.8 0 0
0.156206 0.499563 0.230027 0.8 0 0
0.509657 0.852558 0.221084 0.8 0 0
0.480438 0.139436 0.142600 0.8 0 0
0.467504 0.854445 0.141356 0.8 0 0
0.294802 0.658007 0.073154 0.8 0 0
0.258868 0.147324 0.198086 0.8 0 0
0.122114 0.792619 0.138791 0.8 0 0
0.276178 0.041736 0.239614 0.8 0 0
0.083964 0.869699 0.139289 0.8 0 0
0.196319 0.833240 0.239705 0.8 0 0
0.440276 0.221640 0.181046 0.8 0 0
0.273100 0.531898 0.061263 0.8 0 0
0.269442 0.116417 0.182850 0.8 0 0
0.256639 0.535211 0.172769 0.8 0 0
0.539794 0.225028 0.141302 0.8 0 0
0.551308 0.158019 0.256979 0.8 0 0
0.365336 0.960875 0.136753 0.8 0 0
0.187168 0.868867 0.176035 0.8 0 0
0.106436 0.226125 0.264637 0.8 0 0
0.344387 0.258961 0.220163 0.8 0 0
0.108107 0.848276 0.276478 0.8 0 0
0.505928 0.865607 0.141920 0.8 0 0
0.561692 0.910887 0.254962 0.8 0 0
0.519239 0.152277 0.255435 0.8 0 0
0.453146 0.640859 0.210882 0.8 0 0
0.403876 0.162684 0.178263 0.8 0 0
0.492631 0.869999 0.219613 0.8 0 0
0.069529 0.852510 0.221081 0.8 0 0
0.490230 0.180552 0.212069 0.8 0 0
0.301539 0.515505 0.037909 0.8 0 0
0.242037 0.298284 0.241083 0.8 0 0
0.120955 0.204183 0.226551 0.8 0 0
0.140715 0.525548 0.216696 0.8 0 0
0.105930 0.244793 0.094276 0.8 0 0
0.246170 0.259201 0.239038 0.8 0 0
0.472273 0.782457 0.123018 0.8 0 0
0.496038 0.858538 0.277185 0.8 0 0
0.503603 0.946926 0.146300 0.8 0 0
0.304472 0.152118 0.153743 0.8 0 0
0.562851 0.886198 0.105773 0.8 0 0
0.133813 0.623473 0.182141 0.8 0 0
0.232163 0.507947 0.171271 0.8 0 0
0.307976 0.263627 0.117468 0.8 0 0
0.304371 0.585028 0.050150 0.8 0 0
0.079269 0.877150 0.087557 0.8 0 0
0.204085 0.470649 0.241087 0.8 0 0
0.146474 0.539406 0.172884 0.8 0 0
0.345275 0.472620 0.148816 0.8 0 0
0.329695 0.079120 0.239753 0.8 0 0
0.352314 0.583791 0.142379 0.8 0 0
0.067196 0.839501 0.145552 0.8 0 0
0.456206 0.169670 0.178169 0.8 0 0
0.113326 0.840650 0.087074 0.8 0 0
0.054509 0.252529 0.169998 0.8 0 0
0.509713 0.231792 0.085139 0.8 0 0
0.505727 0.212330 0.133830 0.8 0 0
0.533966 0.253165 0.175907 0.8 0 0
0.048924 0.853525 0.137197 0.8 0 0
0.398355 0.964744 0.152238 0.8 0 0
0.097383 0.827721 0.090269 0.8 0 0
0.242418 0.384357 0.121503 0.8 0 0
0.375901 0.751208 0.240863 0.8 0 0
0.105500 0.852580 0.180944 0.8 0 0
0.032932 0.230443 0.124717 0.8 0 0
0.468238 0.846619 0.223360 0.8 0 0
0.345686 0.393210 0.169000 0.8 0 0
0.562499 0.905420 0.210659 0.8 0 0
0.183900 0.928846 0.082496 0.8 0 0
0.245385 0.679951 0.241002 0.8 0 0
0.387836 0.032828 0.246162 0.8 0 0
0.089853 0.172187 0.202911 0.8 0 0
0.510111 0.897801 0.177425 0.8 0 0
0.545240 0.173161 0.266730 0.8 0 0
0.120928 0.845900 0.130180 0.8 0 0
0.379340 0.565059 0.173647 0.8 0 0
0.327476 0.206062 0.239038 0.8 0 0
0.317508 0.184560 0.145298 0.8 0 0
0.353115 0.718524 0.172660 0.8 0 0
0.080331 0.817184 0.198789 0.8 0 0
0.037994 0.848055 0.276461 0.8 0 0
0.099214 0.180231 0.210869 0.8 0 0
0.340188 0.473534 0.185953 0.8 0 0
0.510707 0.953533 0.185153 0.8 0 0
0.371526 0.380356 0.107026 0.8 0 0
0.421999 0.592238 0.240819 0.8 0 0
0.471593 0.814677 0.174724 0.8 0 0
0.049899 0.266884 0.254251 0.8 0 0
0.561213 0.911881 0.255087 0.8 0 0
0.272226 0.592082 0.077481 0.8 0 0
0.025000 0.870922 0.239357 0.8 0 0
0.287003 0.508273 0.101297 0.8 0 0
0.301013 0.453458 0.129812 0.8 0 0
0.122114 0.789685 0.178340 0.8 0 0
0.299614 0.639310 0.172724 0.8 0 0
0.025793 0.816782 0.104509 0.8 0 0
0.098927 0.898894 0.196252 0.8 0 0
0.050549 0.292600 0.131560 0.8 0 0
0.328604 0.325007 0.239038 0.8 0 0
0.146343 0.513315 0.218432 0.8 0 0
0.403999 0.937824 0.044032 0.8 0 0
0.265482 0.373806 0.239038 0.8 0 0
0.254218 0.295382 0.125295 0.8 0 0
0.558276 0.764328 0.170816 0.8 0 0
0.525593 0.822037 0.156359 0.8 0 0
0.034304 0.131822 0.131348 0.8 0 0
0.337496 0.386334 0.155899 0.8 0 0
0.554271 0.124170 0.196170 0.8 0 0
0.527016 0.147420 0.104720 0.8 0 0
0.369340 0.497837 0.172633 0.8 0 0
0.370524 0.031998 0.245739 0.8 0 0
0.353467 0.553586 0.141782 0.8 0 0
0.090163 0.242948 0.199140 0.8 0 0
0.297248 0.720412 0.104312 0.8 0 0
0.253307 0.583133 0.120507 0.8 0 0
0.307644 0.424722 0.172673 0.8 0 0
0.107159 0.133777 0.185442 0.8 0 0
0.367580 0.790616 0.172588 0.8 0 0
0.322106 0.169162 0.157612 0.8 0 0
0.497267 0.248779 0.160373 0.8 0 0
0.288290 0.408411 0.240953 0.8 0 0
0.085288 0.274035 0.248144 0.8 0 0
0.278033 0.874604 0.172267 0.8 0 0
0.231945 0.458210 0.239038 0.8 0 0
0.274173 0.963809 0.140447 0.8 0 0
0.556938 0.897228 0.094289 0.8 0 0
0.369926 0.650292 0.169624 0.8 0 0
0.153538 0.597258 0.172875 0.8 0 0
0.284539 0.106184 0.177556 0.8 0 0
0.510423 0.848654 0.086083 0.8 0 0
0.271361 0.907628 0.228892 0.8 0 0
0.324369 0.323217 0.240860 0.8 0 0
0.490716 0.168946 0.181434 0.8 0 0
0.314446 0.904068 0.172698 0.8 0 0
0.070070 0.885424 0.147466 0.8 0 0
0.454310 0.067626 0.247164 0.8 0 0
0.085055 0.247592 0.265496 0.8 0 0
0.539657 0.294621 0.135055 0.8 0 0
0.544477 0.173469 0.159079 0.8 0 0
0.032932 0.224790 0.121750 0.8 0 0
0.315186 0.126457 0.239038 0.8 0 0
0.223103 0.911607 0.173116 0.8 0 0
0.468699 0.174822 0.217944 0.8 0 0
0.224415 0.420942 0.192012 0.8 0 0
0.051802 0.901401 0.178335 0.8 0 0
0.447990 0.685434 0.213330 0.8 0 0
0.453146 0.605268 0.229479 0.8 0 0
0.044637 0.173191 0.196473 0.8 0 0
0.060804 0.185844 0.085172 0.8 0 0
0.258025 0.164750 0.174727 0.8 0 0
0.227986 0.640760 0.160879 0.8 0 0
0.178227 0.170039 0.223824 0.8 0 0
0.052461 0.950232 0.156193 0.8 0 0
0.308003 0.898891 0.172698 0.8 0 0
0.398335 0.957160 0.140653 0.8 0 0
0.352830 0.343544 0.214549 0.8 0 0
0.414815 0.482072 0.184630 0.8 0 0
0.396843 0.464073 0.235793 0.8 0 0
0.499007 0.945142 0.220594 0.8 0 0
0.033764 0.262359 0.109971 0.8 0 0
0.080906 0.303832 0.165370 0.8 0 0
0.360645 0.520447 0.240874 0.8 0 0
0.354315 0.033871 0.244802 0.8 0 0
0.558914 0.897976 0.096732 0.8 0 0
0.537251 0.220124 0.202553 0.8 0 0
0.402167 0.506631 0.240825 0.8 0 0
0.321951 0.480068 0.240902 0.8 0 0
0.233343 0.326383 0.241097 0.8 0 0
0.334014 0.079947 0.240163 0.8 0 0
0.279219 0.500905 0.043114 0.8 0 0
0.265846 0.116442 0.193876 0.8 0 0
0.480743 0.246286 0.219574 0.8 0 0
0.166422 0.631599 0.241083 0.8 0 0
0.026004 0.848888 0.269625 0.8 0 0
0.376705 0.694008 0.172640 0.8 0 0
0.243693 0.712380 0.241004 0.8 0 0
0.388660 0.594327 0.240854 0.8 0 0
0.480438 0.250534 0.116884 0.8 0 0
0.482046 0.193790 0.140638 0.8 0 0
0.272371 0.457519 0.130315 0.8 0 0
0.493814 0.906742 0.099055 0.8 0 0
0.450848 0.674142 0.186143 0.8 0 0
0.242576 0.421313 0.152727 0.8 0 0
0.316425 0.450102 0.097062 0.8 0 0
0.416510 0.732829 0.240823 0.8 0 0
0.032932 0.230765 0.254039 0.8 0 0
0.527124 0.232917 0.210198 0.8 0 0
0.334928 0.552355 0.240908 0.8 0 0
0.465785 0.881617 0.254844 0.8 0 0
0.364669 0.604406 0.160944 0.8 0 0
0.166936 0.849831 0.196781 0.8 0 0
0.275050 0.956750 0.057638 0.8 0 0
0.232246 0.415097 0.239038 0.8 0 0
0.512993 0.175924 0.206547 0.8 0 0
0.076606 0.133047 0.236478 0.8 0 0
0.078256 0.846629 0.223431 0.8 0 0
0.466187 0.847473 0.098919 0.8 0 0
0.280968 0.071184 0.238967 0.8 0 0
0.091043 0.113816 0.166971 0.8 0 0
0.451640 0.547580 0.195081 0.8 0 0
0.252916 0.666201 0.240994 0.8 0 0
0.232302 0.575190 0.172793 0.8 0 0
0.231094 0.655804 0.172795 0.8 0 0
0.201675 0.921955 0.224341 0.8 0 0
0.098977 0.858822 0.136926 0.8 0 0
0.267383 0.503678 0.240975 0.8 0 0
0.120777 0.848244 0.232390 0.8 0 0
0.367550 0.866361 0.204174 0.8 0 0
0.354230 0.763248 0.172638 0.8 0 0
0.100037 0.878154 0.274794 0.8 0 0
0.491673 0.304533 0.174269 0.8 0 0
0.312712 0.316549 0.240892 0.8 0 0
0.252981 0.956634 0.145928 0.8 0 0
0.489217 0.874494 0.140976 0.8 0 0
0.066116 0.777830 0.128895 0.8 0 0
0.340366 0.448935 0.133966 0.8 0 0
0.045563 0.172761 0.152160 0.8 0 0
0.052499 0.198601 0.273133 0.8 0 0
0.278430 0.587460 0.063649 0.8 0 0
0.325712 0.730551 0.138738 0.8 0 0
0.443287 0.040672 0.248675 0.8 0 0
0.241763 0.263632 0.177774 0.8 0 0
0.279655 0.507222 0.055559 0.8 0 0
0.268249 0.953837 0.205414 0.8 0 0
0.562902 0.830505 0.115665 0.8 0 0
0.552027 0.199952 0.085301 0.8 0 0
0.107159 0.222013 0.101234 0.8 0 0
0.482154 0.774311 0.227952 0.8 0 0
0.268399 0.597654 0.172756 0.8 0 0
0.179617 0.563471 0.172848 0.8 0 0
0.256544 0.622361 0.123568 0.8 0 0
0.094895 0.172934 0.153223 0.8 0 0
0.281076 0.840573 0.172758 0.8 0 0
0.425157 0.616985 0.172594 0.8 0 0
0.168890 0.041052 0.245801 0.8 0 0
0.282543 0.777167 0.134605 0.8 0 0
0.303407 0.719526 0.240942 0.8 0 0
0.099485 0.176756 0.153898 0.8 0 0
0.313158 0.453822 0.131783 0.8 0 0
0.245797 0.276935 0.145090 0.8 0 0
0.301597 0.344380 0.240913 0.8 0 0
0.338908 0.965545 0.048468 0.8 0 0
0.178256 0.965447 0.080055 0.8 0 0
0.562080 0.814401 0.151747 0.8 0 0
0.291849 0.963782 0.203501 0.8 0 0
0.299549 0.479876 0.172711 0.8 0 0
0.038491 0.861567 0.276947 0.8 0 0
0.090250 0.872967 0.152641 0.8 0 0
0.554399 0.220691 0.230062 0.8 0 0
0.454367 0.080265 0.243280 0.8 0 0
0.549192 0.837229 0.219768 0.8 0 0
0.362832 0.436713 0.203216 0.8 0 0
0.330218 0.450278 0.136764 0.8 0 0
0.113761 0.765774 0.155299 0.8 0 0
0.032932 0.170672 0.125884 0.8 0 0
0.191370 0.579514 0.241058 0.8 0 0
0.099266 0.763004 0.167957 0.8 0 0
0.398355 0.960121 0.042488 0.8 0 0
0.558721 0.836343 0.140210 0.8 0 0
0.351632 0.338206 0.169824 0.8 0 0
0.089371 0.864814 0.224475 0.8 0 0
0.398355 0.914049 0.112211 0.8 0 0
0.531321 0.952973 0.170336 0.8 0 0
0.478975 0.814634 0.175268 0.8 0 0
0.153300 0.713933 0.176154 0.8 0 0
0.025000 0.919584 0.195050 0.8 0 0
0.247304 0.521737 0.240999 0.8 0 0
0.230614 0.390912 0.150103 0.8 0 0
0.199817 0.956801 0.060418 0.8 0 0
0.363506 0.590918 0.172658 0.8 0 0
0.352689 0.630870 0.240891 0.8 0 0
0.502176 0.899485 0.165923 0.8 0 0
0.178256 0.970071 0.069243 0.8 0 0
0.207304 0.973535 0.041058 0.8 0 0
0.266964 0.847736 0.238809 0.8 0 0
0.318012 0.288485 0.115820 0.8 0 0
0.381961 0.459852 0.182842 0.8 0 0
0.183900 0.967838 0.157643 0.8 0 0
0.111039 0.183676 0.217613 0.8 0 0
0.320341 0.832723 0.239542 0.8 0 0
0.290760 0.455916 0.076311 0.8 0 0
0.040207 0.181679 0.213032 0.8 0 0
0.423442 0.594994 0.240818 0.8 0 0
0.519241 0.899323 0.195217 0.8 0 0
0.445086 0.175733 0.218780 0.8 0 0
0.398355 0.968564 0.154011 0.8 0 0
0.126757 0.174231 0.176191 0.8 0 0
0.348403 0.924777 0.173212 0.8 0 0
0.234050 0.491862 0.239038 0.8 0 0
0.562497 0.825151 0.258254 0.8 0 0
0.196906 0.721470 0.241053 0.8 0 0
0.241382 0.861304 0.237630 0.8 0 0
0.258649 0.971896 0.045121 0.8 0 0
0.122114 0.904458 0.238060 0.8 0 0
0.286445 0.440857 0.147039 0.8 0 0
0.202648 0.284611 0.181055 0.8 0 0
0.416590 0.585584 0.172603 0.8 0 0
0.562902 0.836312 0.242488 0.8 0 0
0.213869 0.552327 0.166779 0.8 0 0
0.133813 0.595369 0.179078 0.8 0 0
0.362208 0.412409 0.236237 0.8 0 0
0.420713 0.566694 0.172599 0.8 0 0
0.102875 0.191166 0.214052 0.8 0 0
0.247649 0.215590 0.198744 0.8 0 0
0.540197 0.203609 0.273527 0.8 0 0
0.510523 0.817860 0.183512 0.8 0 0
0.254668 0.406788 0.149208 0.8 0 0
0.032932 0.265841 0.229448 0.8 0 0
0.033838 0.165654 0.207946 0.8 0 0
0.133813 0.634360 0.228381 0.8 0 0
0.390265 0.513616 0.184772 0.8 0 0
0.250120 0.534472 0.118410 0.8 0 0
0.291534 0.072452 0.198068 0.8 0 0
0.220669 0.941236 0.066077 0.8 0 0
0.155150 0.716927 0.191881 0.8 0 0
0.542776 0.850783 0.225153 0.8 0 0
0.492073 0.283941 0.237399 0.8 0 0
0.238855 0.550608 0.172785 0.8 0 0
0.467657 0.805706 0.107163 0.8 0 0
0.555133 0.154376 0.123991 0.8 0 0
0.339308 0.331979 0.126337 0.8 0 0
0.514525 0.116636 0.152549 0.8 0 0
0.305392 0.503891 0.239038 0.8 0 0
0.492117 0.867962 0.142486 0.8 0 0
0.358706 0.476792 0.141477 0.8 0 0
0.121282 0.884448 0.100137 0.8 0 0
0.498780 0.173714 0.158679 0.8 0 0
0.315129 0.757440 0.240931 0.8 0 0
0.183900 0.946383 0.143019 0.8 0 0
0.068156 0.114817 0.195881 0.8 0 0
0.184095 0.478894 0.182842 0.8 0 0
0.534580 0.952982 0.170444 0.8 0 0
0.135616 0.545083 0.180907 0.8 0 0
0.530627 0.166005 0.189180 0.8 0 0
0.049324 0.195900 0.188473 0.8 0 0
0.237271 0.677722 0.172791 0.8 0 0
0.106959 0.291399 0.176044 0.8 0 0
0.061725 0.821393 0.156065 0.8 0 0
0.316980 0.673682 0.102755 0.8 0 0
0.059512 0.767521 0.149546 0.8 0 0
0.348707 0.771719 0.171800 0.8 0 0
0.107950 0.873381 0.218270 0.8 0 0
0.227085 0.959656 0.205996 0.8 0 0
0.523019 0.901399 0.184278 0.8 0 0
0.481317 0.196126 0.129705 0.8 0 0
0.054495 0.171432 0.201678 0.8 0 0
0.176150 0.113240 0.222399 0.8 0 0
0.239091 0.288477 0.199979 0.8 0 0
0.432294 0.753323 0.240788 0.8 0 0
0.034387 0.178120 0.149283 0.8 0 0
0.396229 0.839862 0.178020 0.8 0 0
0.096425 0.843168 0.176997 0.8 0 0
0.130666 0.062624 0.244322 0.8 0 0
0.157003 0.498598 0.174968 0.8 0 0
0.301640 0.497980 0.086502 0.8 0 0
0.446889 0.597003 0.172571 0.8 0 0
0.335077 0.183995 0.206325 0.8 0 0
0.452468 0.554540 0.198821 0.8 0 0
0.251820 0.187748 0.187507 0.8 0 0
0.315811 0.678560 0.240929 0.8 0 0
0.081317 0.159000 0.259607 0.8 0 0
0.104690 0.170748 0.206085 0.8 0 0
0.311397 0.638567 0.078929 0.8 0 0
0.421470 0.164438 0.176690 0.8 0 0
0.228487 0.437355 0.219619 0.8 0 0
0.100914 0.246332 0.163654 0.8 0 0
0.077435 0.768391 0.215143 0.8 0 0
0.289290 0.645432 0.240956 0.8 0 0
0.059115 0.916240 0.257243 0.8 0 0
0.542041 0.901534 0.173269 0.8 0 0
0.284166 0.243879 0.119268 0.8 0 0
0.308450 0.808944 0.240852 0.8 0 0
0.112381 0.225224 0.174681 0.8 0 0
0.257071 0.162408 0.183168 0.8 0 0
0.102276 0.855732 0.085525 0.8 0 0
0.403999 0.907954 0.065287 0.8 0 0
0.210263 0.945680 0.066077 0.8 0 0
0.333999 0.776245 0.172663 0.8 0 0
0.350904 0.482322 0.172648 0.8 0 0
0.107068 0.157229 0.204951 0.8 0 0
0.398355 0.963819 0.093267 0.8 0 0
0.071608 0.886711 0.147640 0.8 0 0
0.504314 0.203566 0.184853 0.8 0 0
0.322515 0.887487 0.233402 0.8 0 0
0.347904 0.640378 0.172674 0.8 0 0
0.387988 0.725368 0.172616 0.8 0 0
0.553511 0.194505 0.087391 0.8 0 0
0.324461 0.045395 0.244205 0.8 0 0
0.537155 0.777146 0.232578 0.8 0 0
0.100208 0.849213 0.086039 0.8 0 0
0.087924 0.802154 0.103278 0.8 0 0
0.241857 0.549228 0.134682 0.8 0 0
0.361671 0.373787 0.111869 0.8 0 0
0.348253 0.391707 0.129510 0.8 0 0
0.183972 0.748287 0.172888 0.8 0 0
0.238803 0.096394 0.225773 0.8 0 0
0.344440 0.256274 0.180817 0.8 0 0
0.228454 0.437527 0.233984 0.8 0 0
0.329152 0.755774 0.152270 0.8 0 0
0.354413 0.948526 0.145890 0.8 0 0
0.480438 0.213884 0.105358 0.8 0 0
0.047935 0.207052 0.082207 0.8 0 0
0.185094 0.635416 0.241064 0.8 0 0
0.494092 0.245576 0.202929 0.8 0 0
0.234558 0.642064 0.172791 0.8 0 0
0.264891 0.560734 0.172760 0.8 0 0
0.088712 0.882209 0.155986 0.8 0 0
0.115269 0.920603 0.109240 0.8 0 0
0.351413 0.039210 0.247278 0.8 0 0
0.432109 0.872663 0.183227 0.8 0 0
0.536178 0.838864 0.220606 0.8 0 0
0.223980 0.884884 0.172885 0.8 0 0
0.321455 0.358636 0.108087 0.8 0 0
0.278521 0.886721 0.174738 0.8 0 0
0.252925 0.378384 0.159035 0.8 0 0
0.053463 0.270737 0.105047 0.8 0 0
0.296428 0.216289 0.239038 0.8 0 0
0.181820 0.574186 0.241067 0.8 0 0
0.493667 0.901355 0.177756 0.8 0 0
0.545717 0.174669 0.205078 0.8 0 0
0.348274 0.587274 0.172673 0.8 0 0
0.378740 0.874693 0.191741 0.8 0 0
0.249283 0.962786 0.141740 0.8 0 0
0.562216 0.813414 0.151275 0.8 0 0
0.518915 0.299351 0.209537 0.8 0 0
0.328982 0.530761 0.088273 0.8 0 0
0.305525 0.949444 0.211808 0.8 0 0
0.033024 0.898470 0.163475 0.8 0 0
0.140543 0.037664 0.248809 0.8 0 0
0.540834 0.903343 0.265619 0.8 0 0
0.480438 0.211128 0.254111 0.8 0 0
0.133813 0.601032 0.206991 0.8 0 0
0.503478 0.148133 0.104111 0.8 0 0
0.038012 0.895714 0.269156 0.8 0 0
0.503926 0.261720 0.257802 0.8 0 0
0.304396 0.615654 0.061568 0.8 0 0
0.394982 0.685716 0.240846 0.8 0 0
0.033363 0.159023 0.110425 0.8 0 0
0.339840 0.048203 0.242690 0.8 0 0
0.038629 0.814232 0.182231 0.8 0 0
0.214058 0.637526 0.172812 0.8 0 0
0.533517 0.137058 0.114833 0.8 0 0
0.219409 0.855775 0.205053 0.8 0 0
0.107453 0.887622 0.154378 0.8 0 0
0.182536 0.282265 0.223034 0.8 0 0
0.058898 0.187281 0.199361 0.8 0 0
0.151799 0.843474 0.175516 0.8 0 0
0.402543 0.897401 0.055970 0.8 0 0
0.379961 0.382616 0.107938 0.8 0 0
0.260744 0.381402 0.163822 0.8 0 0
0.345813 0.382532 0.161901 0.8 0 0
0.532927 0.799398 0.257113 0.8 0 0
0.450600 0.551047 0.172567 0.8 0 0
0.332053 0.953027 0.209686 0.8 0 0
0.307131 0.058982 0.241323 0.8 0 0
0.546056 0.874259 0.140118 0.8 0 0
0.114745 0.845789 0.276283 0.8 0 0
0.329999 0.501318 0.240902 0.8 0 0
0.198191 0.488941 0.241074 0.8 0 0
0.176964 0.718983 0.241074 0.8 0 0
0.171941 0.524007 0.217194 0.8 0 0
0.115462 0.855240 0.137062 0.8 0 0
0.120570 0.806924 0.176941 0.8 0 0
0.151072 0.640053 0.172877 0.8 0 0
0.497283 0.277268 0.245211 0.8 0 0
0.326789 0.257806 0.129074 0.8 0 0
0.440128 0.872663 0.178348 0.8 0 0
0.313702 0.952211 0.167556 0.8 0 0
0.342132 0.238646 0.214981 0.8 0 0
0.447909 0.542857 0.240790 0.8 0 0
0.362299 0.414901 0.202121 0.8 0 0
0.320473 0.313148 0.239038 0.8 0 0
0.233993 0.756367 0.171721 0.8 0 0
0.451960 0.550267 0.173722 0.8 0 0
0.275698 0.405126 0.172776 0.8 0 0
0.122114 0.849032 0.104924 0.8 0 0
0.259833 0.428219 0.157969 0.8 0 0
0.543188 0.222372 0.140201 0.8 0 0
0.553331 0.763945 0.162915 0.8 0 0
0.398355 0.940767 0.093412 0.8 0 0
0.171192 0.175341 0.179627 0.8 0 0
0.118235 0.861399 0.176927 0.8 0 0
0.328958 0.739541 0.240915 0.8 0 0
0.087959 0.837095 0.184809 0.8 0 0
0.113769 0.951781 0.162648 0.8 0 0
0.311651 0.318704 0.109723 0.8 0 0
0.265881 0.584427 0.089247 0.8 0 0
0.194367 0.516054 0.184625 0.8 0 0
0.025000 0.884575 0.252660 0.8 0 0
0.331719 0.896509 0.231974 0.8 0 0
0.452721 0.655329 0.237432 0.8 0 0
0.390076 0.941859 0.069359 0.8 0 0
0.086889 0.176445 0.154261 0.8 0 0
0.336529 0.457842 0.141247 0.8 0 0
0.267819 0.673071 0.172758 0.8 0 0
0.183900 0.971888 0.157084 0.8 0 0
0.355693 0.384702 0.240811 0.8 0 0
0.535667 0.240455 0.209263 0.8 0 0
0.223256 0.468055 0.211608 0.8 0 0
0.544868 0.840230 0.221172 0.8 0 0
0.278409 0.312379 0.109194 0.8 0 0
0.320675 0.468691 0.119807 0.8 0 0
0.067008 0.880575 0.143231 0.8 0 0
0.121316 0.183049 0.197501 0.8 0 0
0.224936 0.499355 0.153227 0.8 0 0
0.112517 0.842719 0.222203 0.8 0 0
0.350547 0.318207 0.177426 0.8 0 0
0.312849 0.533286 0.050182 0.8 0 0
0.362361 0.470793 0.165440 0.8 0 0
0.532867 0.165520 0.173301 0.8 0 0
0.417763 0.849940 0.196088 0.8 0 0
0.289058 0.414649 0.239038 0.8 0 0
0.025000 0.799663 0.215694 0.8 0 0
0.477032 0.873124 0.222944 0.8 0 0
0.279172 0.487014 0.184203 0.8 0 0
0.251783 0.933826 0.220404 0.8 0 0
0.505155 0.279728 0.242331 0.8 0 0
0.294740 0.437641 0.095968 0.8 0 0
0.303698 0.606860 0.240941 0.8 0 0
0.529571 0.906901 0.099152 0.8 0 0
0.109608 0.881776 0.088667 0.8 0 0
0.361233 0.407990 0.182850 0.8 0 0
0.034511 0.838350 0.141436 0.8 0 0
0.175159 0.525319 0.172856 0.8 0 0
0.292270 0.683857 0.172734 0.8 0 0
0.312508 0.097880 0.237946 0.8 0 0
0.298500 0.959640 0.138049 0.8 0 0
0.206513 0.771168 0.241072 0.8 0 0
0.110470 0.890597 0.204652 0.8 0 0
0.044196 0.900136 0.170460 0.8 0 0
0.086694 0.293057 0.132305 0.8 0 0
0.108153 0.813663 0.178626 0.8 0 0
0.555133 0.285689 0.202772 0.8 0 0
0.446704 0.586041 0.172572 0.8 0 0
0.298129 0.677684 0.083675 0.8 0 0
0.489804 0.814176 0.095912 0.8 0 0
0.233405 0.048688 0.243711 0.8 0 0
0.233384 0.699307 0.164230 0.8 0 0
0.273199 0.079820 0.208549 0.8 0 0
0.265466 0.624400 0.240981 0.8 0 0
0.288613 0.424160 0.172707 0.8 0 0
0.321083 0.112109 0.219098 0.8 0 0
0.400233 0.644650 0.172620 0.8 0 0
0.183900 0.939027 0.041253 0.8 0 0
0.238027 0.648523 0.172788 0.8 0 0
0.465785 0.929995 0.188400 0.8 0 0
0.171941 0.486555 0.212950 0.8 0 0
0.400550 0.053580 0.245089 0.8 0 0
0.111039 0.235337 0.185859 0.8 0 0
0.274192 0.930667 0.221397 0.8 0 0
0.543508 0.867125 0.276509 0.8 0 0
0.404774 0.752319 0.198438 0.8 0 0
0.278404 0.797441 0.172771 0.8 0 0
0.484216 0.860725 0.225516 0.8 0 0
0.562902 0.883024 0.251209 0.8 0 0
0.259073 0.561644 0.172766 0.8 0 0
0.109116 0.930547 0.243500 0.8 0 0
0.337173 0.508240 0.105873 0.8 0 0
0.466565 0.942630 0.186412 0.8 0 0
0.452891 0.649709 0.195455 0.8 0 0
0.524420 0.835452 0.219506 0.8 0 0
0.374459 0.670585 0.175703 0.8 0 0
0.178256 0.929589 0.112381 0.8 0 0
0.343540 0.391440 0.171838 0.8 0 0
0.558575 0.816241 0.265574 0.8 0 0
0.087959 0.870242 0.164160 0.8 0 0
0.547028 0.762376 0.175954 0.8 0 0
0.147478 0.245566 0.225581 0.8 0 0
0.322793 0.540568 0.074824 0.8 0 0
0.359686 0.420508 0.155075 0.8 0 0
0.060009 0.863886 0.221033 0.8 0 0
0.420309 0.487203 0.180460 0.8 0 0
0.231153 0.707388 0.167286 0.8 0 0
0.286183 0.286550 0.110623 0.8 0 0
0.162560 0.846338 0.177459 0.8 0 0
0.527983 0.888399 0.090406 0.8 0 0
0.293644 0.508569 0.172729 0.8 0 0
0.471253 0.881378 0.219854 0.8 0 0
0.338879 0.265835 0.144786 0.8 0 0
0.383510 0.160793 0.219010 0.8 0 0
