0.736847 0.041908 0.124995 0.8 0 0
0.156209 0.152292 0.091860 0.8 0 0
0.347886 0.082035 0.128209 0.8 0 0
0.163949 0.051972 0.159788 0.8 0 0
0.137115 0.199714 0.196435 0.8 0 0
0.135235 0.180553 0.136046 0.8 0 0
0.493157 0.079662 0.137353 0.8 0 0
0.155721 0.140813 0.046218 0.8 0 0
0.856665 0.047280 0.040066 0.8 0 0
0.889805 0.102989 0.192930 0.8 0 0
0.151120 0.050975 0.157560 0.8 0 0
0.845845 0.090803 0.035450 0.8 0 0
0.900389 0.062426 0.037501 0.8 0 0
0.154892 0.182234 0.197518 0.8 0 0
0.396551 0.088680 0.140296 0.8 0 0
0.201625 0.048495 0.059874 0.8 0 0
0.059955 0.065568 0.126679 0.8 0 0
0.168460 0.063786 0.138051 0.8 0 0
0.121177 0.194703 0.031602 0.8 0 0
0.166093 0.052695 0.034872 0.8 0 0
0.279715 0.164660 0.109684 0.8 0 0
0.245996 0.108353 0.160846 0.8 0 0
0.209984 0.101245 0.055258 0.8 0 0
0.419636 0.075580 0.139907 0.8 0 0
0.173983 0.028182 0.171292 0.8 0 0
0.841718 0.044675 0.185464 0.8 0 0
0.227664 0.113644 0.096694 0.8 0 0
0.412661 0.082985 0.088592 0.8 0 0
0.163735 0.097261 0.174273 0.8 0 0
0.091084 0.201154 0.030234 0.8 0 0
0.167314 0.071360 0.045405 0.8 0 0
0.138725 0.108480 0.176266 0.8 0 0
0.120791 0.182609 0.133327 0.8 0 0
0.853629 0.058148 0.123952 0.8 0 0
0.261965 0.073025 0.089568 0.8 0 0
0.379156 0.080578 0.091931 0.8 0 0
0.178274 0.102512 0.026322 0.8 0 0
0.126020 0.073413 0.146288 0.8 0 0
0.767782 0.068534 0.107333 0.8 0 0
0.364520 0.079473 0.141672 0.8 0 0
0.147963 0.090960 0.136138 0.8 0 0
0.244129 0.121917 0.107553 0.8 0 0
0.121776 0.130245 0.174885 0.8 0 0
0.304452 0.070229 0.087737 0.8 0 0
0.888905 0.095076 0.037851 0.8 0 0
0.341703 0.058381 0.085799 0.8 0 0
0.516056 0.057812 0.137045 0.8 0 0
0.095587 0.203442 0.141682 0.8 0 0
0.145545 0.197205 0.102000 0.8 0 0
0.281976 0.111011 0.082292 0.8 0 0
0.263791 0.105511 0.101982 0.8 0 0
0.147730 0.179324 0.079789 0.8 0 0
0.281138 0.144801 0.121069 0.8 0 0
0.876396 0.037098 0.122686 0.8 0 0
0.574689 0.047273 0.117088 0.8 0 0
0.301555 0.090724 0.085027 0.8 0 0
0.938362 0.041372 0.156889 0.8 0 0
0.154257 0.058679 0.052700 0.8 0 0
0.157993 0.053527 0.045405 0.8 0 0
0.091938 0.204338 0.102802 0.8 0 0
0.128379 0.129616 0.201974 0.8 0 0
0.142471 0.110618 0.048181 0.8 0 0
0.175388 0.105482 0.201214 0.8 0 0
0.250044 0.143024 0.114474 0.8 0 0
0.156025 0.193948 0.046957 0.8 0 0
0.122795 0.189311 0.196435 0.8 0 0
0.144498 0.115594 0.201974 0.8 0 0
0.850012 0.048567 0.189611 0.8 0 0
0.280037 0.093136 0.075285 0.8 0 0
0.146171 0.090426 0.138629 0.8 0 0
0.254859 0.157044 0.129069 0.8 0 0
0.239944 0.145156 0.112021 0.8 0 0
0.923408 0.043303 0.030262 0.8 0 0
0.136645 0.179964 0.042880 0.8 0 0
0.371316 0.097940 0.112719 0.8 0 0
0.458121 0.096812 0.098500 0.8 0 0
0.104044 0.055664 0.196128 0.8 0 0
0.619914 0.045777 0.126685 0.8 0 0
0.235634 0.113097 0.084332 0.8 0 0
0.210461 0.066066 0.201057 0.8 0 0
0.292761 0.115783 0.087157 0.8 0 0
0.878094 0.034334 0.037534 0.8 0 0
0.799987 0.056593 0.101029 0.8 0 0
0.503036 0.053495 0.091086 0.8 0 0
0.066327 0.057025 0.101342 0.8 0 0
0.842511 0.051078 0.102348 0.8 0 0
0.307235 0.126521 0.113116 0.8 0 0
0.876408 0.056301 0.163457 0.8 0 0
0.237327 0.098966 0.069480 0.8 0 0
0.192362 0.038600 0.201321 0.8 0 0
0.300465 0.121415 0.118286 0.8 0 0
0.843042 0.072161 0.037464 0.8 0 0
0.200370 0.118992 0.152765 0.8 0 0
0.129620 0.063287 0.154318 0.8 0 0
0.504343 0.093763 0.117728 0.8 0 0
0.264500 0.081258 0.092224 0.8 0 0
0.241011 0.100911 0.165131 0.8 0 0
0.225900 0.086495 0.113797 0.8 0 0
0.145556 0.111854 0.050652 0.8 0 0
0.183056 0.090861 0.134881 0.8 0 0
0.864758 0.106296 0.041016 0.8 0 0
0.236895 0.151787 0.107622 0.8 0 0
0.154629 0.089498 0.102017 0.8 0 0
0.089724 0.195161 0.163782 0.8 0 0
0.227274 0.116220 0.171206 0.8 0 0
0.146058 0.113923 0.074885 0.8 0 0
0.274039 0.152818 0.100472 0.8 0 0
0.897642 0.058572 0.038242 0.8 0 0
0.093537 0.192757 0.093134 0.8 0 0
0.876824 0.097859 0.036475 0.8 0 0
0.808816 0.047461 0.127461 0.8 0 0
0.221395 0.096577 0.134984 0.8 0 0
0.156680 0.139148 0.146288 0.8 0 0
0.185834 0.101628 0.025000 0.8 0 0
0.296202 0.070040 0.118640 0.8 0 0
0.123527 0.075340 0.067571 0.8 0 0
0.153945 0.050752 0.032197 0.8 0 0
0.222527 0.106712 0.153917 0.8 0 0
0.923806 0.048271 0.128296 0.8 0 0
0.097163 0.204137 0.196435 0.8 0 0
0.108677 0.185989 0.153727 0.8 0 0
0.154595 0.085660 0.119997 0.8 0 0
0.586199 0.085829 0.105300 0.8 0 0
0.852950 0.073945 0.040066 0.8 0 0
0.150235 0.114741 0.026729 0.8 0 0
0.133846 0.060855 0.051416 0.8 0 0
0.919625 0.049492 0.105301 0.8 0 0
0.258148 0.083261 0.134010 0.8 0 0
0.146277 0.072746 0.052700 0.8 0 0
0.224130 0.097556 0.067860 0.8 0 0
0.165157 0.102971 0.045405 0.8 0 0
0.124399 0.097387 0.080686 0.8 0 0
0.218713 0.091023 0.120308 0.8 0 0
0.545517 0.048238 0.101170 0.8 0 0
0.208216 0.105776 0.191715 0.8 0 0
0.907059 0.086423 0.035450 0.8 0 0
0.639066 0.075232 0.131264 0.8 0 0
0.404796 0.069295 0.140532 0.8 0 0
0.184202 0.070006 0.201974 0.8 0 0
0.099214 0.070248 0.025000 0.8 0 0
0.246486 0.114009 0.141841 0.8 0 0
0.218676 0.085608 0.133949 0.8 0 0
0.283551 0.115793 0.118241 0.8 0 0
0.130385 0.062315 0.186382 0.8 0 0
0.917518 0.050547 0.169600 0.8 0 0
0.486301 0.050197 0.136523 0.8 0 0
0.184509 0.090214 0.179147 0.8 0 0
0.873261 0.062383 0.172709 0.8 0 0
0.854590 0.038013 0.104887 0.8 0 0
0.231008 0.105484 0.162381 0.8 0 0
0.613586 0.045986 0.109974 0.8 0 0
0.212756 0.117573 0.170687 0.8 0 0
0.131770 0.135901 0.167691 0.8 0 0
0.257873 0.108644 0.080275 0.8 0 0
0.414051 0.099906 0.132577 0.8 0 0
0.176705 0.136626 0.026886 0.8 0 0
0.109487 0.187125 0.197518 0.8 0 0
0.236711 0.157913 0.123441 0.8 0 0
0.431913 0.070064 0.139609 0.8 0 0
0.185293 0.093289 0.055824 0.8 0 0
0.843480 0.074161 0.037518 0.8 0 0
0.178324 0.063356 0.180707 0.8 0 0
0.361524 0.054325 0.123218 0.8 0 0
0.100091 0.063703 0.035029 0.8 0 0
0.145380 0.054147 0.166403 0.8 0 0
0.380301 0.094118 0.088368 0.8 0 0
0.302017 0.074511 0.094028 0.8 0 0
0.122033 0.199762 0.100711 0.8 0 0
0.311494 0.110378 0.133373 0.8 0 0
0.142561 0.197659 0.050432 0.8 0 0
0.193413 0.039517 0.180233 0.8 0 0
0.131285 0.180578 0.164695 0.8 0 0
0.112963 0.121362 0.146288 0.8 0 0
0.494085 0.049940 0.129358 0.8 0 0
0.520805 0.065030 0.136738 0.8 0 0
0.257971 0.115574 0.100523 0.8 0 0
0.233060 0.105777 0.127115 0.8 0 0
0.094796 0.084393 0.110366 0.8 0 0
0.134318 0.131063 0.201974 0.8 0 0
0.182247 0.065838 0.038801 0.8 0 0
0.097265 0.083909 0.146484 0.8 0 0
0.258595 0.129298 0.097105 0.8 0 0
0.376272 0.082702 0.096681 0.8 0 0
0.846451 0.051630 0.036475 0.8 0 0
0.142512 0.109971 0.052701 0.8 0 0
0.262727 0.116448 0.095341 0.8 0 0
0.168416 0.094260 0.174273 0.8 0 0
0.208626 0.076879 0.094569 0.8 0 0
0.156603 0.181436 0.030234 0.8 0 0
0.526668 0.055753 0.136732 0.8 0 0
0.329358 0.071073 0.143020 0.8 0 0
0.077575 0.210046 0.125404 0.8 0 0
0.126520 0.107565 0.025000 0.8 0 0
0.180367 0.063080 0.032221 0.8 0 0
0.163614 0.027407 0.080686 0.8 0 0
0.413780 0.097388 0.131752 0.8 0 0
0.140609 0.172304 0.135162 0.8 0 0
0.599225 0.084713 0.110092 0.8 0 0
0.881580 0.025657 0.041733 0.8 0 0
0.254986 0.090019 0.090126 0.8 0 0
0.086223 0.198037 0.102271 0.8 0 0
0.862830 0.088759 0.038242 0.8 0 0
0.218789 0.096028 0.093467 0.8 0 0
0.325515 0.108825 0.133176 0.8 0 0
0.297448 0.127562 0.128423 0.8 0 0
0.161627 0.093128 0.104018 0.8 0 0
0.151236 0.082409 0.153860 0.8 0 0
0.349618 0.125571 0.116428 0.8 0 0
0.350325 0.058430 0.142577 0.8 0 0
0.305404 0.085450 0.117019 0.8 0 0
0.413686 0.098935 0.094626 0.8 0 0
0.132784 0.043190 0.025000 0.8 0 0
0.112197 0.184773 0.136461 0.8 0 0
0.178151 0.102664 0.166440 0.8 0 0
0.152921 0.115019 0.189395 0.8 0 0
0.317979 0.055766 0.085083 0.8 0 0
0.276804 0.116189 0.138757 0.8 0 0
0.937464 0.041387 0.097443 0.8 0 0
0.299349 0.093451 0.133176 0.8 0 0
0.326706 0.079891 0.095673 0.8 0 0
0.268467 0.111147 0.145116 0.8 0 0
0.110688 0.097070 0.146289 0.8 0 0
0.236198 0.114746 0.162967 0.8 0 0
0.177326 0.106165 0.200857 0.8 0 0
0.269668 0.118083 0.126306 0.8 0 0
0.262576 0.103778 0.065172 0.8 0 0
0.181438 0.064709 0.047759 0.8 0 0
0.146536 0.197022 0.089157 0.8 0 0
0.232661 0.144186 0.107645 0.8 0 0
0.575720 0.047239 0.114030 0.8 0 0
0.376478 0.083306 0.087393 0.8 0 0
0.150984 0.167416 0.134830 0.8 0 0
0.932100 0.035449 0.111065 0.8 0 0
0.130551 0.100750 0.184410 0.8 0 0
0.184831 0.087909 0.174273 0.8 0 0
0.102685 0.058407 0.151238 0.8 0 0
0.718974 0.070920 0.101879 0.8 0 0
0.279532 0.124636 0.146449 0.8 0 0
0.186626 0.078247 0.060598 0.8 0 0
0.207555 0.058475 0.168182 0.8 0 0
0.185218 0.083827 0.048663 0.8 0 0
0.279391 0.113312 0.086161 0.8 0 0
0.160653 0.184390 0.118233 0.8 0 0
0.907912 0.084721 0.035450 0.8 0 0
0.812862 0.044778 0.101260 0.8 0 0
0.200509 0.093576 0.122298 0.8 0 0
0.088753 0.059501 0.127671 0.8 0 0
0.097346 0.086049 0.175093 0.8 0 0
0.210190 0.100624 0.039578 0.8 0 0
0.124581 0.079124 0.050305 0.8 0 0
0.179569 0.103380 0.070671 0.8 0 0
0.245348 0.138388 0.122440 0.8 0 0
0.923445 0.044121 0.030262 0.8 0 0
0.184878 0.037395 0.146288 0.8 0 0
0.264182 0.074892 0.131479 0.8 0 0
0.141320 0.179565 0.123002 0.8 0 0
0.615209 0.082971 0.124167 0.8 0 0
0.232761 0.131499 0.108965 0.8 0 0
0.288649 0.087666 0.132295 0.8 0 0
0.822910 0.039061 0.113066 0.8 0 0
0.158151 0.075032 0.052700 0.8 0 0
0.500252 0.049736 0.110783 0.8 0 0
0.738699 0.071373 0.109005 0.8 0 0
0.966448 0.034313 0.118109 0.8 0 0
0.086274 0.205901 0.125098 0.8 0 0
0.147403 0.187176 0.031260 0.8 0 0
0.463360 0.055009 0.089792 0.8 0 0
0.243885 0.119632 0.140197 0.8 0 0
0.116368 0.039887 0.194366 0.8 0 0
0.179162 0.101405 0.187981 0.8 0 0
0.704804 0.042969 0.112506 0.8 0 0
0.148988 0.112716 0.054288 0.8 0 0
0.124492 0.092660 0.163877 0.8 0 0
0.143855 0.113164 0.055209 0.8 0 0
0.097196 0.076304 0.079894 0.8 0 0
0.151452 0.050904 0.062806 0.8 0 0
0.297758 0.115122 0.113633 0.8 0 0
0.107221 0.090327 0.146289 0.8 0 0
0.903200 0.041828 0.035450 0.8 0 0
0.842939 0.071580 0.041662 0.8 0 0
0.937557 0.046643 0.149983 0.8 0 0
0.126430 0.091936 0.174274 0.8 0 0
0.141766 0.179538 0.143352 0.8 0 0
0.222734 0.113146 0.144189 0.8 0 0
0.842865 0.071089 0.187571 0.8 0 0
0.350136 0.098663 0.136596 0.8 0 0
0.198098 0.082734 0.092124 0.8 0 0
0.155970 0.063939 0.089506 0.8 0 0
0.079082 0.209564 0.196435 0.8 0 0
0.179324 0.103947 0.041420 0.8 0 0
0.306449 0.081836 0.095673 0.8 0 0
0.619054 0.060365 0.095070 0.8 0 0
0.175326 0.105539 0.198964 0.8 0 0
0.938388 0.035241 0.120439 0.8 0 0
0.275167 0.109369 0.159332 0.8 0 0
0.186499 0.076418 0.035780 0.8 0 0
0.266117 0.151554 0.104902 0.8 0 0
0.227663 0.105824 0.100519 0.8 0 0
0.074317 0.057678 0.100648 0.8 0 0
0.268203 0.101356 0.151510 0.8 0 0
0.263768 0.114887 0.067662 0.8 0 0
0.131872 0.198829 0.133984 0.8 0 0
0.158207 0.112326 0.174273 0.8 0 0
0.386416 0.102668 0.128107 0.8 0 0
0.296889 0.109164 0.095673 0.8 0 0
0.867356 0.031827 0.035450 0.8 0 0
0.125758 0.133032 0.070552 0.8 0 0
0.916689 0.050834 0.197546 0.8 0 0
0.296334 0.134381 0.125497 0.8 0 0
0.122893 0.081161 0.040113 0.8 0 0
0.133564 0.058824 0.052643 0.8 0 0
0.126977 0.186864 0.197518 0.8 0 0
0.108938 0.047995 0.189665 0.8 0 0
0.957177 0.050579 0.116894 0.8 0 0
0.265811 0.121663 0.076984 0.8 0 0
0.097948 0.202862 0.179759 0.8 0 0
0.155694 0.115104 0.045970 0.8 0 0
0.792096 0.066179 0.107306 0.8 0 0
0.112388 0.184707 0.094538 0.8 0 0
0.125501 0.089466 0.171141 0.8 0 0
0.154579 0.082617 0.130227 0.8 0 0
0.142553 0.120313 0.201974 0.8 0 0
0.872038 0.096459 0.186790 0.8 0 0
0.159210 0.052832 0.156490 0.8 0 0
0.241911 0.158095 0.101544 0.8 0 0
0.244180 0.063733 0.088509 0.8 0 0
0.825477 0.038976 0.115432 0.8 0 0
0.207994 0.110509 0.165153 0.8 0 0
0.207663 0.058708 0.174932 0.8 0 0
0.245826 0.093598 0.140172 0.8 0 0
0.870259 0.091690 0.187060 0.8 0 0
0.495375 0.092702 0.098283 0.8 0 0
0.856050 0.059745 0.038242 0.8 0 0
0.229821 0.120901 0.086867 0.8 0 0
0.167017 0.026264 0.150594 0.8 0 0
0.233618 0.103796 0.069132 0.8 0 0
0.293347 0.061367 0.124774 0.8 0 0
0.251003 0.114310 0.087134 0.8 0 0
0.194893 0.124827 0.042404 0.8 0 0
0.169970 0.054422 0.035766 0.8 0 0
0.265249 0.097685 0.159458 0.8 0 0
0.408722 0.099472 0.095218 0.8 0 0
0.283349 0.059513 0.133276 0.8 0 0
0.893816 0.080114 0.040066 0.8 0 0
0.126982 0.181332 0.155448 0.8 0 0
0.771741 0.040754 0.123991 0.8 0 0
0.847950 0.060349 0.191277 0.8 0 0
0.158538 0.133243 0.126214 0.8 0 0
0.855139 0.095407 0.192930 0.8 0 0
0.744945 0.068427 0.126251 0.8 0 0
0.233299 0.098076 0.073776 0.8 0 0
0.298379 0.084734 0.133176 0.8 0 0
0.386538 0.109271 0.121841 0.8 0 0
0.166105 0.052665 0.174841 0.8 0 0
0.225071 0.110855 0.146980 0.8 0 0
0.231868 0.128867 0.126988 0.8 0 0
0.114440 0.092029 0.124905 0.8 0 0
0.152435 0.050843 0.152275 0.8 0 0
0.124475 0.073125 0.178766 0.8 0 0
0.915652 0.048572 0.104750 0.8 0 0
0.502271 0.056240 0.091109 0.8 0 0
0.155848 0.050260 0.146288 0.8 0 0
0.132214 0.068520 0.045405 0.8 0 0
0.119515 0.200004 0.151626 0.8 0 0
0.874090 0.035168 0.139608 0.8 0 0
0.242444 0.116609 0.121552 0.8 0 0
0.109720 0.201043 0.073225 0.8 0 0
0.279677 0.100207 0.081637 0.8 0 0
0.174645 0.143450 0.134759 0.8 0 0
0.367735 0.134364 0.107173 0.8 0 0
0.212615 0.093742 0.132563 0.8 0 0
0.130903 0.101243 0.153290 0.8 0 0
0.281357 0.126429 0.125737 0.8 0 0
0.128386 0.097303 0.161267 0.8 0 0
0.260306 0.084396 0.090227 0.8 0 0
0.177949 0.105502 0.032216 0.8 0 0
0.236229 0.108553 0.151354 0.8 0 0
0.862791 0.093915 0.188371 0.8 0 0
0.119679 0.182845 0.128558 0.8 0 0
0.286047 0.065012 0.133826 0.8 0 0
0.182878 0.066701 0.167767 0.8 0 0
0.153808 0.086328 0.067865 0.8 0 0
0.166030 0.069076 0.136929 0.8 0 0
0.233988 0.088120 0.132014 0.8 0 0
0.133046 0.064100 0.045405 0.8 0 0
0.695770 0.075525 0.112840 0.8 0 0
0.220528 0.109971 0.101479 0.8 0 0
0.207021 0.086360 0.089935 0.8 0 0
0.124994 0.086417 0.147868 0.8 0 0
0.930798 0.047365 0.031801 0.8 0 0
0.108562 0.201215 0.190842 0.8 0 0
0.248741 0.145075 0.114692 0.8 0 0
0.894156 0.090271 0.042118 0.8 0 0
0.922855 0.048512 0.122447 0.8 0 0
0.111819 0.044485 0.174596 0.8 0 0
0.879311 0.060314 0.177383 0.8 0 0
0.134603 0.107992 0.066837 0.8 0 0
0.238570 0.061830 0.116915 0.8 0 0
0.230293 0.105678 0.166974 0.8 0 0
0.182371 0.031857 0.148944 0.8 0 0
0.381092 0.120793 0.113238 0.8 0 0
0.102980 0.202045 0.079869 0.8 0 0
0.275549 0.105368 0.152948 0.8 0 0
0.122294 0.035016 0.065068 0.8 0 0
0.887653 0.027741 0.192930 0.8 0 0
0.380978 0.082834 0.130549 0.8 0 0
0.200036 0.091460 0.132806 0.8 0 0
0.246500 0.092718 0.084664 0.8 0 0
0.197022 0.109854 0.025000 0.8 0 0
0.126360 0.093312 0.058010 0.8 0 0
0.306039 0.060552 0.095211 0.8 0 0
0.671285 0.044077 0.101050 0.8 0 0
0.268887 0.087115 0.091500 0.8 0 0
0.282873 0.085910 0.132106 0.8 0 0
0.187156 0.083914 0.033249 0.8 0 0
0.245645 0.064251 0.138687 0.8 0 0
0.904214 0.094954 0.187010 0.8 0 0
0.679594 0.049041 0.131752 0.8 0 0
0.874878 0.098417 0.039074 0.8 0 0
0.475060 0.055222 0.090185 0.8 0 0
0.149478 0.196346 0.036637 0.8 0 0
0.076438 0.071215 0.100676 0.8 0 0
0.887652 0.036899 0.035779 0.8 0 0
0.132649 0.062207 0.058984 0.8 0 0
0.116220 0.039932 0.040452 0.8 0 0
0.153226 0.140774 0.182061 0.8 0 0
0.883503 0.080944 0.040066 0.8 0 0
0.295817 0.089477 0.135062 0.8 0 0
0.328451 0.055419 0.100425 0.8 0 0
0.264311 0.161548 0.125119 0.8 0 0
0.244571 0.074330 0.132224 0.8 0 0
0.245273 0.125322 0.110380 0.8 0 0
0.170578 0.056779 0.195215 0.8 0 0
0.142562 0.055256 0.172244 0.8 0 0
0.118336 0.127621 0.183645 0.8 0 0
0.126824 0.121444 0.201974 0.8 0 0
0.205218 0.085101 0.132050 0.8 0 0
0.179824 0.102992 0.078526 0.8 0 0
0.250968 0.077722 0.138747 0.8 0 0
0.776662 0.049170 0.128502 0.8 0 0
0.113382 0.123492 0.073543 0.8 0 0
0.134536 0.107673 0.154151 0.8 0 0
0.031567 0.053220 0.103380 0.8 0 0
0.460101 0.051064 0.131815 0.8 0 0
0.135303 0.180096 0.184604 0.8 0 0
0.269553 0.081987 0.133131 0.8 0 0
0.348135 0.072521 0.142362 0.8 0 0
0.264709 0.091916 0.140510 0.8 0 0
0.177563 0.062754 0.133754 0.8 0 0
0.155293 0.071901 0.134207 0.8 0 0
0.094306 0.192282 0.178039 0.8 0 0
0.478060 0.059196 0.090354 0.8 0 0
0.683075 0.044972 0.131719 0.8 0 0
0.186603 0.083073 0.110614 0.8 0 0
0.152093 0.056335 0.052700 0.8 0 0
0.880859 0.034756 0.038142 0.8 0 0
0.172639 0.027731 0.184320 0.8 0 0
0.286406 0.113947 0.087066 0.8 0 0
0.124343 0.092260 0.153390 0.8 0 0
0.129616 0.063283 0.170327 0.8 0 0
0.124806 0.081740 0.179235 0.8 0 0
0.416844 0.094573 0.115097 0.8 0 0
0.105056 0.187313 0.093535 0.8 0 0
0.270888 0.105450 0.130991 0.8 0 0
0.345015 0.096313 0.130843 0.8 0 0
0.279878 0.105257 0.068217 0.8 0 0
0.183980 0.068827 0.028608 0.8 0 0
0.100749 0.188953 0.183315 0.8 0 0
0.263359 0.113230 0.131591 0.8 0 0
0.137726 0.180768 0.134825 0.8 0 0
0.556076 0.078899 0.093693 0.8 0 0
0.869618 0.053942 0.045725 0.8 0 0
0.212635 0.082595 0.201973 0.8 0 0
0.880637 0.082217 0.188371 0.8 0 0
0.193852 0.087905 0.146288 0.8 0 0
0.154782 0.072112 0.125304 0.8 0 0
0.266541 0.109529 0.113665 0.8 0 0
0.225999 0.116596 0.089660 0.8 0 0
0.128469 0.181054 0.148472 0.8 0 0
0.100112 0.202471 0.074448 0.8 0 0
0.860257 0.042821 0.041377 0.8 0 0
0.106245 0.053648 0.201974 0.8 0 0
0.154780 0.075999 0.102703 0.8 0 0
0.884435 0.054371 0.038242 0.8 0 0
0.348468 0.099887 0.112741 0.8 0 0
0.853126 0.054767 0.040066 0.8 0 0
0.132651 0.105897 0.168355 0.8 0 0
0.512111 0.084716 0.092827 0.8 0 0
0.140298 0.026858 0.068652 0.8 0 0
0.379631 0.111247 0.100617 0.8 0 0
0.148225 0.105346 0.174274 0.8 0 0
0.143892 0.199884 0.196435 0.8 0 0
0.181471 0.107201 0.201974 0.8 0 0
0.257787 0.142025 0.130448 0.8 0 0
0.297588 0.099398 0.095673 0.8 0 0
0.138960 0.054978 0.048349 0.8 0 0
0.462905 0.076694 0.090155 0.8 0 0
0.170207 0.056567 0.182964 0.8 0 0
0.257735 0.065303 0.130358 0.8 0 0
0.224367 0.106620 0.077184 0.8 0 0
0.708257 0.074304 0.118957 0.8 0 0
0.411893 0.101785 0.129842 0.8 0 0
0.204206 0.052278 0.190674 0.8 0 0
0.153286 0.179757 0.170708 0.8 0 0
0.226279 0.075407 0.131502 0.8 0 0
0.851486 0.062209 0.188371 0.8 0 0
0.190420 0.049541 0.080685 0.8 0 0
0.097436 0.087454 0.191064 0.8 0 0
0.249805 0.116565 0.110443 0.8 0 0
0.155714 0.194080 0.051225 0.8 0 0
0.310852 0.104266 0.140274 0.8 0 0
0.760700 0.056828 0.099725 0.8 0 0
0.120508 0.111691 0.025000 0.8 0 0
0.125515 0.108922 0.025000 0.8 0 0
0.157328 0.052659 0.071883 0.8 0 0
0.674185 0.045886 0.131998 0.8 0 0
0.869522 0.072278 0.040066 0.8 0 0
0.164629 0.095149 0.113282 0.8 0 0
0.237304 0.091887 0.142115 0.8 0 0
0.156981 0.088574 0.181569 0.8 0 0
0.179458 0.099349 0.135164 0.8 0 0
0.186642 0.076705 0.169713 0.8 0 0
0.295238 0.062580 0.138695 0.8 0 0
0.262114 0.142919 0.110911 0.8 0 0
0.217391 0.087296 0.088853 0.8 0 0
0.446738 0.051506 0.103951 0.8 0 0
0.259784 0.116475 0.133273 0.8 0 0
0.849887 0.083764 0.187062 0.8 0 0
0.496127 0.049872 0.136131 0.8 0 0
0.103474 0.187892 0.078174 0.8 0 0
0.860872 0.085679 0.039402 0.8 0 0
0.242514 0.105695 0.100147 0.8 0 0
0.130094 0.198999 0.159374 0.8 0 0
0.237970 0.112277 0.066956 0.8 0 0
0.456321 0.051189 0.094378 0.8 0 0
0.206664 0.109190 0.160297 0.8 0 0
0.282390 0.116271 0.133065 0.8 0 0
0.105977 0.067509 0.080686 0.8 0 0
0.172195 0.055635 0.195533 0.8 0 0
0.179729 0.103122 0.077113 0.8 0 0
0.904404 0.054151 0.187422 0.8 0 0
0.084808 0.196289 0.196435 0.8 0 0
0.097622 0.092462 0.079381 0.8 0 0
0.389444 0.109179 0.129396 0.8 0 0
0.924652 0.048111 0.111302 0.8 0 0
0.814253 0.055646 0.127080 0.8 0 0
0.175871 0.029037 0.078288 0.8 0 0
0.395161 0.098026 0.137030 0.8 0 0
0.197243 0.089577 0.108556 0.8 0 0
0.791594 0.040097 0.103718 0.8 0 0
0.127171 0.066966 0.146288 0.8 0 0
0.159145 0.060775 0.174273 0.8 0 0
0.258113 0.133990 0.130440 0.8 0 0
0.178336 0.032648 0.201974 0.8 0 0
0.266212 0.113647 0.143084 0.8 0 0
0.083956 0.207798 0.196435 0.8 0 0
0.270733 0.124078 0.110034 0.8 0 0
0.557117 0.054043 0.135748 0.8 0 0
0.376268 0.093814 0.091951 0.8 0 0
0.152693 0.195364 0.113413 0.8 0 0
0.153293 0.050770 0.183137 0.8 0 0
0.250082 0.116563 0.119712 0.8 0 0
0.165921 0.063194 0.181569 0.8 0 0
0.755447 0.041293 0.111166 0.8 0 0
0.716545 0.065592 0.098669 0.8 0 0
0.140191 0.200477 0.197518 0.8 0 0
0.098244 0.095721 0.054285 0.8 0 0
0.150277 0.105255 0.045405 0.8 0 0
0.091802 0.204372 0.112631 0.8 0 0
0.128640 0.199133 0.148427 0.8 0 0
0.456389 0.090487 0.136879 0.8 0 0
0.104404 0.054996 0.199846 0.8 0 0
0.143656 0.072401 0.093443 0.8 0 0
0.236935 0.088133 0.095246 0.8 0 0
0.209349 0.092290 0.134419 0.8 0 0
0.282730 0.140735 0.099853 0.8 0 0
0.848075 0.051631 0.191065 0.8 0 0
0.231817 0.124858 0.118485 0.8 0 0
0.099054 0.090873 0.146289 0.8 0 0
0.261928 0.094142 0.070724 0.8 0 0
0.872725 0.064320 0.038868 0.8 0 0
0.133805 0.117948 0.146288 0.8 0 0
0.870730 0.084146 0.038242 0.8 0 0
0.522045 0.049015 0.123178 0.8 0 0
0.868530 0.093266 0.040066 0.8 0 0
0.190802 0.124154 0.120000 0.8 0 0
0.298694 0.130953 0.112416 0.8 0 0
0.840775 0.054060 0.042916 0.8 0 0
0.123987 0.199575 0.078902 0.8 0 0
0.107453 0.105117 0.025000 0.8 0 0
0.102795 0.202073 0.165512 0.8 0 0
0.264188 0.108044 0.079561 0.8 0 0
0.295976 0.135283 0.125408 0.8 0 0
0.507451 0.090775 0.097401 0.8 0 0
0.269659 0.126944 0.113353 0.8 0 0
0.172836 0.090760 0.174273 0.8 0 0
0.126155 0.034032 0.025000 0.8 0 0
0.469656 0.086222 0.091045 0.8 0 0
0.135159 0.108156 0.194260 0.8 0 0
0.161404 0.081786 0.181569 0.8 0 0
0.438894 0.051765 0.118329 0.8 0 0
0.521398 0.049036 0.136747 0.8 0 0
0.290964 0.061387 0.125539 0.8 0 0
0.146454 0.095582 0.045405 0.8 0 0
0.146257 0.065792 0.095201 0.8 0 0
0.155579 0.098521 0.112504 0.8 0 0
0.077066 0.208512 0.107075 0.8 0 0
0.287955 0.134527 0.127789 0.8 0 0
0.257989 0.119997 0.120728 0.8 0 0
0.204287 0.079245 0.113315 0.8 0 0
0.266610 0.114446 0.087319 0.8 0 0
0.097333 0.198128 0.195922 0.8 0 0
0.369825 0.087384 0.108020 0.8 0 0
0.179380 0.064692 0.194022 0.8 0 0
0.097813 0.072194 0.074270 0.8 0 0
0.119249 0.041278 0.025000 0.8 0 0
0.332663 0.090957 0.104612 0.8 0 0
0.142130 0.112372 0.165028 0.8 0 0
0.142873 0.055121 0.163746 0.8 0 0
0.273938 0.098125 0.065423 0.8 0 0
0.870969 0.052354 0.047456 0.8 0 0
0.406366 0.052842 0.101067 0.8 0 0
0.848997 0.034013 0.042258 0.8 0 0
0.316244 0.098655 0.142315 0.8 0 0
0.275135 0.109926 0.146543 0.8 0 0
0.114409 0.204075 0.197518 0.8 0 0
0.164370 0.025812 0.061465 0.8 0 0
0.967237 0.034287 0.121314 0.8 0 0
0.874252 0.053482 0.164742 0.8 0 0
0.252987 0.116512 0.121104 0.8 0 0
0.881628 0.056994 0.107021 0.8 0 0
0.875650 0.043136 0.075526 0.8 0 0
0.137777 0.198233 0.145082 0.8 0 0
0.181992 0.102716 0.025000 0.8 0 0
0.160486 0.190214 0.197518 0.8 0 0
0.106284 0.061744 0.096718 0.8 0 0
0.303869 0.128997 0.128240 0.8 0 0
0.148874 0.063238 0.135379 0.8 0 0
0.352655 0.080270 0.086546 0.8 0 0
0.140832 0.111800 0.031040 0.8 0 0
0.130403 0.048124 0.080686 0.8 0 0
0.392293 0.101439 0.092148 0.8 0 0
0.145678 0.052040 0.069495 0.8 0 0
0.128711 0.189942 0.031602 0.8 0 0
0.150173 0.058032 0.043923 0.8 0 0
0.123122 0.079686 0.197600 0.8 0 0
0.156904 0.136054 0.092241 0.8 0 0
0.262818 0.124086 0.097105 0.8 0 0
0.129756 0.063110 0.160312 0.8 0 0
0.157190 0.175361 0.197518 0.8 0 0
0.403411 0.106157 0.097054 0.8 0 0
0.181435 0.085558 0.138749 0.8 0 0
0.280102 0.098850 0.085945 0.8 0 0
0.184646 0.114200 0.025000 0.8 0 0
0.886185 0.041584 0.188371 0.8 0 0
0.283513 0.119217 0.154264 0.8 0 0
0.873859 0.062304 0.173111 0.8 0 0
0.232783 0.073554 0.093670 0.8 0 0
0.265905 0.116236 0.138901 0.8 0 0
0.460646 0.051046 0.133222 0.8 0 0
0.096867 0.085151 0.073072 0.8 0 0
0.103800 0.185877 0.031260 0.8 0 0
0.377078 0.088447 0.091938 0.8 0 0
0.628061 0.045507 0.125681 0.8 0 0
0.875805 0.061832 0.184038 0.8 0 0
0.746860 0.070655 0.115808 0.8 0 0
0.224337 0.061415 0.137433 0.8 0 0
0.186275 0.089392 0.064385 0.8 0 0
0.182714 0.095488 0.163262 0.8 0 0
0.181186 0.085246 0.182693 0.8 0 0
0.123004 0.081295 0.189920 0.8 0 0
0.238696 0.110218 0.100711 0.8 0 0
0.129661 0.048786 0.080686 0.8 0 0
0.124337 0.181854 0.098504 0.8 0 0
0.239753 0.103207 0.165630 0.8 0 0
0.941604 0.042092 0.058838 0.8 0 0
0.282529 0.119318 0.106187 0.8 0 0
0.145269 0.113682 0.071758 0.8 0 0
0.266902 0.142877 0.105561 0.8 0 0
0.374096 0.062182 0.086944 0.8 0 0
0.151330 0.140717 0.062969 0.8 0 0
0.257823 0.110523 0.100134 0.8 0 0
0.255586 0.096190 0.083245 0.8 0 0
0.287188 0.099935 0.075363 0.8 0 0
0.260075 0.116472 0.126111 0.8 0 0
0.563752 0.047635 0.122422 0.8 0 0
0.290290 0.116078 0.139823 0.8 0 0
0.401452 0.074031 0.140547 0.8 0 0
0.262965 0.106893 0.078183 0.8 0 0
0.536275 0.090723 0.111138 0.8 0 0
0.154637 0.096786 0.115243 0.8 0 0
0.186531 0.076497 0.033767 0.8 0 0
0.332989 0.100313 0.111847 0.8 0 0
0.148507 0.179314 0.054886 0.8 0 0
0.075930 0.071912 0.100449 0.8 0 0
0.210568 0.066450 0.037632 0.8 0 0
0.273144 0.106525 0.154697 0.8 0 0
0.941637 0.045143 0.098390 0.8 0 0
0.122885 0.083150 0.035445 0.8 0 0
0.164352 0.135110 0.146288 0.8 0 0
0.158381 0.083001 0.107896 0.8 0 0
0.472682 0.057762 0.138497 0.8 0 0
0.121249 0.184926 0.031602 0.8 0 0
0.671107 0.077870 0.111868 0.8 0 0
0.138245 0.104186 0.043923 0.8 0 0
0.294489 0.096982 0.099395 0.8 0 0
0.214271 0.106033 0.061590 0.8 0 0
0.850190 0.059698 0.041662 0.8 0 0
0.188473 0.035605 0.189237 0.8 0 0
0.861804 0.083148 0.038242 0.8 0 0
0.914638 0.076162 0.189079 0.8 0 0
0.138747 0.179757 0.158582 0.8 0 0
0.161646 0.104778 0.174273 0.8 0 0
0.326913 0.055470 0.125122 0.8 0 0
0.278582 0.110571 0.082679 0.8 0 0
0.148932 0.051316 0.032231 0.8 0 0
0.256859 0.100815 0.147103 0.8 0 0
0.184411 0.069868 0.035176 0.8 0 0
0.099221 0.062180 0.098767 0.8 0 0
0.136815 0.058667 0.195681 0.8 0 0
0.182843 0.066949 0.088803 0.8 0 0
0.683347 0.057731 0.131449 0.8 0 0
0.180218 0.065882 0.169112 0.8 0 0
0.582311 0.047021 0.124119 0.8 0 0
0.202596 0.089315 0.088503 0.8 0 0
0.881648 0.101267 0.192930 0.8 0 0
0.258041 0.125609 0.096677 0.8 0 0
0.133262 0.127777 0.146288 0.8 0 0
0.267153 0.151209 0.106798 0.8 0 0
0.256079 0.105578 0.099145 0.8 0 0
0.130072 0.065742 0.181559 0.8 0 0
0.206547 0.064117 0.088578 0.8 0 0
0.210746 0.067068 0.155711 0.8 0 0
0.359216 0.105600 0.116275 0.8 0 0
0.153484 0.140797 0.155027 0.8 0 0
0.156872 0.085831 0.106555 0.8 0 0
0.170237 0.092957 0.137539 0.8 0 0
0.229872 0.115754 0.057238 0.8 0 0
0.304945 0.120892 0.119970 0.8 0 0
0.143555 0.179433 0.069188 0.8 0 0
0.254195 0.119141 0.154668 0.8 0 0
0.221139 0.071176 0.089631 0.8 0 0
0.278139 0.130125 0.097105 0.8 0 0
0.184833 0.087888 0.046423 0.8 0 0
0.135434 0.028450 0.033377 0.8 0 0
0.190411 0.041131 0.025000 0.8 0 0
0.156421 0.025040 0.047509 0.8 0 0
0.279713 0.116267 0.102347 0.8 0 0
0.292988 0.107421 0.134504 0.8 0 0
0.293971 0.088632 0.136615 0.8 0 0
0.676379 0.043909 0.113263 0.8 0 0
0.322164 0.062232 0.119599 0.8 0 0
0.145740 0.025770 0.037612 0.8 0 0
0.864545 0.063229 0.190138 0.8 0 0
0.843921 0.056829 0.042818 0.8 0 0
0.906406 0.061427 0.188731 0.8 0 0
0.250207 0.159061 0.126444 0.8 0 0
0.124614 0.072690 0.191612 0.8 0 0
0.254463 0.133393 0.097130 0.8 0 0
0.127289 0.099522 0.058831 0.8 0 0
0.117891 0.183247 0.084348 0.8 0 0
0.415462 0.081484 0.120695 0.8 0 0
0.097464 0.091475 0.064647 0.8 0 0
0.857921 0.089035 0.188371 0.8 0 0
0.160677 0.189948 0.190702 0.8 0 0
0.126851 0.098281 0.182026 0.8 0 0
0.141083 0.065317 0.174274 0.8 0 0
0.246345 0.078604 0.131893 0.8 0 0
0.108413 0.194515 0.197518 0.8 0 0
0.185756 0.131841 0.063737 0.8 0 0
0.451853 0.051337 0.098399 0.8 0 0
0.123724 0.075930 0.156507 0.8 0 0
0.846928 0.081405 0.036475 0.8 0 0
0.870776 0.046394 0.125397 0.8 0 0
0.283771 0.135134 0.116162 0.8 0 0
0.163990 0.025712 0.026978 0.8 0 0
0.224349 0.072816 0.095249 0.8 0 0
0.176645 0.060577 0.025000 0.8 0 0
0.306468 0.124676 0.122470 0.8 0 0
0.458545 0.096469 0.130551 0.8 0 0
0.249190 0.149670 0.115969 0.8 0 0
0.377844 0.080281 0.091932 0.8 0 0
0.199210 0.099033 0.201973 0.8 0 0
0.499585 0.049758 0.102083 0.8 0 0
0.158494 0.140131 0.201974 0.8 0 0
0.118566 0.038018 0.026810 0.8 0 0
0.169639 0.045532 0.025000 0.8 0 0
0.383632 0.094928 0.119151 0.8 0 0
0.238217 0.066143 0.137665 0.8 0 0
0.362572 0.074100 0.141847 0.8 0 0
0.261372 0.111246 0.144962 0.8 0 0
0.346359 0.108849 0.115726 0.8 0 0
0.541048 0.048386 0.125535 0.8 0 0
0.378462 0.112990 0.101054 0.8 0 0
0.087702 0.205379 0.139014 0.8 0 0
0.157967 0.052665 0.201177 0.8 0 0
0.639934 0.071251 0.096201 0.8 0 0
0.123182 0.087759 0.045217 0.8 0 0
0.161379 0.053187 0.199362 0.8 0 0
0.303962 0.062120 0.128282 0.8 0 0
0.238873 0.105727 0.101745 0.8 0 0
0.153009 0.113226 0.147374 0.8 0 0
0.131607 0.135919 0.049076 0.8 0 0
0.152668 0.050818 0.166627 0.8 0 0
0.078495 0.206255 0.126984 0.8 0 0
0.371700 0.083730 0.123710 0.8 0 0
0.195518 0.124086 0.060500 0.8 0 0
0.292782 0.105261 0.119673 0.8 0 0
0.263493 0.104753 0.154486 0.8 0 0
0.156813 0.050768 0.176222 0.8 0 0
0.546279 0.080327 0.093492 0.8 0 0
0.229764 0.101598 0.147511 0.8 0 0
0.144657 0.139886 0.036978 0.8 0 0
0.135685 0.137568 0.062672 0.8 0 0
0.118891 0.037513 0.064745 0.8 0 0
0.231672 0.119358 0.065050 0.8 0 0
0.169683 0.085314 0.108827 0.8 0 0
0.161928 0.092591 0.132696 0.8 0 0
0.208501 0.075494 0.095145 0.8 0 0
0.263383 0.107302 0.060918 0.8 0 0
0.939451 0.046226 0.169232 0.8 0 0
0.134408 0.105031 0.146288 0.8 0 0
0.239187 0.107518 0.092318 0.8 0 0
0.151355 0.140161 0.146288 0.8 0 0
0.478878 0.059640 0.090389 0.8 0 0
0.156330 0.193818 0.043076 0.8 0 0
0.263174 0.141244 0.128951 0.8 0 0
0.185922 0.075136 0.072513 0.8 0 0
0.130227 0.135255 0.039146 0.8 0 0
0.522445 0.051943 0.136951 0.8 0 0
0.161304 0.051337 0.026504 0.8 0 0
0.795071 0.048870 0.100730 0.8 0 0
0.255651 0.104608 0.060365 0.8 0 0
0.111085 0.185151 0.115906 0.8 0 0
0.264952 0.140014 0.130045 0.8 0 0
0.092478 0.204205 0.115545 0.8 0 0
0.125357 0.070694 0.175429 0.8 0 0
0.416218 0.102022 0.103797 0.8 0 0
0.244293 0.143091 0.120900 0.8 0 0
0.115503 0.069590 0.080686 0.8 0 0
0.190231 0.125864 0.117998 0.8 0 0
0.300246 0.136423 0.122389 0.8 0 0
0.139589 0.179674 0.180421 0.8 0 0
0.156471 0.078070 0.093248 0.8 0 0
0.524148 0.048945 0.120792 0.8 0 0
0.256882 0.118323 0.122730 0.8 0 0
0.131358 0.198881 0.127575 0.8 0 0
0.199905 0.046260 0.192352 0.8 0 0
0.289019 0.121876 0.085105 0.8 0 0
0.122943 0.081509 0.031572 0.8 0 0
0.128210 0.090902 0.052701 0.8 0 0
0.280392 0.116555 0.090195 0.8 0 0
0.213796 0.111118 0.158654 0.8 0 0
0.386229 0.080760 0.122217 0.8 0 0
0.119789 0.037043 0.176288 0.8 0 0
0.283626 0.118611 0.110915 0.8 0 0
0.126281 0.092265 0.173100 0.8 0 0
0.131271 0.041575 0.025000 0.8 0 0
0.176747 0.106708 0.194021 0.8 0 0
0.856711 0.054419 0.190138 0.8 0 0
0.268530 0.110221 0.146139 0.8 0 0
0.369565 0.062582 0.086800 0.8 0 0
0.915820 0.064709 0.185953 0.8 0 0
0.126971 0.070892 0.060734 0.8 0 0
0.380004 0.116294 0.121967 0.8 0 0
0.851526 0.067334 0.188371 0.8 0 0
0.132997 0.106243 0.176341 0.8 0 0
0.247671 0.116584 0.114990 0.8 0 0
0.246706 0.104296 0.070691 0.8 0 0
0.145964 0.138451 0.080686 0.8 0 0
0.145801 0.140121 0.068414 0.8 0 0
0.293015 0.097523 0.144881 0.8 0 0
0.127310 0.133687 0.189357 0.8 0 0
0.211680 0.100408 0.102490 0.8 0 0
0.475885 0.062117 0.090333 0.8 0 0
0.117381 0.083028 0.112731 0.8 0 0
0.183052 0.071975 0.068778 0.8 0 0
0.229936 0.065551 0.094843 0.8 0 0
0.127126 0.066559 0.061598 0.8 0 0
0.345149 0.054867 0.108301 0.8 0 0
0.161991 0.056908 0.181569 0.8 0 0
0.172611 0.055988 0.038905 0.8 0 0
0.309801 0.062656 0.105834 0.8 0 0
0.252665 0.103083 0.079654 0.8 0 0
0.108814 0.072344 0.146289 0.8 0 0
0.386088 0.053512 0.117228 0.8 0 0
0.556944 0.088752 0.117230 0.8 0 0
0.256971 0.129726 0.096397 0.8 0 0
0.157594 0.092317 0.094871 0.8 0 0
0.110730 0.084265 0.124905 0.8 0 0
0.288039 0.081461 0.132856 0.8 0 0
0.835274 0.071722 0.185464 0.8 0 0
0.148655 0.114448 0.174676 0.8 0 0
0.487561 0.095392 0.114754 0.8 0 0
0.665668 0.075557 0.128290 0.8 0 0
0.157136 0.140777 0.172813 0.8 0 0
0.302896 0.129618 0.115909 0.8 0 0
0.218899 0.109648 0.087107 0.8 0 0
0.682681 0.050835 0.131612 0.8 0 0
0.361303 0.093117 0.091165 0.8 0 0
0.742168 0.057154 0.099113 0.8 0 0
0.140724 0.112127 0.025000 0.8 0 0
0.808452 0.048812 0.101175 0.8 0 0
0.155697 0.025029 0.154301 0.8 0 0
0.469967 0.050737 0.126152 0.8 0 0
0.866545 0.095062 0.040066 0.8 0 0
0.160136 0.114699 0.035462 0.8 0 0
0.126365 0.067663 0.079311 0.8 0 0
0.098812 0.069706 0.080686 0.8 0 0
0.272232 0.075646 0.131575 0.8 0 0
0.150197 0.051100 0.169824 0.8 0 0
0.247418 0.103435 0.159946 0.8 0 0
0.123926 0.203597 0.030234 0.8 0 0
0.233122 0.103139 0.148893 0.8 0 0
0.136391 0.056459 0.076113 0.8 0 0
0.386058 0.085471 0.117362 0.8 0 0
0.265460 0.069954 0.138599 0.8 0 0
0.287321 0.109365 0.102260 0.8 0 0
0.718840 0.062406 0.130142 0.8 0 0
0.097225 0.089774 0.034259 0.8 0 0
0.302458 0.121748 0.117249 0.8 0 0
0.278486 0.106677 0.150329 0.8 0 0
0.154317 0.194674 0.058215 0.8 0 0
0.919906 0.047348 0.143982 0.8 0 0
0.250375 0.105627 0.111264 0.8 0 0
0.148366 0.051431 0.181686 0.8 0 0
0.836199 0.062114 0.117736 0.8 0 0
0.853827 0.039669 0.035450 0.8 0 0
0.225715 0.099790 0.082345 0.8 0 0
0.166664 0.085031 0.117267 0.8 0 0
0.155488 0.184533 0.030234 0.8 0 0
0.919356 0.049601 0.104476 0.8 0 0
0.354213 0.119773 0.106522 0.8 0 0
0.120803 0.199880 0.148943 0.8 0 0
0.280825 0.116257 0.127270 0.8 0 0
0.068267 0.066481 0.101119 0.8 0 0
0.221914 0.109516 0.080963 0.8 0 0
0.155144 0.115111 0.033073 0.8 0 0
0.154734 0.064104 0.137882 0.8 0 0
0.149495 0.025281 0.184655 0.8 0 0
0.124460 0.132148 0.047355 0.8 0 0
0.619631 0.045786 0.115923 0.8 0 0
0.871993 0.042446 0.152644 0.8 0 0
0.129830 0.062532 0.074726 0.8 0 0
0.164637 0.145110 0.091062 0.8 0 0
0.262976 0.091641 0.078425 0.8 0 0
0.170165 0.067101 0.095011 0.8 0 0
0.091154 0.194240 0.079714 0.8 0 0
0.845220 0.073624 0.038373 0.8 0 0
0.274584 0.087711 0.138687 0.8 0 0
0.477185 0.096381 0.114962 0.8 0 0
0.262956 0.098774 0.143905 0.8 0 0
0.371882 0.097212 0.088908 0.8 0 0
0.119738 0.128746 0.162212 0.8 0 0
0.247985 0.070572 0.097473 0.8 0 0
0.920538 0.046752 0.034167 0.8 0 0
0.124551 0.071906 0.068720 0.8 0 0
0.153406 0.106409 0.181569 0.8 0 0
0.220296 0.079596 0.116116 0.8 0 0
0.159829 0.183118 0.179759 0.8 0 0
0.168773 0.112048 0.178321 0.8 0 0
0.424778 0.094438 0.091559 0.8 0 0
0.135334 0.059807 0.046795 0.8 0 0
0.119552 0.182872 0.157504 0.8 0 0
0.079130 0.208176 0.031260 0.8 0 0
0.158091 0.113133 0.181241 0.8 0 0
0.869476 0.076724 0.040066 0.8 0 0
0.102866 0.058009 0.174168 0.8 0 0
0.425588 0.055389 0.140121 0.8 0 0
0.154492 0.194598 0.042128 0.8 0 0
0.266205 0.105490 0.095825 0.8 0 0
0.243825 0.116597 0.101488 0.8 0 0
0.895675 0.051080 0.040456 0.8 0 0
0.218286 0.071423 0.100271 0.8 0 0
0.204853 0.053350 0.175981 0.8 0 0
0.922062 0.045630 0.111881 0.8 0 0
0.175985 0.107016 0.069043 0.8 0 0
0.894429 0.046065 0.103990 0.8 0 0
0.829274 0.062799 0.115094 0.8 0 0
0.271700 0.109518 0.146919 0.8 0 0
0.930769 0.042293 0.167073 0.8 0 0
0.934886 0.041599 0.148125 0.8 0 0
0.157420 0.085271 0.052700 0.8 0 0
0.396197 0.073468 0.140735 0.8 0 0
0.868566 0.042675 0.190138 0.8 0 0
0.329670 0.102988 0.139471 0.8 0 0
0.346629 0.117358 0.109103 0.8 0 0
0.364487 0.076665 0.141730 0.8 0 0
0.063300 0.061337 0.101449 0.8 0 0
0.915823 0.064821 0.038442 0.8 0 0
0.283695 0.126296 0.126442 0.8 0 0
0.283989 0.153353 0.128908 0.8 0 0
0.881363 0.041580 0.187060 0.8 0 0
0.838854 0.083026 0.185464 0.8 0 0
0.936893 0.046734 0.164833 0.8 0 0
0.185834 0.073477 0.152552 0.8 0 0
0.857927 0.061072 0.040066 0.8 0 0
0.924580 0.044251 0.181092 0.8 0 0
0.249603 0.105634 0.110071 0.8 0 0
0.236882 0.070695 0.094598 0.8 0 0
0.164423 0.182666 0.030234 0.8 0 0
0.456934 0.082876 0.138500 0.8 0 0
0.257295 0.093454 0.086295 0.8 0 0
0.218594 0.077061 0.129572 0.8 0 0
0.247203 0.091099 0.134979 0.8 0 0
0.209261 0.062542 0.175137 0.8 0 0
0.187120 0.085619 0.166308 0.8 0 0
0.383870 0.100112 0.102839 0.8 0 0
0.139773 0.179660 0.154961 0.8 0 0
0.186627 0.088776 0.033489 0.8 0 0
0.420356 0.058051 0.088413 0.8 0 0
0.586476 0.046883 0.116344 0.8 0 0
0.101332 0.061539 0.154827 0.8 0 0
0.124772 0.084804 0.045405 0.8 0 0
0.246922 0.138201 0.097485 0.8 0 0
0.763917 0.041187 0.099585 0.8 0 0
0.487253 0.075207 0.137653 0.8 0 0
0.219329 0.098644 0.071600 0.8 0 0
0.415868 0.102144 0.106464 0.8 0 0
0.842429 0.043712 0.042916 0.8 0 0
0.126427 0.203784 0.031224 0.8 0 0
0.208217 0.059960 0.072523 0.8 0 0
0.140433 0.056110 0.052294 0.8 0 0
0.261229 0.073905 0.090793 0.8 0 0
0.861421 0.072495 0.038242 0.8 0 0
0.151158 0.085517 0.129065 0.8 0 0
0.116307 0.183625 0.084919 0.8 0 0
0.697263 0.043218 0.126528 0.8 0 0
0.317330 0.062398 0.116262 0.8 0 0
0.316836 0.090307 0.133176 0.8 0 0
0.303611 0.087772 0.116489 0.8 0 0
0.075252 0.057940 0.127967 0.8 0 0
0.128546 0.097604 0.156417 0.8 0 0
0.168016 0.112294 0.055728 0.8 0 0
0.231021 0.117719 0.096341 0.8 0 0
0.345944 0.068515 0.086118 0.8 0 0
0.083632 0.200507 0.072889 0.8 0 0
0.554817 0.047930 0.099736 0.8 0 0
0.227303 0.111670 0.153044 0.8 0 0
0.332586 0.088765 0.128828 0.8 0 0
0.435745 0.078057 0.139318 0.8 0 0
0.682423 0.069448 0.130819 0.8 0 0
0.324038 0.101705 0.087732 0.8 0 0
0.929316 0.042614 0.049777 0.8 0 0
0.154607 0.085223 0.100633 0.8 0 0
0.238115 0.061834 0.100922 0.8 0 0
0.187543 0.081265 0.091977 0.8 0 0
0.300707 0.125901 0.123856 0.8 0 0
0.448464 0.099090 0.109952 0.8 0 0
0.123376 0.131338 0.170413 0.8 0 0
0.921275 0.048905 0.127808 0.8 0 0
0.903274 0.055677 0.109945 0.8 0 0
0.629520 0.079015 0.128960 0.8 0 0
0.114532 0.200482 0.141351 0.8 0 0
0.941284 0.045409 0.088367 0.8 0 0
0.737032 0.071490 0.121034 0.8 0 0
0.154493 0.180037 0.046521 0.8 0 0
0.153547 0.052591 0.155610 0.8 0 0
0.237694 0.108593 0.080001 0.8 0 0
0.207956 0.113593 0.168968 0.8 0 0
0.211206 0.097047 0.163663 0.8 0 0
0.135245 0.115351 0.201974 0.8 0 0
0.278841 0.123890 0.079847 0.8 0 0
0.311291 0.061079 0.084834 0.8 0 0
0.186434 0.088415 0.067972 0.8 0 0
0.200354 0.046834 0.031777 0.8 0 0
0.897295 0.066470 0.038242 0.8 0 0
0.388405 0.095916 0.118106 0.8 0 0
0.374409 0.072556 0.124970 0.8 0 0
0.156522 0.079644 0.119526 0.8 0 0
0.612357 0.051799 0.094697 0.8 0 0
0.134457 0.120092 0.080686 0.8 0 0
0.533677 0.090971 0.111118 0.8 0 0
0.281717 0.061465 0.128012 0.8 0 0
0.492493 0.094898 0.111323 0.8 0 0
0.277922 0.151453 0.119878 0.8 0 0
0.231838 0.134625 0.105791 0.8 0 0
0.185185 0.132126 0.078087 0.8 0 0
0.720149 0.044946 0.098182 0.8 0 0
0.628243 0.048924 0.133473 0.8 0 0
0.075763 0.203590 0.030234 0.8 0 0
0.356593 0.054488 0.096881 0.8 0 0
0.259819 0.111275 0.060303 0.8 0 0
0.840377 0.038483 0.119327 0.8 0 0
0.184295 0.095590 0.071305 0.8 0 0
0.267973 0.077647 0.135171 0.8 0 0
0.928812 0.042734 0.062035 0.8 0 0
0.511038 0.083875 0.092536 0.8 0 0
0.165307 0.025921 0.177386 0.8 0 0
0.650730 0.051531 0.095970 0.8 0 0
0.116610 0.200282 0.079905 0.8 0 0
0.175263 0.102215 0.135588 0.8 0 0
0.293867 0.109297 0.109405 0.8 0 0
0.123129 0.086102 0.158821 0.8 0 0
0.153525 0.059118 0.052700 0.8 0 0
0.497973 0.080786 0.137087 0.8 0 0
0.151496 0.083994 0.173172 0.8 0 0
0.119133 0.086281 0.123346 0.8 0 0
0.124958 0.070858 0.067979 0.8 0 0
0.226820 0.065511 0.135243 0.8 0 0
0.245992 0.060769 0.137525 0.8 0 0
0.182314 0.099422 0.075541 0.8 0 0
0.210342 0.065575 0.138629 0.8 0 0
0.282744 0.143693 0.103564 0.8 0 0
0.246966 0.105536 0.165314 0.8 0 0
0.249926 0.116564 0.107450 0.8 0 0
0.242390 0.120393 0.087333 0.8 0 0
0.174836 0.093520 0.134949 0.8 0 0
0.306345 0.091195 0.085195 0.8 0 0
0.208823 0.104419 0.043695 0.8 0 0
0.164259 0.111874 0.162526 0.8 0 0
0.153696 0.115089 0.060624 0.8 0 0
0.144782 0.025943 0.176710 0.8 0 0
0.146697 0.169839 0.090724 0.8 0 0
0.276704 0.105400 0.128902 0.8 0 0
0.299361 0.129861 0.128485 0.8 0 0
0.143117 0.179455 0.133478 0.8 0 0
0.091858 0.204358 0.161992 0.8 0 0
0.185972 0.068210 0.089410 0.8 0 0
0.083901 0.199902 0.196435 0.8 0 0
0.251916 0.087685 0.138774 0.8 0 0
0.275549 0.085353 0.088846 0.8 0 0
0.145070 0.052236 0.064351 0.8 0 0
0.181332 0.134495 0.033582 0.8 0 0
0.292397 0.062686 0.132165 0.8 0 0
0.284588 0.065111 0.093393 0.8 0 0
0.939149 0.041368 0.146942 0.8 0 0
0.100156 0.063520 0.049970 0.8 0 0
0.755750 0.041283 0.127974 0.8 0 0
0.245060 0.109459 0.076523 0.8 0 0
0.345193 0.101504 0.105959 0.8 0 0
0.126671 0.072010 0.041291 0.8 0 0
0.876474 0.087624 0.038242 0.8 0 0
0.112184 0.200707 0.129295 0.8 0 0
0.265446 0.141607 0.128325 0.8 0 0
0.879222 0.057984 0.110283 0.8 0 0
0.161054 0.189072 0.171896 0.8 0 0
0.129465 0.062922 0.080672 0.8 0 0
0.385776 0.110530 0.122046 0.8 0 0
0.846730 0.058370 0.124512 0.8 0 0
0.865698 0.086222 0.040066 0.8 0 0
0.120381 0.129359 0.044940 0.8 0 0
0.129838 0.099734 0.157793 0.8 0 0
0.125154 0.094553 0.164411 0.8 0 0
0.275197 0.116309 0.106029 0.8 0 0
0.123635 0.089392 0.191718 0.8 0 0
0.867160 0.046477 0.125517 0.8 0 0
0.113318 0.042861 0.026231 0.8 0 0
0.103578 0.104166 0.201974 0.8 0 0
0.904274 0.078700 0.040000 0.8 0 0
0.155956 0.113279 0.159625 0.8 0 0
0.255768 0.099393 0.152383 0.8 0 0
0.107805 0.186308 0.148261 0.8 0 0
0.152591 0.050831 0.151957 0.8 0 0
0.244237 0.135353 0.100611 0.8 0 0
0.113536 0.184317 0.122355 0.8 0 0
0.195533 0.045269 0.146288 0.8 0 0
0.174673 0.033071 0.025000 0.8 0 0
0.321483 0.102035 0.140845 0.8 0 0
0.260080 0.107996 0.161581 0.8 0 0
0.129623 0.180839 0.119632 0.8 0 0
0.260111 0.144965 0.119832 0.8 0 0
0.347187 0.089924 0.107626 0.8 0 0
0.385156 0.115962 0.118765 0.8 0 0
0.206883 0.061271 0.092075 0.8 0 0
0.842246 0.047424 0.042916 0.8 0 0
0.541205 0.088449 0.099297 0.8 0 0
0.174255 0.106460 0.192904 0.8 0 0
0.087081 0.203000 0.195922 0.8 0 0
0.709352 0.042818 0.127509 0.8 0 0
0.348904 0.091724 0.141879 0.8 0 0
0.390574 0.102359 0.128607 0.8 0 0
0.184190 0.096614 0.200438 0.8 0 0
0.187088 0.130938 0.069077 0.8 0 0
0.873855 0.042539 0.077407 0.8 0 0
0.461678 0.051012 0.118955 0.8 0 0
0.131152 0.180595 0.115018 0.8 0 0
0.146623 0.113968 0.165281 0.8 0 0
0.467929 0.090258 0.092525 0.8 0 0
0.683306 0.076697 0.110512 0.8 0 0
0.369597 0.091084 0.136551 0.8 0 0
0.391402 0.097436 0.136327 0.8 0 0
0.152402 0.195486 0.047780 0.8 0 0
0.133726 0.198642 0.178455 0.8 0 0
0.242167 0.106791 0.165690 0.8 0 0
0.168769 0.079189 0.114981 0.8 0 0
0.587345 0.046854 0.106451 0.8 0 0
0.544141 0.048284 0.130064 0.8 0 0
0.654969 0.044617 0.129124 0.8 0 0
0.710545 0.042779 0.123591 0.8 0 0
0.248678 0.116552 0.120882 0.8 0 0
0.307972 0.066140 0.138776 0.8 0 0
0.201208 0.085976 0.134988 0.8 0 0
0.150530 0.114767 0.187838 0.8 0 0
0.179818 0.030713 0.064109 0.8 0 0
0.129905 0.192170 0.031602 0.8 0 0
0.240750 0.094128 0.086431 0.8 0 0
0.226960 0.116771 0.132045 0.8 0 0
0.376894 0.122232 0.114381 0.8 0 0
0.134989 0.108018 0.200783 0.8 0 0
0.235760 0.108504 0.079696 0.8 0 0
0.125605 0.075835 0.177556 0.8 0 0
0.093335 0.192882 0.162814 0.8 0 0
0.241406 0.109334 0.162939 0.8 0 0
0.461623 0.097849 0.111825 0.8 0 0
0.030910 0.053139 0.123530 0.8 0 0
0.435873 0.058076 0.088930 0.8 0 0
0.112323 0.065020 0.146289 0.8 0 0
0.142812 0.139569 0.065765 0.8 0 0
0.297505 0.124312 0.127188 0.8 0 0
0.139425 0.056925 0.146992 0.8 0 0
0.158972 0.114875 0.162135 0.8 0 0
0.171588 0.138402 0.193218 0.8 0 0
0.940566 0.045778 0.077761 0.8 0 0
0.803623 0.039699 0.121653 0.8 0 0
0.641410 0.050863 0.095648 0.8 0 0
0.218353 0.086415 0.110081 0.8 0 0
0.285176 0.107085 0.087991 0.8 0 0
0.296326 0.084411 0.132513 0.8 0 0
0.258178 0.101729 0.076776 0.8 0 0
0.174126 0.106583 0.155239 0.8 0 0
0.728250 0.042272 0.098414 0.8 0 0
0.212755 0.087560 0.200246 0.8 0 0
0.151872 0.113100 0.199989 0.8 0 0
0.113339 0.089714 0.101365 0.8 0 0
0.262012 0.151589 0.110753 0.8 0 0
0.108312 0.099163 0.105185 0.8 0 0
0.859608 0.081456 0.040066 0.8 0 0
0.081988 0.202144 0.057483 0.8 0 0
0.327984 0.055435 0.141788 0.8 0 0
0.301671 0.083758 0.117200 0.8 0 0
0.199407 0.045674 0.163578 0.8 0 0
0.411991 0.066772 0.088286 0.8 0 0
0.269637 0.124285 0.125480 0.8 0 0
0.271116 0.110470 0.058481 0.8 0 0
0.101654 0.060753 0.148369 0.8 0 0
0.180318 0.102891 0.166167 0.8 0 0
0.233233 0.067137 0.091109 0.8 0 0
0.129783 0.065977 0.043511 0.8 0 0
0.157463 0.160125 0.136637 0.8 0 0
0.100838 0.096681 0.201974 0.8 0 0
0.165676 0.054523 0.048966 0.8 0 0
0.941025 0.045571 0.194473 0.8 0 0
0.129096 0.067269 0.189381 0.8 0 0
0.108123 0.116709 0.188533 0.8 0 0
0.801039 0.059216 0.127225 0.8 0 0
0.141457 0.106238 0.045405 0.8 0 0
0.157439 0.050804 0.180517 0.8 0 0
0.127094 0.180977 0.091211 0.8 0 0
0.099234 0.097950 0.186525 0.8 0 0
0.184705 0.071122 0.064748 0.8 0 0
0.266353 0.117111 0.097162 0.8 0 0
0.091890 0.204350 0.134757 0.8 0 0
0.161467 0.116301 0.201974 0.8 0 0
0.720573 0.042447 0.130240 0.8 0 0
0.232653 0.118470 0.116564 0.8 0 0
0.187076 0.086060 0.183768 0.8 0 0
0.849694 0.076811 0.190138 0.8 0 0
0.311135 0.083216 0.085215 0.8 0 0
0.124728 0.072353 0.193514 0.8 0 0
0.296808 0.127622 0.122678 0.8 0 0
0.469354 0.073821 0.138280 0.8 0 0
0.899461 0.056058 0.110515 0.8 0 0
0.143616 0.179431 0.088570 0.8 0 0
0.418243 0.099507 0.096078 0.8 0 0
0.076282 0.210305 0.149279 0.8 0 0
0.294513 0.099762 0.142611 0.8 0 0
0.134570 0.137120 0.046598 0.8 0 0
0.094823 0.203629 0.040854 0.8 0 0
0.110252 0.194042 0.196435 0.8 0 0
0.029751 0.055458 0.103068 0.8 0 0
0.754060 0.062342 0.128795 0.8 0 0
0.172463 0.117018 0.025000 0.8 0 0
0.817869 0.062398 0.123728 0.8 0 0
0.332249 0.079094 0.128150 0.8 0 0
0.173778 0.028106 0.183379 0.8 0 0
0.142070 0.110336 0.186594 0.8 0 0
0.231722 0.120530 0.121120 0.8 0 0
0.240763 0.062259 0.098422 0.8 0 0
0.249215 0.143031 0.104535 0.8 0 0
0.300979 0.121819 0.113219 0.8 0 0
0.179957 0.034493 0.146288 0.8 0 0
0.939403 0.043714 0.197546 0.8 0 0
0.286469 0.164281 0.102530 0.8 0 0
0.215661 0.073446 0.132933 0.8 0 0
0.130217 0.065470 0.032547 0.8 0 0
0.323451 0.077990 0.095673 0.8 0 0
0.652480 0.066421 0.132289 0.8 0 0
0.114723 0.041443 0.161367 0.8 0 0
0.114260 0.056590 0.080686 0.8 0 0
0.257466 0.095903 0.085389 0.8 0 0
0.163441 0.075602 0.089770 0.8 0 0
0.165953 0.139716 0.073504 0.8 0 0
0.269722 0.061567 0.124801 0.8 0 0
0.121171 0.048541 0.201974 0.8 0 0
0.203044 0.112001 0.135714 0.8 0 0
0.136372 0.058836 0.056979 0.8 0 0
0.174483 0.057225 0.172500 0.8 0 0
0.183774 0.100656 0.135870 0.8 0 0
0.501484 0.091296 0.131320 0.8 0 0
0.180376 0.102537 0.053167 0.8 0 0
0.288779 0.111160 0.144731 0.8 0 0
0.245363 0.133718 0.106419 0.8 0 0
0.112530 0.199466 0.195922 0.8 0 0
0.277938 0.058992 0.091407 0.8 0 0
0.290956 0.109141 0.148350 0.8 0 0
0.130139 0.030590 0.051003 0.8 0 0
0.184330 0.036976 0.146288 0.8 0 0
0.130019 0.100330 0.053252 0.8 0 0
0.914912 0.044656 0.123946 0.8 0 0
0.185570 0.131949 0.065244 0.8 0 0
0.535226 0.048579 0.130272 0.8 0 0
0.113633 0.100966 0.124062 0.8 0 0
0.117491 0.038894 0.199721 0.8 0 0
0.303543 0.086967 0.088714 0.8 0 0
0.137312 0.109764 0.028873 0.8 0 0
0.090455 0.204703 0.166901 0.8 0 0
0.263569 0.113116 0.160615 0.8 0 0
0.226824 0.084795 0.134955 0.8 0 0
0.128021 0.199190 0.100214 0.8 0 0
0.209629 0.063556 0.066103 0.8 0 0
0.345026 0.105742 0.134884 0.8 0 0
0.207380 0.077783 0.133430 0.8 0 0
0.174635 0.028416 0.166066 0.8 0 0
0.127559 0.199233 0.044365 0.8 0 0
0.261336 0.116436 0.111730 0.8 0 0
0.222370 0.068341 0.131978 0.8 0 0
0.099456 0.195086 0.197518 0.8 0 0
0.149942 0.058703 0.052700 0.8 0 0
0.204150 0.113639 0.056047 0.8 0 0
0.229152 0.096253 0.158985 0.8 0 0
0.251679 0.075657 0.133599 0.8 0 0
0.226757 0.105832 0.106811 0.8 0 0
0.275828 0.119114 0.088489 0.8 0 0
0.399573 0.053066 0.088936 0.8 0 0
0.107479 0.098305 0.025000 0.8 0 0
0.255265 0.098470 0.162524 0.8 0 0
0.602640 0.052930 0.134248 0.8 0 0
0.862086 0.092194 0.188371 0.8 0 0
0.926810 0.047793 0.043605 0.8 0 0
0.218831 0.097571 0.129392 0.8 0 0
0.157002 0.025053 0.158582 0.8 0 0
0.358269 0.067976 0.086519 0.8 0 0
0.101985 0.202193 0.135148 0.8 0 0
0.182017 0.065407 0.033236 0.8 0 0
0.258186 0.142592 0.121883 0.8 0 0
0.139694 0.027107 0.030704 0.8 0 0
0.836573 0.062027 0.119436 0.8 0 0
0.128381 0.101138 0.051731 0.8 0 0
0.283725 0.143685 0.125521 0.8 0 0
0.154052 0.079184 0.107740 0.8 0 0
0.150054 0.196203 0.130649 0.8 0 0
0.134775 0.107934 0.035126 0.8 0 0
0.088148 0.211380 0.030234 0.8 0 0
0.873493 0.062812 0.047865 0.8 0 0
0.530556 0.048733 0.128257 0.8 0 0
0.391343 0.094136 0.130512 0.8 0 0
0.076325 0.197568 0.031141 0.8 0 0
0.145626 0.179363 0.154389 0.8 0 0
0.135177 0.182015 0.136468 0.8 0 0
0.202457 0.116177 0.198113 0.8 0 0
0.392891 0.081631 0.140678 0.8 0 0
0.236886 0.095629 0.078574 0.8 0 0
0.125653 0.074799 0.053831 0.8 0 0
0.162545 0.140316 0.045149 0.8 0 0
0.228109 0.105820 0.112846 0.8 0 0
0.240191 0.158321 0.124696 0.8 0 0
0.349739 0.095348 0.136596 0.8 0 0
0.440835 0.051701 0.105817 0.8 0 0
0.280649 0.109408 0.117216 0.8 0 0
0.740323 0.043473 0.129834 0.8 0 0
