0.427125 0.104826 0.401667 0.8 0 0
0.282224 0.104270 0.504835 0.8 0 0
0.765755 0.136889 0.237295 0.8 0 0
0.230270 0.120208 0.200631 0.8 0 0
0.757708 0.111480 0.308199 0.8 0 0
0.740974 0.055534 0.066398 0.8 0 0
0.883309 0.045226 0.186964 0.8 0 0
0.780807 0.027570 0.061964 0.8 0 0
0.113499 0.192361 0.242035 0.8 0 0
0.597511 0.149194 0.319673 0.8 0 0
0.208983 0.145807 0.430636 0.8 0 0
0.601313 0.179150 0.239601 0.8 0 0
0.175774 0.038238 0.477444 0.8 0 0
0.156106 0.155111 0.470165 0.8 0 0
0.322296 0.158498 0.291499 0.8 0 0
0.270426 0.101050 0.406089 0.8 0 0
0.785320 0.105887 0.101799 0.8 0 0
0.266309 0.136842 0.285748 0.8 0 0
0.094911 0.170977 0.270044 0.8 0 0
0.838391 0.096117 0.287802 0.8 0 0
0.592499 0.122863 0.337094 0.8 0 0
0.167273 0.119201 0.406089 0.8 0 0
0.295825 0.145015 0.245876 0.8 0 0
0.080337 0.165406 0.258510 0.8 0 0
0.901825 0.073833 0.253247 0.8 0 0
0.582693 0.058768 0.442388 0.8 0 0
0.207671 0.026038 0.087452 0.8 0 0
0.209268 0.071078 0.099200 0.8 0 0
0.489823 0.099734 0.430656 0.8 0 0
0.454575 0.185415 0.285884 0.8 0 0
0.113262 0.191708 0.271444 0.8 0 0
0.679065 0.069761 0.433234 0.8 0 0
0.777844 0.103779 0.376793 0.8 0 0
0.563752 0.191052 0.280098 0.8 0 0
0.249251 0.085030 0.099200 0.8 0 0
0.202500 0.090243 0.470336 0.8 0 0
0.514550 0.092109 0.390440 0.8 0 0
0.470773 0.095637 0.381655 0.8 0 0
0.081601 0.186566 0.152588 0.8 0 0
0.470916 0.133140 0.330050 0.8 0 0
0.444103 0.149038 0.319457 0.8 0 0
0.718147 0.121462 0.282234 0.8 0 0
0.300139 0.120208 0.180979 0.8 0 0
0.086881 0.162935 0.271001 0.8 0 0
0.282892 0.057205 0.098441 0.8 0 0
0.038811 0.201608 0.152588 0.8 0 0
0.415394 0.187747 0.279159 0.8 0 0
0.066228 0.191264 0.177383 0.8 0 0
0.681669 0.110403 0.137096 0.8 0 0
0.203725 0.144178 0.109483 0.8 0 0
0.277042 0.135474 0.241215 0.8 0 0
0.838544 0.048809 0.468764 0.8 0 0
0.197800 0.084691 0.471728 0.8 0 0
0.274076 0.120208 0.374336 0.8 0 0
0.260057 0.101456 0.486269 0.8 0 0
0.765268 0.071067 0.107731 0.8 0 0
0.347722 0.080066 0.433056 0.8 0 0
0.796504 0.032691 0.120208 0.8 0 0
0.138365 0.162086 0.265630 0.8 0 0
0.199001 0.058056 0.025000 0.8 0 0
0.461764 0.100601 0.132800 0.8 0 0
0.225637 0.098377 0.239256 0.8 0 0
0.279972 0.053186 0.088248 0.8 0 0
0.035492 0.195707 0.236968 0.8 0 0
0.443684 0.172288 0.297676 0.8 0 0
0.776167 0.144788 0.101413 0.8 0 0
0.371945 0.120209 0.141546 0.8 0 0
0.733347 0.099071 0.452030 0.8 0 0
0.224601 0.110086 0.471613 0.8 0 0
0.225262 0.180356 0.406089 0.8 0 0
0.869707 0.039071 0.162103 0.8 0 0
0.499611 0.112283 0.187009 0.8 0 0
0.394446 0.054459 0.117121 0.8 0 0
0.255258 0.034079 0.423599 0.8 0 0
0.906801 0.036366 0.391108 0.8 0 0
0.324035 0.084804 0.102059 0.8 0 0
0.153951 0.152816 0.033319 0.8 0 0
0.206228 0.146519 0.027980 0.8 0 0
0.900840 0.044464 0.395322 0.8 0 0
0.246140 0.029788 0.500290 0.8 0 0
0.224233 0.113844 0.107265 0.8 0 0
0.206071 0.112476 0.436323 0.8 0 0
0.241885 0.070935 0.496770 0.8 0 0
0.529351 0.119608 0.087748 0.8 0 0
0.472861 0.080313 0.437820 0.8 0 0
0.709000 0.048899 0.160190 0.8 0 0
0.792265 0.055427 0.416313 0.8 0 0
0.750080 0.129738 0.445227 0.8 0 0
0.501678 0.057062 0.087447 0.8 0 0
0.417377 0.112350 0.386932 0.8 0 0
0.430277 0.111789 0.428856 0.8 0 0
0.214043 0.115871 0.412540 0.8 0 0
0.074273 0.198037 0.295653 0.8 0 0
0.476702 0.171572 0.298753 0.8 0 0
0.269079 0.051177 0.025000 0.8 0 0
0.140841 0.088796 0.119411 0.8 0 0
0.780847 0.100500 0.109631 0.8 0 0
0.372208 0.083292 0.096490 0.8 0 0
0.803461 0.105419 0.403331 0.8 0 0
0.266091 0.040534 0.036440 0.8 0 0
0.443316 0.101417 0.119235 0.8 0 0
0.819680 0.102820 0.237981 0.8 0 0
0.247989 0.030658 0.431854 0.8 0 0
0.363420 0.192208 0.264574 0.8 0 0
0.139166 0.100007 0.418962 0.8 0 0
0.794179 0.068055 0.412810 0.8 0 0
0.763416 0.034144 0.428590 0.8 0 0
0.151776 0.097339 0.406089 0.8 0 0
0.410053 0.157547 0.313852 0.8 0 0
0.809150 0.029141 0.424339 0.8 0 0
0.299201 0.109261 0.106881 0.8 0 0
0.258230 0.091746 0.039941 0.8 0 0
0.100667 0.187343 0.252638 0.8 0 0
0.350882 0.063665 0.131642 0.8 0 0
0.293390 0.134966 0.086898 0.8 0 0
0.182402 0.082789 0.501862 0.8 0 0
0.634526 0.109889 0.087447 0.8 0 0
0.208617 0.112766 0.084444 0.8 0 0
0.290541 0.109149 0.123746 0.8 0 0
0.283907 0.148665 0.273248 0.8 0 0
0.252017 0.170165 0.504835 0.8 0 0
0.297343 0.086868 0.119796 0.8 0 0
0.206371 0.097774 0.432642 0.8 0 0
0.657161 0.070225 0.438710 0.8 0 0
0.228772 0.116713 0.435896 0.8 0 0
0.146519 0.071519 0.105455 0.8 0 0
0.142939 0.122627 0.122773 0.8 0 0
0.438048 0.038153 0.430492 0.8 0 0
0.243410 0.182168 0.419099 0.8 0 0
0.650072 0.118754 0.392714 0.8 0 0
0.228765 0.037133 0.025000 0.8 0 0
0.709000 0.080437 0.402337 0.8 0 0
0.560710 0.107876 0.442388 0.8 0 0
0.538016 0.090630 0.370272 0.8 0 0
0.053914 0.192116 0.157016 0.8 0 0
0.243697 0.114549 0.350512 0.8 0 0
0.645277 0.144750 0.207698 0.8 0 0
0.542446 0.133433 0.330047 0.8 0 0
0.259058 0.162809 0.025000 0.8 0 0
0.762099 0.064282 0.325366 0.8 0 0
0.660507 0.134832 0.235134 0.8 0 0
0.181759 0.176398 0.432984 0.8 0 0
0.709000 0.085485 0.141281 0.8 0 0
0.510253 0.100247 0.432408 0.8 0 0
0.476518 0.089798 0.438590 0.8 0 0
0.177558 0.084464 0.123746 0.8 0 0
0.251611 0.040517 0.123746 0.8 0 0
0.225534 0.112616 0.353769 0.8 0 0
0.733593 0.160445 0.291837 0.8 0 0
0.240796 0.073303 0.430635 0.8 0 0
0.709000 0.080309 0.158022 0.8 0 0
0.668590 0.141914 0.206746 0.8 0 0
0.230913 0.145585 0.425483 0.8 0 0
0.916347 0.046374 0.111286 0.8 0 0
0.257699 0.085895 0.409166 0.8 0 0
0.554547 0.091741 0.424165 0.8 0 0
0.772314 0.098380 0.220189 0.8 0 0
0.800559 0.098071 0.228205 0.8 0 0
0.588157 0.088936 0.087447 0.8 0 0
0.223338 0.098316 0.469029 0.8 0 0
0.267061 0.169501 0.452998 0.8 0 0
0.092862 0.188050 0.200181 0.8 0 0
0.787944 0.085441 0.459035 0.8 0 0
0.536838 0.175474 0.292879 0.8 0 0
0.462386 0.163426 0.220007 0.8 0 0
0.852208 0.053876 0.223066 0.8 0 0
0.792919 0.026808 0.074589 0.8 0 0
0.205435 0.099612 0.099009 0.8 0 0
0.709000 0.089233 0.127450 0.8 0 0
0.076963 0.168466 0.259463 0.8 0 0
0.790080 0.068446 0.415493 0.8 0 0
0.252609 0.080845 0.052200 0.8 0 0
0.926809 0.034170 0.420204 0.8 0 0
0.219831 0.180490 0.504835 0.8 0 0
0.633520 0.144414 0.207280 0.8 0 0
0.166706 0.142367 0.504835 0.8 0 0
0.308405 0.120208 0.172161 0.8 0 0
0.140071 0.091796 0.453515 0.8 0 0
0.851082 0.087107 0.047116 0.8 0 0
0.640195 0.102584 0.442388 0.8 0 0
0.617579 0.120208 0.358550 0.8 0 0
0.217951 0.025392 0.066798 0.8 0 0
0.038175 0.192530 0.302929 0.8 0 0
0.581786 0.173856 0.255209 0.8 0 0
0.189472 0.074064 0.501741 0.8 0 0
0.254942 0.115466 0.473786 0.8 0 0
0.507556 0.161297 0.218364 0.8 0 0
0.411633 0.120208 0.403896 0.8 0 0
0.255000 0.126429 0.110145 0.8 0 0
0.172657 0.124730 0.504835 0.8 0 0
0.740610 0.117670 0.466483 0.8 0 0
0.591619 0.120208 0.155444 0.8 0 0
0.735239 0.067423 0.470630 0.8 0 0
0.328037 0.045008 0.131815 0.8 0 0
0.367684 0.053822 0.126041 0.8 0 0
0.358794 0.085527 0.447473 0.8 0 0
0.655694 0.145232 0.208027 0.8 0 0
0.868563 0.042464 0.411667 0.8 0 0
0.095231 0.187836 0.294124 0.8 0 0
0.796124 0.132189 0.120208 0.8 0 0
0.086599 0.191152 0.377248 0.8 0 0
0.601580 0.120208 0.378448 0.8 0 0
0.448633 0.083945 0.432720 0.8 0 0
0.922709 0.064462 0.266810 0.8 0 0
0.497511 0.090734 0.102185 0.8 0 0
0.789921 0.146869 0.419156 0.8 0 0
0.782433 0.101792 0.409191 0.8 0 0
0.506682 0.090630 0.410811 0.8 0 0
0.795401 0.071292 0.457656 0.8 0 0
0.879064 0.042740 0.371838 0.8 0 0
0.203769 0.067145 0.490189 0.8 0 0
0.406658 0.148299 0.209699 0.8 0 0
0.317555 0.120208 0.391272 0.8 0 0
0.041920 0.192432 0.207981 0.8 0 0
0.061941 0.191792 0.215122 0.8 0 0
0.389867 0.120208 0.161097 0.8 0 0
0.632614 0.134665 0.329152 0.8 0 0
0.604728 0.148576 0.284394 0.8 0 0
0.347960 0.067280 0.398020 0.8 0 0
0.179648 0.175059 0.079816 0.8 0 0
0.712796 0.066321 0.338864 0.8 0 0
0.193883 0.044161 0.123746 0.8 0 0
0.204722 0.101516 0.442835 0.8 0 0
0.083558 0.189129 0.305242 0.8 0 0
0.375649 0.050752 0.406449 0.8 0 0
0.778374 0.067480 0.383091 0.8 0 0
0.785228 0.122797 0.236614 0.8 0 0
0.774152 0.053575 0.409627 0.8 0 0
0.228741 0.184967 0.062552 0.8 0 0
0.812186 0.054559 0.046149 0.8 0 0
0.208345 0.099180 0.212344 0.8 0 0
0.774748 0.068446 0.373464 0.8 0 0
0.091598 0.188165 0.247334 0.8 0 0
0.262448 0.153237 0.025000 0.8 0 0
0.806366 0.131167 0.046149 0.8 0 0
0.718637 0.059812 0.338456 0.8 0 0
0.378675 0.109077 0.407458 0.8 0 0
0.779209 0.058569 0.419422 0.8 0 0
0.256253 0.120541 0.054824 0.8 0 0
0.861093 0.042267 0.308629 0.8 0 0
0.196832 0.149318 0.406089 0.8 0 0
0.224263 0.113823 0.152912 0.8 0 0
0.777652 0.041674 0.409627 0.8 0 0
0.841754 0.120639 0.477663 0.8 0 0
0.539127 0.160820 0.218422 0.8 0 0
0.258115 0.120208 0.224659 0.8 0 0
0.242625 0.182318 0.481165 0.8 0 0
0.552528 0.090630 0.135393 0.8 0 0
0.801778 0.052330 0.120208 0.8 0 0
0.057386 0.196284 0.354955 0.8 0 0
0.590179 0.148585 0.276879 0.8 0 0
0.377557 0.042156 0.122750 0.8 0 0
0.732175 0.082463 0.090126 0.8 0 0
0.924360 0.047185 0.387101 0.8 0 0
0.281084 0.054716 0.490117 0.8 0 0
0.586584 0.041035 0.442388 0.8 0 0
0.131605 0.165615 0.264918 0.8 0 0
0.776373 0.113851 0.114263 0.8 0 0
0.225288 0.072320 0.472483 0.8 0 0
0.430551 0.104105 0.155278 0.8 0 0
0.824096 0.138155 0.085728 0.8 0 0
0.201169 0.065730 0.408460 0.8 0 0
0.838826 0.116562 0.270189 0.8 0 0
0.386491 0.173368 0.248335 0.8 0 0
0.669378 0.046875 0.436070 0.8 0 0
0.216639 0.025474 0.426769 0.8 0 0
0.408714 0.099730 0.110034 0.8 0 0
0.244033 0.072268 0.482630 0.8 0 0
0.190169 0.050383 0.504835 0.8 0 0
0.467751 0.126804 0.195369 0.8 0 0
0.400148 0.147465 0.320593 0.8 0 0
0.523115 0.098785 0.098159 0.8 0 0
0.403014 0.184577 0.279326 0.8 0 0
0.178454 0.096695 0.413518 0.8 0 0
0.893341 0.063328 0.288194 0.8 0 0
0.790923 0.146932 0.097360 0.8 0 0
0.781479 0.101317 0.109631 0.8 0 0
0.190441 0.100123 0.264918 0.8 0 0
0.525689 0.178825 0.239548 0.8 0 0
0.370051 0.076257 0.082272 0.8 0 0
0.734482 0.070371 0.074253 0.8 0 0
0.814701 0.136784 0.483687 0.8 0 0
0.594637 0.132091 0.280767 0.8 0 0
0.876678 0.036023 0.221807 0.8 0 0
0.219143 0.113073 0.445392 0.8 0 0
0.882311 0.038581 0.420204 0.8 0 0
0.298642 0.097154 0.035907 0.8 0 0
0.905970 0.068390 0.249922 0.8 0 0
0.379590 0.120208 0.188329 0.8 0 0
0.383884 0.120208 0.364405 0.8 0 0
0.154095 0.080565 0.406089 0.8 0 0
0.153303 0.096433 0.406089 0.8 0 0
0.575552 0.119748 0.177057 0.8 0 0
0.783309 0.080036 0.436323 0.8 0 0
0.636586 0.167422 0.225225 0.8 0 0
0.709000 0.056156 0.152080 0.8 0 0
0.370586 0.096409 0.125074 0.8 0 0
0.771399 0.120579 0.299798 0.8 0 0
0.457208 0.098703 0.353443 0.8 0 0
0.188904 0.109675 0.265632 0.8 0 0
0.239082 0.155417 0.025000 0.8 0 0
0.309626 0.128315 0.216745 0.8 0 0
0.254145 0.094757 0.473504 0.8 0 0
0.218070 0.146833 0.479849 0.8 0 0
0.767477 0.098025 0.199724 0.8 0 0
0.205185 0.136288 0.472515 0.8 0 0
0.364556 0.077173 0.094420 0.8 0 0
0.847999 0.065165 0.441388 0.8 0 0
0.782081 0.091691 0.092124 0.8 0 0
0.227916 0.025715 0.103708 0.8 0 0
0.142739 0.154983 0.266437 0.8 0 0
0.897508 0.037306 0.301922 0.8 0 0
0.505139 0.094961 0.429765 0.8 0 0
0.432039 0.147030 0.208757 0.8 0 0
0.815366 0.050169 0.409627 0.8 0 0
0.777218 0.028736 0.447881 0.8 0 0
0.792226 0.074598 0.428037 0.8 0 0
0.088300 0.157428 0.264509 0.8 0 0
0.913857 0.035497 0.177219 0.8 0 0
0.929201 0.057239 0.276241 0.8 0 0
0.151103 0.147659 0.109335 0.8 0 0
0.378279 0.165676 0.222206 0.8 0 0
0.444012 0.133172 0.330035 0.8 0 0
0.279679 0.158055 0.422466 0.8 0 0
0.105956 0.186811 0.166801 0.8 0 0
0.709454 0.097570 0.143533 0.8 0 0
0.201157 0.066480 0.499660 0.8 0 0
0.709000 0.066600 0.342272 0.8 0 0
0.850445 0.083151 0.410245 0.8 0 0
0.225843 0.092218 0.442994 0.8 0 0
0.207853 0.120208 0.299914 0.8 0 0
0.496951 0.092109 0.122259 0.8 0 0
0.292622 0.136906 0.083006 0.8 0 0
0.714979 0.104848 0.329194 0.8 0 0
0.139230 0.144546 0.268246 0.8 0 0
0.492743 0.091012 0.383771 0.8 0 0
0.575709 0.119958 0.168213 0.8 0 0
0.745651 0.048844 0.101311 0.8 0 0
0.194898 0.067758 0.504354 0.8 0 0
0.409152 0.119665 0.130360 0.8 0 0
0.676757 0.112083 0.167402 0.8 0 0
0.278823 0.074203 0.025000 0.8 0 0
0.367355 0.117706 0.403685 0.8 0 0
0.823265 0.087250 0.058129 0.8 0 0
0.154502 0.153192 0.121864 0.8 0 0
0.442647 0.106684 0.431460 0.8 0 0
0.209744 0.113481 0.297664 0.8 0 0
0.221034 0.120119 0.096497 0.8 0 0
0.227741 0.032405 0.025000 0.8 0 0
0.786669 0.084760 0.310981 0.8 0 0
0.819283 0.130369 0.263716 0.8 0 0
0.195605 0.181838 0.421730 0.8 0 0
0.378722 0.175183 0.251647 0.8 0 0
0.234384 0.183890 0.417207 0.8 0 0
0.709000 0.064362 0.351709 0.8 0 0
0.843699 0.117962 0.078137 0.8 0 0
0.803753 0.061052 0.385051 0.8 0 0
0.169703 0.042091 0.436536 0.8 0 0
0.657946 0.116334 0.098184 0.8 0 0
0.103534 0.187084 0.319637 0.8 0 0
0.620534 0.090014 0.087447 0.8 0 0
0.139166 0.107073 0.435586 0.8 0 0
0.465784 0.178894 0.290241 0.8 0 0
0.174814 0.087487 0.266373 0.8 0 0
0.270292 0.108468 0.504835 0.8 0 0
0.164123 0.159652 0.025461 0.8 0 0
0.633831 0.137030 0.295538 0.8 0 0
0.766533 0.068446 0.330408 0.8 0 0
0.383801 0.073965 0.445381 0.8 0 0
0.105429 0.140749 0.262649 0.8 0 0
0.517276 0.092109 0.396418 0.8 0 0
0.521509 0.190582 0.278215 0.8 0 0
0.820666 0.074347 0.424801 0.8 0 0
0.748831 0.087664 0.120208 0.8 0 0
0.896120 0.043882 0.124975 0.8 0 0
0.839794 0.114741 0.409627 0.8 0 0
0.221929 0.095456 0.381668 0.8 0 0
0.218026 0.063555 0.107549 0.8 0 0
0.851286 0.076810 0.452876 0.8 0 0
0.754216 0.062206 0.046149 0.8 0 0
0.633382 0.120208 0.382344 0.8 0 0
0.543442 0.034859 0.087447 0.8 0 0
0.465280 0.092996 0.093611 0.8 0 0
0.143795 0.077292 0.485939 0.8 0 0
0.794538 0.026706 0.460734 0.8 0 0
0.202329 0.047759 0.264918 0.8 0 0
0.221129 0.062139 0.408773 0.8 0 0
0.593837 0.120208 0.166926 0.8 0 0
0.204112 0.105478 0.087436 0.8 0 0
0.745251 0.049269 0.461278 0.8 0 0
0.484311 0.092787 0.131753 0.8 0 0
0.106759 0.178177 0.263469 0.8 0 0
0.603335 0.054903 0.442388 0.8 0 0
0.735512 0.150054 0.267752 0.8 0 0
0.405405 0.135101 0.200901 0.8 0 0
0.780930 0.116174 0.113033 0.8 0 0
0.179673 0.045040 0.025000 0.8 0 0
0.803051 0.110272 0.101799 0.8 0 0
0.446665 0.168572 0.303270 0.8 0 0
0.472591 0.149029 0.210055 0.8 0 0
0.290826 0.069397 0.468279 0.8 0 0
0.731321 0.126582 0.290730 0.8 0 0
0.323197 0.092366 0.441991 0.8 0 0
0.568503 0.112902 0.252087 0.8 0 0
0.709000 0.054292 0.143897 0.8 0 0
0.815039 0.105419 0.233145 0.8 0 0
0.445505 0.104057 0.137850 0.8 0 0
0.610642 0.125879 0.288463 0.8 0 0
0.248832 0.077594 0.475311 0.8 0 0
0.158382 0.104993 0.123746 0.8 0 0
0.357134 0.121127 0.191598 0.8 0 0
0.516229 0.139078 0.326243 0.8 0 0
0.805901 0.094901 0.072188 0.8 0 0
0.809706 0.068446 0.187430 0.8 0 0
0.480204 0.093652 0.173897 0.8 0 0
0.139166 0.099059 0.072274 0.8 0 0
0.201763 0.127816 0.471417 0.8 0 0
0.709000 0.068509 0.122684 0.8 0 0
0.575139 0.119197 0.140579 0.8 0 0
0.501392 0.092109 0.137097 0.8 0 0
0.739979 0.132400 0.304846 0.8 0 0
0.624767 0.046498 0.087447 0.8 0 0
0.272253 0.165205 0.464929 0.8 0 0
0.308229 0.084287 0.131815 0.8 0 0
0.214036 0.115870 0.296543 0.8 0 0
0.447773 0.100479 0.173204 0.8 0 0
0.881515 0.038760 0.220234 0.8 0 0
0.353117 0.167751 0.277530 0.8 0 0
0.795467 0.055935 0.109457 0.8 0 0
0.219506 0.116064 0.353217 0.8 0 0
0.604688 0.131025 0.229124 0.8 0 0
0.089438 0.188404 0.212619 0.8 0 0
0.442360 0.150690 0.318542 0.8 0 0
0.773944 0.068446 0.156171 0.8 0 0
0.871959 0.036596 0.308917 0.8 0 0
0.827715 0.082355 0.229110 0.8 0 0
0.132783 0.126805 0.262426 0.8 0 0
0.601407 0.133021 0.297708 0.8 0 0
0.935111 0.051191 0.279986 0.8 0 0
0.609564 0.128150 0.253627 0.8 0 0
0.806504 0.078057 0.072027 0.8 0 0
0.048367 0.196046 0.342839 0.8 0 0
0.181444 0.126305 0.412195 0.8 0 0
0.288121 0.104391 0.406089 0.8 0 0
0.410692 0.050293 0.109045 0.8 0 0
0.684563 0.103866 0.338610 0.8 0 0
0.223739 0.091148 0.431304 0.8 0 0
0.771685 0.098025 0.173291 0.8 0 0
0.100957 0.163552 0.270260 0.8 0 0
0.212639 0.120208 0.226246 0.8 0 0
0.802799 0.098025 0.373061 0.8 0 0
0.651721 0.126078 0.246158 0.8 0 0
0.748136 0.127339 0.225240 0.8 0 0
0.277598 0.050055 0.069441 0.8 0 0
0.461075 0.141484 0.324680 0.8 0 0
0.801845 0.146118 0.114708 0.8 0 0
0.179855 0.119831 0.107617 0.8 0 0
0.260184 0.111474 0.108620 0.8 0 0
0.355980 0.120209 0.141923 0.8 0 0
0.398691 0.094990 0.414790 0.8 0 0
0.389609 0.138473 0.203148 0.8 0 0
0.411141 0.131542 0.198699 0.8 0 0
0.425910 0.130427 0.332051 0.8 0 0
0.082020 0.198991 0.369299 0.8 0 0
0.256877 0.120208 0.348196 0.8 0 0
0.186771 0.131157 0.031842 0.8 0 0
0.361611 0.146421 0.321366 0.8 0 0
0.774460 0.044649 0.201529 0.8 0 0
0.396767 0.071889 0.086229 0.8 0 0
0.573045 0.162308 0.219482 0.8 0 0
0.062846 0.196629 0.324090 0.8 0 0
0.333761 0.121231 0.199955 0.8 0 0
0.701608 0.135816 0.280208 0.8 0 0
0.510405 0.132699 0.330537 0.8 0 0
0.523712 0.059045 0.442388 0.8 0 0
0.156504 0.133423 0.406089 0.8 0 0
0.048417 0.192261 0.198241 0.8 0 0
0.298616 0.096944 0.086328 0.8 0 0
0.178578 0.114921 0.414973 0.8 0 0
0.259458 0.113164 0.477928 0.8 0 0
0.682851 0.110108 0.152365 0.8 0 0
0.156512 0.065996 0.504835 0.8 0 0
0.356021 0.090867 0.129929 0.8 0 0
0.526366 0.092217 0.087447 0.8 0 0
0.797833 0.117213 0.056082 0.8 0 0
0.140771 0.089070 0.053983 0.8 0 0
0.380110 0.108268 0.407937 0.8 0 0
0.925407 0.037214 0.420204 0.8 0 0
0.159470 0.147570 0.025000 0.8 0 0
0.099466 0.200856 0.315187 0.8 0 0
0.959669 0.040097 0.270994 0.8 0 0
0.542348 0.102885 0.442388 0.8 0 0
0.497891 0.158349 0.216693 0.8 0 0
0.577227 0.041899 0.442388 0.8 0 0
0.161434 0.113958 0.504835 0.8 0 0
0.500587 0.092109 0.125511 0.8 0 0
0.545693 0.052173 0.442388 0.8 0 0
0.295536 0.129546 0.095233 0.8 0 0
0.431193 0.122462 0.192508 0.8 0 0
0.852489 0.086335 0.061782 0.8 0 0
0.558512 0.162552 0.219615 0.8 0 0
0.139535 0.093883 0.486148 0.8 0 0
0.381918 0.074279 0.436754 0.8 0 0
0.570113 0.112496 0.176166 0.8 0 0
0.498616 0.092109 0.413774 0.8 0 0
0.426842 0.075707 0.439486 0.8 0 0
0.840893 0.052042 0.082129 0.8 0 0
0.709000 0.082202 0.393222 0.8 0 0
0.149669 0.065787 0.052816 0.8 0 0
0.771437 0.101354 0.331573 0.8 0 0
0.452146 0.068150 0.084553 0.8 0 0
0.175070 0.172153 0.470485 0.8 0 0
0.321279 0.125002 0.321127 0.8 0 0
0.808749 0.066087 0.389440 0.8 0 0
0.209168 0.103591 0.469029 0.8 0 0
0.495689 0.114132 0.439350 0.8 0 0
0.569855 0.044206 0.442388 0.8 0 0
0.845344 0.115405 0.077112 0.8 0 0
0.802373 0.032312 0.409627 0.8 0 0
0.164005 0.114721 0.266942 0.8 0 0
0.211984 0.037136 0.406089 0.8 0 0
0.208102 0.115372 0.096449 0.8 0 0
0.541083 0.193070 0.259465 0.8 0 0
0.225520 0.025258 0.477387 0.8 0 0
0.745177 0.049348 0.072770 0.8 0 0
0.733322 0.098973 0.048753 0.8 0 0
0.345597 0.152927 0.215167 0.8 0 0
0.305995 0.093193 0.119478 0.8 0 0
0.466884 0.186143 0.244979 0.8 0 0
0.568503 0.143062 0.267094 0.8 0 0
0.706883 0.100141 0.404931 0.8 0 0
0.506148 0.095128 0.099988 0.8 0 0
0.883800 0.038700 0.371784 0.8 0 0
0.504844 0.054162 0.087447 0.8 0 0
0.235172 0.149769 0.504835 0.8 0 0
0.190172 0.177351 0.406695 0.8 0 0
0.651018 0.142046 0.324047 0.8 0 0
0.626188 0.132501 0.330655 0.8 0 0
0.627938 0.123783 0.288888 0.8 0 0
0.077203 0.198397 0.331941 0.8 0 0
0.773903 0.103154 0.407847 0.8 0 0
0.821455 0.034468 0.100292 0.8 0 0
0.170189 0.110040 0.504835 0.8 0 0
0.526779 0.092109 0.390230 0.8 0 0
0.601466 0.078929 0.442388 0.8 0 0
0.369026 0.083822 0.414354 0.8 0 0
0.609564 0.089755 0.247507 0.8 0 0
0.740776 0.117972 0.428052 0.8 0 0
0.616742 0.161421 0.289147 0.8 0 0
0.921721 0.046947 0.349254 0.8 0 0
0.926255 0.047357 0.295019 0.8 0 0
0.211379 0.114573 0.386857 0.8 0 0
0.951008 0.046276 0.261798 0.8 0 0
0.404098 0.118731 0.417494 0.8 0 0
0.508913 0.092109 0.375873 0.8 0 0
0.923021 0.034500 0.395385 0.8 0 0
0.655606 0.116919 0.183446 0.8 0 0
0.102716 0.187158 0.307545 0.8 0 0
0.723110 0.044311 0.192193 0.8 0 0
0.583790 0.097886 0.087447 0.8 0 0
0.938326 0.047115 0.397115 0.8 0 0
0.444398 0.101189 0.369279 0.8 0 0
0.398151 0.059053 0.115315 0.8 0 0
0.825654 0.114003 0.280009 0.8 0 0
0.813146 0.109475 0.061854 0.8 0 0
0.486938 0.109785 0.434770 0.8 0 0
0.406171 0.120208 0.398595 0.8 0 0
0.709000 0.062226 0.371313 0.8 0 0
0.804863 0.065988 0.174050 0.8 0 0
0.107817 0.186954 0.259441 0.8 0 0
0.363257 0.120568 0.338619 0.8 0 0
0.227592 0.185185 0.486219 0.8 0 0
0.394936 0.121263 0.191675 0.8 0 0
0.695628 0.140871 0.213646 0.8 0 0
0.285792 0.134090 0.232512 0.8 0 0
0.237446 0.115382 0.470083 0.8 0 0
0.851765 0.093264 0.093750 0.8 0 0
0.346723 0.087660 0.417006 0.8 0 0
0.846332 0.060956 0.437467 0.8 0 0
0.507378 0.096379 0.430474 0.8 0 0
0.781029 0.055951 0.410991 0.8 0 0
0.072011 0.190551 0.317258 0.8 0 0
0.177291 0.037276 0.041508 0.8 0 0
0.554897 0.076029 0.087447 0.8 0 0
0.245132 0.081081 0.099200 0.8 0 0
0.940198 0.045447 0.327375 0.8 0 0
0.709000 0.048846 0.394675 0.8 0 0
0.709411 0.128196 0.214156 0.8 0 0
0.140474 0.120611 0.442637 0.8 0 0
0.442683 0.101551 0.415261 0.8 0 0
0.371397 0.120208 0.376444 0.8 0 0
0.256517 0.095564 0.430636 0.8 0 0
0.532624 0.117485 0.088810 0.8 0 0
0.659548 0.115934 0.149764 0.8 0 0
0.250243 0.149148 0.504835 0.8 0 0
0.487171 0.092185 0.106052 0.8 0 0
0.412812 0.161558 0.311173 0.8 0 0
0.081225 0.200040 0.244478 0.8 0 0
0.667863 0.122136 0.238462 0.8 0 0
0.735693 0.102295 0.410327 0.8 0 0
0.213653 0.115794 0.312168 0.8 0 0
0.734490 0.070342 0.077698 0.8 0 0
0.235364 0.121280 0.249186 0.8 0 0
0.047169 0.196015 0.268435 0.8 0 0
0.530643 0.092109 0.167912 0.8 0 0
0.451239 0.121145 0.191611 0.8 0 0
0.809514 0.067056 0.318573 0.8 0 0
0.759779 0.050181 0.198860 0.8 0 0
0.225308 0.112954 0.441635 0.8 0 0
0.545677 0.189645 0.279616 0.8 0 0
0.210770 0.184996 0.106587 0.8 0 0
0.786587 0.061529 0.459678 0.8 0 0
0.608648 0.120208 0.168193 0.8 0 0
0.595537 0.154893 0.315708 0.8 0 0
0.557819 0.096104 0.142302 0.8 0 0
0.226251 0.041334 0.504835 0.8 0 0
0.209700 0.164156 0.025000 0.8 0 0
0.822034 0.139125 0.094974 0.8 0 0
0.763657 0.071476 0.118363 0.8 0 0
0.215076 0.063459 0.499660 0.8 0 0
0.750890 0.033934 0.332592 0.8 0 0
0.148301 0.142563 0.476468 0.8 0 0
0.433010 0.067988 0.097864 0.8 0 0
0.518755 0.092109 0.415401 0.8 0 0
0.756858 0.042755 0.198329 0.8 0 0
0.814137 0.122615 0.251154 0.8 0 0
0.623783 0.091555 0.087447 0.8 0 0
0.257023 0.098168 0.430636 0.8 0 0
0.738426 0.160518 0.289189 0.8 0 0
0.834264 0.043973 0.108968 0.8 0 0
0.320297 0.120209 0.143758 0.8 0 0
0.169629 0.042138 0.111533 0.8 0 0
0.815603 0.113095 0.120208 0.8 0 0
0.220203 0.027283 0.122847 0.8 0 0
0.314832 0.154438 0.250160 0.8 0 0
0.666740 0.114135 0.340852 0.8 0 0
0.228300 0.105673 0.414392 0.8 0 0
0.791492 0.088122 0.459035 0.8 0 0
0.546899 0.092174 0.352881 0.8 0 0
0.664941 0.159421 0.312214 0.8 0 0
0.804906 0.145534 0.457653 0.8 0 0
0.441892 0.074916 0.096480 0.8 0 0
0.260321 0.110608 0.110962 0.8 0 0
0.112675 0.190367 0.297213 0.8 0 0
0.259388 0.113607 0.044160 0.8 0 0
0.752530 0.115989 0.221778 0.8 0 0
0.205087 0.065967 0.430038 0.8 0 0
0.297997 0.118791 0.497522 0.8 0 0
0.572550 0.161385 0.218865 0.8 0 0
0.464675 0.096921 0.415822 0.8 0 0
0.299152 0.149017 0.294053 0.8 0 0
0.196149 0.123819 0.264918 0.8 0 0
0.257898 0.091094 0.053267 0.8 0 0
0.770687 0.030858 0.418488 0.8 0 0
0.851888 0.092287 0.083107 0.8 0 0
0.181596 0.088588 0.054260 0.8 0 0
0.654296 0.117246 0.179674 0.8 0 0
0.565153 0.137398 0.327404 0.8 0 0
0.570673 0.113242 0.416827 0.8 0 0
0.369080 0.136484 0.327976 0.8 0 0
0.229010 0.184288 0.027651 0.8 0 0
0.707995 0.129868 0.276265 0.8 0 0
0.801297 0.027643 0.475405 0.8 0 0
0.730935 0.153052 0.297771 0.8 0 0
0.377057 0.051546 0.406919 0.8 0 0
0.167272 0.167001 0.033050 0.8 0 0
0.698378 0.135837 0.249832 0.8 0 0
0.290423 0.120208 0.205067 0.8 0 0
0.456363 0.133814 0.329662 0.8 0 0
0.489039 0.091059 0.088609 0.8 0 0
0.674548 0.069053 0.434363 0.8 0 0
0.793864 0.147117 0.443371 0.8 0 0
0.209454 0.110895 0.084444 0.8 0 0
0.558646 0.097206 0.364074 0.8 0 0
0.152622 0.129220 0.025000 0.8 0 0
0.366633 0.155934 0.315046 0.8 0 0
0.113096 0.197002 0.161613 0.8 0 0
0.560507 0.138933 0.326380 0.8 0 0
0.299473 0.107106 0.033236 0.8 0 0
0.246562 0.065354 0.406089 0.8 0 0
0.234192 0.083726 0.058788 0.8 0 0
0.232887 0.129724 0.272479 0.8 0 0
0.393498 0.142863 0.206161 0.8 0 0
0.939705 0.046057 0.299632 0.8 0 0
0.411162 0.110477 0.351631 0.8 0 0
0.551927 0.118775 0.339581 0.8 0 0
0.176742 0.037624 0.062766 0.8 0 0
0.574362 0.143445 0.206463 0.8 0 0
0.709000 0.064631 0.164237 0.8 0 0
0.837289 0.047081 0.090743 0.8 0 0
0.619952 0.121726 0.296642 0.8 0 0
0.874385 0.090796 0.275871 0.8 0 0
0.767311 0.090258 0.428037 0.8 0 0
0.220507 0.094973 0.261793 0.8 0 0
0.234466 0.067155 0.035527 0.8 0 0
0.240043 0.132898 0.262305 0.8 0 0
0.602128 0.120208 0.397973 0.8 0 0
0.328442 0.083922 0.437068 0.8 0 0
0.216028 0.185326 0.444215 0.8 0 0
0.804654 0.103172 0.172375 0.8 0 0
0.837151 0.100031 0.409627 0.8 0 0
0.752614 0.137007 0.298106 0.8 0 0
0.735663 0.108094 0.453193 0.8 0 0
0.751674 0.042429 0.474200 0.8 0 0
0.661270 0.112461 0.437683 0.8 0 0
0.277771 0.145422 0.259274 0.8 0 0
0.087084 0.188694 0.181212 0.8 0 0
0.113365 0.196353 0.370084 0.8 0 0
0.905204 0.045001 0.323224 0.8 0 0
0.756858 0.053905 0.198329 0.8 0 0
0.843044 0.055003 0.415057 0.8 0 0
0.921044 0.046885 0.200496 0.8 0 0
0.139255 0.094973 0.446920 0.8 0 0
0.143438 0.128876 0.122214 0.8 0 0
0.167921 0.093984 0.123746 0.8 0 0
0.585101 0.185662 0.277896 0.8 0 0
0.783925 0.120485 0.483687 0.8 0 0
0.321726 0.085265 0.113065 0.8 0 0
0.669265 0.136716 0.325139 0.8 0 0
0.601577 0.149027 0.319223 0.8 0 0
0.870574 0.039048 0.210426 0.8 0 0
0.813530 0.098025 0.217188 0.8 0 0
0.644670 0.070162 0.087588 0.8 0 0
0.605565 0.141542 0.205512 0.8 0 0
0.228237 0.105994 0.248778 0.8 0 0
0.039635 0.192492 0.328801 0.8 0 0
0.269540 0.120208 0.200517 0.8 0 0
0.150607 0.143152 0.122695 0.8 0 0
0.450632 0.140895 0.325063 0.8 0 0
0.712318 0.056749 0.117026 0.8 0 0
0.906991 0.045222 0.159892 0.8 0 0
0.530856 0.092109 0.375922 0.8 0 0
0.321846 0.070108 0.131815 0.8 0 0
0.810362 0.066691 0.375732 0.8 0 0
0.796509 0.078741 0.072861 0.8 0 0
0.417587 0.076681 0.094661 0.8 0 0
0.203674 0.065521 0.499660 0.8 0 0
0.507370 0.163615 0.219909 0.8 0 0
0.301615 0.146263 0.244153 0.8 0 0
0.615433 0.137460 0.235322 0.8 0 0
0.406825 0.181413 0.246653 0.8 0 0
0.935599 0.055797 0.269312 0.8 0 0
0.592259 0.154690 0.315394 0.8 0 0
0.817859 0.069586 0.050091 0.8 0 0
0.822793 0.040349 0.317907 0.8 0 0
0.098534 0.200772 0.369858 0.8 0 0
0.774318 0.112423 0.472368 0.8 0 0
0.657490 0.146509 0.208846 0.8 0 0
0.599141 0.175744 0.289844 0.8 0 0
0.791711 0.054594 0.414858 0.8 0 0
0.829340 0.107082 0.120208 0.8 0 0
0.570641 0.141969 0.205803 0.8 0 0
0.233141 0.026712 0.085298 0.8 0 0
0.903582 0.036763 0.399535 0.8 0 0
0.553633 0.090630 0.388348 0.8 0 0
0.758734 0.104376 0.310656 0.8 0 0
0.389945 0.185123 0.253804 0.8 0 0
0.206180 0.105360 0.300101 0.8 0 0
0.205951 0.120208 0.220978 0.8 0 0
0.810915 0.098485 0.222463 0.8 0 0
0.709345 0.134491 0.252657 0.8 0 0
0.068623 0.190969 0.358339 0.8 0 0
0.231113 0.178240 0.025000 0.8 0 0
0.324421 0.092121 0.083918 0.8 0 0
0.274445 0.093497 0.406089 0.8 0 0
0.111419 0.182546 0.265353 0.8 0 0
0.773510 0.135120 0.483687 0.8 0 0
0.609564 0.077969 0.269938 0.8 0 0
0.275865 0.129474 0.295438 0.8 0 0
0.494285 0.159092 0.312941 0.8 0 0
0.257466 0.130965 0.285244 0.8 0 0
0.778616 0.028282 0.417050 0.8 0 0
0.533244 0.164886 0.221016 0.8 0 0
0.732471 0.095658 0.458596 0.8 0 0
0.905447 0.045031 0.399226 0.8 0 0
0.788339 0.134488 0.409627 0.8 0 0
0.307664 0.133275 0.308804 0.8 0 0
0.254689 0.177028 0.077716 0.8 0 0
0.232651 0.146643 0.500992 0.8 0 0
0.214848 0.094807 0.384890 0.8 0 0
0.275452 0.048279 0.078232 0.8 0 0
0.481486 0.108106 0.090199 0.8 0 0
0.774618 0.144285 0.450074 0.8 0 0
0.766538 0.083712 0.315496 0.8 0 0
0.511172 0.069815 0.443673 0.8 0 0
0.139172 0.095297 0.051372 0.8 0 0
0.403402 0.120208 0.399184 0.8 0 0
0.568503 0.060358 0.268911 0.8 0 0
0.496201 0.099635 0.087447 0.8 0 0
0.209399 0.103505 0.060806 0.8 0 0
0.236623 0.142584 0.494459 0.8 0 0
0.532858 0.177038 0.238354 0.8 0 0
0.566424 0.107578 0.401284 0.8 0 0
0.604572 0.093201 0.442388 0.8 0 0
0.866772 0.042417 0.348297 0.8 0 0
0.243821 0.073920 0.054912 0.8 0 0
0.508240 0.090630 0.387305 0.8 0 0
0.939941 0.045782 0.179874 0.8 0 0
0.843797 0.108432 0.483687 0.8 0 0
0.265336 0.131386 0.288899 0.8 0 0
0.756963 0.160112 0.277839 0.8 0 0
0.774745 0.098025 0.137656 0.8 0 0
0.281567 0.138542 0.025000 0.8 0 0
0.752233 0.132032 0.054865 0.8 0 0
0.139166 0.102929 0.084287 0.8 0 0
0.170464 0.041608 0.048636 0.8 0 0
0.563361 0.074954 0.442388 0.8 0 0
0.922803 0.047044 0.351685 0.8 0 0
0.429970 0.076519 0.428791 0.8 0 0
0.377427 0.170664 0.281058 0.8 0 0
0.547560 0.133888 0.329744 0.8 0 0
0.812357 0.103971 0.295828 0.8 0 0
0.609564 0.113754 0.262061 0.8 0 0
0.863471 0.042330 0.178561 0.8 0 0
0.261446 0.147143 0.406089 0.8 0 0
0.246332 0.149753 0.123746 0.8 0 0
0.555062 0.149273 0.210348 0.8 0 0
0.806618 0.066486 0.407559 0.8 0 0
0.534166 0.102126 0.096489 0.8 0 0
0.219294 0.132027 0.099200 0.8 0 0
0.157327 0.098693 0.504835 0.8 0 0
0.727236 0.090560 0.331010 0.8 0 0
0.206728 0.145494 0.114067 0.8 0 0
0.182317 0.176753 0.120493 0.8 0 0
0.896401 0.037648 0.391812 0.8 0 0
0.818277 0.070519 0.101799 0.8 0 0
0.712197 0.037965 0.338864 0.8 0 0
0.527413 0.052254 0.087447 0.8 0 0
0.314575 0.120209 0.132775 0.8 0 0
0.224598 0.113599 0.353439 0.8 0 0
0.448538 0.182012 0.288157 0.8 0 0
0.918900 0.034876 0.338550 0.8 0 0
0.263582 0.133895 0.504835 0.8 0 0
0.231190 0.078569 0.099200 0.8 0 0
0.141837 0.125920 0.465928 0.8 0 0
0.695818 0.114707 0.195352 0.8 0 0
0.688881 0.084956 0.430780 0.8 0 0
0.714003 0.090630 0.375834 0.8 0 0
0.367943 0.167816 0.299026 0.8 0 0
0.077501 0.189875 0.332383 0.8 0 0
0.795058 0.026673 0.118445 0.8 0 0
0.605346 0.135838 0.232441 0.8 0 0
0.114839 0.173580 0.266672 0.8 0 0
0.939437 0.046263 0.147828 0.8 0 0
0.781919 0.104639 0.124279 0.8 0 0
0.225643 0.098385 0.264555 0.8 0 0
0.872550 0.038996 0.389435 0.8 0 0
0.637580 0.121714 0.191998 0.8 0 0
0.808301 0.028979 0.463050 0.8 0 0
0.498582 0.059838 0.087447 0.8 0 0
0.733680 0.100368 0.414788 0.8 0 0
0.901016 0.077200 0.271070 0.8 0 0
0.714516 0.031473 0.341942 0.8 0 0
0.898550 0.044182 0.160314 0.8 0 0
0.607137 0.147128 0.259410 0.8 0 0
0.296903 0.084745 0.432710 0.8 0 0
0.048765 0.196057 0.274692 0.8 0 0
0.346688 0.107311 0.398020 0.8 0 0
0.736959 0.084651 0.483687 0.8 0 0
0.534985 0.118710 0.088197 0.8 0 0
0.259620 0.098696 0.040912 0.8 0 0
0.298865 0.098918 0.028576 0.8 0 0
0.164404 0.046891 0.097924 0.8 0 0
0.439748 0.102168 0.391600 0.8 0 0
0.541039 0.189325 0.280095 0.8 0 0
0.231523 0.184436 0.072246 0.8 0 0
0.421518 0.076190 0.100204 0.8 0 0
0.367756 0.136434 0.328012 0.8 0 0
0.855979 0.056597 0.225318 0.8 0 0
0.831800 0.122622 0.046149 0.8 0 0
0.709905 0.097119 0.147445 0.8 0 0
0.600332 0.129692 0.197435 0.8 0 0
0.197654 0.032455 0.504835 0.8 0 0
0.774799 0.053888 0.323928 0.8 0 0
0.775881 0.060645 0.476280 0.8 0 0
0.139166 0.098901 0.419972 0.8 0 0
0.187570 0.164182 0.504835 0.8 0 0
0.761383 0.100529 0.313944 0.8 0 0
0.641243 0.120208 0.143221 0.8 0 0
0.841429 0.121086 0.411139 0.8 0 0
0.817480 0.099106 0.101799 0.8 0 0
0.758849 0.054862 0.331145 0.8 0 0
0.545265 0.090630 0.148470 0.8 0 0
0.274897 0.163019 0.101594 0.8 0 0
0.272713 0.122773 0.406089 0.8 0 0
0.157492 0.065253 0.406089 0.8 0 0
0.805195 0.058564 0.050029 0.8 0 0
0.765511 0.105419 0.221397 0.8 0 0
0.208763 0.112284 0.359619 0.8 0 0
0.568503 0.154409 0.267634 0.8 0 0
0.213965 0.110436 0.060433 0.8 0 0
0.885913 0.042920 0.344591 0.8 0 0
0.098032 0.187582 0.243121 0.8 0 0
0.580272 0.120208 0.394040 0.8 0 0
0.686036 0.093016 0.431491 0.8 0 0
0.404689 0.188489 0.251127 0.8 0 0
0.277007 0.120209 0.147580 0.8 0 0
0.410574 0.130248 0.197665 0.8 0 0
0.252026 0.045342 0.406089 0.8 0 0
0.526271 0.155259 0.315146 0.8 0 0
0.651448 0.093683 0.440553 0.8 0 0
0.804420 0.095825 0.301204 0.8 0 0
0.751171 0.073150 0.326660 0.8 0 0
0.745571 0.071802 0.198076 0.8 0 0
0.228026 0.103783 0.301141 0.8 0 0
0.591547 0.150244 0.248952 0.8 0 0
0.756834 0.130928 0.409627 0.8 0 0
0.103074 0.165573 0.261774 0.8 0 0
0.313409 0.129159 0.215416 0.8 0 0
0.489990 0.159651 0.217267 0.8 0 0
0.851812 0.080973 0.066506 0.8 0 0
0.830632 0.132897 0.087040 0.8 0 0
0.612541 0.092303 0.442403 0.8 0 0
0.616985 0.120208 0.397474 0.8 0 0
0.680443 0.160334 0.218689 0.8 0 0
0.195665 0.112244 0.099200 0.8 0 0
0.332237 0.086441 0.080633 0.8 0 0
0.842065 0.053655 0.063441 0.8 0 0
0.745622 0.087434 0.120208 0.8 0 0
0.710708 0.059652 0.117026 0.8 0 0
0.292082 0.138269 0.107600 0.8 0 0
0.788567 0.123143 0.238362 0.8 0 0
0.048544 0.192257 0.293132 0.8 0 0
0.159243 0.158451 0.035889 0.8 0 0
0.284891 0.064180 0.406751 0.8 0 0
0.679882 0.164390 0.308762 0.8 0 0
0.852492 0.086356 0.428153 0.8 0 0
0.686326 0.109239 0.111186 0.8 0 0
0.542108 0.154033 0.213522 0.8 0 0
0.223033 0.114645 0.438429 0.8 0 0
0.695852 0.107309 0.149904 0.8 0 0
0.726825 0.111856 0.315279 0.8 0 0
0.484277 0.092794 0.354713 0.8 0 0
0.230474 0.116909 0.192547 0.8 0 0
0.525379 0.045470 0.087447 0.8 0 0
0.258570 0.175201 0.466721 0.8 0 0
0.287702 0.120208 0.368094 0.8 0 0
0.157435 0.156526 0.429426 0.8 0 0
0.190932 0.061956 0.265525 0.8 0 0
0.761087 0.101274 0.311726 0.8 0 0
0.420341 0.146222 0.321521 0.8 0 0
0.377024 0.128052 0.196254 0.8 0 0
0.113576 0.192947 0.274939 0.8 0 0
0.372981 0.120208 0.370005 0.8 0 0
0.281940 0.154944 0.114686 0.8 0 0
0.295582 0.081408 0.426914 0.8 0 0
0.519047 0.043616 0.087447 0.8 0 0
0.709000 0.085523 0.167317 0.8 0 0
0.444474 0.164905 0.221045 0.8 0 0
0.570800 0.087880 0.087447 0.8 0 0
0.744449 0.050124 0.094013 0.8 0 0
0.179197 0.115936 0.490584 0.8 0 0
0.041735 0.192437 0.233785 0.8 0 0
0.267109 0.091240 0.123746 0.8 0 0
0.309172 0.120208 0.390614 0.8 0 0
0.709000 0.070468 0.158392 0.8 0 0
0.568503 0.173927 0.282924 0.8 0 0
0.659362 0.115980 0.177017 0.8 0 0
0.768081 0.031705 0.469894 0.8 0 0
0.377135 0.133988 0.329624 0.8 0 0
0.149120 0.096228 0.504835 0.8 0 0
0.748060 0.154376 0.288593 0.8 0 0
0.711615 0.123427 0.288611 0.8 0 0
0.683207 0.110019 0.121991 0.8 0 0
0.215002 0.120208 0.295261 0.8 0 0
0.729231 0.103819 0.210261 0.8 0 0
0.221055 0.120116 0.087078 0.8 0 0
0.422471 0.140319 0.325437 0.8 0 0
0.595032 0.040033 0.442388 0.8 0 0
0.042460 0.195891 0.185313 0.8 0 0
0.797337 0.097710 0.302500 0.8 0 0
0.473988 0.037562 0.438058 0.8 0 0
0.518933 0.090630 0.372262 0.8 0 0
0.696251 0.133149 0.238351 0.8 0 0
0.825046 0.069964 0.046149 0.8 0 0
0.283867 0.152292 0.444155 0.8 0 0
0.180676 0.175711 0.489635 0.8 0 0
0.351799 0.120208 0.171661 0.8 0 0
0.807404 0.112801 0.239485 0.8 0 0
0.709000 0.085548 0.124439 0.8 0 0
0.722948 0.109828 0.319633 0.8 0 0
0.545805 0.092109 0.370490 0.8 0 0
0.226372 0.055898 0.123746 0.8 0 0
0.397639 0.112939 0.115571 0.8 0 0
0.532779 0.090630 0.144774 0.8 0 0
0.204548 0.155511 0.504835 0.8 0 0
0.228881 0.083347 0.430636 0.8 0 0
0.317374 0.093530 0.443138 0.8 0 0
0.484845 0.096292 0.350822 0.8 0 0
0.777053 0.058245 0.115996 0.8 0 0
0.771723 0.104658 0.391496 0.8 0 0
0.432073 0.103784 0.144931 0.8 0 0
0.894168 0.043642 0.142252 0.8 0 0
0.459650 0.046083 0.094796 0.8 0 0
0.927486 0.034096 0.408872 0.8 0 0
0.745535 0.048967 0.419997 0.8 0 0
0.511706 0.092109 0.381693 0.8 0 0
0.384763 0.130277 0.197684 0.8 0 0
0.345171 0.146434 0.211051 0.8 0 0
0.226215 0.099242 0.096601 0.8 0 0
0.830865 0.107593 0.282650 0.8 0 0
0.795831 0.026624 0.419044 0.8 0 0
0.838404 0.048616 0.073226 0.8 0 0
0.281870 0.080351 0.504835 0.8 0 0
0.206320 0.104655 0.129005 0.8 0 0
0.216930 0.116446 0.126016 0.8 0 0
0.250277 0.132966 0.421096 0.8 0 0
0.036715 0.192569 0.302333 0.8 0 0
0.260426 0.174328 0.108665 0.8 0 0
0.253441 0.177615 0.495233 0.8 0 0
0.568503 0.169768 0.279470 0.8 0 0
0.891905 0.043363 0.192374 0.8 0 0
0.367463 0.145741 0.321808 0.8 0 0
0.190673 0.135700 0.423818 0.8 0 0
0.846987 0.111255 0.422845 0.8 0 0
0.245916 0.029682 0.118141 0.8 0 0
0.709000 0.058870 0.362399 0.8 0 0
0.204126 0.104552 0.099200 0.8 0 0
0.762851 0.098025 0.211045 0.8 0 0
0.388688 0.080545 0.414641 0.8 0 0
0.771272 0.102506 0.330402 0.8 0 0
0.221845 0.095400 0.122961 0.8 0 0
0.099219 0.196348 0.377248 0.8 0 0
0.246615 0.134480 0.274049 0.8 0 0
0.304144 0.120208 0.397187 0.8 0 0
0.941740 0.039339 0.263582 0.8 0 0
0.090256 0.188304 0.295214 0.8 0 0
0.725784 0.136340 0.222306 0.8 0 0
0.645331 0.125337 0.244883 0.8 0 0
0.358961 0.175155 0.257874 0.8 0 0
0.495194 0.072098 0.086258 0.8 0 0
0.208935 0.098298 0.297382 0.8 0 0
0.359919 0.077946 0.083262 0.8 0 0
0.599015 0.189091 0.244204 0.8 0 0
0.298795 0.103381 0.407719 0.8 0 0
0.542072 0.171215 0.230544 0.8 0 0
0.435079 0.103152 0.161415 0.8 0 0
0.229861 0.074522 0.430635 0.8 0 0
0.769165 0.134148 0.483687 0.8 0 0
0.237690 0.027579 0.499964 0.8 0 0
0.897535 0.044057 0.224636 0.8 0 0
0.054218 0.192108 0.230275 0.8 0 0
0.297991 0.092006 0.121788 0.8 0 0
0.811514 0.069616 0.459675 0.8 0 0
0.285100 0.120208 0.372562 0.8 0 0
0.588605 0.126711 0.334432 0.8 0 0
0.234830 0.066833 0.414456 0.8 0 0
0.140216 0.160450 0.265695 0.8 0 0
0.805790 0.061052 0.352053 0.8 0 0
0.182192 0.151844 0.123746 0.8 0 0
0.419360 0.072701 0.446116 0.8 0 0
0.175565 0.108263 0.264918 0.8 0 0
0.778508 0.133567 0.409627 0.8 0 0
0.851348 0.096568 0.452889 0.8 0 0
0.270682 0.166506 0.104071 0.8 0 0
0.673206 0.109236 0.338193 0.8 0 0
0.800101 0.117198 0.113030 0.8 0 0
0.666494 0.114649 0.130559 0.8 0 0
0.784884 0.054478 0.046745 0.8 0 0
0.294657 0.079072 0.495718 0.8 0 0
0.411330 0.039099 0.421110 0.8 0 0
0.613651 0.165918 0.222812 0.8 0 0
0.292907 0.074651 0.455158 0.8 0 0
0.757362 0.134297 0.482601 0.8 0 0
0.067037 0.197145 0.251860 0.8 0 0
0.259990 0.123370 0.504278 0.8 0 0
0.195065 0.181663 0.496155 0.8 0 0
0.207836 0.099943 0.184802 0.8 0 0
0.155321 0.131725 0.123746 0.8 0 0
0.625167 0.045239 0.087447 0.8 0 0
0.210907 0.120208 0.269581 0.8 0 0
0.274067 0.131207 0.025000 0.8 0 0
0.161859 0.153183 0.123746 0.8 0 0
0.359016 0.120209 0.150920 0.8 0 0
0.776765 0.065275 0.157204 0.8 0 0
0.245799 0.030644 0.122268 0.8 0 0
0.768247 0.124202 0.120208 0.8 0 0
0.597999 0.120208 0.140892 0.8 0 0
0.803815 0.098025 0.157600 0.8 0 0
0.799519 0.027304 0.089625 0.8 0 0
0.337307 0.113420 0.131815 0.8 0 0
0.236467 0.143171 0.113466 0.8 0 0
0.139964 0.092211 0.479525 0.8 0 0
0.160934 0.141821 0.504835 0.8 0 0
0.469300 0.182279 0.241856 0.8 0 0
0.431861 0.109689 0.429189 0.8 0 0
0.175634 0.047965 0.504835 0.8 0 0
0.763565 0.067566 0.483687 0.8 0 0
0.958148 0.034662 0.283312 0.8 0 0
0.607634 0.121042 0.338296 0.8 0 0
0.709000 0.047859 0.396623 0.8 0 0
0.214229 0.094930 0.341626 0.8 0 0
0.221826 0.115452 0.273492 0.8 0 0
0.216241 0.094530 0.247852 0.8 0 0
0.252254 0.052213 0.406089 0.8 0 0
0.616236 0.120208 0.434458 0.8 0 0
0.143421 0.128881 0.122205 0.8 0 0
0.634284 0.094721 0.087447 0.8 0 0
0.151554 0.131812 0.123746 0.8 0 0
0.144469 0.135591 0.054620 0.8 0 0
0.740243 0.056862 0.096677 0.8 0 0
0.617138 0.116067 0.442388 0.8 0 0
0.216457 0.025485 0.478965 0.8 0 0
0.075161 0.190163 0.201141 0.8 0 0
0.258273 0.120208 0.375912 0.8 0 0
0.747486 0.131742 0.227015 0.8 0 0
0.934340 0.048151 0.203840 0.8 0 0
0.906298 0.058523 0.242975 0.8 0 0
0.402130 0.151352 0.211563 0.8 0 0
0.475536 0.123437 0.336711 0.8 0 0
0.208537 0.098893 0.119852 0.8 0 0
0.168465 0.129480 0.504835 0.8 0 0
0.675485 0.111949 0.129219 0.8 0 0
0.251109 0.053653 0.406089 0.8 0 0
0.577302 0.120209 0.120065 0.8 0 0
0.634489 0.042083 0.442388 0.8 0 0
0.558320 0.148537 0.210272 0.8 0 0
0.217102 0.072662 0.057543 0.8 0 0
0.193604 0.117206 0.430636 0.8 0 0
0.892021 0.038187 0.193572 0.8 0 0
0.206853 0.101973 0.143537 0.8 0 0
0.640534 0.120208 0.342741 0.8 0 0
0.655220 0.060848 0.090226 0.8 0 0
0.403685 0.170180 0.300848 0.8 0 0
0.664680 0.121740 0.287722 0.8 0 0
0.932088 0.043769 0.287307 0.8 0 0
0.609564 0.122404 0.258527 0.8 0 0
0.735456 0.079657 0.409627 0.8 0 0
0.104851 0.200793 0.152588 0.8 0 0
0.881909 0.038749 0.371581 0.8 0 0
0.173097 0.039937 0.413320 0.8 0 0
0.620889 0.121542 0.236466 0.8 0 0
0.782357 0.027472 0.479732 0.8 0 0
0.520092 0.192155 0.274970 0.8 0 0
0.824126 0.082469 0.412623 0.8 0 0
0.651118 0.118493 0.160978 0.8 0 0
0.612255 0.120209 0.123237 0.8 0 0
0.266284 0.120208 0.380509 0.8 0 0
0.530046 0.165364 0.221736 0.8 0 0
0.213910 0.173416 0.025000 0.8 0 0
0.367223 0.076728 0.109891 0.8 0 0
0.550501 0.108741 0.093181 0.8 0 0
0.909464 0.048201 0.292189 0.8 0 0
0.485488 0.104552 0.431696 0.8 0 0
0.599087 0.132119 0.256013 0.8 0 0
0.600068 0.156986 0.290028 0.8 0 0
0.643724 0.134396 0.244135 0.8 0 0
0.632192 0.080711 0.442388 0.8 0 0
0.568503 0.117782 0.263558 0.8 0 0
0.834134 0.053636 0.311145 0.8 0 0
0.226981 0.110451 0.102212 0.8 0 0
0.405026 0.120208 0.405721 0.8 0 0
0.194606 0.101304 0.264918 0.8 0 0
0.147336 0.070032 0.448949 0.8 0 0
0.142702 0.129290 0.057796 0.8 0 0
0.766757 0.105419 0.200752 0.8 0 0
0.709000 0.087691 0.350543 0.8 0 0
0.602882 0.120209 0.133167 0.8 0 0
0.738182 0.086621 0.483687 0.8 0 0
0.211592 0.050000 0.123746 0.8 0 0
0.500414 0.118620 0.087448 0.8 0 0
0.426718 0.137570 0.327222 0.8 0 0
0.221182 0.095108 0.267036 0.8 0 0
0.247225 0.180540 0.466781 0.8 0 0
0.227699 0.108701 0.442323 0.8 0 0
0.246130 0.120208 0.318707 0.8 0 0
0.790462 0.117086 0.101799 0.8 0 0
0.191676 0.074776 0.034716 0.8 0 0
0.777060 0.028787 0.418347 0.8 0 0
0.201844 0.078335 0.057677 0.8 0 0
0.934832 0.033427 0.352890 0.8 0 0
0.423981 0.105746 0.379645 0.8 0 0
0.358179 0.088329 0.400626 0.8 0 0
0.233299 0.100626 0.440179 0.8 0 0
0.816801 0.107932 0.117401 0.8 0 0
0.625116 0.182306 0.282037 0.8 0 0
0.474181 0.098297 0.438098 0.8 0 0
0.541049 0.040081 0.087447 0.8 0 0
0.754712 0.127722 0.046149 0.8 0 0
0.374866 0.100423 0.406188 0.8 0 0
0.617789 0.126133 0.195010 0.8 0 0
0.569633 0.157079 0.314283 0.8 0 0
0.246777 0.144065 0.504835 0.8 0 0
0.290966 0.141089 0.414339 0.8 0 0
0.374131 0.075576 0.435171 0.8 0 0
0.149051 0.135086 0.025000 0.8 0 0
0.181317 0.173701 0.026178 0.8 0 0
0.207607 0.110554 0.270437 0.8 0 0
0.807994 0.113524 0.289258 0.8 0 0
0.814519 0.065764 0.467205 0.8 0 0
0.842967 0.118968 0.080926 0.8 0 0
0.803305 0.057678 0.424683 0.8 0 0
0.700803 0.105619 0.397491 0.8 0 0
0.919598 0.060131 0.249575 0.8 0 0
0.891582 0.038241 0.155489 0.8 0 0
0.709000 0.057904 0.364290 0.8 0 0
0.351586 0.086729 0.125011 0.8 0 0
0.641145 0.101709 0.442388 0.8 0 0
0.194576 0.071876 0.047907 0.8 0 0
0.756691 0.044790 0.198299 0.8 0 0
0.404158 0.078359 0.440723 0.8 0 0
0.424298 0.070970 0.083895 0.8 0 0
0.218744 0.185497 0.486173 0.8 0 0
0.213420 0.171380 0.123746 0.8 0 0
0.231878 0.026471 0.069018 0.8 0 0
0.715859 0.142814 0.298461 0.8 0 0
0.538534 0.033202 0.087447 0.8 0 0
0.648737 0.118637 0.133973 0.8 0 0
0.250650 0.168540 0.504835 0.8 0 0
0.240552 0.031711 0.123627 0.8 0 0
0.872519 0.038997 0.345743 0.8 0 0
0.888137 0.033175 0.223473 0.8 0 0
0.827045 0.095776 0.236619 0.8 0 0
0.870590 0.093075 0.254032 0.8 0 0
0.770781 0.030827 0.412038 0.8 0 0
0.803296 0.041133 0.320943 0.8 0 0
0.606791 0.143179 0.253682 0.8 0 0
0.305995 0.088810 0.119702 0.8 0 0
0.580177 0.133415 0.329863 0.8 0 0
0.298325 0.120208 0.195523 0.8 0 0
0.144842 0.117023 0.263242 0.8 0 0
0.888871 0.042998 0.309007 0.8 0 0
0.219398 0.116086 0.276211 0.8 0 0
0.194472 0.138859 0.034975 0.8 0 0
0.229551 0.129050 0.262466 0.8 0 0
0.521172 0.090630 0.424178 0.8 0 0
0.506779 0.057171 0.442388 0.8 0 0
0.215023 0.185262 0.436633 0.8 0 0
0.145627 0.095196 0.123746 0.8 0 0
0.359701 0.142834 0.323761 0.8 0 0
0.765003 0.033138 0.467786 0.8 0 0
0.286343 0.123282 0.225031 0.8 0 0
0.711802 0.051287 0.417403 0.8 0 0
0.228888 0.184939 0.058301 0.8 0 0
0.807575 0.082055 0.072175 0.8 0 0
0.788231 0.061052 0.115949 0.8 0 0
0.714070 0.038067 0.114701 0.8 0 0
0.810742 0.102891 0.157333 0.8 0 0
0.881475 0.083618 0.251413 0.8 0 0
0.243683 0.028723 0.454653 0.8 0 0
0.578381 0.143764 0.206676 0.8 0 0
0.220343 0.185597 0.501297 0.8 0 0
0.677232 0.132232 0.294872 0.8 0 0
0.085399 0.199407 0.205183 0.8 0 0
0.804658 0.058367 0.417253 0.8 0 0
0.164830 0.051050 0.504810 0.8 0 0
0.540638 0.191704 0.253300 0.8 0 0
0.821985 0.076935 0.102257 0.8 0 0
0.689267 0.108503 0.349287 0.8 0 0
0.143356 0.127880 0.027270 0.8 0 0
0.692006 0.107819 0.402739 0.8 0 0
0.225802 0.112215 0.417680 0.8 0 0
0.360729 0.060737 0.401476 0.8 0 0
0.794145 0.032851 0.205108 0.8 0 0
0.271508 0.165823 0.118010 0.8 0 0
0.578904 0.133984 0.200361 0.8 0 0
0.806034 0.028546 0.469830 0.8 0 0
0.742681 0.054519 0.119266 0.8 0 0
0.940296 0.045319 0.161795 0.8 0 0
0.426932 0.104867 0.152410 0.8 0 0
0.525373 0.090630 0.128634 0.8 0 0
0.795083 0.093323 0.305351 0.8 0 0
0.769978 0.100293 0.151429 0.8 0 0
0.544810 0.183248 0.287332 0.8 0 0
0.315932 0.095702 0.398020 0.8 0 0
0.674600 0.124862 0.294229 0.8 0 0
0.805334 0.105264 0.111365 0.8 0 0
0.788362 0.085148 0.070801 0.8 0 0
0.477601 0.099116 0.178641 0.8 0 0
0.296697 0.122853 0.502355 0.8 0 0
0.253703 0.081864 0.414835 0.8 0 0
0.451377 0.044306 0.096538 0.8 0 0
0.646834 0.052490 0.441292 0.8 0 0
0.475067 0.108537 0.097387 0.8 0 0
0.824953 0.126482 0.267304 0.8 0 0
0.800671 0.145687 0.481887 0.8 0 0
0.540760 0.113729 0.090687 0.8 0 0
0.498212 0.111791 0.442388 0.8 0 0
0.818998 0.113455 0.245822 0.8 0 0
0.802111 0.137810 0.483687 0.8 0 0
0.553208 0.092109 0.152007 0.8 0 0
0.264745 0.151147 0.025000 0.8 0 0
0.143575 0.109273 0.406089 0.8 0 0
0.483885 0.082748 0.089694 0.8 0 0
0.297382 0.123662 0.110054 0.8 0 0
0.039886 0.195823 0.248209 0.8 0 0
0.239013 0.051607 0.123746 0.8 0 0
0.329592 0.091087 0.085187 0.8 0 0
0.849407 0.105143 0.101546 0.8 0 0
0.325174 0.120209 0.132497 0.8 0 0
0.213553 0.120208 0.247216 0.8 0 0
0.711868 0.090630 0.347922 0.8 0 0
0.544085 0.110306 0.186021 0.8 0 0
0.463035 0.097474 0.421067 0.8 0 0
0.335232 0.139700 0.318304 0.8 0 0
0.915719 0.048241 0.109631 0.8 0 0
0.522547 0.160896 0.311739 0.8 0 0
0.780577 0.130853 0.120208 0.8 0 0
0.768259 0.142218 0.436125 0.8 0 0
0.681851 0.110358 0.151197 0.8 0 0
0.781067 0.057623 0.105348 0.8 0 0
0.734755 0.069308 0.074627 0.8 0 0
0.764293 0.161456 0.259118 0.8 0 0
0.743069 0.122143 0.432170 0.8 0 0
0.263798 0.172202 0.080313 0.8 0 0
0.190546 0.098798 0.264918 0.8 0 0
0.519159 0.090630 0.144268 0.8 0 0
0.287747 0.078492 0.025000 0.8 0 0
0.589578 0.149382 0.319414 0.8 0 0
0.773279 0.100088 0.126673 0.8 0 0
0.832376 0.131454 0.476206 0.8 0 0
0.113137 0.196903 0.285799 0.8 0 0
0.559721 0.098640 0.100106 0.8 0 0
0.446652 0.100715 0.375848 0.8 0 0
0.083815 0.189097 0.373592 0.8 0 0
0.518661 0.154494 0.315672 0.8 0 0
0.635182 0.108764 0.442388 0.8 0 0
0.620650 0.062486 0.087447 0.8 0 0
0.523488 0.065442 0.443223 0.8 0 0
0.563654 0.178819 0.290291 0.8 0 0
0.595749 0.134211 0.260975 0.8 0 0
0.410385 0.062901 0.109198 0.8 0 0
0.664088 0.071179 0.436978 0.8 0 0
0.793181 0.140356 0.120209 0.8 0 0
0.852488 0.097251 0.280318 0.8 0 0
0.293399 0.075895 0.413728 0.8 0 0
0.785457 0.145340 0.047327 0.8 0 0
0.697509 0.106443 0.414419 0.8 0 0
0.868666 0.058543 0.299661 0.8 0 0
0.826659 0.037682 0.414379 0.8 0 0
0.337547 0.164899 0.286415 0.8 0 0
0.190625 0.127576 0.264918 0.8 0 0
0.771834 0.061052 0.161933 0.8 0 0
0.939638 0.035456 0.204257 0.8 0 0
0.614042 0.095603 0.442388 0.8 0 0
0.113673 0.188103 0.377248 0.8 0 0
0.639106 0.120208 0.433482 0.8 0 0
0.639756 0.120209 0.099125 0.8 0 0
0.626200 0.190078 0.265195 0.8 0 0
0.719576 0.155318 0.301136 0.8 0 0
0.549545 0.104226 0.095439 0.8 0 0
0.900230 0.037176 0.213081 0.8 0 0
0.655353 0.122818 0.194231 0.8 0 0
0.676904 0.111594 0.162882 0.8 0 0
0.433162 0.127370 0.333983 0.8 0 0
0.797803 0.146734 0.118820 0.8 0 0
0.603593 0.127123 0.334254 0.8 0 0
0.701517 0.105441 0.133731 0.8 0 0
0.697010 0.106568 0.185165 0.8 0 0
0.774801 0.058316 0.483261 0.8 0 0
0.578200 0.120881 0.338415 0.8 0 0
0.622138 0.120208 0.384865 0.8 0 0
0.187281 0.123385 0.430636 0.8 0 0
0.458039 0.189066 0.280483 0.8 0 0
0.171547 0.159280 0.504835 0.8 0 0
0.421388 0.128311 0.333462 0.8 0 0
0.093081 0.199593 0.377248 0.8 0 0
0.189563 0.030962 0.429180 0.8 0 0
0.447383 0.174408 0.235352 0.8 0 0
0.603217 0.157848 0.313663 0.8 0 0
0.916148 0.039800 0.109631 0.8 0 0
0.074084 0.190296 0.308361 0.8 0 0
0.724146 0.146760 0.294317 0.8 0 0
0.770372 0.066386 0.145882 0.8 0 0
0.792329 0.107382 0.230384 0.8 0 0
0.686337 0.109236 0.118010 0.8 0 0
0.292634 0.099162 0.406089 0.8 0 0
0.468359 0.096145 0.148834 0.8 0 0
0.943384 0.051158 0.267820 0.8 0 0
0.845999 0.113752 0.104035 0.8 0 0
0.313878 0.136756 0.309589 0.8 0 0
