0.166133 0.068641 0.738754 0.8 0 0
0.215646 0.036044 0.314838 0.8 0 0
0.218979 0.031802 0.301425 0.8 0 0
0.170147 0.046074 0.223132 0.8 0 0
0.167497 0.105789 0.776179 0.8 0 0
0.207956 0.040966 0.526959 0.8 0 0
0.333592 0.040966 0.559302 0.8 0 0
0.382838 0.046156 0.141617 0.8 0 0
0.244857 0.126748 0.721485 0.8 0 0
0.305308 0.171615 0.038264 0.8 0 0
0.252735 0.080981 0.348728 0.8 0 0
0.027680 0.130140 0.147952 0.8 0 0
0.257820 0.084330 0.196264 0.8 0 0
0.323061 0.103964 0.418076 0.8 0 0
0.273017 0.035055 0.272573 0.8 0 0
0.140727 0.035055 0.578150 0.8 0 0
0.025009 0.055703 0.181988 0.8 0 0
0.183936 0.102424 0.863136 0.8 0 0
0.194494 0.133897 0.708381 0.8 0 0
0.082129 0.047355 0.222160 0.8 0 0
0.205340 0.166462 0.294956 0.8 0 0
0.083774 0.100084 0.747407 0.8 0 0
0.169720 0.043743 0.246977 0.8 0 0
0.254221 0.116770 0.627137 0.8 0 0
0.139922 0.102700 0.387626 0.8 0 0
0.236760 0.067458 0.173155 0.8 0 0
0.251049 0.035178 0.548340 0.8 0 0
0.377587 0.028573 0.800674 0.8 0 0
0.330401 0.040966 0.385498 0.8 0 0
0.159641 0.035055 0.633889 0.8 0 0
0.044510 0.119990 0.196789 0.8 0 0
0.260645 0.036127 0.210747 0.8 0 0
0.315715 0.040966 0.575333 0.8 0 0
0.229740 0.096678 0.114824 0.8 0 0
0.334299 0.055179 0.519925 0.8 0 0
0.176412 0.056302 0.915149 0.8 0 0
0.181920 0.096678 0.160901 0.8 0 0
0.328297 0.123648 0.194215 0.8 0 0
0.259778 0.104368 0.334716 0.8 0 0
0.085472 0.106479 0.202422 0.8 0 0
0.068683 0.047487 0.133582 0.8 0 0
0.313006 0.085854 0.241408 0.8 0 0
0.150824 0.123990 0.600958 0.8 0 0
0.315217 0.057840 0.755930 0.8 0 0
0.243341 0.151710 0.285315 0.8 0 0
0.208259 0.041641 0.274151 0.8 0 0
0.082428 0.057441 0.837785 0.8 0 0
0.177892 0.035966 0.411703 0.8 0 0
0.031263 0.059492 0.111092 0.8 0 0
0.156214 0.041754 0.323583 0.8 0 0
0.140846 0.049568 0.202038 0.8 0 0
0.103067 0.104283 0.083356 0.8 0 0
0.267977 0.106419 0.495884 0.8 0 0
0.255785 0.060303 0.579528 0.8 0 0
0.079568 0.101150 0.181985 0.8 0 0
0.090334 0.075789 0.844137 0.8 0 0
0.321308 0.066369 0.116022 0.8 0 0
0.137051 0.035055 0.372296 0.8 0 0
0.259048 0.120938 0.316913 0.8 0 0
0.320854 0.029994 0.765123 0.8 0 0
0.271975 0.035055 0.567416 0.8 0 0
0.202490 0.096678 0.106090 0.8 0 0
0.263175 0.163345 0.028801 0.8 0 0
0.122205 0.105677 0.633182 0.8 0 0
0.192169 0.031802 0.463233 0.8 0 0
0.089181 0.044560 0.247593 0.8 0 0
0.064061 0.129066 0.144488 0.8 0 0
0.053945 0.100040 0.799322 0.8 0 0
0.179322 0.033570 0.525265 0.8 0 0
0.181663 0.075102 0.159198 0.8 0 0
0.042605 0.064092 0.748568 0.8 0 0
0.162330 0.119917 0.586795 0.8 0 0
0.233254 0.036091 0.255803 0.8 0 0
0.252575 0.083795 0.691799 0.8 0 0
0.237901 0.136613 0.503680 0.8 0 0
0.160238 0.049719 0.568713 0.8 0 0
0.103660 0.106940 0.586863 0.8 0 0
0.104412 0.044467 0.257349 0.8 0 0
0.352247 0.067618 0.117421 0.8 0 0
0.108876 0.075098 0.319276 0.8 0 0
0.246228 0.127793 0.620837 0.8 0 0
0.330996 0.096930 0.445566 0.8 0 0
0.252737 0.139906 0.249507 0.8 0 0
0.300562 0.035055 0.478687 0.8 0 0
0.087621 0.085399 0.809003 0.8 0 0
0.227762 0.051744 0.190985 0.8 0 0
0.122902 0.106865 0.591855 0.8 0 0
0.151838 0.035055 0.288665 0.8 0 0
0.101072 0.102582 0.385020 0.8 0 0
0.121689 0.103883 0.415213 0.8 0 0
0.208460 0.040966 0.528228 0.8 0 0
0.292939 0.106999 0.532826 0.8 0 0
0.188043 0.031802 0.387132 0.8 0 0
0.266126 0.104762 0.651263 0.8 0 0
0.033144 0.098455 0.733639 0.8 0 0
0.252735 0.083981 0.294649 0.8 0 0
0.217728 0.035982 0.391881 0.8 0 0
0.090637 0.090325 0.752962 0.8 0 0
0.389346 0.112332 0.104542 0.8 0 0
0.051201 0.071753 0.125953 0.8 0 0
0.162626 0.118488 0.136002 0.8 0 0
0.163801 0.042482 0.255339 0.8 0 0
0.183933 0.128572 0.648103 0.8 0 0
0.190292 0.035995 0.375611 0.8 0 0
0.151932 0.035178 0.605225 0.8 0 0
0.208597 0.165939 0.485450 0.8 0 0
0.123256 0.040966 0.420390 0.8 0 0
0.035050 0.072216 0.115458 0.8 0 0
0.064234 0.083546 0.742998 0.8 0 0
0.156055 0.043984 0.313898 0.8 0 0
0.043043 0.087241 0.138609 0.8 0 0
0.163776 0.072208 0.273969 0.8 0 0
0.355662 0.133125 0.828734 0.8 0 0
0.170250 0.058807 0.142814 0.8 0 0
0.382730 0.090778 0.728277 0.8 0 0
0.381681 0.055938 0.757460 0.8 0 0
0.391221 0.091411 0.089919 0.8 0 0
0.167367 0.062837 0.758546 0.8 0 0
0.180562 0.031802 0.507416 0.8 0 0
0.131331 0.035055 0.574809 0.8 0 0
0.162703 0.035963 0.415894 0.8 0 0
0.132883 0.074408 0.655945 0.8 0 0
0.154254 0.055318 0.204149 0.8 0 0
0.204568 0.150127 0.063959 0.8 0 0
0.161080 0.083016 0.619976 0.8 0 0
0.108620 0.130184 0.041139 0.8 0 0
0.074150 0.037655 0.461626 0.8 0 0
0.199573 0.135335 0.685190 0.8 0 0
0.125066 0.035178 0.490052 0.8 0 0
0.091023 0.105496 0.113959 0.8 0 0
0.042672 0.057580 0.809442 0.8 0 0
0.309993 0.104681 0.435670 0.8 0 0
0.213595 0.040966 0.609629 0.8 0 0
0.270681 0.050769 0.202972 0.8 0 0
0.151953 0.105405 0.457808 0.8 0 0
0.241367 0.115292 0.795146 0.8 0 0
0.108620 0.155506 0.027000 0.8 0 0
0.278842 0.035178 0.638977 0.8 0 0
0.239117 0.061461 0.870588 0.8 0 0
0.228381 0.035178 0.692306 0.8 0 0
0.257331 0.059038 0.485358 0.8 0 0
0.147761 0.080867 0.154508 0.8 0 0
0.129473 0.097894 0.297827 0.8 0 0
0.301482 0.083297 0.239402 0.8 0 0
0.312659 0.104944 0.096802 0.8 0 0
0.252731 0.067928 0.580604 0.8 0 0
0.121723 0.162534 0.035557 0.8 0 0
0.299980 0.105824 0.471498 0.8 0 0
0.161659 0.035939 0.445162 0.8 0 0
0.261416 0.053158 0.234731 0.8 0 0
0.168923 0.036040 0.319775 0.8 0 0
0.218234 0.036105 0.238047 0.8 0 0
0.333880 0.062607 0.504510 0.8 0 0
0.163738 0.092368 0.494790 0.8 0 0
0.083655 0.092437 0.809702 0.8 0 0
0.294692 0.035178 0.515411 0.8 0 0
0.332168 0.061978 0.770961 0.8 0 0
0.217399 0.036111 0.231115 0.8 0 0
0.033343 0.031819 0.788991 0.8 0 0
0.331454 0.064663 0.817178 0.8 0 0
0.341128 0.130212 0.772637 0.8 0 0
0.267855 0.095353 0.257452 0.8 0 0
0.171262 0.051450 0.184911 0.8 0 0
0.289979 0.106190 0.486512 0.8 0 0
0.193448 0.164806 0.260545 0.8 0 0
0.374096 0.048161 0.093152 0.8 0 0
0.064234 0.091810 0.792828 0.8 0 0
0.081256 0.045225 0.241539 0.8 0 0
0.340570 0.050995 0.732011 0.8 0 0
0.390269 0.134665 0.140957 0.8 0 0
0.256188 0.096452 0.554996 0.8 0 0
0.242077 0.038780 0.798597 0.8 0 0
0.379227 0.089973 0.138151 0.8 0 0
0.055345 0.098663 0.203963 0.8 0 0
0.249037 0.092460 0.150471 0.8 0 0
0.259022 0.035178 0.487415 0.8 0 0
0.188778 0.035833 0.577950 0.8 0 0
0.328380 0.112465 0.817855 0.8 0 0
0.131733 0.035178 0.456598 0.8 0 0
0.331183 0.039695 0.448519 0.8 0 0
0.214940 0.036120 0.219614 0.8 0 0
0.115132 0.160470 0.066923 0.8 0 0
0.198724 0.166600 0.478872 0.8 0 0
0.207551 0.161978 0.161667 0.8 0 0
0.292552 0.059542 0.887032 0.8 0 0
0.331259 0.070076 0.384076 0.8 0 0
0.095196 0.126086 0.807141 0.8 0 0
0.252762 0.044540 0.256767 0.8 0 0
0.322194 0.035178 0.482548 0.8 0 0
0.314494 0.037583 0.312334 0.8 0 0
0.260585 0.120764 0.219910 0.8 0 0
0.227808 0.036031 0.331007 0.8 0 0
0.176486 0.054150 0.861161 0.8 0 0
0.195060 0.185380 0.469031 0.8 0 0
0.083910 0.035178 0.381656 0.8 0 0
0.299070 0.035055 0.545649 0.8 0 0
0.064311 0.075766 0.742451 0.8 0 0
0.204497 0.031802 0.486309 0.8 0 0
0.231500 0.073873 0.909416 0.8 0 0
0.363405 0.043405 0.185951 0.8 0 0
0.214593 0.035781 0.642658 0.8 0 0
0.128500 0.035178 0.339791 0.8 0 0
0.163638 0.140278 0.281785 0.8 0 0
0.173782 0.035781 0.641906 0.8 0 0
0.313909 0.080656 0.261228 0.8 0 0
0.110260 0.105714 0.467308 0.8 0 0
0.231852 0.035763 0.664953 0.8 0 0
0.250253 0.068111 0.190985 0.8 0 0
0.116474 0.043825 0.151250 0.8 0 0
0.027818 0.114248 0.107711 0.8 0 0
0.214870 0.105334 0.864047 0.8 0 0
0.153925 0.105577 0.138742 0.8 0 0
0.084874 0.102192 0.456630 0.8 0 0
0.098329 0.068543 0.403883 0.8 0 0
0.203555 0.035808 0.609218 0.8 0 0
0.231746 0.031802 0.308200 0.8 0 0
0.163802 0.045133 0.653187 0.8 0 0
0.227546 0.080347 0.190985 0.8 0 0
0.227168 0.064304 0.190985 0.8 0 0
0.261703 0.099743 0.213713 0.8 0 0
0.126663 0.099103 0.318394 0.8 0 0
0.308467 0.049083 0.352002 0.8 0 0
0.261076 0.123573 0.586308 0.8 0 0
0.155243 0.161793 0.042513 0.8 0 0
0.108985 0.102908 0.392164 0.8 0 0
0.175687 0.134966 0.651434 0.8 0 0
0.159142 0.096129 0.501944 0.8 0 0
0.163786 0.052866 0.463071 0.8 0 0
0.092270 0.035178 0.595748 0.8 0 0
0.262682 0.058786 0.651774 0.8 0 0
0.342878 0.152594 0.143813 0.8 0 0
0.304852 0.035055 0.481046 0.8 0 0
0.154605 0.046456 0.225549 0.8 0 0
0.181485 0.090116 0.190985 0.8 0 0
0.107730 0.035178 0.369148 0.8 0 0
0.157385 0.079727 0.394909 0.8 0 0
0.135697 0.040966 0.329548 0.8 0 0
0.163773 0.072986 0.356414 0.8 0 0
0.352247 0.069914 0.123757 0.8 0 0
0.311769 0.035055 0.479913 0.8 0 0
0.352247 0.064654 0.173144 0.8 0 0
0.202586 0.035826 0.585797 0.8 0 0
0.079207 0.134087 0.737638 0.8 0 0
0.286610 0.081049 0.232405 0.8 0 0
0.074472 0.038362 0.233888 0.8 0 0
0.101801 0.049998 0.093429 0.8 0 0
0.303990 0.083182 0.243342 0.8 0 0
0.381025 0.089186 0.077985 0.8 0 0
0.243744 0.157957 0.053045 0.8 0 0
0.268016 0.035178 0.569820 0.8 0 0
0.252760 0.091156 0.429074 0.8 0 0
0.324002 0.121856 0.167830 0.8 0 0
0.264884 0.040966 0.633775 0.8 0 0
0.252749 0.104132 0.629747 0.8 0 0
0.157047 0.125418 0.283821 0.8 0 0
0.165044 0.123908 0.674014 0.8 0 0
0.252720 0.095454 0.658681 0.8 0 0
0.111715 0.078599 0.274100 0.8 0 0
0.175026 0.075631 0.863281 0.8 0 0
0.285125 0.055767 0.167092 0.8 0 0
0.284701 0.035055 0.455221 0.8 0 0
0.162115 0.098895 0.651655 0.8 0 0
0.205736 0.036061 0.293365 0.8 0 0
0.220109 0.035857 0.547322 0.8 0 0
0.064640 0.025433 0.785851 0.8 0 0
0.305823 0.035055 0.542105 0.8 0 0
0.267055 0.035178 0.290926 0.8 0 0
0.373147 0.062337 0.754895 0.8 0 0
0.257366 0.081218 0.483177 0.8 0 0
0.241001 0.095009 0.847135 0.8 0 0
0.382606 0.049298 0.742351 0.8 0 0
0.172301 0.035845 0.563083 0.8 0 0
0.087781 0.040011 0.419256 0.8 0 0
0.163778 0.068858 0.298611 0.8 0 0
0.131051 0.037374 0.314001 0.8 0 0
0.182496 0.065227 0.190985 0.8 0 0
0.151123 0.103951 0.663334 0.8 0 0
0.219692 0.036490 0.708125 0.8 0 0
0.105054 0.035055 0.484046 0.8 0 0
0.263763 0.035178 0.331562 0.8 0 0
0.211318 0.098378 0.098723 0.8 0 0
0.157824 0.099342 0.421659 0.8 0 0
0.306134 0.145583 0.081345 0.8 0 0
0.155140 0.068652 0.258183 0.8 0 0
0.176781 0.040966 0.532741 0.8 0 0
0.226393 0.037277 0.830052 0.8 0 0
0.202854 0.162327 0.387985 0.8 0 0
0.323795 0.083489 0.788073 0.8 0 0
0.163732 0.097907 0.561851 0.8 0 0
0.274610 0.035178 0.607678 0.8 0 0
0.085821 0.035178 0.502785 0.8 0 0
0.074925 0.061113 0.750867 0.8 0 0
0.286178 0.035055 0.402285 0.8 0 0
0.094989 0.080724 0.108553 0.8 0 0
0.103231 0.074144 0.198809 0.8 0 0
0.162076 0.035055 0.643011 0.8 0 0
0.353950 0.085715 0.782955 0.8 0 0
0.176146 0.041839 0.266404 0.8 0 0
0.064234 0.058383 0.762117 0.8 0 0
0.101639 0.055380 0.903378 0.8 0 0
0.185571 0.035178 0.684358 0.8 0 0
0.207551 0.147971 0.179432 0.8 0 0
0.081810 0.088866 0.537854 0.8 0 0
0.123393 0.040966 0.439440 0.8 0 0
0.087848 0.076941 0.823348 0.8 0 0
0.306361 0.035178 0.332065 0.8 0 0
0.207857 0.166668 0.289631 0.8 0 0
0.158438 0.089866 0.782056 0.8 0 0
0.235511 0.051372 0.185627 0.8 0 0
0.201620 0.031802 0.479861 0.8 0 0
0.351589 0.122096 0.757999 0.8 0 0
0.201809 0.162770 0.375597 0.8 0 0
0.154892 0.066879 0.243058 0.8 0 0
0.074862 0.038506 0.304963 0.8 0 0
0.384534 0.086556 0.177458 0.8 0 0
0.116474 0.036829 0.154839 0.8 0 0
0.083561 0.074501 0.333913 0.8 0 0
0.067778 0.147011 0.115649 0.8 0 0
0.098360 0.084879 0.247552 0.8 0 0
0.241765 0.145123 0.198240 0.8 0 0
0.172437 0.077720 0.842254 0.8 0 0
0.325701 0.100741 0.165643 0.8 0 0
0.152863 0.106762 0.598166 0.8 0 0
0.083498 0.035178 0.443394 0.8 0 0
0.123331 0.038500 0.302729 0.8 0 0
0.208834 0.146530 0.218842 0.8 0 0
0.332181 0.035055 0.572393 0.8 0 0
0.325281 0.152092 0.144035 0.8 0 0
0.214378 0.053256 0.128822 0.8 0 0
0.163725 0.104010 0.481312 0.8 0 0
0.116470 0.052230 0.175943 0.8 0 0
0.056732 0.026547 0.771734 0.8 0 0
0.325406 0.085773 0.845475 0.8 0 0
0.155430 0.097504 0.291297 0.8 0 0
0.301656 0.087900 0.287901 0.8 0 0
0.073604 0.147873 0.117833 0.8 0 0
0.166176 0.138223 0.541602 0.8 0 0
0.196644 0.082236 0.928187 0.8 0 0
0.337956 0.112308 0.200175 0.8 0 0
0.333798 0.076394 0.501506 0.8 0 0
0.204568 0.130622 0.079463 0.8 0 0
0.282427 0.051950 0.657264 0.8 0 0
0.260556 0.110903 0.285788 0.8 0 0
0.158446 0.123828 0.586795 0.8 0 0
0.231378 0.056061 0.142959 0.8 0 0
0.196896 0.092460 0.144185 0.8 0 0
0.124685 0.035178 0.537933 0.8 0 0
0.213625 0.096678 0.155383 0.8 0 0
0.176618 0.036022 0.342070 0.8 0 0
0.035937 0.082083 0.099702 0.8 0 0
0.128936 0.035055 0.332117 0.8 0 0
0.306134 0.150785 0.072929 0.8 0 0
0.051201 0.052147 0.143177 0.8 0 0
0.361878 0.098182 0.805702 0.8 0 0
0.278505 0.092776 0.126225 0.8 0 0
0.036329 0.066544 0.746676 0.8 0 0
0.096259 0.069211 0.379359 0.8 0 0
0.329869 0.035178 0.353056 0.8 0 0
0.183099 0.053822 0.144010 0.8 0 0
0.081659 0.045478 0.546691 0.8 0 0
0.182453 0.048421 0.184115 0.8 0 0
0.155041 0.082092 0.252101 0.8 0 0
0.179757 0.115710 0.807666 0.8 0 0
0.297682 0.039706 0.266051 0.8 0 0
0.379415 0.128854 0.127261 0.8 0 0
0.256421 0.069399 0.540812 0.8 0 0
0.258505 0.035178 0.362755 0.8 0 0
0.250983 0.085608 0.757753 0.8 0 0
0.312724 0.075248 0.096113 0.8 0 0
0.082268 0.130126 0.151959 0.8 0 0
0.231539 0.035758 0.696482 0.8 0 0
0.326344 0.117123 0.751046 0.8 0 0
0.296853 0.045118 0.127992 0.8 0 0
0.092384 0.035178 0.360749 0.8 0 0
0.317807 0.131457 0.142046 0.8 0 0
0.085914 0.054191 0.439092 0.8 0 0
0.285297 0.106867 0.522061 0.8 0 0
0.361878 0.107516 0.806220 0.8 0 0
0.083562 0.061189 0.480408 0.8 0 0
0.169820 0.035178 0.623677 0.8 0 0
0.211254 0.048327 0.188757 0.8 0 0
0.261162 0.038073 0.251825 0.8 0 0
0.273178 0.093271 0.781947 0.8 0 0
0.081576 0.057257 0.754711 0.8 0 0
0.252750 0.085652 0.587051 0.8 0 0
0.253906 0.126322 0.545252 0.8 0 0
0.253151 0.120703 0.596576 0.8 0 0
0.165468 0.059772 0.699961 0.8 0 0
0.214198 0.040966 0.414143 0.8 0 0
0.053945 0.050833 0.783088 0.8 0 0
0.185628 0.040966 0.349457 0.8 0 0
0.190905 0.077136 0.930595 0.8 0 0
0.084455 0.035178 0.386039 0.8 0 0
0.204568 0.079642 0.118208 0.8 0 0
0.361878 0.072550 0.787130 0.8 0 0
0.265717 0.035055 0.442008 0.8 0 0
0.252697 0.039016 0.234801 0.8 0 0
0.376271 0.129425 0.795366 0.8 0 0
0.202213 0.188549 0.321942 0.8 0 0
0.193011 0.144117 0.630799 0.8 0 0
0.275538 0.047389 0.221856 0.8 0 0
0.378428 0.136685 0.741834 0.8 0 0
0.231531 0.049706 0.174593 0.8 0 0
0.162851 0.035055 0.449130 0.8 0 0
0.282594 0.160376 0.030807 0.8 0 0
0.034135 0.127771 0.124687 0.8 0 0
0.223196 0.031802 0.406008 0.8 0 0
0.115587 0.098903 0.314986 0.8 0 0
0.104716 0.035055 0.506190 0.8 0 0
0.119104 0.088710 0.144676 0.8 0 0
0.219409 0.031802 0.627220 0.8 0 0
0.337463 0.044345 0.249554 0.8 0 0
0.244382 0.066299 0.828954 0.8 0 0
0.387763 0.117594 0.085412 0.8 0 0
0.157096 0.072310 0.377282 0.8 0 0
0.254418 0.035178 0.339287 0.8 0 0
0.231294 0.040966 0.513385 0.8 0 0
0.248347 0.056695 0.137193 0.8 0 0
0.250446 0.081201 0.764916 0.8 0 0
0.324441 0.106489 0.498747 0.8 0 0
0.337323 0.040966 0.326260 0.8 0 0
0.199664 0.031802 0.362561 0.8 0 0
0.117815 0.086531 0.271567 0.8 0 0
0.067756 0.116240 0.750365 0.8 0 0
0.036766 0.091423 0.825279 0.8 0 0
0.039769 0.130618 0.134357 0.8 0 0
0.258940 0.121250 0.153757 0.8 0 0
0.252838 0.088736 0.718670 0.8 0 0
0.129227 0.161238 0.050060 0.8 0 0
0.351589 0.083198 0.743235 0.8 0 0
0.263873 0.098427 0.306888 0.8 0 0
0.353430 0.047961 0.092835 0.8 0 0
0.258821 0.040966 0.586137 0.8 0 0
0.323795 0.083025 0.781835 0.8 0 0
0.332168 0.098528 0.777189 0.8 0 0
0.208834 0.126023 0.185511 0.8 0 0
0.067774 0.033620 0.109391 0.8 0 0
0.239898 0.134816 0.653906 0.8 0 0
0.178739 0.157573 0.358292 0.8 0 0
0.292597 0.035055 0.350072 0.8 0 0
0.235220 0.040966 0.289054 0.8 0 0
0.053640 0.030198 0.164926 0.8 0 0
0.244077 0.040966 0.494683 0.8 0 0
0.293483 0.035055 0.570406 0.8 0 0
0.080744 0.086081 0.752593 0.8 0 0
0.254899 0.040966 0.418040 0.8 0 0
0.186357 0.040966 0.383423 0.8 0 0
0.299019 0.035178 0.348865 0.8 0 0
0.251026 0.136492 0.503236 0.8 0 0
0.252703 0.045677 0.320619 0.8 0 0
0.385077 0.097471 0.100260 0.8 0 0
0.294322 0.162700 0.034500 0.8 0 0
0.207551 0.154174 0.201389 0.8 0 0
0.064234 0.080968 0.750821 0.8 0 0
0.243509 0.061320 0.117898 0.8 0 0
0.167865 0.126467 0.570416 0.8 0 0
0.053945 0.110143 0.751718 0.8 0 0
0.106221 0.054472 0.880690 0.8 0 0
0.320193 0.102621 0.202777 0.8 0 0
0.224407 0.127603 0.647274 0.8 0 0
0.096042 0.044480 0.762958 0.8 0 0
0.379180 0.137361 0.101018 0.8 0 0
0.254884 0.042759 0.634377 0.8 0 0
0.286622 0.061746 0.652635 0.8 0 0
0.098130 0.087610 0.239919 0.8 0 0
0.185633 0.040966 0.649364 0.8 0 0
0.298695 0.039654 0.295792 0.8 0 0
0.301633 0.082718 0.636188 0.8 0 0
0.083655 0.088113 0.751898 0.8 0 0
0.181550 0.036094 0.252740 0.8 0 0
0.218960 0.147123 0.147682 0.8 0 0
0.361878 0.072828 0.753706 0.8 0 0
0.202608 0.038083 0.856489 0.8 0 0
0.192559 0.115737 0.821975 0.8 0 0
0.168578 0.035892 0.503664 0.8 0 0
0.284890 0.035178 0.343752 0.8 0 0
0.107018 0.049414 0.217831 0.8 0 0
0.033143 0.098460 0.733617 0.8 0 0
0.381245 0.059338 0.132689 0.8 0 0
0.045857 0.091313 0.719384 0.8 0 0
0.306334 0.073831 0.335619 0.8 0 0
0.254701 0.101930 0.371755 0.8 0 0
0.200590 0.092460 0.163912 0.8 0 0
0.277191 0.040966 0.322413 0.8 0 0
0.332725 0.035178 0.434307 0.8 0 0
0.077248 0.114489 0.107688 0.8 0 0
0.322188 0.040966 0.547543 0.8 0 0
0.120021 0.035055 0.391609 0.8 0 0
0.145787 0.035178 0.562442 0.8 0 0
0.156566 0.081284 0.344991 0.8 0 0
0.326854 0.105609 0.172952 0.8 0 0
0.250550 0.138225 0.505014 0.8 0 0
0.198215 0.031802 0.325859 0.8 0 0
0.213906 0.053211 0.168893 0.8 0 0
0.291069 0.035178 0.343138 0.8 0 0
0.318591 0.089238 0.183847 0.8 0 0
0.097971 0.089000 0.078107 0.8 0 0
0.148956 0.106475 0.610701 0.8 0 0
0.160026 0.085701 0.555817 0.8 0 0
0.206921 0.035960 0.745855 0.8 0 0
0.314624 0.040966 0.363850 0.8 0 0
0.159299 0.125947 0.497405 0.8 0 0
0.051201 0.088677 0.144101 0.8 0 0
0.180129 0.036003 0.365754 0.8 0 0
0.325275 0.092619 0.155985 0.8 0 0
0.160688 0.116674 0.622963 0.8 0 0
0.164834 0.036089 0.258416 0.8 0 0
0.188136 0.161901 0.466851 0.8 0 0
0.262624 0.104720 0.436714 0.8 0 0
0.147057 0.084486 0.194794 0.8 0 0
0.118114 0.035055 0.426981 0.8 0 0
0.258667 0.105671 0.633322 0.8 0 0
0.150722 0.090982 0.168415 0.8 0 0
0.331273 0.105329 0.782830 0.8 0 0
0.251391 0.124085 0.141465 0.8 0 0
0.191024 0.035759 0.692519 0.8 0 0
0.209555 0.164704 0.348198 0.8 0 0
0.247638 0.055681 0.167783 0.8 0 0
0.087556 0.113152 0.106656 0.8 0 0
0.146091 0.035055 0.463305 0.8 0 0
0.331019 0.092382 0.234285 0.8 0 0
0.382812 0.100900 0.100563 0.8 0 0
0.385506 0.040292 0.180826 0.8 0 0
0.267795 0.160956 0.054684 0.8 0 0
0.064061 0.112820 0.149317 0.8 0 0
0.247598 0.086875 0.118950 0.8 0 0
0.091023 0.107498 0.125607 0.8 0 0
0.187215 0.035965 0.413119 0.8 0 0
0.218944 0.092460 0.180014 0.8 0 0
0.188322 0.184914 0.459263 0.8 0 0
0.306134 0.165390 0.041299 0.8 0 0
0.242940 0.121239 0.627595 0.8 0 0
0.129890 0.041977 0.271092 0.8 0 0
0.310173 0.040966 0.588010 0.8 0 0
0.252718 0.074453 0.644624 0.8 0 0
0.047352 0.085458 0.824729 0.8 0 0
0.257448 0.090206 0.478201 0.8 0 0
0.332702 0.059345 0.726750 0.8 0 0
0.389001 0.100048 0.183305 0.8 0 0
0.304383 0.035055 0.484583 0.8 0 0
0.095208 0.117435 0.729023 0.8 0 0
0.391295 0.141812 0.139749 0.8 0 0
0.254519 0.036026 0.336993 0.8 0 0
0.177815 0.037074 0.823400 0.8 0 0
0.195219 0.040966 0.367743 0.8 0 0
0.358366 0.141939 0.747456 0.8 0 0
0.192086 0.092460 0.138261 0.8 0 0
0.162249 0.099050 0.653657 0.8 0 0
0.255799 0.116781 0.558135 0.8 0 0
0.333962 0.061354 0.507535 0.8 0 0
0.159999 0.098566 0.554183 0.8 0 0
0.211919 0.031802 0.456268 0.8 0 0
0.077749 0.036693 0.258509 0.8 0 0
0.337700 0.038925 0.301617 0.8 0 0
0.333133 0.037982 0.819767 0.8 0 0
0.202259 0.035761 0.676359 0.8 0 0
0.160393 0.080830 0.229207 0.8 0 0
0.324851 0.029437 0.120716 0.8 0 0
0.116478 0.040866 0.127195 0.8 0 0
0.252761 0.095719 0.385408 0.8 0 0
0.321007 0.039803 0.102312 0.8 0 0
0.278913 0.040966 0.635270 0.8 0 0
0.173874 0.036027 0.335660 0.8 0 0
0.265455 0.040966 0.348645 0.8 0 0
0.076396 0.066765 0.426829 0.8 0 0
0.365109 0.084860 0.119086 0.8 0 0
0.328911 0.074042 0.322075 0.8 0 0
0.079485 0.047394 0.830353 0.8 0 0
0.244353 0.084980 0.832297 0.8 0 0
0.229889 0.157262 0.071698 0.8 0 0
0.042672 0.089858 0.819515 0.8 0 0
0.170130 0.055585 0.908947 0.8 0 0
0.250094 0.052839 0.702252 0.8 0 0
0.029558 0.061720 0.173581 0.8 0 0
0.214529 0.031802 0.557183 0.8 0 0
0.318571 0.040966 0.382829 0.8 0 0
0.181898 0.050779 0.894477 0.8 0 0
0.225633 0.036753 0.318278 0.8 0 0
0.178697 0.092460 0.189590 0.8 0 0
0.196386 0.096678 0.099286 0.8 0 0
0.207500 0.040966 0.527190 0.8 0 0
0.352247 0.085422 0.106641 0.8 0 0
0.172684 0.036455 0.321334 0.8 0 0
0.254096 0.035178 0.361569 0.8 0 0
0.034451 0.080643 0.721896 0.8 0 0
0.096156 0.142974 0.788727 0.8 0 0
0.208129 0.048340 0.962778 0.8 0 0
0.312752 0.145442 0.155887 0.8 0 0
0.369175 0.129653 0.189833 0.8 0 0
0.098645 0.072278 0.339783 0.8 0 0
0.301833 0.035695 0.288876 0.8 0 0
0.131515 0.040966 0.490509 0.8 0 0
0.245248 0.040966 0.560030 0.8 0 0
0.153834 0.040966 0.557410 0.8 0 0
0.228247 0.031802 0.562431 0.8 0 0
0.334294 0.068524 0.519742 0.8 0 0
0.109447 0.169298 0.046890 0.8 0 0
0.298969 0.059614 0.126148 0.8 0 0
0.170438 0.039241 0.292907 0.8 0 0
0.154443 0.113172 0.160942 0.8 0 0
0.029395 0.060234 0.110519 0.8 0 0
0.163762 0.072331 0.559694 0.8 0 0
0.163560 0.035055 0.411381 0.8 0 0
0.214911 0.116086 0.822769 0.8 0 0
0.179268 0.035836 0.573218 0.8 0 0
0.163793 0.047652 0.586342 0.8 0 0
0.246275 0.108512 0.790952 0.8 0 0
0.057654 0.026320 0.150811 0.8 0 0
0.108236 0.075184 0.318172 0.8 0 0
0.090602 0.104869 0.721535 0.8 0 0
0.204568 0.087189 0.120095 0.8 0 0
0.087621 0.109069 0.786478 0.8 0 0
0.279985 0.035178 0.613296 0.8 0 0
0.233187 0.053633 0.190985 0.8 0 0
0.329441 0.088201 0.248806 0.8 0 0
0.161448 0.119821 0.642378 0.8 0 0
0.251737 0.125418 0.530890 0.8 0 0
0.159605 0.035178 0.674749 0.8 0 0
0.224491 0.140212 0.639895 0.8 0 0
0.118432 0.035178 0.568337 0.8 0 0
0.207606 0.040966 0.344412 0.8 0 0
0.084017 0.085741 0.469468 0.8 0 0
0.237091 0.035178 0.356800 0.8 0 0
0.254708 0.115320 0.617025 0.8 0 0
0.140338 0.100163 0.337519 0.8 0 0
0.250697 0.050591 0.672275 0.8 0 0
0.114096 0.035178 0.285771 0.8 0 0
0.220293 0.031802 0.644772 0.8 0 0
0.246278 0.035755 0.713936 0.8 0 0
0.058441 0.068916 0.201670 0.8 0 0
0.337385 0.076389 0.328705 0.8 0 0
0.054673 0.069642 0.201934 0.8 0 0
0.322091 0.140483 0.747170 0.8 0 0
0.103548 0.045579 0.179899 0.8 0 0
0.078806 0.035178 0.525831 0.8 0 0
0.208834 0.133302 0.221925 0.8 0 0
0.247982 0.040966 0.631945 0.8 0 0
0.287901 0.057306 0.698963 0.8 0 0
0.300837 0.035055 0.413545 0.8 0 0
0.163765 0.072327 0.395477 0.8 0 0
0.296853 0.044329 0.121309 0.8 0 0
0.240588 0.035866 0.535771 0.8 0 0
0.306134 0.147779 0.037263 0.8 0 0
0.250815 0.139300 0.479583 0.8 0 0
0.043834 0.060470 0.084851 0.8 0 0
0.337296 0.049468 0.217400 0.8 0 0
0.258279 0.065397 0.427626 0.8 0 0
0.184798 0.144077 0.631679 0.8 0 0
0.253487 0.125602 0.644091 0.8 0 0
0.203046 0.046693 0.187171 0.8 0 0
0.139896 0.040966 0.397966 0.8 0 0
0.250511 0.098522 0.762527 0.8 0 0
0.116471 0.054903 0.174001 0.8 0 0
0.036989 0.094212 0.078596 0.8 0 0
0.225869 0.049893 0.183877 0.8 0 0
0.154316 0.057382 0.207944 0.8 0 0
0.252699 0.039531 0.478898 0.8 0 0
0.366771 0.037612 0.178333 0.8 0 0
0.276880 0.038833 0.302345 0.8 0 0
0.333082 0.040966 0.565678 0.8 0 0
0.252721 0.058087 0.486445 0.8 0 0
0.250136 0.126445 0.527331 0.8 0 0
0.361878 0.072218 0.780602 0.8 0 0
0.262911 0.036938 0.285307 0.8 0 0
0.139333 0.056719 0.136976 0.8 0 0
0.207551 0.118267 0.146485 0.8 0 0
0.273220 0.040966 0.456644 0.8 0 0
0.053945 0.113269 0.754495 0.8 0 0
0.327951 0.104718 0.102168 0.8 0 0
0.180888 0.058742 0.893934 0.8 0 0
0.029772 0.105738 0.175589 0.8 0 0
0.030716 0.078183 0.177031 0.8 0 0
0.195950 0.085561 0.190985 0.8 0 0
0.349124 0.031230 0.167584 0.8 0 0
0.103937 0.135631 0.159848 0.8 0 0
0.063711 0.034238 0.108402 0.8 0 0
0.158524 0.040966 0.399690 0.8 0 0
0.258008 0.126154 0.325733 0.8 0 0
0.146834 0.056377 0.914533 0.8 0 0
0.082409 0.077440 0.744156 0.8 0 0
0.201568 0.052131 0.178719 0.8 0 0
0.194975 0.136201 0.663417 0.8 0 0
0.299864 0.101127 0.355464 0.8 0 0
0.090953 0.107115 0.548310 0.8 0 0
0.276657 0.035055 0.489890 0.8 0 0
0.208834 0.159740 0.186964 0.8 0 0
0.299616 0.040966 0.586466 0.8 0 0
0.204577 0.079088 0.098317 0.8 0 0
0.256167 0.035055 0.244867 0.8 0 0
0.325275 0.098279 0.113223 0.8 0 0
0.245050 0.149692 0.473066 0.8 0 0
0.328202 0.081016 0.775808 0.8 0 0
0.142808 0.035178 0.416623 0.8 0 0
0.299072 0.058831 0.142625 0.8 0 0
0.076746 0.036412 0.244907 0.8 0 0
0.117018 0.098064 0.300768 0.8 0 0
0.253316 0.157726 0.057972 0.8 0 0
0.179889 0.092460 0.183212 0.8 0 0
0.383821 0.066441 0.115717 0.8 0 0
0.285918 0.043339 0.258701 0.8 0 0
0.051201 0.080470 0.111550 0.8 0 0
0.189536 0.162974 0.408441 0.8 0 0
0.159418 0.056545 0.160881 0.8 0 0
0.039236 0.108557 0.103782 0.8 0 0
0.125834 0.058568 0.895471 0.8 0 0
0.190936 0.036083 0.265382 0.8 0 0
0.297477 0.035055 0.576441 0.8 0 0
0.252731 0.067624 0.397181 0.8 0 0
0.054435 0.044831 0.187310 0.8 0 0
0.240716 0.159718 0.071698 0.8 0 0
0.262452 0.107080 0.543549 0.8 0 0
0.261647 0.060926 0.219680 0.8 0 0
0.094749 0.035178 0.576654 0.8 0 0
0.177061 0.157314 0.459915 0.8 0 0
0.206562 0.031802 0.428965 0.8 0 0
0.230580 0.092460 0.160601 0.8 0 0
0.247223 0.040966 0.485781 0.8 0 0
0.036830 0.067898 0.178220 0.8 0 0
0.296171 0.050957 0.205516 0.8 0 0
0.091023 0.071251 0.111429 0.8 0 0
0.237022 0.157998 0.286125 0.8 0 0
0.352247 0.076694 0.156331 0.8 0 0
0.143982 0.065229 0.205966 0.8 0 0
0.122479 0.076395 0.644702 0.8 0 0
0.352247 0.109665 0.164224 0.8 0 0
0.262256 0.109999 0.159240 0.8 0 0
0.121845 0.058841 0.893103 0.8 0 0
0.325275 0.080976 0.125956 0.8 0 0
0.194133 0.055251 0.150330 0.8 0 0
0.365109 0.090447 0.144273 0.8 0 0
0.311758 0.106528 0.500364 0.8 0 0
0.325275 0.068962 0.154075 0.8 0 0
0.076266 0.093225 0.204629 0.8 0 0
0.184764 0.035995 0.750972 0.8 0 0
0.154049 0.068810 0.191684 0.8 0 0
0.102848 0.087571 0.231579 0.8 0 0
0.320987 0.105262 0.168847 0.8 0 0
0.085917 0.041545 0.439042 0.8 0 0
0.282175 0.035055 0.621218 0.8 0 0
0.306850 0.040966 0.474794 0.8 0 0
0.166545 0.144256 0.304397 0.8 0 0
0.150092 0.081338 0.224427 0.8 0 0
0.341993 0.039984 0.432150 0.8 0 0
0.343942 0.050485 0.732300 0.8 0 0
0.170416 0.132617 0.588957 0.8 0 0
0.159356 0.107029 0.536851 0.8 0 0
0.222805 0.056600 0.138057 0.8 0 0
0.245280 0.035178 0.325712 0.8 0 0
0.378572 0.062630 0.198487 0.8 0 0
0.154615 0.063417 0.226165 0.8 0 0
0.252745 0.078755 0.432066 0.8 0 0
0.261507 0.046465 0.229805 0.8 0 0
0.042061 0.033519 0.752421 0.8 0 0
0.259037 0.082489 0.381371 0.8 0 0
0.332210 0.090602 0.464738 0.8 0 0
0.257277 0.086789 0.488669 0.8 0 0
0.372638 0.144116 0.173079 0.8 0 0
0.221903 0.165251 0.272071 0.8 0 0
0.090845 0.125753 0.119887 0.8 0 0
0.229153 0.059596 0.193675 0.8 0 0
0.277440 0.035178 0.485357 0.8 0 0
0.178525 0.063393 0.883810 0.8 0 0
0.051201 0.120262 0.134126 0.8 0 0
0.339300 0.117326 0.084560 0.8 0 0
0.082230 0.071501 0.102917 0.8 0 0
0.256956 0.040966 0.656706 0.8 0 0
0.074150 0.040121 0.458162 0.8 0 0
0.163792 0.053143 0.290510 0.8 0 0
0.257476 0.058913 0.476474 0.8 0 0
0.193161 0.060669 0.190985 0.8 0 0
0.092949 0.035055 0.451551 0.8 0 0
0.283434 0.088643 0.223752 0.8 0 0
0.070999 0.130520 0.790361 0.8 0 0
0.094514 0.035178 0.494325 0.8 0 0
0.111598 0.035055 0.608295 0.8 0 0
0.304927 0.035178 0.446983 0.8 0 0
0.126965 0.035178 0.532797 0.8 0 0
0.093469 0.070737 0.722397 0.8 0 0
0.144978 0.106088 0.482335 0.8 0 0
0.243170 0.035178 0.410642 0.8 0 0
0.108620 0.134751 0.028222 0.8 0 0
0.185191 0.036013 0.352827 0.8 0 0
0.196223 0.165583 0.320509 0.8 0 0
0.178853 0.035178 0.632088 0.8 0 0
0.051201 0.066663 0.111003 0.8 0 0
0.145744 0.161436 0.047074 0.8 0 0
0.121711 0.037321 0.313457 0.8 0 0
0.133837 0.105099 0.645380 0.8 0 0
0.126097 0.035178 0.644658 0.8 0 0
0.264022 0.106547 0.501561 0.8 0 0
0.314158 0.040966 0.485056 0.8 0 0
0.102144 0.051768 0.092405 0.8 0 0
0.183520 0.038327 0.864480 0.8 0 0
0.107261 0.044310 0.249872 0.8 0 0
0.065673 0.047730 0.792194 0.8 0 0
0.283550 0.040052 0.288613 0.8 0 0
0.380483 0.122048 0.115073 0.8 0 0
0.128323 0.040966 0.548616 0.8 0 0
0.091023 0.114948 0.144255 0.8 0 0
0.318668 0.040047 0.288657 0.8 0 0
0.316094 0.066333 0.432387 0.8 0 0
0.098499 0.095246 0.172120 0.8 0 0
0.121268 0.040966 0.449930 0.8 0 0
0.038444 0.051822 0.803976 0.8 0 0
0.163804 0.038915 0.262811 0.8 0 0
0.320119 0.092690 0.222516 0.8 0 0
0.225321 0.162120 0.380182 0.8 0 0
0.096102 0.035055 0.592780 0.8 0 0
0.328202 0.077396 0.785045 0.8 0 0
0.233733 0.040966 0.553349 0.8 0 0
0.362905 0.048435 0.092588 0.8 0 0
0.181663 0.070679 0.178664 0.8 0 0
0.163789 0.056393 0.623889 0.8 0 0
0.036213 0.066496 0.113685 0.8 0 0
0.386567 0.126422 0.091043 0.8 0 0
0.225022 0.066001 0.190985 0.8 0 0
0.248652 0.040966 0.705730 0.8 0 0
0.247762 0.144780 0.365956 0.8 0 0
0.209754 0.036037 0.323319 0.8 0 0
0.288350 0.102771 0.389161 0.8 0 0
0.094302 0.116325 0.118445 0.8 0 0
0.223579 0.195028 0.477331 0.8 0 0
0.332948 0.044894 0.480621 0.8 0 0
0.177665 0.036610 0.798345 0.8 0 0
0.162259 0.130987 0.478555 0.8 0 0
0.337986 0.061634 0.725576 0.8 0 0
0.208388 0.031802 0.464957 0.8 0 0
0.095865 0.031957 0.791643 0.8 0 0
0.274254 0.035178 0.637336 0.8 0 0
0.191468 0.037702 0.843996 0.8 0 0
0.086292 0.056854 0.434341 0.8 0 0
0.083643 0.088875 0.478443 0.8 0 0
0.158352 0.038790 0.300094 0.8 0 0
0.188839 0.040966 0.387409 0.8 0 0
0.330782 0.026153 0.147209 0.8 0 0
0.335206 0.114325 0.748887 0.8 0 0
0.238866 0.133792 0.617903 0.8 0 0
0.155525 0.119692 0.228069 0.8 0 0
0.128894 0.035178 0.367419 0.8 0 0
0.255383 0.091530 0.201936 0.8 0 0
0.051201 0.053747 0.163399 0.8 0 0
0.083655 0.064160 0.768266 0.8 0 0
0.261160 0.092460 0.130499 0.8 0 0
0.150702 0.052915 0.171582 0.8 0 0
0.213691 0.056533 0.138665 0.8 0 0
0.108620 0.156793 0.037275 0.8 0 0
0.202238 0.049525 0.172608 0.8 0 0
0.140011 0.053256 0.168483 0.8 0 0
0.254058 0.089588 0.153789 0.8 0 0
0.244925 0.057928 0.125980 0.8 0 0
0.363247 0.149217 0.121119 0.8 0 0
0.186920 0.034465 0.631974 0.8 0 0
0.194770 0.040677 0.278090 0.8 0 0
0.387980 0.103566 0.182217 0.8 0 0
0.298001 0.035055 0.426534 0.8 0 0
0.261756 0.035055 0.448665 0.8 0 0
0.294225 0.044154 0.259844 0.8 0 0
0.169174 0.055705 0.778146 0.8 0 0
0.039321 0.040484 0.181563 0.8 0 0
0.236760 0.074753 0.131301 0.8 0 0
0.159794 0.063132 0.541683 0.8 0 0
0.096753 0.090354 0.173257 0.8 0 0
0.252716 0.077672 0.650777 0.8 0 0
0.368525 0.152366 0.784673 0.8 0 0
0.094177 0.131569 0.787437 0.8 0 0
0.322077 0.096406 0.170005 0.8 0 0
0.373063 0.150852 0.154698 0.8 0 0
0.331527 0.072397 0.453940 0.8 0 0
0.088531 0.035178 0.423613 0.8 0 0
0.245725 0.086156 0.117917 0.8 0 0
0.205251 0.140551 0.639234 0.8 0 0
0.299120 0.041227 0.184975 0.8 0 0
0.321308 0.097364 0.123261 0.8 0 0
0.139903 0.044214 0.212612 0.8 0 0
0.293074 0.083379 0.223689 0.8 0 0
0.100324 0.040334 0.290358 0.8 0 0
0.248619 0.035178 0.402707 0.8 0 0
0.330054 0.094172 0.099468 0.8 0 0
0.306134 0.130246 0.040481 0.8 0 0
0.339133 0.065528 0.426880 0.8 0 0
0.157711 0.035055 0.620733 0.8 0 0
0.078492 0.054054 0.165119 0.8 0 0
0.090065 0.099591 0.720804 0.8 0 0
0.310260 0.041165 0.283723 0.8 0 0
0.271412 0.035055 0.368787 0.8 0 0
0.113860 0.035178 0.417338 0.8 0 0
0.331608 0.080685 0.455228 0.8 0 0
0.163763 0.071023 0.513353 0.8 0 0
0.131978 0.103117 0.396886 0.8 0 0
0.262496 0.157417 0.065962 0.8 0 0
0.189554 0.060362 0.098317 0.8 0 0
0.158422 0.124694 0.347716 0.8 0 0
0.253806 0.093419 0.680330 0.8 0 0
0.161367 0.035055 0.344402 0.8 0 0
0.349745 0.108106 0.080544 0.8 0 0
0.065911 0.118795 0.838945 0.8 0 0
0.183542 0.040966 0.549697 0.8 0 0
0.322858 0.084688 0.782121 0.8 0 0
0.206234 0.091062 0.193675 0.8 0 0
0.052289 0.051375 0.763294 0.8 0 0
0.159891 0.106866 0.547576 0.8 0 0
0.064234 0.097095 0.803306 0.8 0 0
0.090687 0.038506 0.396152 0.8 0 0
0.100033 0.038395 0.303687 0.8 0 0
0.382789 0.141101 0.794381 0.8 0 0
0.080021 0.067107 0.819063 0.8 0 0
0.095547 0.040966 0.362764 0.8 0 0
0.308821 0.068011 0.394838 0.8 0 0
0.163742 0.090736 0.420289 0.8 0 0
0.106882 0.035178 0.340139 0.8 0 0
0.119959 0.035055 0.413720 0.8 0 0
0.163737 0.035775 0.650118 0.8 0 0
0.207385 0.158130 0.045213 0.8 0 0
0.260937 0.035055 0.267028 0.8 0 0
0.279620 0.093359 0.685789 0.8 0 0
0.111993 0.106068 0.623626 0.8 0 0
0.100903 0.106740 0.599117 0.8 0 0
0.323321 0.152336 0.141708 0.8 0 0
0.094892 0.137321 0.744952 0.8 0 0
0.253048 0.040966 0.701044 0.8 0 0
0.157366 0.082407 0.393754 0.8 0 0
0.332109 0.040966 0.540008 0.8 0 0
0.325348 0.123019 0.835641 0.8 0 0
0.327927 0.055138 0.896730 0.8 0 0
0.077127 0.047419 0.734828 0.8 0 0
0.365109 0.091637 0.155106 0.8 0 0
0.316879 0.035178 0.575392 0.8 0 0
0.252714 0.062613 0.243836 0.8 0 0
0.275871 0.084365 0.211429 0.8 0 0
0.082481 0.074085 0.509628 0.8 0 0
0.190086 0.035922 0.466909 0.8 0 0
0.382628 0.138104 0.785189 0.8 0 0
0.289591 0.098929 0.315429 0.8 0 0
0.206187 0.040966 0.425944 0.8 0 0
0.184805 0.112795 0.109689 0.8 0 0
0.323795 0.112911 0.783285 0.8 0 0
0.056872 0.073416 0.844484 0.8 0 0
0.116104 0.046810 0.227126 0.8 0 0
0.259588 0.043258 0.259436 0.8 0 0
0.064061 0.074204 0.167336 0.8 0 0
0.180093 0.055654 0.910679 0.8 0 0
0.055103 0.025780 0.777749 0.8 0 0
0.197096 0.164102 0.354434 0.8 0 0
0.304415 0.035178 0.551960 0.8 0 0
0.332993 0.083420 0.572162 0.8 0 0
0.101065 0.059852 0.884122 0.8 0 0
0.172745 0.145761 0.214123 0.8 0 0
0.098521 0.084289 0.099406 0.8 0 0
0.175241 0.154536 0.334536 0.8 0 0
0.101527 0.027872 0.131267 0.8 0 0
0.232059 0.039462 0.293975 0.8 0 0
0.256461 0.118149 0.538392 0.8 0 0
0.216149 0.035760 0.686016 0.8 0 0
0.159459 0.035055 0.539161 0.8 0 0
0.051201 0.047030 0.140844 0.8 0 0
0.249268 0.123221 0.626302 0.8 0 0
0.253342 0.035055 0.507009 0.8 0 0
0.155381 0.104454 0.429870 0.8 0 0
0.109447 0.131660 0.046118 0.8 0 0
0.157408 0.040966 0.472047 0.8 0 0
0.068187 0.066822 0.746461 0.8 0 0
0.252655 0.115965 0.610547 0.8 0 0
0.321905 0.115278 0.123168 0.8 0 0
0.194301 0.036028 0.334984 0.8 0 0
0.072928 0.151322 0.770904 0.8 0 0
0.154031 0.047621 0.219741 0.8 0 0
0.381723 0.056640 0.145889 0.8 0 0
0.127179 0.102666 0.386867 0.8 0 0
0.103531 0.035178 0.341566 0.8 0 0
0.025529 0.089933 0.199507 0.8 0 0
0.117939 0.058361 0.270882 0.8 0 0
0.131356 0.042017 0.276916 0.8 0 0
0.037199 0.065042 0.747835 0.8 0 0
0.248824 0.035953 0.427569 0.8 0 0
0.351589 0.094451 0.813766 0.8 0 0
0.371193 0.092100 0.139378 0.8 0 0
0.276124 0.035055 0.327883 0.8 0 0
0.381618 0.128622 0.829268 0.8 0 0
0.163766 0.086281 0.628648 0.8 0 0
0.200358 0.037220 0.311301 0.8 0 0
0.280649 0.093437 0.127835 0.8 0 0
0.094484 0.035178 0.576773 0.8 0 0
0.380082 0.111083 0.118640 0.8 0 0
0.157520 0.072412 0.403122 0.8 0 0
0.279664 0.035178 0.379262 0.8 0 0
0.163805 0.039671 0.654438 0.8 0 0
0.042672 0.057495 0.769764 0.8 0 0
0.156297 0.125185 0.231195 0.8 0 0
0.187100 0.118294 0.115341 0.8 0 0
0.208834 0.163940 0.199370 0.8 0 0
0.387572 0.108556 0.103781 0.8 0 0
0.240426 0.040267 0.286655 0.8 0 0
0.065124 0.113743 0.107113 0.8 0 0
0.170591 0.132205 0.616304 0.8 0 0
0.160986 0.063566 0.614261 0.8 0 0
0.296569 0.081257 0.239784 0.8 0 0
0.085673 0.058617 0.922792 0.8 0 0
0.109671 0.040966 0.442660 0.8 0 0
0.028070 0.051529 0.153457 0.8 0 0
0.090024 0.040966 0.505873 0.8 0 0
0.252700 0.040946 0.595143 0.8 0 0
0.094989 0.087904 0.104255 0.8 0 0
0.199427 0.036011 0.355187 0.8 0 0
0.338619 0.072843 0.351807 0.8 0 0
0.339731 0.040966 0.524940 0.8 0 0
0.314606 0.035055 0.440228 0.8 0 0
0.259566 0.083210 0.348262 0.8 0 0
0.032925 0.085901 0.784586 0.8 0 0
0.234558 0.036776 0.808560 0.8 0 0
0.087108 0.058752 0.892988 0.8 0 0
0.330424 0.041720 0.436521 0.8 0 0
0.061595 0.069720 0.843351 0.8 0 0
0.259871 0.076952 0.329278 0.8 0 0
0.126130 0.050172 0.196543 0.8 0 0
0.083201 0.092729 0.489072 0.8 0 0
0.328202 0.072915 0.760501 0.8 0 0
0.073995 0.046223 0.188384 0.8 0 0
0.144802 0.095832 0.264756 0.8 0 0
0.113076 0.035178 0.350050 0.8 0 0
0.064234 0.049145 0.775941 0.8 0 0
0.277390 0.035178 0.384821 0.8 0 0
0.319553 0.106638 0.733299 0.8 0 0
0.320987 0.086807 0.172996 0.8 0 0
0.332203 0.036684 0.586383 0.8 0 0
0.192075 0.045175 0.190985 0.8 0 0
0.361383 0.108249 0.722061 0.8 0 0
0.163807 0.035106 0.649326 0.8 0 0
0.309230 0.035178 0.403276 0.8 0 0
0.252734 0.070395 0.574436 0.8 0 0
0.267098 0.160365 0.070786 0.8 0 0
0.162336 0.040966 0.504456 0.8 0 0
0.174548 0.153795 0.337619 0.8 0 0
0.294468 0.040966 0.307158 0.8 0 0
0.379090 0.130223 0.792589 0.8 0 0
0.035934 0.121112 0.728298 0.8 0 0
0.257829 0.118545 0.384523 0.8 0 0
0.157660 0.035055 0.470739 0.8 0 0
0.252943 0.035055 0.454927 0.8 0 0
0.280702 0.035055 0.335687 0.8 0 0
0.208834 0.130117 0.149912 0.8 0 0
0.156159 0.064752 0.320238 0.8 0 0
0.301274 0.035178 0.474088 0.8 0 0
0.380800 0.077229 0.116467 0.8 0 0
0.259311 0.046530 0.364609 0.8 0 0
0.334548 0.100732 0.529543 0.8 0 0
0.060548 0.026552 0.771360 0.8 0 0
0.189543 0.136436 0.648221 0.8 0 0
0.152440 0.035178 0.605488 0.8 0 0
0.203811 0.031802 0.626647 0.8 0 0
0.351589 0.114011 0.753879 0.8 0 0
0.113285 0.035055 0.498523 0.8 0 0
0.095447 0.033913 0.760234 0.8 0 0
0.252732 0.077262 0.372800 0.8 0 0
0.208890 0.165362 0.251435 0.8 0 0
0.327776 0.093860 0.746335 0.8 0 0
0.034130 0.099664 0.825632 0.8 0 0
0.128269 0.035178 0.290939 0.8 0 0
0.276776 0.081842 0.230127 0.8 0 0
0.313765 0.125031 0.116510 0.8 0 0
0.226716 0.031802 0.386754 0.8 0 0
0.239344 0.152119 0.235905 0.8 0 0
0.213095 0.044315 0.249827 0.8 0 0
0.352247 0.126472 0.158749 0.8 0 0
0.325653 0.055145 0.897065 0.8 0 0
0.154613 0.039323 0.226061 0.8 0 0
0.252725 0.104007 0.657514 0.8 0 0
0.163786 0.058904 0.308363 0.8 0 0
0.328202 0.069232 0.796843 0.8 0 0
0.333391 0.068797 0.491270 0.8 0 0
0.350755 0.065430 0.723737 0.8 0 0
0.157940 0.067428 0.428717 0.8 0 0
0.382632 0.034769 0.767933 0.8 0 0
0.255457 0.050541 0.599507 0.8 0 0
0.292965 0.040966 0.637856 0.8 0 0
0.215742 0.038249 0.861914 0.8 0 0
0.088047 0.102304 0.754356 0.8 0 0
0.207476 0.040966 0.360285 0.8 0 0
0.140304 0.035178 0.465532 0.8 0 0
0.269723 0.037536 0.312711 0.8 0 0
0.253409 0.087195 0.658237 0.8 0 0
0.297597 0.058811 0.142784 0.8 0 0
0.100314 0.045773 0.246912 0.8 0 0
0.223349 0.136193 0.661050 0.8 0 0
0.157272 0.035055 0.641717 0.8 0 0
0.039588 0.089945 0.825078 0.8 0 0
0.329308 0.085947 0.248488 0.8 0 0
0.207486 0.040966 0.620108 0.8 0 0
0.087995 0.050340 0.417091 0.8 0 0
0.033278 0.073447 0.838064 0.8 0 0
0.082871 0.059289 0.916009 0.8 0 0
0.194366 0.031802 0.385228 0.8 0 0
0.215900 0.086470 0.098317 0.8 0 0
0.087645 0.069940 0.385853 0.8 0 0
0.026214 0.149025 0.145488 0.8 0 0
0.186013 0.073505 0.190985 0.8 0 0
0.085343 0.072915 0.448109 0.8 0 0
0.165213 0.036058 0.297579 0.8 0 0
0.164353 0.079038 0.703660 0.8 0 0
0.064061 0.057877 0.162461 0.8 0 0
0.300343 0.035178 0.423296 0.8 0 0
0.276994 0.085588 0.194876 0.8 0 0
0.334720 0.145649 0.754565 0.8 0 0
0.379103 0.150320 0.125539 0.8 0 0
0.330791 0.063479 0.174939 0.8 0 0
0.271620 0.035178 0.427518 0.8 0 0
0.338511 0.038631 0.258632 0.8 0 0
0.123001 0.082971 0.222331 0.8 0 0
0.168089 0.038472 0.285307 0.8 0 0
0.266588 0.035178 0.525623 0.8 0 0
0.345921 0.027988 0.122840 0.8 0 0
0.257395 0.063255 0.481441 0.8 0 0
0.341824 0.039744 0.248096 0.8 0 0
0.373203 0.025725 0.781512 0.8 0 0
0.164510 0.041922 0.277673 0.8 0 0
0.107653 0.089876 0.358926 0.8 0 0
0.057867 0.084086 0.078031 0.8 0 0
0.178418 0.037337 0.832026 0.8 0 0
0.342969 0.094174 0.845858 0.8 0 0
0.312977 0.040966 0.557947 0.8 0 0
0.064234 0.127647 0.777417 0.8 0 0
0.317373 0.058652 0.787749 0.8 0 0
0.164091 0.035178 0.361382 0.8 0 0
0.352247 0.076547 0.123404 0.8 0 0
0.269296 0.040966 0.556958 0.8 0 0
0.334590 0.062039 0.531981 0.8 0 0
0.244709 0.128791 0.702344 0.8 0 0
0.207551 0.147608 0.222703 0.8 0 0
0.136793 0.035055 0.519803 0.8 0 0
0.155754 0.095071 0.295566 0.8 0 0
0.265559 0.055120 0.172264 0.8 0 0
0.181171 0.035781 0.642177 0.8 0 0
0.245001 0.062748 0.815916 0.8 0 0
0.376809 0.092359 0.817103 0.8 0 0
0.181564 0.137927 0.144121 0.8 0 0
0.179370 0.040899 0.859041 0.8 0 0
0.033161 0.143294 0.772041 0.8 0 0
0.204688 0.040966 0.286079 0.8 0 0
0.251954 0.079935 0.707402 0.8 0 0
0.212521 0.165709 0.322917 0.8 0 0
0.367161 0.057013 0.113700 0.8 0 0
0.139278 0.105422 0.458338 0.8 0 0
0.332841 0.130762 0.135430 0.8 0 0
0.184860 0.057924 0.901032 0.8 0 0
0.374424 0.114158 0.725069 0.8 0 0
0.103450 0.087467 0.188090 0.8 0 0
0.030439 0.123312 0.116735 0.8 0 0
0.327320 0.081837 0.777688 0.8 0 0
0.160242 0.063256 0.568981 0.8 0 0
0.376417 0.054457 0.117012 0.8 0 0
0.325626 0.030017 0.163389 0.8 0 0
0.064061 0.096547 0.156813 0.8 0 0
0.163785 0.059727 0.368675 0.8 0 0
0.252730 0.066109 0.402615 0.8 0 0
0.248847 0.035904 0.488512 0.8 0 0
0.170486 0.040966 0.672185 0.8 0 0
0.323996 0.044562 0.827541 0.8 0 0
0.146705 0.055769 0.913642 0.8 0 0
0.069563 0.112317 0.176640 0.8 0 0
0.329392 0.119801 0.789087 0.8 0 0
0.242238 0.114957 0.123461 0.8 0 0
0.073259 0.112650 0.176383 0.8 0 0
0.365109 0.111626 0.132399 0.8 0 0
0.083334 0.075888 0.753293 0.8 0 0
0.259212 0.049643 0.370633 0.8 0 0
0.353950 0.085894 0.782955 0.8 0 0
0.248303 0.143786 0.430340 0.8 0 0
0.157524 0.051077 0.403361 0.8 0 0
0.160362 0.160371 0.070551 0.8 0 0
0.205314 0.040966 0.544862 0.8 0 0
0.092925 0.037000 0.817828 0.8 0 0
0.191357 0.035897 0.498217 0.8 0 0
0.205659 0.210362 0.477093 0.8 0 0
0.259418 0.054184 0.357916 0.8 0 0
0.250299 0.075076 0.748915 0.8 0 0
0.231950 0.163083 0.282442 0.8 0 0
0.163781 0.083514 0.649728 0.8 0 0
0.176254 0.035178 0.699592 0.8 0 0
0.279440 0.081829 0.232403 0.8 0 0
0.051201 0.127454 0.151033 0.8 0 0
0.382603 0.032360 0.782933 0.8 0 0
0.259321 0.081548 0.363647 0.8 0 0
0.280720 0.095520 0.259938 0.8 0 0
0.245114 0.160862 0.056795 0.8 0 0
0.338116 0.040966 0.359583 0.8 0 0
0.319817 0.145849 0.779832 0.8 0 0
0.163795 0.046404 0.594132 0.8 0 0
0.190841 0.036010 0.356253 0.8 0 0
0.252740 0.076924 0.587280 0.8 0 0
0.303360 0.078530 0.274971 0.8 0 0
0.325186 0.083747 0.747683 0.8 0 0
0.317107 0.035055 0.528686 0.8 0 0
0.094842 0.091390 0.230903 0.8 0 0
0.236159 0.036085 0.263305 0.8 0 0
0.331938 0.127913 0.733083 0.8 0 0
0.326100 0.105343 0.457136 0.8 0 0
0.254905 0.035971 0.405815 0.8 0 0
0.155125 0.111037 0.257271 0.8 0 0
0.325547 0.040966 0.470578 0.8 0 0
0.218949 0.035178 0.700824 0.8 0 0
0.224864 0.040966 0.574372 0.8 0 0
0.210391 0.100513 0.880910 0.8 0 0
0.190098 0.040966 0.607047 0.8 0 0
0.328339 0.101768 0.844322 0.8 0 0
0.250739 0.049227 0.666325 0.8 0 0
0.081029 0.069255 0.378798 0.8 0 0
0.265916 0.087302 0.145689 0.8 0 0
0.240840 0.035983 0.749233 0.8 0 0
0.181410 0.078493 0.896980 0.8 0 0
0.064540 0.047991 0.734126 0.8 0 0
0.276145 0.106812 0.518560 0.8 0 0
0.112613 0.085547 0.233242 0.8 0 0
0.224068 0.040966 0.443757 0.8 0 0
0.253362 0.105105 0.697627 0.8 0 0
0.331434 0.062085 0.578566 0.8 0 0
0.178944 0.040966 0.344449 0.8 0 0
0.083384 0.054841 0.571656 0.8 0 0
0.351589 0.086809 0.769179 0.8 0 0
0.318714 0.090807 0.170005 0.8 0 0
0.114847 0.082084 0.287886 0.8 0 0
0.305308 0.160189 0.070190 0.8 0 0
0.267929 0.045169 0.251740 0.8 0 0
0.320122 0.146926 0.775110 0.8 0 0
0.331258 0.099805 0.203528 0.8 0 0
0.269197 0.080823 0.232377 0.8 0 0
0.279644 0.158330 0.047424 0.8 0 0
0.323092 0.092850 0.171789 0.8 0 0
0.194177 0.163182 0.408968 0.8 0 0
0.206322 0.136708 0.665149 0.8 0 0
0.340523 0.130907 0.136509 0.8 0 0
0.304950 0.035178 0.536644 0.8 0 0
0.383964 0.131151 0.148629 0.8 0 0
0.391130 0.119937 0.101875 0.8 0 0
0.165817 0.142855 0.312589 0.8 0 0
0.203594 0.118325 0.813380 0.8 0 0
0.091083 0.071816 0.361641 0.8 0 0
0.305308 0.156729 0.035099 0.8 0 0
0.252756 0.086829 0.465666 0.8 0 0
0.334149 0.095439 0.514385 0.8 0 0
0.213389 0.096799 0.891264 0.8 0 0
0.179314 0.033113 0.507544 0.8 0 0
0.141378 0.040966 0.608909 0.8 0 0
0.060895 0.151598 0.772423 0.8 0 0
0.283712 0.035055 0.581727 0.8 0 0
0.232473 0.031802 0.298995 0.8 0 0
0.351589 0.102187 0.809127 0.8 0 0
0.336947 0.030855 0.116401 0.8 0 0
0.296856 0.042106 0.123622 0.8 0 0
0.285733 0.059992 0.653598 0.8 0 0
0.208834 0.146652 0.161424 0.8 0 0
0.209245 0.158728 0.057202 0.8 0 0
0.219821 0.198857 0.330953 0.8 0 0
0.342487 0.065986 0.082259 0.8 0 0
0.132146 0.046995 0.225435 0.8 0 0
0.037763 0.064405 0.817428 0.8 0 0
0.265647 0.035178 0.413701 0.8 0 0
0.051201 0.108974 0.173313 0.8 0 0
0.159530 0.062448 0.525548 0.8 0 0
0.252748 0.096532 0.337007 0.8 0 0
0.219874 0.163044 0.369962 0.8 0 0
0.322366 0.083071 0.166119 0.8 0 0
0.190534 0.035762 0.670579 0.8 0 0
0.276873 0.105928 0.475754 0.8 0 0
0.128091 0.079866 0.241842 0.8 0 0
0.246570 0.035178 0.633548 0.8 0 0
0.077742 0.040274 0.274182 0.8 0 0
0.154893 0.038864 0.243090 0.8 0 0
0.252706 0.049197 0.267374 0.8 0 0
0.209029 0.141284 0.075349 0.8 0 0
0.075476 0.027092 0.768323 0.8 0 0
0.336084 0.108765 0.201624 0.8 0 0
0.252709 0.059002 0.220498 0.8 0 0
0.214642 0.164691 0.437007 0.8 0 0
0.042672 0.089420 0.815041 0.8 0 0
0.042672 0.110801 0.801081 0.8 0 0
0.168558 0.146957 0.303647 0.8 0 0
0.163470 0.037134 0.315921 0.8 0 0
0.314813 0.078986 0.279138 0.8 0 0
0.277929 0.035055 0.246692 0.8 0 0
0.372161 0.061627 0.725891 0.8 0 0
0.319228 0.101581 0.134206 0.8 0 0
0.111040 0.106732 0.599476 0.8 0 0
0.119694 0.106527 0.500310 0.8 0 0
0.252750 0.097813 0.369653 0.8 0 0
0.359629 0.052487 0.089397 0.8 0 0
0.328589 0.043077 0.268454 0.8 0 0
0.380008 0.050593 0.764199 0.8 0 0
0.333600 0.044140 0.251412 0.8 0 0
0.087621 0.094049 0.764376 0.8 0 0
0.182088 0.160316 0.394859 0.8 0 0
0.218814 0.051487 0.167424 0.8 0 0
0.321308 0.108228 0.146481 0.8 0 0
0.162843 0.040766 0.706553 0.8 0 0
0.256694 0.116273 0.487149 0.8 0 0
0.247689 0.035178 0.423685 0.8 0 0
0.252712 0.049988 0.492716 0.8 0 0
0.195498 0.198522 0.328000 0.8 0 0
0.281738 0.055484 0.906395 0.8 0 0
0.160903 0.035920 0.468605 0.8 0 0
0.284437 0.049428 0.217718 0.8 0 0
0.208235 0.037634 0.841763 0.8 0 0
0.277082 0.103468 0.404981 0.8 0 0
0.124289 0.040966 0.480356 0.8 0 0
0.252766 0.106501 0.604108 0.8 0 0
0.044540 0.091699 0.145102 0.8 0 0
0.155981 0.035055 0.516419 0.8 0 0
0.079212 0.068659 0.386490 0.8 0 0
0.319764 0.076822 0.727919 0.8 0 0
0.199766 0.110604 0.843518 0.8 0 0
0.172646 0.052461 0.821788 0.8 0 0
0.168376 0.130353 0.639876 0.8 0 0
0.095184 0.048888 0.828216 0.8 0 0
0.231742 0.036122 0.217568 0.8 0 0
0.223165 0.096678 0.139744 0.8 0 0
0.264956 0.035055 0.384236 0.8 0 0
0.259944 0.121857 0.260114 0.8 0 0
0.274448 0.035055 0.658336 0.8 0 0
0.252695 0.098074 0.696476 0.8 0 0
0.208834 0.152469 0.171723 0.8 0 0
0.110912 0.035055 0.585236 0.8 0 0
0.345593 0.097106 0.204193 0.8 0 0
0.338564 0.041924 0.224029 0.8 0 0
0.201837 0.031802 0.589288 0.8 0 0
0.101931 0.105595 0.463657 0.8 0 0
0.238103 0.069796 0.878132 0.8 0 0
0.157295 0.119801 0.330944 0.8 0 0
0.252010 0.035178 0.494085 0.8 0 0
0.160115 0.053582 0.184548 0.8 0 0
0.292812 0.054425 0.177818 0.8 0 0
0.252713 0.055978 0.363007 0.8 0 0
0.154441 0.077352 0.215579 0.8 0 0
0.091023 0.062007 0.121085 0.8 0 0
0.238322 0.040966 0.699236 0.8 0 0
0.161439 0.103261 0.641859 0.8 0 0
0.093354 0.035178 0.424514 0.8 0 0
0.036213 0.086509 0.174179 0.8 0 0
0.252705 0.050100 0.239406 0.8 0 0
0.276937 0.040966 0.309108 0.8 0 0
0.216727 0.160472 0.487011 0.8 0 0
0.342365 0.047901 0.771838 0.8 0 0
0.129834 0.160947 0.054873 0.8 0 0
0.323467 0.122504 0.756987 0.8 0 0
0.225616 0.043743 0.924999 0.8 0 0
0.240734 0.134811 0.612341 0.8 0 0
0.163801 0.040282 0.557147 0.8 0 0
0.031679 0.060740 0.174070 0.8 0 0
0.086074 0.104950 0.468649 0.8 0 0
0.333181 0.046956 0.486232 0.8 0 0
0.157798 0.117504 0.364118 0.8 0 0
0.251758 0.089261 0.743825 0.8 0 0
0.027990 0.055051 0.115652 0.8 0 0
0.349749 0.068168 0.819660 0.8 0 0
0.232581 0.031802 0.492889 0.8 0 0
0.039473 0.068875 0.081471 0.8 0 0
0.061837 0.025428 0.138267 0.8 0 0
0.315881 0.035178 0.327483 0.8 0 0
0.041415 0.099265 0.844651 0.8 0 0
0.321082 0.067795 0.200500 0.8 0 0
0.252701 0.040559 0.482039 0.8 0 0
0.254328 0.059540 0.136962 0.8 0 0
0.175644 0.047303 0.210474 0.8 0 0
0.293409 0.054678 0.885929 0.8 0 0
0.356127 0.087391 0.786255 0.8 0 0
0.090597 0.093208 0.168577 0.8 0 0
0.072294 0.144520 0.172845 0.8 0 0
0.140216 0.035055 0.383346 0.8 0 0
0.156189 0.035055 0.423743 0.8 0 0
0.232349 0.162736 0.471080 0.8 0 0
0.243600 0.055393 0.904063 0.8 0 0
0.053945 0.068221 0.809914 0.8 0 0
0.387629 0.072504 0.176808 0.8 0 0
0.216165 0.165303 0.449961 0.8 0 0
