0.609824 0.280953 0.537735 0.8 0 0
0.557630 0.148081 0.625293 0.8 0 0
0.299550 0.102254 0.522964 0.8 0 0
0.682304 0.072586 0.698359 0.8 0 0
0.212203 0.233021 0.121440 0.8 0 0
0.607467 0.254402 0.717792 0.8 0 0
0.374140 0.160265 0.295773 0.8 0 0
0.332535 0.136332 0.105105 0.8 0 0
0.275585 0.120800 0.330624 0.8 0 0
0.063588 0.089872 0.292343 0.8 0 0
0.291247 0.236950 0.402093 0.8 0 0
0.838794 0.093705 0.786570 0.8 0 0
0.585642 0.319055 0.457548 0.8 0 0
0.637960 0.094328 0.731655 0.8 0 0
0.336994 0.167046 0.208608 0.8 0 0
0.619275 0.136497 0.528152 0.8 0 0
0.416936 0.121684 0.214114 0.8 0 0
0.429246 0.314325 0.514877 0.8 0 0
0.490808 0.074061 0.675556 0.8 0 0
0.516209 0.290935 0.647656 0.8 0 0
0.552293 0.273308 0.692341 0.8 0 0
0.714566 0.298640 0.510888 0.8 0 0
0.181303 0.161184 0.183095 0.8 0 0
0.303584 0.143659 0.502808 0.8 0 0
0.454669 0.113485 0.624399 0.8 0 0
0.875735 0.113740 0.751325 0.8 0 0
0.245169 0.165252 0.181082 0.8 0 0
0.366578 0.194188 0.139396 0.8 0 0
0.750641 0.099370 0.893586 0.8 0 0
0.541397 0.120850 0.273269 0.8 0 0
0.677404 0.234086 0.687027 0.8 0 0
0.675802 0.148555 0.383190 0.8 0 0
0.454116 0.082491 0.522156 0.8 0 0
0.452713 0.177195 0.230441 0.8 0 0
0.467262 0.104829 0.552212 0.8 0 0
0.461966 0.198061 0.643622 0.8 0 0
0.764849 0.085520 0.661297 0.8 0 0
0.698076 0.078483 0.859782 0.8 0 0
0.423647 0.197400 0.631475 0.8 0 0
0.174844 0.231077 0.400173 0.8 0 0
0.432554 0.323290 0.431009 0.8 0 0
0.341063 0.218127 0.189143 0.8 0 0
0.526867 0.089410 0.502713 0.8 0 0
0.624511 0.144138 0.340010 0.8 0 0
0.218351 0.177821 0.049669 0.8 0 0
0.190313 0.209338 0.436591 0.8 0 0
0.149075 0.129678 0.153309 0.8 0 0
0.286368 0.162398 0.320846 0.8 0 0
0.410983 0.246190 0.312757 0.8 0 0
0.880962 0.096694 0.706489 0.8 0 0
0.367278 0.265217 0.248035 0.8 0 0
0.641961 0.251668 0.506673 0.8 0 0
0.602863 0.157755 0.508740 0.8 0 0
0.337179 0.222121 0.373888 0.8 0 0
0.554269 0.080929 0.601351 0.8 0 0
0.617347 0.075503 0.755565 0.8 0 0
0.225468 0.231187 0.502199 0.8 0 0
0.603498 0.260276 0.363830 0.8 0 0
0.338021 0.106661 0.288955 0.8 0 0
0.149224 0.146773 0.276993 0.8 0 0
0.685335 0.292546 0.458418 0.8 0 0
0.373828 0.220669 0.305979 0.8 0 0
0.692391 0.125048 0.866700 0.8 0 0
0.396484 0.116977 0.429459 0.8 0 0
0.378113 0.116583 0.111337 0.8 0 0
0.376276 0.127060 0.344771 0.8 0 0
0.287051 0.250989 0.315988 0.8 0 0
0.537684 0.256498 0.314790 0.8 0 0
0.758798 0.207556 0.535557 0.8 0 0
0.355925 0.107008 0.294346 0.8 0 0
0.504311 0.318933 0.328329 0.8 0 0
0.518757 0.208406 0.612156 0.8 0 0
0.651935 0.255532 0.681819 0.8 0 0
0.788717 0.265924 0.553607 0.8 0 0
0.538699 0.302834 0.334881 0.8 0 0
0.206617 0.219320 0.418536 0.8 0 0
0.914603 0.168690 0.590277 0.8 0 0
0.482413 0.265993 0.666046 0.8 0 0
0.518517 0.238914 0.651676 0.8 0 0
0.330328 0.294943 0.504737 0.8 0 0
0.202168 0.104487 0.244543 0.8 0 0
0.340219 0.139831 0.334509 0.8 0 0
0.427254 0.201530 0.625957 0.8 0 0
0.324590 0.258076 0.281780 0.8 0 0
0.337559 0.108839 0.464217 0.8 0 0
0.577715 0.143611 0.593637 0.8 0 0
0.200389 0.170595 0.120995 0.8 0 0
0.371721 0.239146 0.317002 0.8 0 0
0.077305 0.089144 0.303928 0.8 0 0
0.096576 0.208297 0.358526 0.8 0 0
0.647503 0.234817 0.501045 0.8 0 0
0.677402 0.197465 0.537895 0.8 0 0
0.370819 0.120938 0.202672 0.8 0 0
0.326667 0.186751 0.274831 0.8 0 0
0.662671 0.213114 0.795317 0.8 0 0
0.523783 0.091250 0.487531 0.8 0 0
0.549499 0.076658 0.608511 0.8 0 0
0.417751 0.264062 0.602762 0.8 0 0
0.604209 0.172443 0.593511 0.8 0 0
0.474283 0.288585 0.316515 0.8 0 0
0.476708 0.140875 0.285939 0.8 0 0
0.334350 0.235625 0.550445 0.8 0 0
0.232566 0.094473 0.461431 0.8 0 0
0.937609 0.184585 0.671222 0.8 0 0
0.891744 0.101790 0.657512 0.8 0 0
0.333950 0.164414 0.227081 0.8 0 0
0.508990 0.124197 0.670702 0.8 0 0
0.413771 0.098246 0.577736 0.8 0 0
0.395299 0.201298 0.225793 0.8 0 0
0.268857 0.233836 0.432158 0.8 0 0
0.578645 0.073509 0.745412 0.8 0 0
0.318274 0.153324 0.282304 0.8 0 0
0.735744 0.248112 0.516328 0.8 0 0
0.499491 0.132410 0.668991 0.8 0 0
0.695312 0.228875 0.710571 0.8 0 0
0.612848 0.283417 0.399080 0.8 0 0
0.378748 0.274962 0.575605 0.8 0 0
0.876949 0.235928 0.669400 0.8 0 0
0.343991 0.152201 0.251889 0.8 0 0
0.624363 0.254078 0.378136 0.8 0 0
0.127830 0.156034 0.197868 0.8 0 0
0.217150 0.175877 0.088921 0.8 0 0
0.808423 0.093036 0.634736 0.8 0 0
0.927400 0.153409 0.598432 0.8 0 0
0.407796 0.285669 0.583052 0.8 0 0
0.368045 0.179371 0.114131 0.8 0 0
0.702198 0.277702 0.601512 0.8 0 0
0.636392 0.230908 0.513908 0.8 0 0
0.575809 0.177013 0.541876 0.8 0 0
0.569616 0.192855 0.333127 0.8 0 0
0.390038 0.214840 0.140112 0.8 0 0
0.710565 0.179078 0.422879 0.8 0 0
0.683502 0.261311 0.614049 0.8 0 0
0.492331 0.197056 0.681757 0.8 0 0
0.149810 0.155508 0.211706 0.8 0 0
0.441813 0.297488 0.558825 0.8 0 0
0.270964 0.146950 0.329937 0.8 0 0
0.318123 0.123223 0.128621 0.8 0 0
0.196640 0.209288 0.429675 0.8 0 0
0.808797 0.178308 0.820176 0.8 0 0
0.452826 0.140345 0.279253 0.8 0 0
0.145133 0.075131 0.394720 0.8 0 0
0.326123 0.267048 0.181996 0.8 0 0
0.399240 0.138711 0.136494 0.8 0 0
0.403552 0.134660 0.137152 0.8 0 0
0.228555 0.196966 0.391241 0.8 0 0
0.571746 0.318161 0.548063 0.8 0 0
0.715806 0.215804 0.779927 0.8 0 0
0.119448 0.191444 0.174766 0.8 0 0
0.356262 0.287077 0.518519 0.8 0 0
0.560335 0.197560 0.748261 0.8 0 0
0.657832 0.227364 0.728731 0.8 0 0
0.647921 0.270632 0.617249 0.8 0 0
0.436237 0.133636 0.614427 0.8 0 0
0.665247 0.160813 0.843523 0.8 0 0
0.720741 0.229313 0.707739 0.8 0 0
0.405815 0.095774 0.400916 0.8 0 0
0.771731 0.157221 0.479942 0.8 0 0
0.150733 0.159248 0.331352 0.8 0 0
0.823770 0.213215 0.527334 0.8 0 0
0.693152 0.118011 0.400288 0.8 0 0
0.267319 0.170075 0.154856 0.8 0 0
0.918209 0.197911 0.650559 0.8 0 0
0.344342 0.170633 0.185059 0.8 0 0
0.580389 0.258378 0.730004 0.8 0 0
0.456904 0.121855 0.228011 0.8 0 0
0.126188 0.124279 0.175371 0.8 0 0
0.463990 0.261146 0.251686 0.8 0 0
0.517320 0.192988 0.611898 0.8 0 0
0.683058 0.231198 0.458623 0.8 0 0
0.500283 0.105014 0.673287 0.8 0 0
0.664527 0.204687 0.478817 0.8 0 0
0.521639 0.142116 0.643711 0.8 0 0
0.475947 0.258609 0.252674 0.8 0 0
0.062945 0.111197 0.254156 0.8 0 0
0.279450 0.254588 0.500008 0.8 0 0
0.372472 0.223822 0.316851 0.8 0 0
0.279809 0.087673 0.499309 0.8 0 0
0.468828 0.323932 0.331275 0.8 0 0
0.280545 0.254875 0.264893 0.8 0 0
0.454414 0.320540 0.498039 0.8 0 0
0.185405 0.117219 0.434684 0.8 0 0
0.526961 0.090831 0.634197 0.8 0 0
0.884214 0.101563 0.648074 0.8 0 0
0.559304 0.033024 0.743163 0.8 0 0
0.101458 0.172409 0.366870 0.8 0 0
0.123904 0.144318 0.284114 0.8 0 0
0.233882 0.090812 0.361315 0.8 0 0
0.153387 0.096333 0.283951 0.8 0 0
0.482640 0.188852 0.685412 0.8 0 0
0.354346 0.125927 0.238336 0.8 0 0
0.195941 0.141637 0.122427 0.8 0 0
0.586336 0.317386 0.547815 0.8 0 0
0.512974 0.223797 0.261465 0.8 0 0
0.324055 0.251799 0.381961 0.8 0 0
0.553115 0.169217 0.315597 0.8 0 0
0.526803 0.193466 0.640855 0.8 0 0
0.677854 0.112726 0.395160 0.8 0 0
0.539184 0.102671 0.649327 0.8 0 0
0.282042 0.177446 0.106118 0.8 0 0
0.688124 0.196259 0.605079 0.8 0 0
0.054892 0.110381 0.275074 0.8 0 0
0.264884 0.182445 0.060867 0.8 0 0
0.864108 0.165922 0.546475 0.8 0 0
0.758989 0.107545 0.532476 0.8 0 0
0.144230 0.131227 0.297804 0.8 0 0
0.510398 0.118633 0.690106 0.8 0 0
0.655735 0.222950 0.490343 0.8 0 0
0.275760 0.109731 0.429939 0.8 0 0
0.501849 0.311373 0.573394 0.8 0 0
0.693930 0.258306 0.455909 0.8 0 0
0.247732 0.155352 0.256592 0.8 0 0
0.718912 0.252328 0.568671 0.8 0 0
0.297368 0.185243 0.531058 0.8 0 0
0.710649 0.243160 0.636508 0.8 0 0
0.674782 0.237470 0.621908 0.8 0 0
0.257038 0.252094 0.168227 0.8 0 0
0.304589 0.117513 0.296194 0.8 0 0
0.610434 0.083268 0.766838 0.8 0 0
0.600565 0.246984 0.702879 0.8 0 0
0.217159 0.137299 0.378413 0.8 0 0
0.719779 0.275740 0.490321 0.8 0 0
0.695794 0.148980 0.438410 0.8 0 0
0.698503 0.081164 0.678874 0.8 0 0
0.406148 0.102630 0.349617 0.8 0 0
0.770318 0.231101 0.697234 0.8 0 0
0.600018 0.289094 0.379899 0.8 0 0
0.464291 0.325657 0.361054 0.8 0 0
0.056396 0.147890 0.325568 0.8 0 0
0.632573 0.230016 0.518117 0.8 0 0
0.810040 0.109794 0.551612 0.8 0 0
0.563479 0.125547 0.668761 0.8 0 0
0.493696 0.320457 0.329011 0.8 0 0
0.313432 0.114161 0.221617 0.8 0 0
0.569892 0.287694 0.616629 0.8 0 0
0.137709 0.206814 0.168545 0.8 0 0
0.095095 0.119581 0.235237 0.8 0 0
0.629642 0.183279 0.674844 0.8 0 0
0.248614 0.150860 0.411977 0.8 0 0
0.713516 0.256749 0.460598 0.8 0 0
0.667572 0.135009 0.415166 0.8 0 0
0.335585 0.121848 0.173824 0.8 0 0
0.315950 0.150659 0.118432 0.8 0 0
0.186940 0.169517 0.358750 0.8 0 0
0.590640 0.265193 0.668545 0.8 0 0
0.628703 0.264809 0.400697 0.8 0 0
0.311317 0.107121 0.273504 0.8 0 0
0.532844 0.251083 0.635639 0.8 0 0
0.475401 0.098232 0.605355 0.8 0 0
0.576298 0.165889 0.580716 0.8 0 0
0.511833 0.107537 0.682626 0.8 0 0
0.600819 0.169260 0.321359 0.8 0 0
0.703662 0.186605 0.464289 0.8 0 0
0.678795 0.218769 0.403777 0.8 0 0
0.318395 0.118976 0.379596 0.8 0 0
0.323964 0.091829 0.539676 0.8 0 0
0.712878 0.174307 0.633968 0.8 0 0
0.400221 0.180268 0.618188 0.8 0 0
0.357309 0.201062 0.204483 0.8 0 0
0.653837 0.317043 0.521847 0.8 0 0
0.662277 0.062315 0.796143 0.8 0 0
0.654701 0.128468 0.485604 0.8 0 0
0.346890 0.075152 0.529360 0.8 0 0
0.642061 0.132326 0.423916 0.8 0 0
0.620418 0.119142 0.716543 0.8 0 0
0.553243 0.327314 0.458383 0.8 0 0
0.710514 0.222059 0.746651 0.8 0 0
0.701558 0.164789 0.432606 0.8 0 0
0.556026 0.248345 0.313986 0.8 0 0
0.178567 0.150823 0.348127 0.8 0 0
0.476063 0.072263 0.608704 0.8 0 0
0.233703 0.237502 0.396347 0.8 0 0
0.240791 0.178898 0.030127 0.8 0 0
0.145900 0.163155 0.133723 0.8 0 0
0.055796 0.139813 0.287512 0.8 0 0
0.452351 0.101877 0.375894 0.8 0 0
0.151628 0.149700 0.393348 0.8 0 0
0.448160 0.070530 0.609253 0.8 0 0
0.780092 0.091645 0.606150 0.8 0 0
0.255937 0.210362 0.465471 0.8 0 0
0.136418 0.210890 0.180396 0.8 0 0
0.451742 0.174699 0.194550 0.8 0 0
0.607275 0.271009 0.644086 0.8 0 0
0.486262 0.299867 0.602159 0.8 0 0
0.503661 0.132754 0.358915 0.8 0 0
0.364273 0.153333 0.129890 0.8 0 0
0.318458 0.185690 0.363078 0.8 0 0
0.810873 0.213128 0.792358 0.8 0 0
0.154838 0.150083 0.254660 0.8 0 0
0.652757 0.297920 0.438078 0.8 0 0
0.195829 0.092636 0.330642 0.8 0 0
0.437188 0.089336 0.463237 0.8 0 0
0.906377 0.216183 0.707427 0.8 0 0
0.546924 0.148510 0.641225 0.8 0 0
0.507430 0.202432 0.702927 0.8 0 0
0.150200 0.112707 0.398025 0.8 0 0
0.573370 0.281578 0.591466 0.8 0 0
0.233875 0.137831 0.434135 0.8 0 0
0.411757 0.290609 0.431145 0.8 0 0
0.490135 0.330430 0.389830 0.8 0 0
0.520405 0.130131 0.386075 0.8 0 0
0.702256 0.240514 0.669407 0.8 0 0
0.444541 0.163705 0.625544 0.8 0 0
0.699064 0.301507 0.512859 0.8 0 0
0.104510 0.105414 0.202598 0.8 0 0
0.430175 0.144451 0.238328 0.8 0 0
0.632330 0.134772 0.512398 0.8 0 0
0.221514 0.093221 0.449502 0.8 0 0
0.871487 0.138385 0.743621 0.8 0 0
0.545441 0.327858 0.471612 0.8 0 0
0.346878 0.088919 0.426050 0.8 0 0
0.342092 0.170154 0.180963 0.8 0 0
0.428975 0.077059 0.551697 0.8 0 0
0.435702 0.267970 0.626505 0.8 0 0
0.414051 0.272637 0.213261 0.8 0 0
0.807197 0.158198 0.554763 0.8 0 0
0.610684 0.122624 0.757999 0.8 0 0
0.548963 0.050548 0.736415 0.8 0 0
0.859122 0.233140 0.570568 0.8 0 0
0.876966 0.228296 0.583171 0.8 0 0
0.418047 0.325682 0.424754 0.8 0 0
0.709838 0.239269 0.662889 0.8 0 0
0.376179 0.262507 0.221187 0.8 0 0
0.497931 0.298949 0.613047 0.8 0 0
0.371001 0.151333 0.203745 0.8 0 0
0.227077 0.159136 0.218979 0.8 0 0
0.627961 0.075959 0.742097 0.8 0 0
0.891461 0.229902 0.701279 0.8 0 0
0.899752 0.182340 0.713109 0.8 0 0
0.419193 0.254095 0.319730 0.8 0 0
0.848466 0.177168 0.535137 0.8 0 0
0.687988 0.108549 0.445073 0.8 0 0
0.042229 0.158908 0.284590 0.8 0 0
0.139468 0.151183 0.239545 0.8 0 0
0.286020 0.216980 0.060923 0.8 0 0
0.701866 0.110441 0.683474 0.8 0 0
0.411097 0.315801 0.463075 0.8 0 0
0.414898 0.110655 0.485120 0.8 0 0
0.080796 0.111069 0.224126 0.8 0 0
0.574420 0.255631 0.586820 0.8 0 0
0.806134 0.087209 0.707354 0.8 0 0
0.628266 0.233026 0.673043 0.8 0 0
0.288257 0.179348 0.523807 0.8 0 0
0.598419 0.206525 0.556936 0.8 0 0
0.766023 0.201442 0.501723 0.8 0 0
0.555827 0.143168 0.623016 0.8 0 0
0.594783 0.155427 0.314632 0.8 0 0
0.426756 0.284035 0.589412 0.8 0 0
0.580183 0.128343 0.426173 0.8 0 0
0.363447 0.238461 0.298245 0.8 0 0
0.169189 0.140257 0.334729 0.8 0 0
0.433488 0.239512 0.632238 0.8 0 0
0.824971 0.223827 0.734988 0.8 0 0
0.099304 0.120149 0.226088 0.8 0 0
0.134710 0.092988 0.300715 0.8 0 0
0.256922 0.214399 0.431248 0.8 0 0
0.696811 0.183359 0.406256 0.8 0 0
0.594786 0.119571 0.561953 0.8 0 0
0.235635 0.143196 0.342334 0.8 0 0
0.676367 0.139662 0.460987 0.8 0 0
0.619589 0.178057 0.802224 0.8 0 0
0.324305 0.239690 0.541076 0.8 0 0
0.363261 0.195674 0.112676 0.8 0 0
0.790183 0.076809 0.461726 0.8 0 0
0.464970 0.298868 0.360511 0.8 0 0
0.314646 0.168633 0.287873 0.8 0 0
0.502796 0.094418 0.669149 0.8 0 0
0.707228 0.138998 0.424289 0.8 0 0
0.246787 0.250138 0.229104 0.8 0 0
0.640871 0.100689 0.468972 0.8 0 0
0.142789 0.153013 0.227215 0.8 0 0
0.582363 0.293237 0.600127 0.8 0 0
0.790692 0.148306 0.576710 0.8 0 0
0.316925 0.219078 0.169797 0.8 0 0
0.726966 0.173825 0.444908 0.8 0 0
0.438675 0.128024 0.365397 0.8 0 0
0.336117 0.138822 0.563785 0.8 0 0
0.359444 0.256521 0.309853 0.8 0 0
0.523935 0.191778 0.293447 0.8 0 0
0.765753 0.204118 0.841317 0.8 0 0
0.372038 0.178063 0.594576 0.8 0 0
0.179621 0.193422 0.409322 0.8 0 0
0.476653 0.172743 0.250703 0.8 0 0
0.329244 0.110692 0.514519 0.8 0 0
0.518399 0.104682 0.576150 0.8 0 0
0.740968 0.229150 0.708219 0.8 0 0
0.793711 0.116375 0.829929 0.8 0 0
0.810522 0.130466 0.556744 0.8 0 0
0.703556 0.275435 0.604963 0.8 0 0
0.452864 0.147568 0.631178 0.8 0 0
0.415648 0.209272 0.198154 0.8 0 0
0.420776 0.138915 0.151079 0.8 0 0
0.422958 0.199993 0.240676 0.8 0 0
0.423117 0.164571 0.607393 0.8 0 0
0.290106 0.130950 0.085218 0.8 0 0
0.442506 0.256503 0.230192 0.8 0 0
0.535449 0.322482 0.526143 0.8 0 0
0.267659 0.166238 0.507421 0.8 0 0
0.364304 0.191486 0.112491 0.8 0 0
0.417042 0.307915 0.528715 0.8 0 0
0.634194 0.318631 0.457711 0.8 0 0
0.437635 0.257687 0.240396 0.8 0 0
0.077641 0.116187 0.260095 0.8 0 0
0.135273 0.156496 0.318858 0.8 0 0
0.521032 0.241868 0.311646 0.8 0 0
0.612338 0.131253 0.418693 0.8 0 0
0.637556 0.162563 0.507984 0.8 0 0
0.063736 0.199552 0.284259 0.8 0 0
0.902195 0.192705 0.663863 0.8 0 0
0.709624 0.152867 0.881753 0.8 0 0
0.246520 0.186128 0.035269 0.8 0 0
0.091726 0.135637 0.334892 0.8 0 0
0.614585 0.268179 0.390473 0.8 0 0
0.498291 0.131114 0.234677 0.8 0 0
0.948535 0.132473 0.667762 0.8 0 0
0.243002 0.108273 0.368601 0.8 0 0
0.726553 0.149301 0.508863 0.8 0 0
0.502164 0.287735 0.577495 0.8 0 0
0.739526 0.083054 0.458403 0.8 0 0
0.346097 0.111976 0.114096 0.8 0 0
0.336233 0.292224 0.503833 0.8 0 0
0.419365 0.112162 0.283992 0.8 0 0
0.511400 0.176394 0.280528 0.8 0 0
0.395823 0.136884 0.222364 0.8 0 0
0.211231 0.158418 0.217213 0.8 0 0
0.205895 0.055672 0.354964 0.8 0 0
0.246645 0.104151 0.397963 0.8 0 0
0.239379 0.116502 0.170994 0.8 0 0
0.359187 0.110129 0.464192 0.8 0 0
0.722751 0.250485 0.584219 0.8 0 0
0.457785 0.195343 0.655276 0.8 0 0
0.400809 0.087527 0.460573 0.8 0 0
0.504959 0.307505 0.588728 0.8 0 0
0.219229 0.234613 0.404620 0.8 0 0
0.116142 0.130374 0.223126 0.8 0 0
0.550470 0.098794 0.606719 0.8 0 0
0.588069 0.223317 0.530575 0.8 0 0
0.743528 0.206112 0.831107 0.8 0 0
0.593393 0.181657 0.682157 0.8 0 0
0.552718 0.236427 0.611056 0.8 0 0
0.803324 0.107292 0.478259 0.8 0 0
0.437388 0.246688 0.207384 0.8 0 0
0.225781 0.146738 0.202557 0.8 0 0
0.710912 0.160320 0.414100 0.8 0 0
0.601440 0.198441 0.512985 0.8 0 0
0.740184 0.197784 0.477947 0.8 0 0
0.730385 0.117945 0.430915 0.8 0 0
0.492978 0.141586 0.677255 0.8 0 0
0.305994 0.266916 0.447208 0.8 0 0
0.198156 0.166764 0.148742 0.8 0 0
0.331635 0.100269 0.162670 0.8 0 0
0.600891 0.220913 0.639352 0.8 0 0
0.482258 0.262962 0.653196 0.8 0 0
0.225127 0.184777 0.438905 0.8 0 0
0.401045 0.259183 0.270852 0.8 0 0
0.470891 0.329390 0.438305 0.8 0 0
0.735468 0.128410 0.643149 0.8 0 0
0.406503 0.116265 0.439276 0.8 0 0
0.234831 0.229172 0.515228 0.8 0 0
0.408820 0.181003 0.166286 0.8 0 0
0.472352 0.210669 0.220111 0.8 0 0
0.645915 0.240864 0.404548 0.8 0 0
0.505273 0.073406 0.691859 0.8 0 0
0.254960 0.102789 0.411410 0.8 0 0
0.363083 0.267769 0.556101 0.8 0 0
0.311014 0.131644 0.289504 0.8 0 0
0.725530 0.216211 0.777567 0.8 0 0
0.556414 0.271053 0.678673 0.8 0 0
0.887609 0.104395 0.616571 0.8 0 0
0.478520 0.294670 0.611470 0.8 0 0
0.468420 0.077670 0.564720 0.8 0 0
0.251181 0.227333 0.366459 0.8 0 0
0.439559 0.135969 0.617932 0.8 0 0
0.192762 0.203438 0.433883 0.8 0 0
0.179779 0.081496 0.421631 0.8 0 0
0.605276 0.231000 0.345482 0.8 0 0
0.525462 0.254814 0.705258 0.8 0 0
0.529220 0.265781 0.313493 0.8 0 0
0.136101 0.134652 0.397944 0.8 0 0
0.498314 0.318936 0.531235 0.8 0 0
0.690951 0.301332 0.518755 0.8 0 0
0.161424 0.054100 0.406201 0.8 0 0
0.501594 0.113676 0.309334 0.8 0 0
0.466837 0.200369 0.246338 0.8 0 0
0.781297 0.085056 0.694580 0.8 0 0
0.711915 0.146799 0.886276 0.8 0 0
0.784835 0.198078 0.504174 0.8 0 0
0.317350 0.212443 0.382406 0.8 0 0
0.288472 0.098179 0.511611 0.8 0 0
0.365093 0.153981 0.110032 0.8 0 0
0.914970 0.187547 0.684859 0.8 0 0
0.485275 0.324212 0.430779 0.8 0 0
0.858778 0.101558 0.606182 0.8 0 0
0.209881 0.195019 0.413153 0.8 0 0
0.480962 0.259711 0.214294 0.8 0 0
0.671871 0.154979 0.467258 0.8 0 0
0.477054 0.320733 0.470870 0.8 0 0
0.503060 0.282674 0.658619 0.8 0 0
0.170533 0.149974 0.262486 0.8 0 0
0.417426 0.162569 0.602459 0.8 0 0
0.737749 0.276986 0.541713 0.8 0 0
0.352503 0.266731 0.221049 0.8 0 0
0.175833 0.085939 0.402351 0.8 0 0
0.170359 0.233740 0.308998 0.8 0 0
0.109348 0.138127 0.323994 0.8 0 0
0.732659 0.070756 0.801705 0.8 0 0
0.613662 0.134774 0.494549 0.8 0 0
0.401390 0.150746 0.263020 0.8 0 0
0.490794 0.314605 0.517066 0.8 0 0
0.733807 0.141869 0.874093 0.8 0 0
0.600914 0.110742 0.375694 0.8 0 0
0.468322 0.330723 0.421559 0.8 0 0
0.312410 0.264285 0.138602 0.8 0 0
0.787949 0.153972 0.555299 0.8 0 0
0.517703 0.108284 0.606105 0.8 0 0
0.845963 0.139930 0.773903 0.8 0 0
0.728039 0.156990 0.431604 0.8 0 0
0.707374 0.222287 0.430339 0.8 0 0
0.779968 0.080061 0.528331 0.8 0 0
0.348129 0.284975 0.527058 0.8 0 0
0.603662 0.126500 0.552566 0.8 0 0
0.208191 0.095119 0.317525 0.8 0 0
0.639142 0.298786 0.586405 0.8 0 0
0.438972 0.318371 0.501107 0.8 0 0
0.107857 0.116142 0.336757 0.8 0 0
0.135698 0.159646 0.174351 0.8 0 0
0.779395 0.177076 0.466126 0.8 0 0
0.357438 0.171922 0.195842 0.8 0 0
0.725759 0.304669 0.504122 0.8 0 0
0.527633 0.101415 0.640122 0.8 0 0
0.567577 0.287658 0.615364 0.8 0 0
0.197844 0.071417 0.437267 0.8 0 0
0.650376 0.129472 0.450895 0.8 0 0
0.602240 0.271322 0.687050 0.8 0 0
0.696827 0.160583 0.486567 0.8 0 0
0.440672 0.238994 0.205479 0.8 0 0
0.271051 0.167312 0.177259 0.8 0 0
0.726513 0.071433 0.782715 0.8 0 0
0.296862 0.162815 0.222525 0.8 0 0
0.839886 0.087150 0.763768 0.8 0 0
0.518270 0.224535 0.708390 0.8 0 0
0.876016 0.096204 0.704754 0.8 0 0
0.396249 0.073465 0.564053 0.8 0 0
0.294707 0.216460 0.432654 0.8 0 0
0.547681 0.302690 0.514553 0.8 0 0
0.457001 0.263818 0.198566 0.8 0 0
0.149296 0.161594 0.165809 0.8 0 0
0.285565 0.178656 0.098530 0.8 0 0
0.497757 0.319349 0.528693 0.8 0 0
0.745391 0.070939 0.510855 0.8 0 0
0.320307 0.168407 0.163429 0.8 0 0
0.365113 0.283421 0.493194 0.8 0 0
0.361656 0.223300 0.152935 0.8 0 0
0.387364 0.261613 0.284111 0.8 0 0
0.401209 0.102649 0.347275 0.8 0 0
0.841244 0.101016 0.788110 0.8 0 0
0.319223 0.089343 0.410521 0.8 0 0
0.684874 0.243942 0.427694 0.8 0 0
0.629726 0.268868 0.404301 0.8 0 0
0.298598 0.204558 0.521933 0.8 0 0
0.743266 0.278731 0.534016 0.8 0 0
0.187673 0.142972 0.247285 0.8 0 0
0.151784 0.159317 0.184003 0.8 0 0
0.669123 0.233048 0.635842 0.8 0 0
0.714281 0.207422 0.508862 0.8 0 0
0.265935 0.211489 0.461476 0.8 0 0
0.295550 0.248648 0.422129 0.8 0 0
0.158344 0.225336 0.219588 0.8 0 0
0.485616 0.199517 0.684922 0.8 0 0
0.643520 0.226901 0.650579 0.8 0 0
0.607449 0.036391 0.698547 0.8 0 0
0.519045 0.291787 0.647584 0.8 0 0
0.776322 0.168961 0.463598 0.8 0 0
0.646285 0.182874 0.668180 0.8 0 0
0.748178 0.121327 0.516856 0.8 0 0
0.696550 0.174822 0.460151 0.8 0 0
0.307519 0.194940 0.376569 0.8 0 0
0.221240 0.169175 0.141038 0.8 0 0
0.119008 0.159803 0.165727 0.8 0 0
0.560204 0.147103 0.598280 0.8 0 0
0.164677 0.160925 0.338080 0.8 0 0
0.304894 0.167599 0.190134 0.8 0 0
0.450603 0.320114 0.334199 0.8 0 0
0.596023 0.230960 0.561545 0.8 0 0
0.567150 0.289951 0.556510 0.8 0 0
0.503977 0.103338 0.387975 0.8 0 0
0.474273 0.279314 0.645842 0.8 0 0
0.570596 0.202395 0.755655 0.8 0 0
0.535822 0.321798 0.419697 0.8 0 0
0.684987 0.130035 0.450208 0.8 0 0
0.542273 0.099950 0.623208 0.8 0 0
0.477931 0.072676 0.606441 0.8 0 0
0.521329 0.103396 0.722460 0.8 0 0
0.589742 0.298562 0.581441 0.8 0 0
0.188500 0.150842 0.353218 0.8 0 0
0.541468 0.113346 0.741625 0.8 0 0
0.056462 0.145051 0.248502 0.8 0 0
0.153818 0.083115 0.382956 0.8 0 0
0.321833 0.104154 0.300544 0.8 0 0
0.270076 0.250678 0.298726 0.8 0 0
0.428780 0.296062 0.555013 0.8 0 0
0.327334 0.190451 0.178317 0.8 0 0
0.162478 0.047705 0.389318 0.8 0 0
0.104038 0.085735 0.342360 0.8 0 0
0.807711 0.250359 0.593738 0.8 0 0
0.554811 0.179359 0.566802 0.8 0 0
0.456080 0.099027 0.398946 0.8 0 0
0.361254 0.105693 0.306593 0.8 0 0
0.862736 0.128642 0.742673 0.8 0 0
0.696535 0.247848 0.635547 0.8 0 0
0.663361 0.065785 0.752418 0.8 0 0
0.245964 0.113645 0.401956 0.8 0 0
0.667851 0.239128 0.487824 0.8 0 0
0.794210 0.136635 0.575448 0.8 0 0
0.263231 0.158592 0.239122 0.8 0 0
0.614939 0.228826 0.513663 0.8 0 0
0.718930 0.242783 0.640307 0.8 0 0
0.113942 0.097432 0.331410 0.8 0 0
0.348528 0.208394 0.250401 0.8 0 0
0.254162 0.173207 0.464200 0.8 0 0
0.716332 0.294659 0.556482 0.8 0 0
0.377622 0.093865 0.138831 0.8 0 0
0.694626 0.112969 0.471480 0.8 0 0
0.635429 0.303179 0.433388 0.8 0 0
0.327861 0.105308 0.294571 0.8 0 0
0.650993 0.214963 0.785674 0.8 0 0
0.131972 0.222755 0.285835 0.8 0 0
0.657703 0.296209 0.552890 0.8 0 0
0.218246 0.160067 0.207970 0.8 0 0
0.755927 0.206754 0.827442 0.8 0 0
0.596271 0.251328 0.560667 0.8 0 0
0.397491 0.320361 0.467177 0.8 0 0
0.278014 0.129140 0.512186 0.8 0 0
0.686149 0.161752 0.463742 0.8 0 0
0.381482 0.139760 0.568900 0.8 0 0
0.691977 0.256958 0.448175 0.8 0 0
0.058738 0.150867 0.260703 0.8 0 0
0.743313 0.199945 0.502548 0.8 0 0
0.151453 0.229318 0.290425 0.8 0 0
0.588784 0.221942 0.738593 0.8 0 0
0.497844 0.209156 0.241665 0.8 0 0
0.702630 0.265835 0.623751 0.8 0 0
0.840641 0.144760 0.780487 0.8 0 0
0.554250 0.246027 0.324886 0.8 0 0
0.625838 0.094898 0.505721 0.8 0 0
0.670421 0.232749 0.617931 0.8 0 0
0.466295 0.144081 0.257228 0.8 0 0
0.173498 0.098883 0.273795 0.8 0 0
0.711609 0.159751 0.454099 0.8 0 0
0.212954 0.148882 0.289621 0.8 0 0
0.604141 0.112787 0.361789 0.8 0 0
0.269547 0.144989 0.339274 0.8 0 0
0.529724 0.115226 0.632234 0.8 0 0
0.278069 0.167204 0.409569 0.8 0 0
0.244810 0.228558 0.374054 0.8 0 0
0.890724 0.243050 0.631129 0.8 0 0
0.440280 0.205474 0.635872 0.8 0 0
0.345951 0.195831 0.195104 0.8 0 0
0.238443 0.159951 0.217934 0.8 0 0
0.175698 0.159736 0.191458 0.8 0 0
0.380988 0.244551 0.587202 0.8 0 0
0.259384 0.252851 0.212647 0.8 0 0
0.395716 0.301472 0.488468 0.8 0 0
0.101247 0.179087 0.190093 0.8 0 0
0.144912 0.123470 0.382757 0.8 0 0
0.634272 0.234628 0.733070 0.8 0 0
0.400298 0.320574 0.467594 0.8 0 0
0.495471 0.298331 0.613501 0.8 0 0
0.616675 0.190534 0.494511 0.8 0 0
0.717243 0.083547 0.489977 0.8 0 0
0.579309 0.245198 0.342290 0.8 0 0
0.767417 0.227040 0.718964 0.8 0 0
0.399907 0.165416 0.619018 0.8 0 0
0.422705 0.192372 0.206399 0.8 0 0
0.538524 0.180975 0.304070 0.8 0 0
0.666698 0.137008 0.410089 0.8 0 0
0.414076 0.143653 0.247604 0.8 0 0
0.383964 0.256447 0.211619 0.8 0 0
0.458998 0.085727 0.500053 0.8 0 0
0.405559 0.084230 0.487430 0.8 0 0
0.340146 0.119634 0.175559 0.8 0 0
0.648790 0.295648 0.601250 0.8 0 0
0.620854 0.182793 0.802268 0.8 0 0
0.159193 0.225091 0.213678 0.8 0 0
0.794367 0.112905 0.470502 0.8 0 0
0.545644 0.170434 0.698550 0.8 0 0
0.483838 0.219966 0.267783 0.8 0 0
0.667652 0.060817 0.824677 0.8 0 0
0.818369 0.162877 0.540765 0.8 0 0
0.426301 0.271557 0.213842 0.8 0 0
0.718505 0.117289 0.498605 0.8 0 0
0.583644 0.121488 0.779118 0.8 0 0
0.464649 0.089357 0.475334 0.8 0 0
0.488024 0.317553 0.532947 0.8 0 0
0.471124 0.323180 0.326379 0.8 0 0
0.632107 0.308671 0.421338 0.8 0 0
0.147245 0.113967 0.403686 0.8 0 0
0.271644 0.255357 0.239766 0.8 0 0
0.145012 0.214127 0.174804 0.8 0 0
0.355685 0.234099 0.335604 0.8 0 0
0.361420 0.275578 0.548682 0.8 0 0
0.542749 0.076619 0.605793 0.8 0 0
0.745074 0.083791 0.651295 0.8 0 0
0.504390 0.080322 0.659926 0.8 0 0
0.265155 0.198499 0.348151 0.8 0 0
0.250026 0.113773 0.402635 0.8 0 0
0.387297 0.294206 0.533747 0.8 0 0
0.404282 0.108484 0.184883 0.8 0 0
0.773786 0.167678 0.859220 0.8 0 0
0.391689 0.265353 0.300788 0.8 0 0
0.542847 0.324131 0.516488 0.8 0 0
0.324275 0.186931 0.118848 0.8 0 0
0.469832 0.284523 0.231997 0.8 0 0
0.544237 0.111123 0.539348 0.8 0 0
0.716946 0.297092 0.550726 0.8 0 0
0.782825 0.082706 0.727905 0.8 0 0
0.633354 0.288894 0.585988 0.8 0 0
0.763487 0.080887 0.719819 0.8 0 0
0.571773 0.325875 0.446361 0.8 0 0
0.314749 0.100426 0.325353 0.8 0 0
0.644959 0.108033 0.496052 0.8 0 0
0.847628 0.101988 0.582112 0.8 0 0
0.563838 0.313133 0.397296 0.8 0 0
0.561599 0.236627 0.739845 0.8 0 0
0.799334 0.175709 0.831178 0.8 0 0
0.871264 0.097490 0.680067 0.8 0 0
0.379046 0.240172 0.292369 0.8 0 0
0.211759 0.231449 0.112159 0.8 0 0
0.572671 0.163819 0.765317 0.8 0 0
0.520343 0.191652 0.648364 0.8 0 0
0.468704 0.143027 0.266215 0.8 0 0
0.520801 0.074314 0.640424 0.8 0 0
0.622324 0.308515 0.422279 0.8 0 0
0.628634 0.270787 0.669554 0.8 0 0
0.657514 0.317644 0.479746 0.8 0 0
0.405267 0.184179 0.590903 0.8 0 0
0.265524 0.173267 0.505092 0.8 0 0
0.259601 0.082758 0.433313 0.8 0 0
0.933075 0.188075 0.611363 0.8 0 0
0.408064 0.112303 0.277892 0.8 0 0
0.531383 0.153731 0.728187 0.8 0 0
0.383020 0.127725 0.117004 0.8 0 0
0.827489 0.232557 0.688354 0.8 0 0
0.760387 0.267563 0.529653 0.8 0 0
0.490929 0.296416 0.298852 0.8 0 0
0.582555 0.315951 0.388797 0.8 0 0
0.362400 0.226478 0.576071 0.8 0 0
0.417727 0.268181 0.248378 0.8 0 0
0.338491 0.083188 0.465307 0.8 0 0
0.595144 0.247168 0.741177 0.8 0 0
0.784163 0.090154 0.541748 0.8 0 0
0.898780 0.173665 0.577628 0.8 0 0
0.611037 0.243754 0.358519 0.8 0 0
0.780401 0.198540 0.851777 0.8 0 0
0.520929 0.155095 0.645126 0.8 0 0
0.620024 0.087171 0.778548 0.8 0 0
0.321619 0.169151 0.521362 0.8 0 0
0.238373 0.184596 0.051478 0.8 0 0
0.634939 0.175943 0.551458 0.8 0 0
0.351080 0.089305 0.163316 0.8 0 0
0.351968 0.164340 0.121369 0.8 0 0
0.390451 0.094600 0.145973 0.8 0 0
0.460613 0.110974 0.503133 0.8 0 0
0.378121 0.259347 0.218696 0.8 0 0
0.845049 0.227426 0.715392 0.8 0 0
0.534273 0.112236 0.626920 0.8 0 0
0.331398 0.277146 0.527764 0.8 0 0
0.402611 0.129753 0.336317 0.8 0 0
0.136794 0.156308 0.347681 0.8 0 0
0.132529 0.211936 0.387738 0.8 0 0
0.473924 0.138381 0.303409 0.8 0 0
0.379636 0.123230 0.375013 0.8 0 0
0.714925 0.104597 0.455147 0.8 0 0
0.581129 0.088911 0.530684 0.8 0 0
0.736182 0.107828 0.900940 0.8 0 0
0.510553 0.113072 0.509684 0.8 0 0
0.403905 0.113743 0.194566 0.8 0 0
0.595109 0.210190 0.521197 0.8 0 0
0.536358 0.090257 0.622832 0.8 0 0
0.778815 0.147604 0.484243 0.8 0 0
0.431672 0.302434 0.557083 0.8 0 0
0.662299 0.155289 0.438455 0.8 0 0
0.394865 0.230959 0.591793 0.8 0 0
0.261419 0.215920 0.423144 0.8 0 0
0.267406 0.254636 0.183793 0.8 0 0
0.858564 0.164627 0.760592 0.8 0 0
0.647888 0.060830 0.791836 0.8 0 0
0.534313 0.249302 0.307024 0.8 0 0
0.607669 0.088339 0.771007 0.8 0 0
0.639636 0.125830 0.503213 0.8 0 0
0.700523 0.088022 0.865830 0.8 0 0
0.215229 0.224688 0.080665 0.8 0 0
0.465705 0.168633 0.674286 0.8 0 0
0.597384 0.066924 0.776206 0.8 0 0
0.491480 0.127516 0.392784 0.8 0 0
0.904233 0.115167 0.577998 0.8 0 0
0.247058 0.247379 0.307268 0.8 0 0
0.181455 0.159640 0.194748 0.8 0 0
0.491405 0.095187 0.635351 0.8 0 0
0.186833 0.093371 0.321110 0.8 0 0
0.705551 0.100206 0.677907 0.8 0 0
0.404216 0.128624 0.345511 0.8 0 0
0.197700 0.233009 0.164644 0.8 0 0
0.380085 0.119440 0.403652 0.8 0 0
0.679972 0.157282 0.387161 0.8 0 0
0.095680 0.093818 0.277063 0.8 0 0
0.510323 0.321780 0.521029 0.8 0 0
0.250173 0.202040 0.366054 0.8 0 0
0.594962 0.224124 0.559036 0.8 0 0
0.390706 0.195402 0.577031 0.8 0 0
0.353154 0.276634 0.554252 0.8 0 0
0.355292 0.246484 0.134876 0.8 0 0
0.190688 0.221891 0.115133 0.8 0 0
0.713932 0.270423 0.481625 0.8 0 0
0.245095 0.207081 0.482853 0.8 0 0
0.363348 0.124587 0.357555 0.8 0 0
0.244081 0.097541 0.315377 0.8 0 0
0.233723 0.231156 0.483454 0.8 0 0
0.465220 0.120041 0.437154 0.8 0 0
0.670313 0.243064 0.616494 0.8 0 0
0.413096 0.107325 0.141985 0.8 0 0
0.359413 0.222257 0.165675 0.8 0 0
0.473455 0.208644 0.662795 0.8 0 0
0.318771 0.243774 0.372103 0.8 0 0
0.532398 0.136663 0.649016 0.8 0 0
0.339337 0.214656 0.261640 0.8 0 0
0.494373 0.110399 0.522520 0.8 0 0
0.104602 0.098410 0.246583 0.8 0 0
0.443214 0.321895 0.443119 0.8 0 0
0.115354 0.090667 0.357904 0.8 0 0
0.375198 0.142765 0.564306 0.8 0 0
0.166135 0.102227 0.328583 0.8 0 0
0.451059 0.198997 0.631731 0.8 0 0
0.809803 0.116496 0.810191 0.8 0 0
0.199087 0.107282 0.222192 0.8 0 0
0.853144 0.196447 0.768994 0.8 0 0
0.548828 0.130902 0.392974 0.8 0 0
0.554566 0.126605 0.427781 0.8 0 0
0.485479 0.320109 0.480095 0.8 0 0
0.273658 0.231224 0.340183 0.8 0 0
0.189101 0.160681 0.190431 0.8 0 0
0.942061 0.183583 0.636291 0.8 0 0
0.748175 0.200036 0.472057 0.8 0 0
0.446482 0.294423 0.589149 0.8 0 0
0.641599 0.276477 0.419850 0.8 0 0
0.872769 0.100618 0.641575 0.8 0 0
0.335140 0.260235 0.545137 0.8 0 0
0.358149 0.228724 0.571980 0.8 0 0
0.410888 0.123944 0.196662 0.8 0 0
0.545480 0.214471 0.620143 0.8 0 0
0.433809 0.296176 0.557973 0.8 0 0
0.681723 0.200200 0.544265 0.8 0 0
0.654715 0.287746 0.495872 0.8 0 0
0.688708 0.130496 0.693917 0.8 0 0
0.165636 0.225460 0.194487 0.8 0 0
0.410323 0.319314 0.446650 0.8 0 0
0.584403 0.293783 0.622672 0.8 0 0
0.216472 0.175193 0.432257 0.8 0 0
0.283495 0.248165 0.338570 0.8 0 0
0.404413 0.242140 0.290217 0.8 0 0
0.337023 0.275557 0.416033 0.8 0 0
0.678282 0.252008 0.465812 0.8 0 0
0.572193 0.252077 0.710713 0.8 0 0
0.954728 0.180606 0.631423 0.8 0 0
0.891410 0.142941 0.720417 0.8 0 0
0.937137 0.108305 0.647014 0.8 0 0
0.334896 0.275671 0.534010 0.8 0 0
0.525835 0.071606 0.635861 0.8 0 0
0.491351 0.329610 0.365903 0.8 0 0
0.277052 0.257344 0.473171 0.8 0 0
0.535794 0.262498 0.693380 0.8 0 0
0.674836 0.176332 0.465105 0.8 0 0
0.541611 0.167264 0.621731 0.8 0 0
0.437657 0.327730 0.443120 0.8 0 0
0.374640 0.255552 0.579238 0.8 0 0
0.358211 0.259204 0.289146 0.8 0 0
0.075875 0.183206 0.226561 0.8 0 0
0.525129 0.118736 0.731958 0.8 0 0
0.721911 0.158993 0.509802 0.8 0 0
0.432649 0.212430 0.230026 0.8 0 0
0.420373 0.276203 0.278511 0.8 0 0
0.716695 0.282520 0.478690 0.8 0 0
0.428728 0.118874 0.237801 0.8 0 0
0.109544 0.208102 0.223137 0.8 0 0
0.220561 0.200301 0.400884 0.8 0 0
0.390372 0.101471 0.122077 0.8 0 0
0.866982 0.182109 0.751760 0.8 0 0
0.867438 0.231488 0.693283 0.8 0 0
0.508991 0.102388 0.397349 0.8 0 0
0.629350 0.116121 0.348025 0.8 0 0
0.605181 0.289153 0.604599 0.8 0 0
0.519403 0.244760 0.651062 0.8 0 0
0.757975 0.181555 0.880347 0.8 0 0
0.562408 0.126862 0.594644 0.8 0 0
0.339485 0.237996 0.415483 0.8 0 0
0.685883 0.288648 0.457704 0.8 0 0
0.646658 0.188639 0.648569 0.8 0 0
0.675206 0.296496 0.456071 0.8 0 0
0.292501 0.147292 0.121736 0.8 0 0
0.386101 0.257938 0.209192 0.8 0 0
0.181017 0.151504 0.350353 0.8 0 0
0.159775 0.164246 0.334488 0.8 0 0
0.235360 0.142641 0.346379 0.8 0 0
0.077563 0.089725 0.299683 0.8 0 0
0.491228 0.288575 0.282519 0.8 0 0
0.593027 0.291508 0.614216 0.8 0 0
0.952191 0.111608 0.628575 0.8 0 0
0.572339 0.111705 0.676869 0.8 0 0
0.279416 0.206893 0.433674 0.8 0 0
0.357074 0.280163 0.540562 0.8 0 0
0.440263 0.141284 0.266600 0.8 0 0
0.620677 0.223075 0.656424 0.8 0 0
0.399995 0.127111 0.354980 0.8 0 0
0.235049 0.172164 0.031897 0.8 0 0
0.698907 0.180930 0.635713 0.8 0 0
0.488652 0.327242 0.467944 0.8 0 0
0.725233 0.291844 0.556287 0.8 0 0
0.377402 0.294193 0.527209 0.8 0 0
0.554718 0.325242 0.411026 0.8 0 0
0.600465 0.183809 0.654322 0.8 0 0
0.607983 0.131388 0.795500 0.8 0 0
0.539122 0.204626 0.728847 0.8 0 0
0.222769 0.098922 0.376529 0.8 0 0
0.635504 0.298482 0.593788 0.8 0 0
0.617890 0.159880 0.736403 0.8 0 0
0.345791 0.256927 0.455511 0.8 0 0
0.530487 0.278909 0.323358 0.8 0 0
0.204911 0.236893 0.183066 0.8 0 0
0.395307 0.187181 0.612754 0.8 0 0
0.416840 0.168136 0.245886 0.8 0 0
0.355526 0.285796 0.516343 0.8 0 0
0.225177 0.196306 0.041631 0.8 0 0
0.672630 0.207080 0.429530 0.8 0 0
0.258724 0.119730 0.155402 0.8 0 0
0.354708 0.236465 0.131556 0.8 0 0
0.119093 0.125281 0.214054 0.8 0 0
0.496202 0.123547 0.686928 0.8 0 0
0.267435 0.097142 0.328799 0.8 0 0
0.670193 0.250965 0.675735 0.8 0 0
0.774124 0.090921 0.540220 0.8 0 0
0.751822 0.264925 0.506796 0.8 0 0
0.652044 0.300470 0.439557 0.8 0 0
0.821521 0.241192 0.642392 0.8 0 0
0.225996 0.155324 0.434223 0.8 0 0
0.640761 0.231328 0.557401 0.8 0 0
0.103050 0.148150 0.246044 0.8 0 0
0.569332 0.295145 0.597085 0.8 0 0
0.581650 0.275486 0.568539 0.8 0 0
0.419048 0.184346 0.158125 0.8 0 0
0.718021 0.183751 0.615610 0.8 0 0
0.512795 0.124585 0.691783 0.8 0 0
0.262522 0.099601 0.308150 0.8 0 0
0.343529 0.259419 0.280946 0.8 0 0
0.276249 0.230641 0.429117 0.8 0 0
0.325407 0.284841 0.514368 0.8 0 0
0.824195 0.118845 0.513660 0.8 0 0
0.509288 0.139677 0.657890 0.8 0 0
0.653059 0.128632 0.833638 0.8 0 0
0.157830 0.141805 0.173685 0.8 0 0
0.337725 0.268221 0.534985 0.8 0 0
0.441972 0.224743 0.233092 0.8 0 0
0.509374 0.134188 0.350703 0.8 0 0
0.385257 0.130344 0.324137 0.8 0 0
0.640913 0.229826 0.586697 0.8 0 0
0.469082 0.331597 0.411062 0.8 0 0
0.740968 0.276155 0.518183 0.8 0 0
0.750302 0.249072 0.616536 0.8 0 0
0.863943 0.243735 0.581851 0.8 0 0
0.366250 0.233484 0.338137 0.8 0 0
0.665638 0.234105 0.687612 0.8 0 0
0.690573 0.270665 0.452485 0.8 0 0
0.182050 0.105917 0.342908 0.8 0 0
0.440487 0.329585 0.429938 0.8 0 0
0.443694 0.178678 0.623721 0.8 0 0
0.556736 0.068187 0.746329 0.8 0 0
0.334085 0.096649 0.550499 0.8 0 0
0.810803 0.095457 0.824252 0.8 0 0
0.199913 0.182570 0.372278 0.8 0 0
0.765982 0.090102 0.604272 0.8 0 0
0.767182 0.221055 0.750903 0.8 0 0
0.520647 0.091257 0.719639 0.8 0 0
0.373425 0.114236 0.247920 0.8 0 0
0.755747 0.255873 0.525181 0.8 0 0
0.739171 0.130804 0.506147 0.8 0 0
0.182085 0.232115 0.397489 0.8 0 0
0.280820 0.244176 0.367341 0.8 0 0
0.444624 0.254115 0.637991 0.8 0 0
0.603464 0.097470 0.703784 0.8 0 0
0.185635 0.099629 0.344823 0.8 0 0
0.232744 0.103927 0.380110 0.8 0 0
0.785447 0.152888 0.846125 0.8 0 0
0.791726 0.102510 0.544896 0.8 0 0
0.668662 0.133981 0.423368 0.8 0 0
0.605129 0.224679 0.760955 0.8 0 0
0.635701 0.177614 0.511122 0.8 0 0
0.403103 0.181285 0.168332 0.8 0 0
0.576001 0.219651 0.729323 0.8 0 0
0.746139 0.147741 0.894821 0.8 0 0
0.907117 0.131877 0.712494 0.8 0 0
0.561076 0.316998 0.381273 0.8 0 0
0.582712 0.034102 0.746748 0.8 0 0
0.780847 0.189653 0.469692 0.8 0 0
0.352934 0.283965 0.515930 0.8 0 0
0.042009 0.150678 0.313748 0.8 0 0
0.425658 0.098717 0.387697 0.8 0 0
0.625257 0.263307 0.385056 0.8 0 0
0.366570 0.223512 0.160474 0.8 0 0
0.814776 0.178141 0.534408 0.8 0 0
0.534848 0.202709 0.271576 0.8 0 0
0.231581 0.096906 0.314557 0.8 0 0
0.333419 0.285287 0.529227 0.8 0 0
0.038525 0.099626 0.273726 0.8 0 0
0.885300 0.133671 0.715007 0.8 0 0
0.401870 0.254510 0.282397 0.8 0 0
0.179388 0.198629 0.384188 0.8 0 0
0.638253 0.297329 0.604879 0.8 0 0
0.456538 0.239751 0.219927 0.8 0 0
0.772820 0.242939 0.634015 0.8 0 0
0.279084 0.080653 0.457805 0.8 0 0
0.417335 0.231500 0.181613 0.8 0 0
0.619201 0.117061 0.802478 0.8 0 0
0.368154 0.270856 0.194347 0.8 0 0
0.313620 0.224446 0.385396 0.8 0 0
0.318079 0.145300 0.515756 0.8 0 0
0.570617 0.055702 0.744339 0.8 0 0
0.636690 0.134859 0.402510 0.8 0 0
0.197902 0.183096 0.426535 0.8 0 0
0.327047 0.267267 0.174254 0.8 0 0
0.384749 0.310305 0.423925 0.8 0 0
0.506476 0.258334 0.668932 0.8 0 0
0.271828 0.181229 0.073087 0.8 0 0
0.689878 0.183284 0.447554 0.8 0 0
0.361137 0.224043 0.208618 0.8 0 0
0.295729 0.229076 0.519802 0.8 0 0
0.425746 0.236491 0.258000 0.8 0 0
0.560948 0.212103 0.690278 0.8 0 0
0.160100 0.056701 0.406269 0.8 0 0
0.239496 0.215849 0.427157 0.8 0 0
0.640676 0.261076 0.510755 0.8 0 0
0.306865 0.106795 0.465856 0.8 0 0
0.721038 0.152870 0.647686 0.8 0 0
0.362488 0.269933 0.197683 0.8 0 0
0.519974 0.089697 0.642371 0.8 0 0
0.662344 0.213310 0.794273 0.8 0 0
0.543214 0.234465 0.292976 0.8 0 0
0.468283 0.184743 0.244425 0.8 0 0
0.686003 0.314307 0.507276 0.8 0 0
0.042433 0.132760 0.253457 0.8 0 0
0.382963 0.293022 0.487930 0.8 0 0
0.381665 0.192098 0.288902 0.8 0 0
0.532710 0.284785 0.639644 0.8 0 0
0.331324 0.148277 0.169165 0.8 0 0
0.324481 0.292649 0.499005 0.8 0 0
0.505325 0.087492 0.507488 0.8 0 0
0.443826 0.122426 0.409703 0.8 0 0
0.140569 0.223076 0.258258 0.8 0 0
0.319038 0.200350 0.170760 0.8 0 0
0.187928 0.180737 0.360622 0.8 0 0
0.142064 0.076391 0.395918 0.8 0 0
0.887728 0.134669 0.708808 0.8 0 0
0.390956 0.257307 0.377677 0.8 0 0
0.439052 0.285615 0.593917 0.8 0 0
0.790084 0.081934 0.749982 0.8 0 0
0.571039 0.157819 0.546295 0.8 0 0
0.705369 0.243125 0.522168 0.8 0 0
0.270215 0.255265 0.172265 0.8 0 0
0.536411 0.208025 0.695938 0.8 0 0
0.307163 0.090465 0.396717 0.8 0 0
0.460692 0.269557 0.254905 0.8 0 0
0.872793 0.131418 0.726715 0.8 0 0
0.869956 0.117452 0.548997 0.8 0 0
0.809681 0.171129 0.544795 0.8 0 0
0.624115 0.171953 0.709255 0.8 0 0
0.150351 0.103091 0.315209 0.8 0 0
0.670280 0.223108 0.741833 0.8 0 0
0.253253 0.172622 0.129465 0.8 0 0
0.834105 0.085621 0.774263 0.8 0 0
0.533584 0.108542 0.362148 0.8 0 0
0.733227 0.140340 0.877122 0.8 0 0
0.313810 0.166004 0.206081 0.8 0 0
0.376552 0.112236 0.264321 0.8 0 0
0.522294 0.240825 0.647352 0.8 0 0
0.288606 0.200817 0.490510 0.8 0 0
0.394863 0.273159 0.188091 0.8 0 0
0.925132 0.223985 0.622900 0.8 0 0
0.642790 0.195142 0.463987 0.8 0 0
0.327559 0.184878 0.273660 0.8 0 0
0.719588 0.269362 0.571292 0.8 0 0
0.325636 0.260838 0.117847 0.8 0 0
0.094767 0.149095 0.235259 0.8 0 0
0.662814 0.207565 0.481018 0.8 0 0
0.596532 0.090719 0.523996 0.8 0 0
0.300968 0.253007 0.309332 0.8 0 0
0.708259 0.125491 0.422221 0.8 0 0
0.912324 0.201719 0.599014 0.8 0 0
0.496203 0.284430 0.649380 0.8 0 0
0.561260 0.260860 0.338512 0.8 0 0
0.661254 0.124185 0.477843 0.8 0 0
0.630577 0.158471 0.345216 0.8 0 0
0.315300 0.206224 0.516891 0.8 0 0
0.718038 0.117604 0.498354 0.8 0 0
0.197740 0.137513 0.362182 0.8 0 0
0.882430 0.128323 0.738914 0.8 0 0
0.089399 0.133850 0.347189 0.8 0 0
0.841166 0.200714 0.783396 0.8 0 0
0.112210 0.214908 0.267495 0.8 0 0
0.281898 0.143014 0.483958 0.8 0 0
0.357622 0.214974 0.202605 0.8 0 0
0.333080 0.105110 0.490199 0.8 0 0
0.144627 0.104577 0.218177 0.8 0 0
0.753409 0.168183 0.441999 0.8 0 0
0.262741 0.154306 0.271147 0.8 0 0
0.390948 0.132048 0.313887 0.8 0 0
0.217935 0.180702 0.464398 0.8 0 0
0.640626 0.225680 0.671924 0.8 0 0
0.696811 0.264961 0.596743 0.8 0 0
0.476978 0.265268 0.196358 0.8 0 0
0.579679 0.178553 0.699890 0.8 0 0
0.577767 0.050023 0.668981 0.8 0 0
0.573302 0.117210 0.506646 0.8 0 0
0.647715 0.294783 0.562913 0.8 0 0
0.613490 0.141995 0.737611 0.8 0 0
0.697580 0.253034 0.455629 0.8 0 0
0.323321 0.260442 0.115540 0.8 0 0
0.584279 0.131559 0.403870 0.8 0 0
0.524431 0.194391 0.719065 0.8 0 0
0.539276 0.055623 0.718314 0.8 0 0
0.513720 0.248792 0.286036 0.8 0 0
0.753847 0.219109 0.761548 0.8 0 0
0.427785 0.184521 0.209791 0.8 0 0
0.682263 0.236444 0.582050 0.8 0 0
0.099194 0.141513 0.294054 0.8 0 0
0.065839 0.187085 0.245339 0.8 0 0
0.264239 0.246276 0.340494 0.8 0 0
0.380087 0.236330 0.176167 0.8 0 0
0.657947 0.219175 0.763062 0.8 0 0
0.704433 0.202160 0.500329 0.8 0 0
0.343707 0.082085 0.475914 0.8 0 0
0.202464 0.108718 0.227672 0.8 0 0
0.407799 0.089229 0.450917 0.8 0 0
0.390413 0.223916 0.201647 0.8 0 0
0.686286 0.223722 0.454583 0.8 0 0
0.492982 0.322082 0.511276 0.8 0 0
0.476523 0.331190 0.380197 0.8 0 0
0.218930 0.212279 0.516744 0.8 0 0
0.337900 0.250213 0.549871 0.8 0 0
0.613593 0.224233 0.613204 0.8 0 0
0.196125 0.239311 0.268385 0.8 0 0
0.454745 0.305656 0.539574 0.8 0 0
0.542459 0.273996 0.627460 0.8 0 0
0.371035 0.291206 0.503861 0.8 0 0
0.682742 0.193478 0.456858 0.8 0 0
0.604557 0.275648 0.552670 0.8 0 0
0.165056 0.125246 0.420037 0.8 0 0
0.746609 0.182044 0.534657 0.8 0 0
0.886667 0.154826 0.726813 0.8 0 0
0.523861 0.303363 0.542702 0.8 0 0
0.383794 0.238999 0.303287 0.8 0 0
0.262601 0.161394 0.160036 0.8 0 0
0.139005 0.158350 0.408111 0.8 0 0
0.455732 0.289392 0.608179 0.8 0 0
0.145839 0.109822 0.179357 0.8 0 0
0.588298 0.221995 0.581298 0.8 0 0
0.177712 0.196612 0.395596 0.8 0 0
0.326070 0.105797 0.510895 0.8 0 0
0.326692 0.225230 0.099273 0.8 0 0
0.152262 0.150348 0.414692 0.8 0 0
0.480907 0.118922 0.260732 0.8 0 0
0.777726 0.135908 0.481155 0.8 0 0
0.616063 0.297395 0.542088 0.8 0 0
0.381010 0.295018 0.388270 0.8 0 0
0.108867 0.092772 0.337105 0.8 0 0
0.422249 0.264722 0.248471 0.8 0 0
0.049077 0.191192 0.279607 0.8 0 0
0.191295 0.235434 0.371870 0.8 0 0
0.519116 0.041389 0.706169 0.8 0 0
0.508129 0.134680 0.346454 0.8 0 0
0.296382 0.183022 0.070672 0.8 0 0
0.849373 0.244295 0.625291 0.8 0 0
0.493271 0.076167 0.587095 0.8 0 0
0.294942 0.155489 0.139301 0.8 0 0
0.525811 0.118869 0.732527 0.8 0 0
0.626153 0.158914 0.521209 0.8 0 0
0.344844 0.200607 0.104494 0.8 0 0
0.307676 0.253527 0.309133 0.8 0 0
0.268396 0.254689 0.233909 0.8 0 0
0.303544 0.187258 0.147393 0.8 0 0
0.749754 0.168847 0.460232 0.8 0 0
0.762745 0.217504 0.490734 0.8 0 0
0.349867 0.163234 0.181010 0.8 0 0
0.271086 0.252492 0.483461 0.8 0 0
0.535367 0.292176 0.336493 0.8 0 0
0.622509 0.166017 0.525957 0.8 0 0
0.627061 0.059619 0.729070 0.8 0 0
0.413873 0.244880 0.272587 0.8 0 0
0.684600 0.201313 0.575187 0.8 0 0
0.640105 0.060721 0.780404 0.8 0 0
0.387327 0.113990 0.118491 0.8 0 0
0.312300 0.249758 0.339525 0.8 0 0
0.950641 0.222473 0.655595 0.8 0 0
0.484715 0.301181 0.297084 0.8 0 0
0.275539 0.248004 0.488260 0.8 0 0
0.098162 0.200978 0.220455 0.8 0 0
0.560281 0.197593 0.748208 0.8 0 0
0.556656 0.266117 0.702571 0.8 0 0
0.564640 0.135072 0.368743 0.8 0 0
0.639989 0.164520 0.389218 0.8 0 0
0.655064 0.143158 0.721111 0.8 0 0
0.664213 0.182049 0.437883 0.8 0 0
0.170110 0.068964 0.326959 0.8 0 0
0.684674 0.198288 0.597304 0.8 0 0
0.781208 0.259604 0.551324 0.8 0 0
0.342127 0.086379 0.442987 0.8 0 0
0.521089 0.260174 0.647206 0.8 0 0
0.690720 0.236514 0.605737 0.8 0 0
0.107427 0.215148 0.287653 0.8 0 0
0.471611 0.320722 0.302730 0.8 0 0
0.265593 0.182035 0.064334 0.8 0 0
0.316621 0.171105 0.169057 0.8 0 0
0.337717 0.148789 0.259398 0.8 0 0
0.728865 0.115001 0.652008 0.8 0 0
0.372116 0.305595 0.484815 0.8 0 0
0.693851 0.237618 0.593810 0.8 0 0
0.500092 0.134436 0.668409 0.8 0 0
0.112902 0.115867 0.377588 0.8 0 0
0.623956 0.116345 0.343939 0.8 0 0
0.383692 0.156696 0.126478 0.8 0 0
0.436390 0.293241 0.395235 0.8 0 0
0.436197 0.177901 0.617453 0.8 0 0
0.582594 0.083648 0.761624 0.8 0 0
0.433503 0.196540 0.642329 0.8 0 0
0.577284 0.208022 0.343874 0.8 0 0
0.231829 0.107699 0.233677 0.8 0 0
0.711144 0.249862 0.583708 0.8 0 0
0.219572 0.217230 0.459359 0.8 0 0
0.618889 0.243301 0.698711 0.8 0 0
0.726947 0.078021 0.697020 0.8 0 0
0.139716 0.227197 0.331113 0.8 0 0
0.810899 0.129612 0.484436 0.8 0 0
0.898830 0.107338 0.596530 0.8 0 0
0.737539 0.071188 0.804091 0.8 0 0
0.570044 0.037007 0.677291 0.8 0 0
0.396565 0.228894 0.593712 0.8 0 0
0.613007 0.227894 0.541172 0.8 0 0
0.379379 0.094388 0.186328 0.8 0 0
0.272738 0.247754 0.334447 0.8 0 0
0.240857 0.111040 0.407661 0.8 0 0
0.685146 0.265535 0.458566 0.8 0 0
0.801176 0.238243 0.658523 0.8 0 0
0.252028 0.234077 0.365884 0.8 0 0
0.697235 0.154121 0.401685 0.8 0 0
0.138572 0.207154 0.393869 0.8 0 0
0.615262 0.115477 0.757312 0.8 0 0
0.543797 0.128540 0.616709 0.8 0 0
0.129310 0.102961 0.337852 0.8 0 0
0.593073 0.170303 0.733398 0.8 0 0
0.699569 0.303963 0.477402 0.8 0 0
0.367383 0.235201 0.359251 0.8 0 0
0.486394 0.297975 0.296441 0.8 0 0
0.917358 0.191162 0.692892 0.8 0 0
0.699476 0.285300 0.467174 0.8 0 0
0.666343 0.177341 0.505931 0.8 0 0
0.283548 0.199244 0.326496 0.8 0 0
0.543118 0.235392 0.327064 0.8 0 0
0.131695 0.147458 0.263952 0.8 0 0
0.536510 0.115846 0.500457 0.8 0 0
0.197185 0.239469 0.289496 0.8 0 0
0.339376 0.120429 0.186164 0.8 0 0
0.533721 0.142777 0.685463 0.8 0 0
0.321532 0.161877 0.240497 0.8 0 0
0.275556 0.087510 0.404777 0.8 0 0
0.641718 0.069609 0.745445 0.8 0 0
0.628280 0.234600 0.737802 0.8 0 0
0.291393 0.153086 0.293088 0.8 0 0
0.617579 0.101844 0.449907 0.8 0 0
0.596336 0.221424 0.745849 0.8 0 0
0.605882 0.134202 0.393684 0.8 0 0
0.479400 0.291199 0.285224 0.8 0 0
0.755346 0.115267 0.879270 0.8 0 0
0.670247 0.133028 0.379527 0.8 0 0
0.594397 0.275357 0.365811 0.8 0 0
0.630719 0.103715 0.441732 0.8 0 0
0.280953 0.080309 0.461222 0.8 0 0
0.513598 0.216237 0.696187 0.8 0 0
0.163397 0.130961 0.420666 0.8 0 0
0.531367 0.089400 0.636887 0.8 0 0
0.128309 0.149409 0.247876 0.8 0 0
0.508229 0.148748 0.659952 0.8 0 0
0.357943 0.154809 0.235913 0.8 0 0
0.136607 0.141609 0.310454 0.8 0 0
0.257260 0.169136 0.355616 0.8 0 0
0.347275 0.240398 0.549788 0.8 0 0
0.321756 0.160379 0.163191 0.8 0 0
0.498205 0.328094 0.459449 0.8 0 0
0.337246 0.238669 0.265623 0.8 0 0
0.139753 0.227092 0.367135 0.8 0 0
0.329652 0.270858 0.521237 0.8 0 0
0.835034 0.150917 0.787490 0.8 0 0
0.586888 0.311694 0.385293 0.8 0 0
0.677165 0.067303 0.755330 0.8 0 0
0.353428 0.183795 0.321696 0.8 0 0
0.856285 0.097696 0.652676 0.8 0 0
0.232573 0.233899 0.076439 0.8 0 0
0.577629 0.034519 0.681817 0.8 0 0
0.404933 0.113899 0.456324 0.8 0 0
0.607545 0.221725 0.778710 0.8 0 0
0.261149 0.130672 0.074377 0.8 0 0
0.462501 0.311632 0.399248 0.8 0 0
0.167124 0.113475 0.420639 0.8 0 0
0.775549 0.203590 0.843945 0.8 0 0
0.488154 0.258294 0.667352 0.8 0 0
0.477025 0.317680 0.300118 0.8 0 0
0.527961 0.165772 0.714509 0.8 0 0
0.556757 0.312967 0.359358 0.8 0 0
0.505780 0.084722 0.528479 0.8 0 0
0.400992 0.314212 0.496411 0.8 0 0
0.827438 0.190664 0.520753 0.8 0 0
0.773643 0.137406 0.856033 0.8 0 0
0.325156 0.198491 0.355982 0.8 0 0
0.549735 0.116949 0.568855 0.8 0 0
0.038431 0.151995 0.295833 0.8 0 0
0.876953 0.152449 0.555005 0.8 0 0
0.900306 0.237254 0.661871 0.8 0 0
0.402836 0.124262 0.583174 0.8 0 0
0.789247 0.075983 0.826550 0.8 0 0
0.285682 0.258097 0.133060 0.8 0 0
0.620571 0.133968 0.402000 0.8 0 0
0.346778 0.228520 0.552253 0.8 0 0
0.472850 0.324302 0.350861 0.8 0 0
0.279306 0.106958 0.260434 0.8 0 0
0.512734 0.243204 0.271583 0.8 0 0
0.241135 0.145055 0.373124 0.8 0 0
0.404678 0.146895 0.590113 0.8 0 0
0.779810 0.237842 0.503659 0.8 0 0
0.501306 0.118462 0.465112 0.8 0 0
0.547943 0.320955 0.482785 0.8 0 0
0.446761 0.286173 0.609698 0.8 0 0
0.491293 0.144230 0.267276 0.8 0 0
0.477093 0.117931 0.266467 0.8 0 0
0.680724 0.065803 0.780881 0.8 0 0
0.038997 0.094578 0.292014 0.8 0 0
0.464420 0.213883 0.653979 0.8 0 0
0.614617 0.106457 0.539982 0.8 0 0
0.543885 0.301406 0.626729 0.8 0 0
0.181275 0.235990 0.327148 0.8 0 0
0.571271 0.099982 0.673989 0.8 0 0
0.778882 0.150832 0.856381 0.8 0 0
0.652937 0.282643 0.495989 0.8 0 0
0.221225 0.075073 0.408457 0.8 0 0
0.277930 0.170949 0.046032 0.8 0 0
0.793342 0.150412 0.551041 0.8 0 0
0.309030 0.280107 0.508173 0.8 0 0
0.412323 0.146398 0.249846 0.8 0 0
0.333830 0.162086 0.172838 0.8 0 0
0.485341 0.286083 0.275666 0.8 0 0
0.558343 0.305788 0.366269 0.8 0 0
0.237232 0.177213 0.087859 0.8 0 0
0.579961 0.220924 0.575267 0.8 0 0
0.622751 0.188564 0.640060 0.8 0 0
0.787121 0.196575 0.846171 0.8 0 0
0.532537 0.326162 0.389900 0.8 0 0
0.534394 0.151003 0.663036 0.8 0 0
0.631096 0.288680 0.588009 0.8 0 0
0.536112 0.305608 0.610612 0.8 0 0
0.203783 0.238173 0.201889 0.8 0 0
0.466663 0.067362 0.641288 0.8 0 0
0.526265 0.101082 0.414861 0.8 0 0
0.764053 0.213063 0.793612 0.8 0 0
0.589771 0.197221 0.526677 0.8 0 0
0.611641 0.212516 0.501836 0.8 0 0
0.817421 0.091576 0.487590 0.8 0 0
