0.334341 0.322902 0.336970 0.8 0 0
0.261383 0.216268 0.346043 0.8 0 0
0.489784 0.283889 0.106975 0.8 0 0
0.872390 0.076494 0.125852 0.8 0 0
0.704632 0.225863 0.399871 0.8 0 0
0.566425 0.317440 0.281573 0.8 0 0
0.683557 0.145112 0.288189 0.8 0 0
0.286646 0.114424 0.157503 0.8 0 0
0.723988 0.142519 0.122825 0.8 0 0
0.170044 0.208215 0.073770 0.8 0 0
0.200093 0.295820 0.365871 0.8 0 0
0.765989 0.211724 0.347832 0.8 0 0
0.846753 0.143610 0.298163 0.8 0 0
0.466416 0.257828 0.068648 0.8 0 0
0.278270 0.333789 0.281844 0.8 0 0
0.791307 0.250893 0.312861 0.8 0 0
0.498138 0.180452 0.382747 0.8 0 0
0.798684 0.228272 0.317578 0.8 0 0
0.211053 0.259476 0.332461 0.8 0 0
0.537423 0.170258 0.356773 0.8 0 0
0.666100 0.220743 0.130839 0.8 0 0
0.267339 0.319662 0.252386 0.8 0 0
0.679566 0.111880 0.070514 0.8 0 0
0.590771 0.304763 0.363845 0.8 0 0
0.500410 0.089627 0.149405 0.8 0 0
0.180395 0.142246 0.098737 0.8 0 0
0.567406 0.286949 0.178430 0.8 0 0
0.286627 0.138793 0.091394 0.8 0 0
0.503659 0.334686 0.232704 0.8 0 0
0.818546 0.229967 0.188043 0.8 0 0
0.680848 0.168528 0.340805 0.8 0 0
0.797949 0.209391 0.402558 0.8 0 0
0.811153 0.188023 0.101326 0.8 0 0
0.360823 0.343889 0.263270 0.8 0 0
0.323598 0.210170 0.395802 0.8 0 0
0.147744 0.108484 0.178714 0.8 0 0
0.293094 0.175299 0.126991 0.8 0 0
0.097293 0.177840 0.332616 0.8 0 0
0.033317 0.133393 0.138611 0.8 0 0
0.731569 0.134503 0.265844 0.8 0 0
0.258400 0.313005 0.243016 0.8 0 0
0.418700 0.305340 0.363366 0.8 0 0
0.245828 0.150015 0.077486 0.8 0 0
0.106245 0.095973 0.126486 0.8 0 0
0.213811 0.123411 0.072653 0.8 0 0
0.518388 0.121349 0.060663 0.8 0 0
0.890760 0.205070 0.166569 0.8 0 0
0.678778 0.196252 0.351367 0.8 0 0
0.164748 0.123689 0.071337 0.8 0 0
0.721490 0.158325 0.322545 0.8 0 0
0.047827 0.199608 0.180649 0.8 0 0
0.444929 0.136554 0.055536 0.8 0 0
0.517415 0.213740 0.405067 0.8 0 0
0.788415 0.174121 0.338631 0.8 0 0
0.873891 0.120601 0.194314 0.8 0 0
0.677002 0.253908 0.206257 0.8 0 0
0.780499 0.245118 0.208728 0.8 0 0
0.486499 0.321605 0.192804 0.8 0 0
0.057179 0.280930 0.341051 0.8 0 0
0.846558 0.178225 0.091341 0.8 0 0
0.691765 0.213686 0.376917 0.8 0 0
0.798724 0.229697 0.317024 0.8 0 0
0.677659 0.259114 0.396696 0.8 0 0
0.703240 0.266208 0.249090 0.8 0 0
0.325113 0.204246 0.059075 0.8 0 0
0.636494 0.124923 0.239487 0.8 0 0
0.694181 0.177610 0.394927 0.8 0 0
0.958583 0.128795 0.186513 0.8 0 0
0.085584 0.173265 0.069041 0.8 0 0
0.239477 0.091246 0.114001 0.8 0 0
0.178547 0.093599 0.119263 0.8 0 0
0.726229 0.045353 0.150814 0.8 0 0
0.963393 0.179835 0.248888 0.8 0 0
0.235373 0.137794 0.124603 0.8 0 0
0.473895 0.145015 0.291566 0.8 0 0
0.182315 0.084265 0.141697 0.8 0 0
0.034317 0.127929 0.101382 0.8 0 0
0.542617 0.302665 0.368398 0.8 0 0
0.917252 0.218141 0.388130 0.8 0 0
0.577222 0.125301 0.241485 0.8 0 0
0.734067 0.157454 0.105796 0.8 0 0
0.323029 0.193763 0.357339 0.8 0 0
0.208886 0.177618 0.132934 0.8 0 0
0.776721 0.264149 0.349904 0.8 0 0
0.134563 0.232380 0.394947 0.8 0 0
0.130556 0.226078 0.135373 0.8 0 0
0.184661 0.106688 0.136786 0.8 0 0
0.873442 0.131917 0.249775 0.8 0 0
0.361014 0.340826 0.252866 0.8 0 0
0.753327 0.250584 0.308862 0.8 0 0
0.795178 0.278112 0.327616 0.8 0 0
0.804093 0.177084 0.076461 0.8 0 0
0.442219 0.072602 0.103819 0.8 0 0
0.226826 0.136732 0.398631 0.8 0 0
0.918770 0.232948 0.257431 0.8 0 0
0.133001 0.275593 0.258387 0.8 0 0
0.058138 0.284370 0.341013 0.8 0 0
0.680059 0.270371 0.256844 0.8 0 0
0.347209 0.303256 0.154410 0.8 0 0
0.226451 0.042290 0.155043 0.8 0 0
0.236313 0.159999 0.309055 0.8 0 0
0.769210 0.100894 0.170805 0.8 0 0
0.957981 0.188816 0.215577 0.8 0 0
0.643920 0.076331 0.114185 0.8 0 0
0.496250 0.161293 0.333511 0.8 0 0
0.401797 0.109738 0.201392 0.8 0 0
0.383412 0.248404 0.402007 0.8 0 0
0.396818 0.106300 0.192600 0.8 0 0
0.601366 0.309826 0.344983 0.8 0 0
0.723113 0.111258 0.199165 0.8 0 0
0.898020 0.124909 0.202334 0.8 0 0
0.774428 0.087253 0.144202 0.8 0 0
0.186665 0.109911 0.079610 0.8 0 0
0.202043 0.251314 0.379892 0.8 0 0
0.605797 0.155383 0.318931 0.8 0 0
0.124821 0.238238 0.169012 0.8 0 0
0.959087 0.191085 0.274890 0.8 0 0
0.147550 0.243481 0.163087 0.8 0 0
0.393019 0.106976 0.194367 0.8 0 0
0.050848 0.176276 0.116082 0.8 0 0
0.121741 0.218871 0.125315 0.8 0 0
0.560101 0.291095 0.178757 0.8 0 0
0.809711 0.264443 0.286205 0.8 0 0
0.273786 0.090016 0.114063 0.8 0 0
0.827115 0.165536 0.065690 0.8 0 0
0.691455 0.157824 0.132105 0.8 0 0
0.726979 0.256447 0.322407 0.8 0 0
0.903483 0.214450 0.189604 0.8 0 0
0.053513 0.162989 0.089697 0.8 0 0
0.438373 0.126223 0.243449 0.8 0 0
0.536877 0.252322 0.082380 0.8 0 0
0.804084 0.153388 0.311436 0.8 0 0
0.472735 0.280445 0.098228 0.8 0 0
0.230053 0.137322 0.402066 0.8 0 0
0.586282 0.243209 0.114596 0.8 0 0
0.793422 0.264561 0.372203 0.8 0 0
0.163088 0.133060 0.067313 0.8 0 0
0.611341 0.192409 0.062596 0.8 0 0
0.911203 0.248613 0.307260 0.8 0 0
0.039193 0.129562 0.186068 0.8 0 0
0.895958 0.186215 0.360073 0.8 0 0
0.469205 0.245661 0.066305 0.8 0 0
0.681667 0.131013 0.253507 0.8 0 0
0.387793 0.137938 0.273960 0.8 0 0
0.050329 0.205382 0.162631 0.8 0 0
0.744105 0.187506 0.333427 0.8 0 0
0.119223 0.244866 0.392042 0.8 0 0
0.256374 0.028076 0.121934 0.8 0 0
0.729343 0.194094 0.330865 0.8 0 0
0.514101 0.164657 0.342253 0.8 0 0
0.459952 0.228740 0.404161 0.8 0 0
0.651404 0.163362 0.337359 0.8 0 0
0.264597 0.270055 0.363985 0.8 0 0
0.881312 0.244078 0.257559 0.8 0 0
0.548245 0.323117 0.264593 0.8 0 0
0.684504 0.227974 0.150991 0.8 0 0
0.689760 0.196823 0.371966 0.8 0 0
0.759057 0.255067 0.348102 0.8 0 0
0.546139 0.333405 0.315788 0.8 0 0
0.213084 0.151270 0.101956 0.8 0 0
0.801258 0.219186 0.321110 0.8 0 0
0.956599 0.176013 0.333343 0.8 0 0
0.541269 0.294069 0.375850 0.8 0 0
0.184769 0.108945 0.167959 0.8 0 0
0.723862 0.148507 0.095209 0.8 0 0
0.580679 0.157306 0.323734 0.8 0 0
0.338184 0.335924 0.318366 0.8 0 0
0.122004 0.090274 0.102489 0.8 0 0
0.082994 0.249249 0.216438 0.8 0 0
0.310313 0.242127 0.351579 0.8 0 0
0.098220 0.102288 0.138846 0.8 0 0
0.238159 0.221184 0.320333 0.8 0 0
0.273451 0.146353 0.410489 0.8 0 0
0.620302 0.296095 0.309835 0.8 0 0
0.038909 0.133286 0.198673 0.8 0 0
0.517582 0.197091 0.056127 0.8 0 0
0.874528 0.151808 0.070561 0.8 0 0
0.580885 0.151856 0.055320 0.8 0 0
0.065772 0.180242 0.323734 0.8 0 0
0.274562 0.110388 0.159072 0.8 0 0
0.810366 0.114859 0.078697 0.8 0 0
0.412152 0.146951 0.296917 0.8 0 0
0.803643 0.125410 0.129483 0.8 0 0
0.809054 0.099038 0.082128 0.8 0 0
0.749711 0.122590 0.092032 0.8 0 0
0.813794 0.214950 0.349607 0.8 0 0
0.888036 0.091604 0.117402 0.8 0 0
0.790422 0.067057 0.098287 0.8 0 0
0.078618 0.260645 0.380252 0.8 0 0
0.831522 0.220876 0.173052 0.8 0 0
0.702470 0.261541 0.393836 0.8 0 0
0.952685 0.157339 0.195926 0.8 0 0
0.094448 0.243552 0.389076 0.8 0 0
0.311510 0.208883 0.060174 0.8 0 0
0.677338 0.106137 0.158896 0.8 0 0
0.406823 0.092125 0.156098 0.8 0 0
0.031980 0.239151 0.347765 0.8 0 0
0.243036 0.188764 0.332938 0.8 0 0
0.754016 0.149419 0.143898 0.8 0 0
0.609850 0.290747 0.260227 0.8 0 0
0.876197 0.194096 0.381482 0.8 0 0
0.209802 0.302965 0.261239 0.8 0 0
0.225153 0.249381 0.112757 0.8 0 0
0.236146 0.158663 0.305942 0.8 0 0
0.734182 0.271506 0.380674 0.8 0 0
0.398393 0.341260 0.249994 0.8 0 0
0.727979 0.286065 0.326255 0.8 0 0
0.207505 0.145324 0.096316 0.8 0 0
0.714747 0.149979 0.302478 0.8 0 0
0.294332 0.306088 0.186455 0.8 0 0
0.757607 0.221510 0.320206 0.8 0 0
0.257446 0.121385 0.101218 0.8 0 0
0.808051 0.102078 0.173609 0.8 0 0
0.108154 0.293879 0.357354 0.8 0 0
0.529897 0.298344 0.159353 0.8 0 0
0.101224 0.230536 0.161354 0.8 0 0
0.463724 0.156654 0.321427 0.8 0 0
0.603008 0.190028 0.056656 0.8 0 0
0.844547 0.179492 0.390336 0.8 0 0
0.934897 0.188567 0.365679 0.8 0 0
0.955090 0.162193 0.301157 0.8 0 0
0.847842 0.206683 0.398478 0.8 0 0
0.169038 0.109341 0.105335 0.8 0 0
0.860472 0.072398 0.115273 0.8 0 0
0.165208 0.126603 0.233665 0.8 0 0
0.536512 0.293525 0.157318 0.8 0 0
0.207089 0.153660 0.294025 0.8 0 0
0.654989 0.234887 0.170324 0.8 0 0
0.921369 0.159802 0.150280 0.8 0 0
0.488777 0.344333 0.309884 0.8 0 0
0.741834 0.175416 0.390501 0.8 0 0
0.615734 0.126284 0.244223 0.8 0 0
0.496620 0.301093 0.144457 0.8 0 0
0.658360 0.181472 0.383534 0.8 0 0
0.528643 0.148078 0.299739 0.8 0 0
0.211883 0.095258 0.111534 0.8 0 0
0.513764 0.273789 0.390084 0.8 0 0
0.615460 0.300896 0.323784 0.8 0 0
0.386510 0.082501 0.131539 0.8 0 0
0.321911 0.263152 0.402603 0.8 0 0
0.326486 0.081912 0.122247 0.8 0 0
0.631589 0.299566 0.351647 0.8 0 0
0.299535 0.340335 0.305883 0.8 0 0
0.718271 0.162011 0.139002 0.8 0 0
0.796109 0.113557 0.208403 0.8 0 0
0.803760 0.278480 0.332380 0.8 0 0
0.247170 0.185819 0.383224 0.8 0 0
0.339446 0.132679 0.055352 0.8 0 0
0.290140 0.313245 0.212070 0.8 0 0
0.797651 0.213168 0.401124 0.8 0 0
0.342074 0.132883 0.261182 0.8 0 0
0.384077 0.242997 0.402522 0.8 0 0
0.582170 0.264107 0.151343 0.8 0 0
0.792592 0.211515 0.399153 0.8 0 0
0.416931 0.102143 0.181756 0.8 0 0
0.204955 0.132555 0.252716 0.8 0 0
0.202528 0.292571 0.237280 0.8 0 0
0.318957 0.112619 0.065233 0.8 0 0
0.424327 0.208768 0.059215 0.8 0 0
0.859047 0.073094 0.117054 0.8 0 0
0.419996 0.327314 0.208585 0.8 0 0
0.673633 0.092325 0.085442 0.8 0 0
0.949920 0.151328 0.183174 0.8 0 0
0.107270 0.132877 0.221902 0.8 0 0
0.384230 0.313270 0.351722 0.8 0 0
0.960194 0.218067 0.317154 0.8 0 0
0.079418 0.287837 0.358399 0.8 0 0
0.721259 0.155625 0.423663 0.8 0 0
0.087933 0.205548 0.104103 0.8 0 0
0.406488 0.349936 0.302570 0.8 0 0
0.703086 0.193854 0.354647 0.8 0 0
0.281756 0.074041 0.095591 0.8 0 0
0.309769 0.193104 0.368016 0.8 0 0
0.760127 0.032440 0.136207 0.8 0 0
0.179242 0.256928 0.392038 0.8 0 0
0.250069 0.324909 0.284198 0.8 0 0
0.238808 0.165762 0.322747 0.8 0 0
0.481851 0.311254 0.355740 0.8 0 0
0.137484 0.102082 0.157316 0.8 0 0
0.714133 0.159921 0.367846 0.8 0 0
0.787519 0.171008 0.135505 0.8 0 0
0.604853 0.081559 0.129255 0.8 0 0
0.179981 0.161776 0.138851 0.8 0 0
0.790904 0.240824 0.394054 0.8 0 0
0.543073 0.333002 0.300113 0.8 0 0
0.603562 0.263969 0.395606 0.8 0 0
0.107222 0.197409 0.387662 0.8 0 0
0.320366 0.138959 0.273405 0.8 0 0
0.139817 0.102560 0.159674 0.8 0 0
0.411586 0.153175 0.312912 0.8 0 0
0.448594 0.127601 0.057402 0.8 0 0
0.212830 0.047303 0.153052 0.8 0 0
0.690120 0.200951 0.372685 0.8 0 0
0.295247 0.187509 0.333425 0.8 0 0
0.623135 0.073621 0.108505 0.8 0 0
0.694027 0.167007 0.056871 0.8 0 0
0.685601 0.227303 0.365468 0.8 0 0
0.879449 0.154703 0.280065 0.8 0 0
0.467595 0.338865 0.317817 0.8 0 0
0.680844 0.103162 0.077404 0.8 0 0
0.233764 0.311840 0.264108 0.8 0 0
0.806096 0.105852 0.184550 0.8 0 0
0.725505 0.201024 0.328171 0.8 0 0
0.282271 0.157989 0.368601 0.8 0 0
0.891203 0.241108 0.254436 0.8 0 0
0.676620 0.197249 0.386095 0.8 0 0
0.819867 0.120092 0.231744 0.8 0 0
0.133064 0.127426 0.070296 0.8 0 0
0.553955 0.094668 0.162654 0.8 0 0
0.323706 0.324836 0.214489 0.8 0 0
0.833697 0.099916 0.090345 0.8 0 0
0.096573 0.198821 0.386167 0.8 0 0
0.781855 0.110321 0.135241 0.8 0 0
0.611603 0.097669 0.079714 0.8 0 0
0.404908 0.185827 0.396861 0.8 0 0
0.490361 0.351515 0.290766 0.8 0 0
0.309005 0.096801 0.098132 0.8 0 0
0.907539 0.175830 0.119301 0.8 0 0
0.167221 0.109507 0.155970 0.8 0 0
0.325865 0.349496 0.296294 0.8 0 0
0.644601 0.175543 0.369090 0.8 0 0
0.374891 0.137272 0.272354 0.8 0 0
0.470105 0.329527 0.212015 0.8 0 0
0.563603 0.200060 0.404837 0.8 0 0
0.698117 0.166618 0.388981 0.8 0 0
0.272258 0.218647 0.345092 0.8 0 0
0.947041 0.232955 0.346226 0.8 0 0
0.507810 0.342015 0.264134 0.8 0 0
0.165100 0.179718 0.061776 0.8 0 0
0.873912 0.171948 0.325008 0.8 0 0
0.536585 0.125776 0.242482 0.8 0 0
0.401120 0.338991 0.241986 0.8 0 0
0.217347 0.123893 0.129994 0.8 0 0
0.421636 0.247739 0.402258 0.8 0 0
0.730386 0.178162 0.396768 0.8 0 0
0.844416 0.252934 0.262891 0.8 0 0
0.951811 0.137291 0.144224 0.8 0 0
0.118971 0.291989 0.315934 0.8 0 0
0.674019 0.126573 0.240886 0.8 0 0
0.112307 0.131025 0.068933 0.8 0 0
0.403826 0.279912 0.389202 0.8 0 0
0.424582 0.332809 0.222300 0.8 0 0
0.725416 0.043091 0.144050 0.8 0 0
0.029639 0.171365 0.250049 0.8 0 0
0.533339 0.335544 0.321460 0.8 0 0
0.155592 0.305482 0.349168 0.8 0 0
0.229561 0.291450 0.207232 0.8 0 0
0.793490 0.145515 0.069435 0.8 0 0
0.443568 0.295915 0.126121 0.8 0 0
0.175613 0.251514 0.392674 0.8 0 0
0.672327 0.290131 0.322533 0.8 0 0
0.130322 0.175857 0.343412 0.8 0 0
0.293047 0.070973 0.150671 0.8 0 0
0.346252 0.306291 0.162501 0.8 0 0
0.691236 0.204627 0.358601 0.8 0 0
0.788607 0.090233 0.111792 0.8 0 0
0.262657 0.261754 0.330475 0.8 0 0
0.184814 0.110215 0.082316 0.8 0 0
0.650315 0.146289 0.293532 0.8 0 0
0.612081 0.304839 0.354148 0.8 0 0
0.155013 0.304881 0.343993 0.8 0 0
0.809340 0.254748 0.362463 0.8 0 0
0.179375 0.211453 0.387724 0.8 0 0
0.227510 0.286475 0.376801 0.8 0 0
0.370516 0.155417 0.051470 0.8 0 0
0.576487 0.149151 0.055674 0.8 0 0
0.431474 0.340078 0.242145 0.8 0 0
0.633437 0.242875 0.163748 0.8 0 0
0.732732 0.254341 0.310815 0.8 0 0
0.810706 0.221122 0.168103 0.8 0 0
0.487070 0.218686 0.060748 0.8 0 0
0.039961 0.242597 0.341175 0.8 0 0
0.156079 0.168812 0.337712 0.8 0 0
0.609249 0.287495 0.244740 0.8 0 0
0.212203 0.316850 0.300454 0.8 0 0
0.627286 0.117895 0.221998 0.8 0 0
0.856515 0.124477 0.249049 0.8 0 0
0.845054 0.253380 0.264855 0.8 0 0
0.188984 0.182190 0.359170 0.8 0 0
0.800551 0.218648 0.160337 0.8 0 0
0.779767 0.149100 0.088255 0.8 0 0
0.355225 0.315192 0.184256 0.8 0 0
0.080029 0.248702 0.216241 0.8 0 0
0.497490 0.327799 0.211803 0.8 0 0
0.865531 0.118623 0.074628 0.8 0 0
0.650732 0.198986 0.403446 0.8 0 0
0.237063 0.176077 0.337870 0.8 0 0
0.191012 0.290012 0.240961 0.8 0 0
0.710646 0.271170 0.390902 0.8 0 0
0.608694 0.137542 0.273109 0.8 0 0
0.425080 0.258466 0.401305 0.8 0 0
0.805886 0.150941 0.306245 0.8 0 0
0.328685 0.225631 0.403215 0.8 0 0
0.057507 0.233222 0.178418 0.8 0 0
0.474890 0.084135 0.135155 0.8 0 0
0.727162 0.244789 0.339869 0.8 0 0
0.737870 0.258732 0.236461 0.8 0 0
0.584526 0.213695 0.067863 0.8 0 0
0.225571 0.139189 0.375887 0.8 0 0
0.444175 0.253064 0.067706 0.8 0 0
0.809701 0.257377 0.261864 0.8 0 0
0.072606 0.186804 0.343858 0.8 0 0
0.248475 0.165684 0.054175 0.8 0 0
0.719274 0.052614 0.154939 0.8 0 0
0.032427 0.140831 0.167714 0.8 0 0
0.268041 0.043098 0.151128 0.8 0 0
0.232152 0.291905 0.206010 0.8 0 0
0.782780 0.110165 0.083718 0.8 0 0
0.377938 0.300670 0.370944 0.8 0 0
0.767181 0.262959 0.339571 0.8 0 0
0.791599 0.192160 0.104585 0.8 0 0
0.747121 0.266851 0.355728 0.8 0 0
0.645506 0.257520 0.399135 0.8 0 0
0.220529 0.319982 0.316348 0.8 0 0
0.332068 0.262102 0.072107 0.8 0 0
0.417134 0.132274 0.259167 0.8 0 0
0.812489 0.163656 0.380601 0.8 0 0
0.543241 0.110485 0.203232 0.8 0 0
0.182824 0.075510 0.130225 0.8 0 0
0.788595 0.165397 0.336971 0.8 0 0
0.648192 0.075751 0.112433 0.8 0 0
0.794683 0.262120 0.271428 0.8 0 0
0.706028 0.159359 0.324796 0.8 0 0
0.804708 0.185476 0.094214 0.8 0 0
0.481725 0.141772 0.056035 0.8 0 0
0.050509 0.254042 0.332916 0.8 0 0
0.235110 0.134799 0.149582 0.8 0 0
0.087425 0.123668 0.188661 0.8 0 0
0.497296 0.137263 0.271778 0.8 0 0
0.409314 0.074893 0.111804 0.8 0 0
0.557927 0.107574 0.195835 0.8 0 0
0.872374 0.118026 0.075432 0.8 0 0
0.927979 0.123043 0.083930 0.8 0 0
0.746271 0.216131 0.322297 0.8 0 0
0.770342 0.226103 0.318421 0.8 0 0
0.749272 0.079127 0.120976 0.8 0 0
0.883717 0.203558 0.395827 0.8 0 0
0.940080 0.205466 0.384196 0.8 0 0
0.527782 0.329280 0.244371 0.8 0 0
0.075813 0.143096 0.233069 0.8 0 0
0.913056 0.236544 0.388050 0.8 0 0
0.057200 0.277200 0.359525 0.8 0 0
0.745631 0.068406 0.151583 0.8 0 0
0.602762 0.214053 0.079848 0.8 0 0
0.340588 0.074794 0.102139 0.8 0 0
0.293807 0.218198 0.321494 0.8 0 0
0.558004 0.076001 0.099967 0.8 0 0
0.481050 0.195387 0.056060 0.8 0 0
0.064627 0.271000 0.367689 0.8 0 0
0.056328 0.230391 0.240710 0.8 0 0
0.087582 0.260799 0.245580 0.8 0 0
0.210877 0.174810 0.112938 0.8 0 0
0.694371 0.128396 0.152072 0.8 0 0
0.299113 0.114096 0.205866 0.8 0 0
0.680432 0.296969 0.353536 0.8 0 0
0.418418 0.333535 0.224729 0.8 0 0
0.715114 0.219121 0.321135 0.8 0 0
0.956708 0.172820 0.296353 0.8 0 0
0.762452 0.133033 0.126432 0.8 0 0
0.950805 0.232530 0.348659 0.8 0 0
0.065858 0.179723 0.066983 0.8 0 0
0.703338 0.267579 0.393755 0.8 0 0
0.827967 0.130696 0.114315 0.8 0 0
0.243509 0.183674 0.358800 0.8 0 0
0.219983 0.079423 0.118492 0.8 0 0
0.175624 0.264392 0.387246 0.8 0 0
0.317613 0.224074 0.349237 0.8 0 0
0.776811 0.032758 0.107831 0.8 0 0
0.721130 0.190225 0.407011 0.8 0 0
0.117766 0.184032 0.358371 0.8 0 0
0.752470 0.264120 0.260026 0.8 0 0
0.836822 0.249337 0.246401 0.8 0 0
0.623933 0.267123 0.197675 0.8 0 0
0.482965 0.304302 0.365279 0.8 0 0
0.715460 0.046151 0.102641 0.8 0 0
0.517817 0.256551 0.073205 0.8 0 0
0.690024 0.190448 0.376028 0.8 0 0
0.166904 0.097902 0.114570 0.8 0 0
0.725108 0.171388 0.420985 0.8 0 0
0.294299 0.252610 0.333038 0.8 0 0
0.813746 0.145333 0.092362 0.8 0 0
0.240108 0.308204 0.246886 0.8 0 0
0.426312 0.171972 0.361088 0.8 0 0
0.300946 0.212448 0.061020 0.8 0 0
0.071729 0.133623 0.206747 0.8 0 0
0.455442 0.125937 0.057791 0.8 0 0
0.695707 0.291352 0.333087 0.8 0 0
0.789536 0.214365 0.391107 0.8 0 0
0.532367 0.338121 0.313524 0.8 0 0
0.834336 0.108017 0.133733 0.8 0 0
0.105900 0.277536 0.282786 0.8 0 0
0.205185 0.235455 0.097238 0.8 0 0
0.113900 0.188679 0.065804 0.8 0 0
0.897659 0.216228 0.190397 0.8 0 0
0.578694 0.156975 0.322871 0.8 0 0
0.909751 0.167228 0.103866 0.8 0 0
0.523112 0.122449 0.233858 0.8 0 0
0.557167 0.314971 0.350327 0.8 0 0
0.212613 0.237010 0.337898 0.8 0 0
0.188953 0.267482 0.389064 0.8 0 0
0.416354 0.351475 0.284746 0.8 0 0
0.406374 0.332520 0.325796 0.8 0 0
0.762191 0.121394 0.085412 0.8 0 0
0.278377 0.155383 0.076573 0.8 0 0
0.261832 0.148547 0.144237 0.8 0 0
0.353396 0.150954 0.307611 0.8 0 0
0.927626 0.188199 0.365102 0.8 0 0
0.719377 0.189115 0.079818 0.8 0 0
0.379846 0.239063 0.402974 0.8 0 0
0.256555 0.311269 0.239660 0.8 0 0
0.899225 0.109504 0.162678 0.8 0 0
0.175139 0.189415 0.332685 0.8 0 0
0.797192 0.051493 0.143670 0.8 0 0
0.796645 0.158879 0.061865 0.8 0 0
0.922488 0.254171 0.368740 0.8 0 0
0.891676 0.135186 0.229141 0.8 0 0
0.746031 0.161748 0.115255 0.8 0 0
0.228338 0.189114 0.383159 0.8 0 0
0.899248 0.199405 0.393811 0.8 0 0
0.125704 0.173612 0.335422 0.8 0 0
0.313401 0.297450 0.373553 0.8 0 0
0.323814 0.311999 0.181802 0.8 0 0
0.219639 0.113995 0.101118 0.8 0 0
0.474205 0.074220 0.109677 0.8 0 0
0.448406 0.100824 0.178110 0.8 0 0
0.487017 0.096939 0.079131 0.8 0 0
0.344528 0.322761 0.205278 0.8 0 0
0.168296 0.124927 0.222064 0.8 0 0
0.835111 0.110317 0.201733 0.8 0 0
0.246096 0.172613 0.391503 0.8 0 0
0.186193 0.138530 0.062085 0.8 0 0
0.786706 0.195204 0.109512 0.8 0 0
0.906684 0.120380 0.190662 0.8 0 0
0.576759 0.093292 0.159245 0.8 0 0
0.760017 0.089298 0.097998 0.8 0 0
0.703292 0.159383 0.106797 0.8 0 0
0.557081 0.236816 0.075284 0.8 0 0
0.375398 0.311005 0.354703 0.8 0 0
0.277356 0.322788 0.249542 0.8 0 0
0.469488 0.315343 0.349993 0.8 0 0
0.434011 0.140287 0.279616 0.8 0 0
0.183325 0.298794 0.274830 0.8 0 0
0.051664 0.276166 0.291035 0.8 0 0
0.424826 0.151580 0.052617 0.8 0 0
0.283200 0.296176 0.170004 0.8 0 0
0.336679 0.256329 0.069832 0.8 0 0
0.409845 0.094660 0.080442 0.8 0 0
0.085339 0.107434 0.145905 0.8 0 0
0.281103 0.293643 0.377254 0.8 0 0
0.166445 0.299952 0.294922 0.8 0 0
0.153616 0.260378 0.196546 0.8 0 0
0.036616 0.234091 0.323715 0.8 0 0
0.961943 0.148206 0.161560 0.8 0 0
0.759736 0.167209 0.094589 0.8 0 0
0.324079 0.108328 0.157520 0.8 0 0
0.456686 0.167942 0.350486 0.8 0 0
0.130023 0.302190 0.341148 0.8 0 0
0.168294 0.148704 0.291134 0.8 0 0
0.403092 0.249836 0.401976 0.8 0 0
0.449894 0.328765 0.208969 0.8 0 0
0.786474 0.193133 0.105162 0.8 0 0
0.208077 0.255095 0.320759 0.8 0 0
0.219643 0.262652 0.339343 0.8 0 0
0.167765 0.299615 0.292614 0.8 0 0
0.666955 0.192409 0.077953 0.8 0 0
0.219480 0.153806 0.370250 0.8 0 0
0.620476 0.223143 0.403562 0.8 0 0
0.268046 0.131145 0.253025 0.8 0 0
0.195444 0.111054 0.135046 0.8 0 0
0.604881 0.138370 0.275216 0.8 0 0
0.785435 0.109959 0.195785 0.8 0 0
0.911226 0.184954 0.357618 0.8 0 0
0.257948 0.140114 0.270081 0.8 0 0
0.523801 0.306659 0.169346 0.8 0 0
0.720262 0.182736 0.359040 0.8 0 0
0.754265 0.168568 0.402383 0.8 0 0
0.539497 0.280521 0.133701 0.8 0 0
0.334413 0.304757 0.160676 0.8 0 0
0.283568 0.243275 0.072771 0.8 0 0
0.799920 0.242995 0.209515 0.8 0 0
0.913150 0.123793 0.199527 0.8 0 0
0.476982 0.149685 0.303581 0.8 0 0
0.575358 0.317685 0.387268 0.8 0 0
0.472015 0.080877 0.091372 0.8 0 0
0.415770 0.123820 0.237459 0.8 0 0
0.835723 0.084432 0.118938 0.8 0 0
0.857349 0.276051 0.370217 0.8 0 0
0.712741 0.186798 0.357432 0.8 0 0
0.586525 0.085925 0.140371 0.8 0 0
0.572174 0.288344 0.185503 0.8 0 0
0.855309 0.147903 0.309230 0.8 0 0
0.682839 0.215286 0.353592 0.8 0 0
0.083015 0.185736 0.346083 0.8 0 0
0.133593 0.084156 0.107794 0.8 0 0
0.265794 0.138789 0.400307 0.8 0 0
0.831973 0.283182 0.361568 0.8 0 0
0.267904 0.122294 0.154443 0.8 0 0
0.358111 0.078681 0.121923 0.8 0 0
0.649373 0.212718 0.125523 0.8 0 0
0.832691 0.219980 0.374615 0.8 0 0
0.133790 0.263792 0.224615 0.8 0 0
0.736539 0.189282 0.332736 0.8 0 0
0.742847 0.240546 0.189292 0.8 0 0
0.762962 0.221021 0.320397 0.8 0 0
0.331141 0.279934 0.104016 0.8 0 0
0.948879 0.221236 0.353752 0.8 0 0
0.809783 0.070419 0.147904 0.8 0 0
0.736755 0.154833 0.141793 0.8 0 0
0.129455 0.214805 0.109390 0.8 0 0
0.238790 0.290247 0.194420 0.8 0 0
0.410303 0.168042 0.051133 0.8 0 0
0.357277 0.349206 0.281702 0.8 0 0
0.681021 0.280473 0.288490 0.8 0 0
0.680116 0.103461 0.092800 0.8 0 0
0.160752 0.274469 0.227432 0.8 0 0
0.406034 0.166671 0.347634 0.8 0 0
0.627125 0.261113 0.190072 0.8 0 0
0.340858 0.186365 0.398590 0.8 0 0
0.475699 0.099443 0.077163 0.8 0 0
0.235546 0.245916 0.310652 0.8 0 0
0.846839 0.256277 0.276077 0.8 0 0
0.702424 0.170745 0.057308 0.8 0 0
0.306305 0.163580 0.328097 0.8 0 0
0.519367 0.322615 0.340688 0.8 0 0
0.757586 0.198879 0.108961 0.8 0 0
0.234055 0.274306 0.161428 0.8 0 0
0.128795 0.112824 0.180741 0.8 0 0
0.475588 0.282765 0.103040 0.8 0 0
0.735727 0.147498 0.062214 0.8 0 0
0.761199 0.053747 0.110748 0.8 0 0
0.136324 0.179653 0.064817 0.8 0 0
0.652569 0.110189 0.200643 0.8 0 0
0.746190 0.254437 0.347754 0.8 0 0
0.293411 0.114456 0.206515 0.8 0 0
0.163107 0.299670 0.297367 0.8 0 0
0.934676 0.225326 0.322376 0.8 0 0
0.782744 0.089783 0.114616 0.8 0 0
0.939290 0.206743 0.384579 0.8 0 0
0.689248 0.139089 0.273866 0.8 0 0
0.303904 0.287115 0.383755 0.8 0 0
0.366660 0.167804 0.350865 0.8 0 0
0.298426 0.176304 0.417042 0.8 0 0
0.707825 0.164691 0.418527 0.8 0 0
0.447136 0.242913 0.065796 0.8 0 0
0.413539 0.328678 0.331043 0.8 0 0
0.273476 0.171386 0.339694 0.8 0 0
0.177428 0.129117 0.084416 0.8 0 0
0.823584 0.267545 0.304880 0.8 0 0
0.235042 0.265780 0.382932 0.8 0 0
0.460070 0.107001 0.071312 0.8 0 0
0.308038 0.074892 0.106124 0.8 0 0
0.178925 0.312391 0.325424 0.8 0 0
0.224300 0.117385 0.095321 0.8 0 0
0.934083 0.200140 0.342852 0.8 0 0
0.960038 0.216799 0.325015 0.8 0 0
0.239900 0.091581 0.116931 0.8 0 0
0.379959 0.091553 0.082695 0.8 0 0
0.739086 0.294938 0.363721 0.8 0 0
0.751740 0.190766 0.090537 0.8 0 0
0.166813 0.122826 0.224735 0.8 0 0
0.734494 0.197661 0.353292 0.8 0 0
0.149378 0.272593 0.233588 0.8 0 0
0.326333 0.174842 0.347932 0.8 0 0
0.815547 0.212664 0.152199 0.8 0 0
0.408016 0.094705 0.080398 0.8 0 0
0.805036 0.171933 0.128919 0.8 0 0
0.834196 0.195543 0.364427 0.8 0 0
0.929515 0.190518 0.370708 0.8 0 0
0.938103 0.187003 0.173570 0.8 0 0
0.636687 0.292081 0.336513 0.8 0 0
0.049966 0.249902 0.342877 0.8 0 0
0.687062 0.125508 0.086748 0.8 0 0
0.154976 0.108098 0.181203 0.8 0 0
0.549654 0.251137 0.092342 0.8 0 0
0.962893 0.170574 0.228113 0.8 0 0
0.346874 0.272693 0.086415 0.8 0 0
0.896599 0.193129 0.145938 0.8 0 0
0.405320 0.299002 0.372944 0.8 0 0
0.813799 0.195412 0.330353 0.8 0 0
0.307829 0.217148 0.387951 0.8 0 0
0.364441 0.291742 0.123506 0.8 0 0
0.193332 0.182169 0.416851 0.8 0 0
0.766914 0.219328 0.152047 0.8 0 0
0.678249 0.105524 0.137904 0.8 0 0
0.678160 0.186148 0.343300 0.8 0 0
0.775765 0.205405 0.350288 0.8 0 0
0.054547 0.273875 0.280715 0.8 0 0
0.448284 0.197672 0.405004 0.8 0 0
0.743824 0.128118 0.070822 0.8 0 0
0.179914 0.101849 0.094850 0.8 0 0
0.480393 0.331997 0.220555 0.8 0 0
0.197169 0.256445 0.349486 0.8 0 0
0.728212 0.227071 0.388039 0.8 0 0
0.267302 0.082708 0.117739 0.8 0 0
0.755318 0.120922 0.154977 0.8 0 0
0.211094 0.187881 0.357050 0.8 0 0
0.926187 0.129828 0.079466 0.8 0 0
0.802990 0.130810 0.085110 0.8 0 0
0.475529 0.171805 0.360406 0.8 0 0
0.362245 0.078782 0.122182 0.8 0 0
0.268953 0.172387 0.363085 0.8 0 0
0.410983 0.213357 0.060250 0.8 0 0
0.548427 0.177268 0.051545 0.8 0 0
0.903187 0.090924 0.114928 0.8 0 0
0.463248 0.105200 0.189230 0.8 0 0
0.167009 0.227828 0.109998 0.8 0 0
0.888886 0.188821 0.367184 0.8 0 0
0.534910 0.315916 0.209930 0.8 0 0
0.378621 0.318295 0.344857 0.8 0 0
0.536351 0.333550 0.286277 0.8 0 0
0.831297 0.125414 0.125536 0.8 0 0
0.606045 0.228135 0.108058 0.8 0 0
0.376361 0.122933 0.235500 0.8 0 0
0.089927 0.186506 0.351360 0.8 0 0
0.829866 0.226305 0.351746 0.8 0 0
0.384532 0.145755 0.294071 0.8 0 0
0.826159 0.262151 0.285722 0.8 0 0
0.654644 0.204770 0.097919 0.8 0 0
0.401234 0.166161 0.346363 0.8 0 0
0.299927 0.193266 0.354861 0.8 0 0
0.808120 0.138591 0.069726 0.8 0 0
0.690243 0.195588 0.396495 0.8 0 0
0.026561 0.181604 0.222828 0.8 0 0
0.216194 0.158151 0.058878 0.8 0 0
0.167132 0.100417 0.122420 0.8 0 0
0.370840 0.163061 0.051094 0.8 0 0
0.058702 0.150745 0.244544 0.8 0 0
0.600984 0.172882 0.363863 0.8 0 0
0.875445 0.091509 0.117962 0.8 0 0
0.438605 0.090701 0.152182 0.8 0 0
0.678139 0.197328 0.363006 0.8 0 0
0.531698 0.143820 0.288815 0.8 0 0
0.489221 0.342634 0.257612 0.8 0 0
0.918426 0.156051 0.283946 0.8 0 0
0.301079 0.154870 0.101379 0.8 0 0
0.286755 0.174345 0.134207 0.8 0 0
0.029352 0.172883 0.249055 0.8 0 0
0.387705 0.111617 0.206334 0.8 0 0
0.790976 0.097088 0.140422 0.8 0 0
0.419375 0.125450 0.241618 0.8 0 0
0.712670 0.185713 0.071968 0.8 0 0
0.119486 0.261049 0.231287 0.8 0 0
0.126983 0.243381 0.393111 0.8 0 0
0.538792 0.305494 0.364337 0.8 0 0
0.030797 0.197662 0.235926 0.8 0 0
0.552810 0.308919 0.216120 0.8 0 0
0.815461 0.224084 0.319206 0.8 0 0
0.447542 0.147726 0.298619 0.8 0 0
0.954492 0.209872 0.276589 0.8 0 0
0.418766 0.223455 0.062148 0.8 0 0
0.189559 0.061974 0.096538 0.8 0 0
0.520553 0.184451 0.393146 0.8 0 0
0.075562 0.162657 0.071402 0.8 0 0
0.218805 0.031205 0.119190 0.8 0 0
0.492647 0.298979 0.138962 0.8 0 0
0.388017 0.103233 0.074073 0.8 0 0
0.108205 0.092394 0.102936 0.8 0 0
0.500499 0.328489 0.214354 0.8 0 0
0.482197 0.256078 0.068259 0.8 0 0
0.923126 0.243641 0.312619 0.8 0 0
0.653147 0.277286 0.298942 0.8 0 0
0.582920 0.274192 0.388907 0.8 0 0
0.732969 0.158242 0.140467 0.8 0 0
0.208463 0.076049 0.099228 0.8 0 0
0.706322 0.272901 0.272065 0.8 0 0
0.220008 0.259377 0.139387 0.8 0 0
0.873755 0.101609 0.153548 0.8 0 0
0.626857 0.272673 0.219737 0.8 0 0
0.583280 0.290368 0.377874 0.8 0 0
0.034637 0.229366 0.368176 0.8 0 0
0.769703 0.267440 0.278491 0.8 0 0
0.561095 0.091003 0.084392 0.8 0 0
0.235818 0.138618 0.066740 0.8 0 0
0.094234 0.272417 0.273709 0.8 0 0
0.411029 0.115930 0.217226 0.8 0 0
0.819981 0.091086 0.132679 0.8 0 0
0.169604 0.122181 0.133470 0.8 0 0
0.295134 0.274564 0.396509 0.8 0 0
0.834442 0.128107 0.257699 0.8 0 0
0.542112 0.081821 0.091426 0.8 0 0
0.282466 0.224974 0.064022 0.8 0 0
0.873483 0.099670 0.164546 0.8 0 0
0.466616 0.332349 0.219127 0.8 0 0
0.956847 0.177445 0.267232 0.8 0 0
0.549173 0.098356 0.078443 0.8 0 0
0.660070 0.243650 0.190791 0.8 0 0
0.199073 0.202401 0.327635 0.8 0 0
0.798726 0.138564 0.061120 0.8 0 0
0.041882 0.233347 0.313487 0.8 0 0
0.528157 0.125769 0.242417 0.8 0 0
0.465603 0.345896 0.307712 0.8 0 0
0.480240 0.171412 0.359422 0.8 0 0
0.783677 0.224201 0.319161 0.8 0 0
0.387593 0.152331 0.310941 0.8 0 0
0.768220 0.038746 0.148755 0.8 0 0
0.573177 0.185250 0.395487 0.8 0 0
0.154693 0.140705 0.066902 0.8 0 0
0.456225 0.249600 0.402263 0.8 0 0
0.793874 0.155547 0.418479 0.8 0 0
0.620853 0.290223 0.282664 0.8 0 0
0.790007 0.119806 0.227941 0.8 0 0
0.169125 0.172989 0.329892 0.8 0 0
0.034592 0.210241 0.348577 0.8 0 0
0.120750 0.177727 0.343609 0.8 0 0
0.276462 0.091523 0.112950 0.8 0 0
0.611385 0.301328 0.313458 0.8 0 0
0.703455 0.290185 0.330305 0.8 0 0
0.873191 0.102750 0.189606 0.8 0 0
0.814194 0.103392 0.177408 0.8 0 0
0.480555 0.081269 0.127822 0.8 0 0
0.567941 0.318564 0.372919 0.8 0 0
0.579617 0.317967 0.373156 0.8 0 0
0.115238 0.111437 0.170613 0.8 0 0
0.767718 0.118102 0.220300 0.8 0 0
0.289459 0.241738 0.363635 0.8 0 0
0.680003 0.124152 0.234309 0.8 0 0
0.708434 0.246232 0.379367 0.8 0 0
0.266506 0.264909 0.114374 0.8 0 0
0.078514 0.270402 0.274050 0.8 0 0
0.536377 0.128865 0.250417 0.8 0 0
0.492440 0.323861 0.199560 0.8 0 0
0.348669 0.138744 0.276241 0.8 0 0
0.711008 0.146353 0.293312 0.8 0 0
0.206554 0.140549 0.378697 0.8 0 0
0.774774 0.262037 0.340362 0.8 0 0
0.793100 0.254587 0.379906 0.8 0 0
0.168323 0.122001 0.222767 0.8 0 0
0.918081 0.239222 0.336811 0.8 0 0
0.550297 0.104548 0.073645 0.8 0 0
0.766929 0.114521 0.208692 0.8 0 0
0.535159 0.295556 0.374759 0.8 0 0
0.498610 0.324614 0.337691 0.8 0 0
0.745455 0.161645 0.114908 0.8 0 0
0.635847 0.110837 0.069637 0.8 0 0
0.316907 0.147661 0.144208 0.8 0 0
0.167226 0.104891 0.134945 0.8 0 0
0.673161 0.214655 0.404042 0.8 0 0
0.154318 0.157474 0.307734 0.8 0 0
0.722802 0.213341 0.323382 0.8 0 0
0.049659 0.186492 0.139749 0.8 0 0
0.313414 0.231316 0.326106 0.8 0 0
0.355270 0.352036 0.291527 0.8 0 0
0.395063 0.121911 0.232723 0.8 0 0
0.685131 0.131544 0.255068 0.8 0 0
0.212266 0.317936 0.320329 0.8 0 0
0.325477 0.090610 0.123068 0.8 0 0
0.365390 0.282938 0.386121 0.8 0 0
0.048720 0.188091 0.335743 0.8 0 0
0.894035 0.129230 0.213688 0.8 0 0
0.317388 0.233747 0.064708 0.8 0 0
0.696807 0.119365 0.221252 0.8 0 0
0.950042 0.222238 0.359323 0.8 0 0
0.527792 0.117199 0.220395 0.8 0 0
0.736740 0.081868 0.146311 0.8 0 0
0.144428 0.088449 0.099729 0.8 0 0
0.263931 0.263802 0.381796 0.8 0 0
0.699972 0.121148 0.131160 0.8 0 0
0.798869 0.104567 0.137544 0.8 0 0
0.639197 0.146820 0.295580 0.8 0 0
0.365965 0.344337 0.264190 0.8 0 0
0.855704 0.091270 0.163735 0.8 0 0
0.337649 0.179720 0.381518 0.8 0 0
0.524823 0.223701 0.061478 0.8 0 0
0.639720 0.193305 0.079926 0.8 0 0
0.157436 0.120939 0.073235 0.8 0 0
0.809650 0.224807 0.350097 0.8 0 0
0.397251 0.304924 0.366344 0.8 0 0
0.910588 0.236708 0.388857 0.8 0 0
0.206695 0.284905 0.210549 0.8 0 0
0.528638 0.312557 0.189187 0.8 0 0
0.045525 0.124143 0.088216 0.8 0 0
0.155184 0.102338 0.166503 0.8 0 0
0.486053 0.268655 0.077089 0.8 0 0
0.694439 0.072526 0.126321 0.8 0 0
0.770055 0.257675 0.245834 0.8 0 0
0.287884 0.160286 0.317655 0.8 0 0
0.440542 0.114655 0.213710 0.8 0 0
0.622806 0.264287 0.191550 0.8 0 0
0.742355 0.154891 0.427398 0.8 0 0
0.221624 0.089971 0.143149 0.8 0 0
0.516110 0.170905 0.358316 0.8 0 0
0.570969 0.322457 0.324002 0.8 0 0
0.116829 0.222293 0.135885 0.8 0 0
0.477646 0.317941 0.346547 0.8 0 0
0.558052 0.156030 0.320332 0.8 0 0
0.561824 0.240842 0.086468 0.8 0 0
0.325534 0.138767 0.273757 0.8 0 0
0.334284 0.218669 0.403883 0.8 0 0
0.729953 0.225678 0.154707 0.8 0 0
0.690810 0.258495 0.223027 0.8 0 0
0.751337 0.254566 0.346840 0.8 0 0
0.428900 0.114413 0.213181 0.8 0 0
0.154145 0.082336 0.114589 0.8 0 0
0.541040 0.335526 0.313562 0.8 0 0
0.625845 0.076196 0.114952 0.8 0 0
0.402146 0.348031 0.305119 0.8 0 0
0.677962 0.215295 0.121395 0.8 0 0
0.689511 0.127520 0.079882 0.8 0 0
0.736746 0.174469 0.391699 0.8 0 0
0.946641 0.234867 0.361088 0.8 0 0
0.797906 0.219656 0.161673 0.8 0 0
0.066972 0.202726 0.102779 0.8 0 0
0.670082 0.226678 0.403942 0.8 0 0
0.667672 0.099447 0.172115 0.8 0 0
0.379186 0.318824 0.344149 0.8 0 0
0.642357 0.260651 0.204681 0.8 0 0
0.395667 0.305837 0.155248 0.8 0 0
0.276663 0.108089 0.185878 0.8 0 0
0.699147 0.193323 0.086090 0.8 0 0
0.211409 0.154502 0.113675 0.8 0 0
0.702662 0.062614 0.141851 0.8 0 0
0.677485 0.177619 0.056723 0.8 0 0
0.060817 0.244276 0.208919 0.8 0 0
0.736402 0.140465 0.280817 0.8 0 0
0.536053 0.115302 0.215568 0.8 0 0
0.488655 0.091741 0.154774 0.8 0 0
0.918697 0.150193 0.268902 0.8 0 0
0.808036 0.239519 0.394127 0.8 0 0
0.558880 0.177440 0.375343 0.8 0 0
0.173523 0.306947 0.351882 0.8 0 0
0.908192 0.182247 0.350373 0.8 0 0
0.189186 0.155294 0.296333 0.8 0 0
0.218600 0.196180 0.330054 0.8 0 0
0.805693 0.195066 0.354183 0.8 0 0
0.618828 0.283411 0.381417 0.8 0 0
0.599933 0.203012 0.405275 0.8 0 0
0.427810 0.094981 0.080301 0.8 0 0
0.313485 0.237227 0.353451 0.8 0 0
0.174626 0.144962 0.130358 0.8 0 0
0.757679 0.238922 0.190189 0.8 0 0
0.306207 0.296104 0.149181 0.8 0 0
0.313262 0.233980 0.335470 0.8 0 0
0.082249 0.096343 0.115928 0.8 0 0
0.779194 0.261254 0.261466 0.8 0 0
0.050916 0.189324 0.339963 0.8 0 0
0.591797 0.153756 0.314675 0.8 0 0
0.755043 0.239839 0.191339 0.8 0 0
0.408600 0.166398 0.346911 0.8 0 0
0.109046 0.161326 0.295847 0.8 0 0
0.302369 0.281693 0.119957 0.8 0 0
0.386178 0.120855 0.230081 0.8 0 0
0.130233 0.271066 0.380471 0.8 0 0
0.173588 0.229523 0.372385 0.8 0 0
0.813712 0.133226 0.268698 0.8 0 0
0.601350 0.306783 0.315552 0.8 0 0
0.051886 0.248554 0.244024 0.8 0 0
0.291992 0.151425 0.384771 0.8 0 0
0.725361 0.212280 0.377883 0.8 0 0
0.335174 0.343192 0.266756 0.8 0 0
0.326808 0.112664 0.206994 0.8 0 0
0.874385 0.247290 0.264103 0.8 0 0
0.494334 0.142026 0.283998 0.8 0 0
0.562360 0.250347 0.401739 0.8 0 0
0.846082 0.117186 0.230272 0.8 0 0
0.120496 0.207814 0.392421 0.8 0 0
0.747551 0.268038 0.360467 0.8 0 0
0.049662 0.231179 0.189677 0.8 0 0
0.339173 0.278571 0.099929 0.8 0 0
0.632144 0.202625 0.089417 0.8 0 0
0.825328 0.123302 0.242611 0.8 0 0
0.940218 0.147193 0.263189 0.8 0 0
0.179629 0.154836 0.126048 0.8 0 0
0.836938 0.200170 0.134151 0.8 0 0
0.850630 0.156197 0.068025 0.8 0 0
0.938787 0.093356 0.120875 0.8 0 0
0.115026 0.092658 0.122207 0.8 0 0
0.302329 0.195621 0.330271 0.8 0 0
0.179334 0.091624 0.133564 0.8 0 0
0.308594 0.262222 0.404318 0.8 0 0
0.726142 0.117557 0.156285 0.8 0 0
0.357801 0.143997 0.289737 0.8 0 0
0.839102 0.073666 0.118430 0.8 0 0
0.409671 0.090318 0.151432 0.8 0 0
0.159884 0.307342 0.335625 0.8 0 0
0.274047 0.299940 0.188278 0.8 0 0
0.753605 0.263242 0.368995 0.8 0 0
0.771866 0.118418 0.087277 0.8 0 0
0.621870 0.255636 0.175276 0.8 0 0
0.203719 0.230008 0.340623 0.8 0 0
0.481675 0.156802 0.321893 0.8 0 0
0.575735 0.178061 0.042784 0.8 0 0
0.666735 0.074255 0.107447 0.8 0 0
0.849336 0.168915 0.363186 0.8 0 0
0.097966 0.217935 0.131349 0.8 0 0
0.038050 0.252047 0.369507 0.8 0 0
0.169188 0.308081 0.317261 0.8 0 0
0.468984 0.340087 0.243625 0.8 0 0
0.775846 0.196440 0.109029 0.8 0 0
0.191301 0.147610 0.060860 0.8 0 0
0.211046 0.221528 0.393568 0.8 0 0
0.237399 0.316619 0.274792 0.8 0 0
0.308129 0.279818 0.111273 0.8 0 0
0.497018 0.349361 0.284205 0.8 0 0
0.126499 0.181589 0.356299 0.8 0 0
0.714013 0.058984 0.097689 0.8 0 0
0.318697 0.189550 0.332632 0.8 0 0
0.267087 0.163812 0.423930 0.8 0 0
0.203840 0.171928 0.363208 0.8 0 0
0.664506 0.178120 0.374550 0.8 0 0
0.587885 0.250550 0.129896 0.8 0 0
0.033960 0.134440 0.163009 0.8 0 0
0.324345 0.105680 0.154240 0.8 0 0
0.932179 0.220325 0.308518 0.8 0 0
0.377112 0.139546 0.054561 0.8 0 0
0.737780 0.257199 0.359733 0.8 0 0
0.357671 0.317339 0.189390 0.8 0 0
0.700406 0.170317 0.409817 0.8 0 0
0.355567 0.143759 0.289124 0.8 0 0
0.796350 0.123337 0.154038 0.8 0 0
0.832934 0.111861 0.101148 0.8 0 0
0.194766 0.252753 0.339452 0.8 0 0
0.876837 0.131644 0.220989 0.8 0 0
0.300917 0.209777 0.348421 0.8 0 0
0.515078 0.134266 0.264177 0.8 0 0
0.760393 0.144095 0.067036 0.8 0 0
0.941532 0.211439 0.329744 0.8 0 0
0.291121 0.214530 0.346632 0.8 0 0
0.436996 0.170615 0.357513 0.8 0 0
0.363445 0.350895 0.286712 0.8 0 0
0.953815 0.165971 0.158533 0.8 0 0
0.295890 0.125640 0.239025 0.8 0 0
0.932035 0.162413 0.301576 0.8 0 0
0.782985 0.175002 0.362065 0.8 0 0
0.304219 0.188023 0.356884 0.8 0 0
0.084206 0.202831 0.098629 0.8 0 0
0.827138 0.235827 0.372460 0.8 0 0
0.372584 0.144747 0.291577 0.8 0 0
0.185701 0.163580 0.374997 0.8 0 0
0.278546 0.119112 0.131868 0.8 0 0
0.204198 0.249770 0.130960 0.8 0 0
0.798958 0.157510 0.413285 0.8 0 0
0.848513 0.229968 0.197168 0.8 0 0
0.242467 0.131194 0.390421 0.8 0 0
0.788342 0.153571 0.079408 0.8 0 0
0.274933 0.224514 0.065546 0.8 0 0
0.168279 0.176159 0.361391 0.8 0 0
0.328537 0.115949 0.217674 0.8 0 0
0.297756 0.265183 0.393752 0.8 0 0
0.048687 0.201216 0.176980 0.8 0 0
0.286100 0.148709 0.051242 0.8 0 0
0.295820 0.233651 0.362285 0.8 0 0
0.375001 0.271215 0.081274 0.8 0 0
0.944387 0.129132 0.088809 0.8 0 0
0.737342 0.138251 0.402207 0.8 0 0
0.770865 0.178259 0.337022 0.8 0 0
0.300027 0.272909 0.104283 0.8 0 0
0.200100 0.215507 0.074204 0.8 0 0
0.306938 0.108074 0.099720 0.8 0 0
0.934825 0.110263 0.165098 0.8 0 0
0.062996 0.159930 0.270207 0.8 0 0
0.451908 0.303926 0.145029 0.8 0 0
0.107300 0.243747 0.192150 0.8 0 0
0.721888 0.185626 0.334158 0.8 0 0
0.610030 0.300509 0.367858 0.8 0 0
0.065057 0.228806 0.170299 0.8 0 0
0.808429 0.135904 0.115391 0.8 0 0
0.072418 0.239546 0.195725 0.8 0 0
0.459168 0.188803 0.402732 0.8 0 0
0.411634 0.313711 0.351475 0.8 0 0
0.618483 0.149653 0.056376 0.8 0 0
0.415810 0.350612 0.281625 0.8 0 0
0.429229 0.168706 0.352673 0.8 0 0
0.511218 0.102443 0.182393 0.8 0 0
0.167498 0.116263 0.188368 0.8 0 0
0.104845 0.155504 0.066503 0.8 0 0
0.924208 0.160049 0.117152 0.8 0 0
0.424908 0.222526 0.404572 0.8 0 0
0.433784 0.347757 0.305387 0.8 0 0
0.234492 0.159209 0.102951 0.8 0 0
0.948089 0.209437 0.221649 0.8 0 0
0.809908 0.172167 0.339390 0.8 0 0
0.482663 0.138395 0.056439 0.8 0 0
0.036680 0.175442 0.294018 0.8 0 0
0.600461 0.130835 0.255833 0.8 0 0
0.380626 0.201572 0.058047 0.8 0 0
0.778201 0.165620 0.423227 0.8 0 0
0.451413 0.218691 0.061023 0.8 0 0
0.740954 0.164090 0.366314 0.8 0 0
0.286836 0.278338 0.393001 0.8 0 0
0.694439 0.172558 0.383782 0.8 0 0
0.829370 0.140534 0.147352 0.8 0 0
0.506576 0.347328 0.304405 0.8 0 0
0.241413 0.261230 0.126251 0.8 0 0
0.233736 0.151727 0.428628 0.8 0 0
0.144322 0.126229 0.222658 0.8 0 0
0.942959 0.136601 0.134677 0.8 0 0
0.436258 0.172865 0.363300 0.8 0 0
0.038650 0.175838 0.302644 0.8 0 0
0.484848 0.206749 0.058339 0.8 0 0
0.933684 0.221201 0.232775 0.8 0 0
0.802524 0.231491 0.186932 0.8 0 0
0.475978 0.080226 0.125118 0.8 0 0
0.777071 0.124578 0.153556 0.8 0 0
0.201131 0.299579 0.259641 0.8 0 0
0.805362 0.103424 0.161779 0.8 0 0
0.249865 0.314341 0.255534 0.8 0 0
0.945909 0.207677 0.331134 0.8 0 0
0.643882 0.195739 0.090719 0.8 0 0
0.049862 0.185753 0.136750 0.8 0 0
0.544524 0.333867 0.311742 0.8 0 0
0.167959 0.099609 0.150912 0.8 0 0
0.235452 0.031410 0.132541 0.8 0 0
0.727967 0.097937 0.111477 0.8 0 0
0.275465 0.244252 0.075448 0.8 0 0
0.486789 0.340168 0.247958 0.8 0 0
0.505822 0.262691 0.072293 0.8 0 0
0.354658 0.307012 0.359991 0.8 0 0
0.256146 0.211781 0.374672 0.8 0 0
0.132215 0.098735 0.089762 0.8 0 0
0.168306 0.145717 0.283682 0.8 0 0
0.057684 0.213241 0.185903 0.8 0 0
0.817177 0.067277 0.103977 0.8 0 0
0.124147 0.212926 0.393838 0.8 0 0
0.475387 0.316857 0.347999 0.8 0 0
0.768361 0.261782 0.335581 0.8 0 0
0.344881 0.110841 0.204550 0.8 0 0
0.346625 0.074490 0.111155 0.8 0 0
0.616451 0.294695 0.293594 0.8 0 0
0.873297 0.111726 0.206461 0.8 0 0
0.961726 0.163323 0.236666 0.8 0 0
0.858047 0.276964 0.369360 0.8 0 0
0.314450 0.121908 0.087168 0.8 0 0
0.697099 0.254984 0.389983 0.8 0 0
0.910553 0.110163 0.164471 0.8 0 0
0.396133 0.178879 0.379081 0.8 0 0
0.747392 0.124662 0.075382 0.8 0 0
0.163428 0.264537 0.197740 0.8 0 0
0.265210 0.185149 0.130006 0.8 0 0
0.387237 0.330379 0.328710 0.8 0 0
0.812125 0.103452 0.177400 0.8 0 0
0.246705 0.239213 0.337061 0.8 0 0
0.250510 0.160494 0.104667 0.8 0 0
0.649444 0.147786 0.058186 0.8 0 0
0.035249 0.143883 0.209516 0.8 0 0
0.167109 0.093366 0.101418 0.8 0 0
0.275581 0.233823 0.393188 0.8 0 0
0.171248 0.122087 0.154524 0.8 0 0
0.344890 0.303688 0.155917 0.8 0 0
0.558397 0.247045 0.093661 0.8 0 0
0.156794 0.178440 0.062615 0.8 0 0
0.449130 0.079057 0.094062 0.8 0 0
0.313180 0.348046 0.290438 0.8 0 0
0.275965 0.079162 0.111975 0.8 0 0
0.858487 0.168872 0.363114 0.8 0 0
0.770650 0.116606 0.215767 0.8 0 0
0.775633 0.099988 0.168301 0.8 0 0
0.606452 0.301457 0.366396 0.8 0 0
0.048001 0.180919 0.149961 0.8 0 0
0.783074 0.145132 0.373584 0.8 0 0
0.859988 0.115054 0.076493 0.8 0 0
0.259404 0.056784 0.156157 0.8 0 0
0.690697 0.090006 0.134054 0.8 0 0
0.964813 0.149713 0.245519 0.8 0 0
0.247908 0.305953 0.232364 0.8 0 0
0.185369 0.119187 0.098352 0.8 0 0
0.563379 0.321340 0.386873 0.8 0 0
0.657825 0.080335 0.123617 0.8 0 0
0.301905 0.248633 0.336368 0.8 0 0
0.480841 0.176035 0.051910 0.8 0 0
0.343480 0.112458 0.068697 0.8 0 0
0.166458 0.199156 0.397450 0.8 0 0
0.694071 0.270382 0.389816 0.8 0 0
0.173427 0.121395 0.154793 0.8 0 0
0.815637 0.227627 0.386175 0.8 0 0
0.414274 0.267790 0.073260 0.8 0 0
0.414792 0.334464 0.227431 0.8 0 0
0.778423 0.176551 0.068385 0.8 0 0
0.722196 0.226140 0.342151 0.8 0 0
0.598793 0.278406 0.193496 0.8 0 0
0.397917 0.185008 0.394811 0.8 0 0
0.579925 0.099976 0.176435 0.8 0 0
0.406164 0.321477 0.340789 0.8 0 0
0.194951 0.257081 0.356099 0.8 0 0
0.062906 0.296865 0.345176 0.8 0 0
0.346941 0.344073 0.309385 0.8 0 0
0.087653 0.197563 0.084501 0.8 0 0
0.497816 0.298981 0.139645 0.8 0 0
0.181100 0.069586 0.101087 0.8 0 0
0.659417 0.176780 0.371401 0.8 0 0
0.426889 0.173445 0.051341 0.8 0 0
0.617377 0.282815 0.242596 0.8 0 0
0.582312 0.266088 0.155670 0.8 0 0
0.226757 0.144796 0.145695 0.8 0 0
0.307718 0.096751 0.138699 0.8 0 0
0.828935 0.161530 0.328464 0.8 0 0
0.354707 0.138463 0.056353 0.8 0 0
0.059307 0.220752 0.146558 0.8 0 0
0.431466 0.257660 0.068624 0.8 0 0
0.928384 0.140100 0.243463 0.8 0 0
0.464415 0.092922 0.082080 0.8 0 0
0.574808 0.310690 0.269272 0.8 0 0
0.794805 0.265178 0.377254 0.8 0 0
0.832989 0.109803 0.097289 0.8 0 0
0.819638 0.206532 0.368004 0.8 0 0
0.840904 0.265033 0.304161 0.8 0 0
0.198944 0.159483 0.060302 0.8 0 0
0.380994 0.216661 0.060884 0.8 0 0
0.787784 0.192297 0.103799 0.8 0 0
0.688381 0.269303 0.255322 0.8 0 0
0.388782 0.305972 0.156383 0.8 0 0
0.934600 0.227377 0.259421 0.8 0 0
0.081850 0.250103 0.219230 0.8 0 0
0.271221 0.236775 0.337996 0.8 0 0
0.048960 0.238028 0.266953 0.8 0 0
0.402917 0.184325 0.393016 0.8 0 0
0.352963 0.134575 0.265528 0.8 0 0
0.843102 0.142612 0.295580 0.8 0 0
0.123822 0.256534 0.389225 0.8 0 0
0.564627 0.273790 0.150244 0.8 0 0
0.211205 0.067615 0.099235 0.8 0 0
0.573529 0.153623 0.314232 0.8 0 0
0.170308 0.128331 0.137687 0.8 0 0
0.924595 0.153913 0.279020 0.8 0 0
0.182146 0.134909 0.256191 0.8 0 0
0.310089 0.269014 0.087866 0.8 0 0
0.954412 0.112221 0.159321 0.8 0 0
0.834892 0.109485 0.199031 0.8 0 0
0.893609 0.115688 0.178924 0.8 0 0
0.209686 0.157018 0.059691 0.8 0 0
0.545849 0.174626 0.051872 0.8 0 0
0.745107 0.178338 0.388412 0.8 0 0
0.318347 0.257315 0.072521 0.8 0 0
0.188088 0.234583 0.395483 0.8 0 0
0.741521 0.047951 0.105662 0.8 0 0
0.169928 0.198010 0.330132 0.8 0 0
0.800234 0.197446 0.410919 0.8 0 0
0.713588 0.054617 0.151784 0.8 0 0
0.256781 0.331270 0.305778 0.8 0 0
0.097902 0.212291 0.390068 0.8 0 0
0.044516 0.193263 0.204578 0.8 0 0
0.794848 0.111493 0.201634 0.8 0 0
0.429889 0.159247 0.328364 0.8 0 0
0.821854 0.248819 0.237870 0.8 0 0
0.660248 0.185990 0.395043 0.8 0 0
0.299917 0.224939 0.357080 0.8 0 0
0.389805 0.287215 0.112931 0.8 0 0
0.093880 0.271035 0.270232 0.8 0 0
0.227019 0.266741 0.150128 0.8 0 0
0.927330 0.230584 0.335160 0.8 0 0
0.204866 0.124870 0.230222 0.8 0 0
0.692898 0.211212 0.361318 0.8 0 0
0.131255 0.302442 0.339193 0.8 0 0
0.900565 0.215326 0.189802 0.8 0 0
0.941400 0.093839 0.122098 0.8 0 0
0.589282 0.226833 0.088664 0.8 0 0
0.308909 0.135896 0.052005 0.8 0 0
0.303845 0.126770 0.123241 0.8 0 0
0.488350 0.348137 0.277723 0.8 0 0
0.161693 0.185085 0.382222 0.8 0 0
0.821670 0.225844 0.180522 0.8 0 0
0.240730 0.131454 0.391096 0.8 0 0
0.242752 0.157470 0.304205 0.8 0 0
0.469769 0.167375 0.052988 0.8 0 0
0.754308 0.147360 0.427696 0.8 0 0
0.403218 0.329551 0.216059 0.8 0 0
0.793558 0.149752 0.404041 0.8 0 0
0.124495 0.149873 0.273859 0.8 0 0
0.298659 0.114365 0.157526 0.8 0 0
0.247289 0.176998 0.133175 0.8 0 0
0.701225 0.231375 0.364835 0.8 0 0
0.899012 0.234283 0.234723 0.8 0 0
0.746414 0.130881 0.127261 0.8 0 0
0.609815 0.294392 0.275994 0.8 0 0
0.698672 0.160297 0.371688 0.8 0 0
0.321258 0.280063 0.389501 0.8 0 0
0.048967 0.258782 0.245449 0.8 0 0
0.752450 0.242012 0.389421 0.8 0 0
0.300611 0.155401 0.101105 0.8 0 0
0.826091 0.160516 0.326342 0.8 0 0
0.079537 0.194479 0.366881 0.8 0 0
0.606720 0.215706 0.086559 0.8 0 0
0.506674 0.161744 0.053549 0.8 0 0
0.100038 0.165299 0.301720 0.8 0 0
0.282103 0.264142 0.355791 0.8 0 0
0.551919 0.169158 0.354026 0.8 0 0
0.782338 0.111067 0.199052 0.8 0 0
0.805719 0.125992 0.129265 0.8 0 0
0.813314 0.101677 0.172477 0.8 0 0
0.059016 0.226295 0.384666 0.8 0 0
0.786169 0.210519 0.139256 0.8 0 0
0.237447 0.049601 0.105116 0.8 0 0
0.198593 0.140721 0.103925 0.8 0 0
0.135125 0.231255 0.144011 0.8 0 0
0.959739 0.172082 0.299953 0.8 0 0
0.929953 0.242685 0.370592 0.8 0 0
0.604418 0.120389 0.229016 0.8 0 0
0.897734 0.126237 0.205764 0.8 0 0
0.403593 0.162022 0.050823 0.8 0 0
0.112405 0.249322 0.204159 0.8 0 0
0.149727 0.281536 0.258232 0.8 0 0
0.583646 0.130745 0.255507 0.8 0 0
0.278106 0.190009 0.407798 0.8 0 0
0.279259 0.332675 0.315048 0.8 0 0
0.496526 0.245090 0.402441 0.8 0 0
0.303034 0.256105 0.374163 0.8 0 0
0.094649 0.116885 0.081167 0.8 0 0
0.508457 0.316694 0.348643 0.8 0 0
0.325288 0.090233 0.086746 0.8 0 0
0.201074 0.172629 0.420502 0.8 0 0
0.348045 0.100063 0.077740 0.8 0 0
0.221484 0.182938 0.335203 0.8 0 0
0.956683 0.112812 0.166302 0.8 0 0
0.789739 0.245360 0.349694 0.8 0 0
0.804847 0.137159 0.064049 0.8 0 0
0.606287 0.219233 0.092410 0.8 0 0
0.743267 0.226492 0.318270 0.8 0 0
0.916535 0.134954 0.077633 0.8 0 0
0.502770 0.275873 0.093136 0.8 0 0
0.801757 0.235673 0.314700 0.8 0 0
0.750383 0.159856 0.325551 0.8 0 0
0.046212 0.173706 0.298315 0.8 0 0
0.259550 0.115552 0.207349 0.8 0 0
0.353515 0.260466 0.400132 0.8 0 0
0.228752 0.185211 0.334319 0.8 0 0
0.343291 0.163669 0.052814 0.8 0 0
0.873917 0.178013 0.340307 0.8 0 0
0.221439 0.292741 0.219162 0.8 0 0
0.198935 0.186004 0.357729 0.8 0 0
0.338956 0.137343 0.272640 0.8 0 0
0.764054 0.169878 0.340280 0.8 0 0
0.843334 0.271493 0.326641 0.8 0 0
0.636631 0.137003 0.270516 0.8 0 0
0.380275 0.310029 0.167934 0.8 0 0
0.624649 0.276159 0.229950 0.8 0 0
0.810993 0.173028 0.412557 0.8 0 0
0.958802 0.174824 0.316750 0.8 0 0
0.109184 0.098056 0.095294 0.8 0 0
0.221121 0.309642 0.270085 0.8 0 0
0.795289 0.205911 0.403828 0.8 0 0
0.074765 0.280171 0.300859 0.8 0 0
0.606973 0.167746 0.350700 0.8 0 0
0.131579 0.113724 0.078461 0.8 0 0
0.782143 0.147335 0.298805 0.8 0 0
0.765326 0.133575 0.068701 0.8 0 0
0.253502 0.153384 0.052878 0.8 0 0
0.292105 0.188645 0.052667 0.8 0 0
0.320674 0.131765 0.256869 0.8 0 0
0.373956 0.139657 0.054506 0.8 0 0
0.518012 0.216921 0.404776 0.8 0 0
0.771062 0.159993 0.325676 0.8 0 0
0.415116 0.261292 0.069392 0.8 0 0
0.738797 0.157335 0.320311 0.8 0 0
0.596596 0.141949 0.284364 0.8 0 0
0.119109 0.116813 0.186314 0.8 0 0
0.442645 0.158339 0.325928 0.8 0 0
0.670319 0.116725 0.216342 0.8 0 0
0.269707 0.315020 0.237772 0.8 0 0
0.264985 0.255575 0.307712 0.8 0 0
0.460144 0.188161 0.402407 0.8 0 0
0.478343 0.284363 0.106456 0.8 0 0
0.079464 0.257511 0.240102 0.8 0 0
0.957828 0.205257 0.265212 0.8 0 0
0.064366 0.185443 0.336428 0.8 0 0
0.751856 0.162965 0.332118 0.8 0 0
0.589421 0.122104 0.060447 0.8 0 0
0.287908 0.151075 0.396272 0.8 0 0
0.178261 0.216083 0.322316 0.8 0 0
0.187606 0.073447 0.146636 0.8 0 0
0.787033 0.240113 0.200314 0.8 0 0
0.792041 0.224824 0.170708 0.8 0 0
0.716955 0.277474 0.385176 0.8 0 0
0.098201 0.294465 0.330017 0.8 0 0
0.509040 0.313546 0.352954 0.8 0 0
0.939581 0.100846 0.107755 0.8 0 0
0.257120 0.159125 0.310240 0.8 0 0
0.093782 0.106909 0.148600 0.8 0 0
0.743816 0.270934 0.278998 0.8 0 0
0.638740 0.116934 0.064859 0.8 0 0
0.192536 0.254043 0.348656 0.8 0 0
0.511040 0.127240 0.058224 0.8 0 0
0.533014 0.303227 0.173390 0.8 0 0
