0.309096 0.938618 0.259940 0.8 0 0
0.429631 0.440343 0.152702 0.8 0 0
0.376413 0.277198 0.153406 0.8 0 0
0.406394 0.856620 0.150046 0.8 0 0
0.095171 0.792169 0.049229 0.8 0 0
0.389548 0.115326 0.223664 0.8 0 0
0.427672 0.093841 0.134990 0.8 0 0
0.116181 0.781061 0.241380 0.8 0 0
0.049225 0.738191 0.136275 0.8 0 0
0.421450 0.309085 0.235179 0.8 0 0
0.314025 0.670176 0.241349 0.8 0 0
0.129027 0.857913 0.241380 0.8 0 0
0.407851 0.216256 0.102415 0.8 0 0
0.410998 0.803355 0.060643 0.8 0 0
0.426369 0.711706 0.211887 0.8 0 0
0.289656 0.053386 0.208865 0.8 0 0
0.358396 0.281903 0.256629 0.8 0 0
0.184806 0.583938 0.354385 0.8 0 0
0.097233 0.441792 0.094962 0.8 0 0
0.282663 0.927561 0.278163 0.8 0 0
0.256575 0.884915 0.343696 0.8 0 0
0.086238 0.237960 0.090302 0.8 0 0
0.299126 0.037965 0.179740 0.8 0 0
0.412308 0.099852 0.131818 0.8 0 0
0.325213 0.110296 0.110319 0.8 0 0
0.345035 0.545956 0.094375 0.8 0 0
0.409790 0.233193 0.121371 0.8 0 0
0.383240 0.780427 0.133824 0.8 0 0
0.413015 0.745538 0.249768 0.8 0 0
0.424365 0.700278 0.177146 0.8 0 0
0.433244 0.692780 0.144755 0.8 0 0
0.310882 0.532352 0.242447 0.8 0 0
0.391743 0.536984 0.094088 0.8 0 0
0.297355 0.946711 0.241380 0.8 0 0
0.064489 0.800404 0.103170 0.8 0 0
0.139809 0.796434 0.352619 0.8 0 0
0.423946 0.760145 0.130099 0.8 0 0
0.189278 0.051026 0.143891 0.8 0 0
0.322263 0.064390 0.200328 0.8 0 0
0.080357 0.961648 0.142334 0.8 0 0
0.290285 0.856725 0.093078 0.8 0 0
0.062032 0.377298 0.245051 0.8 0 0
0.153158 0.845006 0.353191 0.8 0 0
0.353699 0.103629 0.112767 0.8 0 0
0.058191 0.905754 0.174243 0.8 0 0
0.046894 0.773787 0.157612 0.8 0 0
0.196923 0.460215 0.350377 0.8 0 0
0.383967 0.856684 0.302825 0.8 0 0
0.293148 0.060810 0.183664 0.8 0 0
0.369406 0.600760 0.242004 0.8 0 0
0.349833 0.950021 0.218250 0.8 0 0
0.421873 0.740883 0.116973 0.8 0 0
0.353699 0.252186 0.111168 0.8 0 0
0.354672 0.974635 0.121831 0.8 0 0
0.078600 0.180119 0.055128 0.8 0 0
0.141965 0.794258 0.352711 0.8 0 0
0.049899 0.853526 0.158536 0.8 0 0
0.364426 0.501821 0.242233 0.8 0 0
0.214945 0.946817 0.198145 0.8 0 0
0.049345 0.106608 0.150249 0.8 0 0
0.407421 0.217597 0.060308 0.8 0 0
0.107010 0.106495 0.152410 0.8 0 0
0.338631 0.536838 0.351984 0.8 0 0
0.392820 0.740984 0.085266 0.8 0 0
0.388116 0.208520 0.198159 0.8 0 0
0.353699 0.102978 0.137869 0.8 0 0
0.431263 0.379519 0.117951 0.8 0 0
0.127136 0.903025 0.099150 0.8 0 0
0.059498 0.938428 0.145743 0.8 0 0
0.211151 0.862957 0.353266 0.8 0 0
0.269958 0.481208 0.351484 0.8 0 0
0.049126 0.405436 0.169785 0.8 0 0
0.324932 0.728706 0.353095 0.8 0 0
0.390835 0.214051 0.077661 0.8 0 0
0.203654 0.556919 0.354742 0.8 0 0
0.429309 0.837111 0.104580 0.8 0 0
0.059116 0.230561 0.064596 0.8 0 0
0.045704 0.333624 0.105682 0.8 0 0
0.119569 0.636417 0.241662 0.8 0 0
0.141692 0.951385 0.207558 0.8 0 0
0.391896 0.591890 0.242089 0.8 0 0
0.187418 0.853301 0.093080 0.8 0 0
0.373301 0.392747 0.311729 0.8 0 0
0.407568 0.210222 0.082497 0.8 0 0
0.084978 0.202759 0.059033 0.8 0 0
0.089376 0.182165 0.054589 0.8 0 0
0.391654 0.169949 0.053930 0.8 0 0
0.362684 0.277198 0.153406 0.8 0 0
0.335306 0.507079 0.242290 0.8 0 0
0.157275 0.152966 0.107086 0.8 0 0
0.262248 0.317408 0.235910 0.8 0 0
0.371993 0.696062 0.167757 0.8 0 0
0.395712 0.839602 0.241380 0.8 0 0
0.089961 0.112870 0.223447 0.8 0 0
0.049374 0.596172 0.093004 0.8 0 0
0.429379 0.722788 0.065702 0.8 0 0
0.256353 0.042093 0.171061 0.8 0 0
0.345894 0.650700 0.352215 0.8 0 0
0.053656 0.203266 0.054186 0.8 0 0
0.044839 0.659471 0.118013 0.8 0 0
0.218287 0.271882 0.255470 0.8 0 0
0.098973 0.325198 0.269340 0.8 0 0
0.048660 0.104293 0.187725 0.8 0 0
0.296232 0.177645 0.105216 0.8 0 0
0.095171 0.774759 0.165121 0.8 0 0
0.393826 0.696529 0.168796 0.8 0 0
0.203317 0.468865 0.350904 0.8 0 0
0.092205 0.814060 0.128018 0.8 0 0
0.065607 0.210071 0.052993 0.8 0 0
0.333942 0.168835 0.105884 0.8 0 0
0.377149 0.621567 0.320042 0.8 0 0
0.119646 0.728125 0.169911 0.8 0 0
0.315903 0.810547 0.093105 0.8 0 0
0.392960 0.788911 0.050617 0.8 0 0
0.412897 0.574245 0.246604 0.8 0 0
0.353699 0.153029 0.108310 0.8 0 0
0.396654 0.221663 0.112461 0.8 0 0
0.056919 0.654658 0.241795 0.8 0 0
0.095171 0.716556 0.077367 0.8 0 0
0.226887 0.530563 0.354248 0.8 0 0
0.167080 0.057719 0.123408 0.8 0 0
0.238027 0.881165 0.347554 0.8 0 0
0.397096 0.064719 0.110391 0.8 0 0
0.053870 0.288410 0.108831 0.8 0 0
0.294562 0.058369 0.212591 0.8 0 0
0.052844 0.684694 0.131659 0.8 0 0
0.414309 0.919125 0.121263 0.8 0 0
0.191162 0.692074 0.093175 0.8 0 0
0.190213 0.680418 0.241350 0.8 0 0
0.208472 0.324602 0.283000 0.8 0 0
0.220349 0.915615 0.241355 0.8 0 0
0.427557 0.243892 0.078756 0.8 0 0
0.434002 0.623428 0.152555 0.8 0 0
0.376061 0.037280 0.149745 0.8 0 0
0.269606 0.303636 0.271069 0.8 0 0
0.433505 0.699787 0.169866 0.8 0 0
0.070916 0.707443 0.262249 0.8 0 0
0.041480 0.235969 0.183013 0.8 0 0
0.196879 0.957993 0.143622 0.8 0 0
0.058322 0.167432 0.116794 0.8 0 0
0.275695 0.064390 0.204042 0.8 0 0
0.396052 0.738480 0.061983 0.8 0 0
0.348778 0.475983 0.241954 0.8 0 0
0.074777 0.066858 0.110569 0.8 0 0
0.186639 0.566189 0.242336 0.8 0 0
0.048660 0.444855 0.094153 0.8 0 0
0.089990 0.719312 0.303522 0.8 0 0
0.066439 0.935630 0.212930 0.8 0 0
0.370510 0.555771 0.333969 0.8 0 0
0.112137 0.522853 0.242447 0.8 0 0
0.381746 0.211114 0.169683 0.8 0 0
0.072561 0.319429 0.096390 0.8 0 0
0.119646 0.811165 0.180631 0.8 0 0
0.384640 0.428513 0.095466 0.8 0 0
0.066610 0.909099 0.245652 0.8 0 0
0.084933 0.710523 0.184864 0.8 0 0
0.199116 0.095582 0.111434 0.8 0 0
0.121913 0.124487 0.141442 0.8 0 0
0.359682 0.902240 0.241319 0.8 0 0
0.378681 0.756011 0.314706 0.8 0 0
0.263239 0.556331 0.242431 0.8 0 0
0.193047 0.941606 0.153289 0.8 0 0
0.412599 0.816308 0.124495 0.8 0 0
0.371682 0.260067 0.187155 0.8 0 0
0.280406 0.545095 0.354393 0.8 0 0
0.119646 0.790351 0.116289 0.8 0 0
0.051658 0.745559 0.062675 0.8 0 0
0.286300 0.749617 0.354471 0.8 0 0
0.423741 0.409001 0.215568 0.8 0 0
0.076599 0.755886 0.027116 0.8 0 0
0.424594 0.744705 0.071905 0.8 0 0
0.256027 0.828917 0.355044 0.8 0 0
0.119646 0.752198 0.154599 0.8 0 0
0.360989 0.833568 0.348350 0.8 0 0
0.281009 0.243855 0.100199 0.8 0 0
0.082023 0.171207 0.198215 0.8 0 0
0.257190 0.625785 0.241764 0.8 0 0
0.410140 0.540674 0.250829 0.8 0 0
0.103481 0.041946 0.168377 0.8 0 0
0.048783 0.579056 0.180066 0.8 0 0
0.088317 0.069036 0.199728 0.8 0 0
0.256922 0.950395 0.108766 0.8 0 0
0.273785 0.280327 0.232188 0.8 0 0
0.414929 0.133021 0.195473 0.8 0 0
0.212459 0.947636 0.244282 0.8 0 0
0.089327 0.106067 0.151321 0.8 0 0
0.063618 0.511890 0.247195 0.8 0 0
0.419411 0.745485 0.240354 0.8 0 0
0.081821 0.914910 0.263565 0.8 0 0
0.426742 0.577050 0.198550 0.8 0 0
0.052820 0.911997 0.142711 0.8 0 0
0.143424 0.170848 0.105731 0.8 0 0
0.102011 0.485060 0.242052 0.8 0 0
0.046972 0.104236 0.170623 0.8 0 0
0.353699 0.117390 0.129332 0.8 0 0
0.433185 0.234229 0.185201 0.8 0 0
0.047765 0.776715 0.147790 0.8 0 0
0.299393 0.949983 0.223521 0.8 0 0
0.241566 0.325146 0.096426 0.8 0 0
0.069002 0.904900 0.249437 0.8 0 0
0.311045 0.951365 0.198703 0.8 0 0
0.215989 0.268563 0.251209 0.8 0 0
0.380293 0.263909 0.090326 0.8 0 0
0.298852 0.597801 0.354205 0.8 0 0
0.386279 0.679042 0.300887 0.8 0 0
0.395562 0.474622 0.280446 0.8 0 0
0.067496 0.753634 0.169262 0.8 0 0
0.425753 0.795010 0.214291 0.8 0 0
0.308104 0.818471 0.353807 0.8 0 0
0.398718 0.266772 0.095494 0.8 0 0
0.090750 0.238027 0.156863 0.8 0 0
0.326459 0.460110 0.349389 0.8 0 0
0.209009 0.493792 0.094859 0.8 0 0
0.425000 0.216725 0.082335 0.8 0 0
0.339134 0.856893 0.350993 0.8 0 0
0.363439 0.603061 0.346571 0.8 0 0
0.417648 0.739883 0.243530 0.8 0 0
0.069001 0.165052 0.116560 0.8 0 0
0.398318 0.826074 0.241380 0.8 0 0
0.221088 0.950643 0.118964 0.8 0 0
0.053547 0.072630 0.165765 0.8 0 0
0.071805 0.218673 0.136866 0.8 0 0
0.043536 0.319305 0.112827 0.8 0 0
0.048786 0.407105 0.198004 0.8 0 0
0.414815 0.250003 0.051671 0.8 0 0
0.093407 0.294502 0.256031 0.8 0 0
0.220666 0.821611 0.093098 0.8 0 0
0.093179 0.748776 0.130919 0.8 0 0
0.201755 0.594303 0.242066 0.8 0 0
0.217264 0.535831 0.354336 0.8 0 0
0.362727 0.748586 0.344382 0.8 0 0
0.195947 0.211690 0.102636 0.8 0 0
0.058418 0.179336 0.229190 0.8 0 0
0.292484 0.302264 0.096639 0.8 0 0
0.054562 0.170108 0.111282 0.8 0 0
0.381046 0.813277 0.134317 0.8 0 0
0.188891 0.584484 0.242161 0.8 0 0
0.062126 0.821708 0.094590 0.8 0 0
0.363827 0.619004 0.346008 0.8 0 0
0.379860 0.868707 0.109867 0.8 0 0
0.238490 0.300943 0.234326 0.8 0 0
0.134655 0.433420 0.341922 0.8 0 0
0.214742 0.058189 0.191685 0.8 0 0
0.280508 0.064390 0.187523 0.8 0 0
0.422544 0.789456 0.026829 0.8 0 0
0.331585 0.054044 0.126627 0.8 0 0
0.355966 0.814530 0.117242 0.8 0 0
0.126608 0.700214 0.241353 0.8 0 0
0.095350 0.786207 0.073317 0.8 0 0
0.287299 0.396427 0.322625 0.8 0 0
0.191560 0.389327 0.239280 0.8 0 0
0.115172 0.715027 0.350595 0.8 0 0
0.283605 0.075387 0.220090 0.8 0 0
0.074330 0.415872 0.240524 0.8 0 0
0.094624 0.200042 0.026410 0.8 0 0
0.425640 0.630260 0.204770 0.8 0 0
0.236738 0.916020 0.296753 0.8 0 0
0.206037 0.601730 0.241995 0.8 0 0
0.329943 0.797825 0.352870 0.8 0 0
0.138959 0.951365 0.199129 0.8 0 0
0.431622 0.450289 0.143996 0.8 0 0
0.103740 0.809829 0.190060 0.8 0 0
0.166499 0.492033 0.242128 0.8 0 0
0.165695 0.815784 0.093102 0.8 0 0
0.284876 0.860204 0.093076 0.8 0 0
0.051530 0.655465 0.213572 0.8 0 0
0.427673 0.475953 0.157231 0.8 0 0
0.119646 0.684038 0.108943 0.8 0 0
0.290026 0.765305 0.354400 0.8 0 0
0.427718 0.189823 0.029522 0.8 0 0
0.081001 0.180356 0.060101 0.8 0 0
0.112363 0.679379 0.346921 0.8 0 0
0.345228 0.857863 0.350569 0.8 0 0
0.047002 0.715614 0.065253 0.8 0 0
0.073488 0.443266 0.266720 0.8 0 0
0.427181 0.142442 0.113126 0.8 0 0
0.174062 0.776206 0.093125 0.8 0 0
0.137826 0.045171 0.140254 0.8 0 0
0.047200 0.638226 0.105009 0.8 0 0
0.419080 0.085199 0.123049 0.8 0 0
0.075595 0.332780 0.263436 0.8 0 0
0.395292 0.179949 0.198202 0.8 0 0
0.430780 0.489539 0.129291 0.8 0 0
0.107995 0.203899 0.241485 0.8 0 0
0.357294 0.311997 0.096548 0.8 0 0
0.399443 0.165972 0.073471 0.8 0 0
0.206928 0.366988 0.306873 0.8 0 0
0.353699 0.259263 0.153366 0.8 0 0
0.187273 0.928796 0.104416 0.8 0 0
0.220411 0.685107 0.241351 0.8 0 0
0.429653 0.870052 0.126605 0.8 0 0
0.379811 0.804040 0.068084 0.8 0 0
0.425000 0.192144 0.053689 0.8 0 0
0.272745 0.776510 0.093125 0.8 0 0
0.264338 0.918843 0.292299 0.8 0 0
0.194319 0.932054 0.105082 0.8 0 0
0.393590 0.530825 0.094121 0.8 0 0
0.097718 0.692341 0.318477 0.8 0 0
0.176211 0.069036 0.201922 0.8 0 0
0.413924 0.186625 0.147506 0.8 0 0
0.222749 0.239956 0.100495 0.8 0 0
0.353699 0.179590 0.141632 0.8 0 0
0.172085 0.697080 0.093172 0.8 0 0
0.178821 0.569918 0.354272 0.8 0 0
0.307544 0.722432 0.093157 0.8 0 0
0.405281 0.586217 0.261024 0.8 0 0
0.353699 0.126717 0.122543 0.8 0 0
0.080038 0.267811 0.175270 0.8 0 0
0.145835 0.054292 0.207993 0.8 0 0
0.098514 0.381445 0.303941 0.8 0 0
0.108844 0.474143 0.339478 0.8 0 0
0.080466 0.771705 0.048150 0.8 0 0
0.393605 0.494427 0.284335 0.8 0 0
0.047973 0.263122 0.092281 0.8 0 0
0.399627 0.761087 0.054703 0.8 0 0
0.095522 0.158658 0.039578 0.8 0 0
0.048473 0.656743 0.154092 0.8 0 0
0.426828 0.673672 0.183503 0.8 0 0
0.119281 0.045196 0.144672 0.8 0 0
0.382504 0.165903 0.085700 0.8 0 0
0.115438 0.198364 0.198174 0.8 0 0
0.247767 0.500583 0.352732 0.8 0 0
0.210691 0.069036 0.182752 0.8 0 0
0.417285 0.341112 0.237020 0.8 0 0
0.067054 0.751910 0.120845 0.8 0 0
0.434259 0.558527 0.128703 0.8 0 0
0.400352 0.228476 0.163004 0.8 0 0
0.404336 0.474419 0.262670 0.8 0 0
0.331093 0.899548 0.098440 0.8 0 0
0.308809 0.253641 0.099458 0.8 0 0
0.068976 0.158811 0.134039 0.8 0 0
0.113279 0.842614 0.241380 0.8 0 0
0.401489 0.771767 0.053266 0.8 0 0
0.044020 0.426879 0.137844 0.8 0 0
0.426828 0.513340 0.178005 0.8 0 0
0.069633 0.800227 0.124493 0.8 0 0
0.099388 0.538771 0.242447 0.8 0 0
0.285455 0.048477 0.141745 0.8 0 0
0.335615 0.317441 0.235911 0.8 0 0
0.086753 0.951237 0.195853 0.8 0 0
0.062137 0.945647 0.130943 0.8 0 0
0.399426 0.594772 0.273306 0.8 0 0
0.349100 0.756526 0.352067 0.8 0 0
0.392773 0.229970 0.198127 0.8 0 0
0.046726 0.848674 0.180246 0.8 0 0
0.172423 0.567190 0.354018 0.8 0 0
0.324025 0.058436 0.192641 0.8 0 0
0.064005 0.182417 0.080700 0.8 0 0
0.419330 0.079456 0.122569 0.8 0 0
0.420984 0.723423 0.091243 0.8 0 0
0.275753 0.208384 0.102887 0.8 0 0
0.235669 0.955960 0.143625 0.8 0 0
0.113081 0.939659 0.106636 0.8 0 0
0.087379 0.248192 0.147377 0.8 0 0
0.324137 0.382277 0.095895 0.8 0 0
0.107268 0.520545 0.337673 0.8 0 0
0.378783 0.194794 0.110540 0.8 0 0
0.430196 0.548347 0.125654 0.8 0 0
0.064348 0.313888 0.247256 0.8 0 0
0.427779 0.577325 0.100155 0.8 0 0
0.321665 0.866819 0.241380 0.8 0 0
0.062996 0.806722 0.129791 0.8 0 0
0.341942 0.449323 0.348054 0.8 0 0
0.305585 0.400358 0.095727 0.8 0 0
0.308704 0.239833 0.250520 0.8 0 0
0.421867 0.820211 0.080661 0.8 0 0
0.423571 0.735923 0.112364 0.8 0 0
0.336822 0.672501 0.352603 0.8 0 0
0.073196 0.148485 0.198249 0.8 0 0
0.131777 0.939471 0.257290 0.8 0 0
0.162106 0.239118 0.100558 0.8 0 0
0.073154 0.760843 0.123435 0.8 0 0
0.422008 0.241662 0.112684 0.8 0 0
0.338466 0.549412 0.242447 0.8 0 0
0.276998 0.232357 0.101070 0.8 0 0
0.419041 0.145261 0.153903 0.8 0 0
0.269715 0.374896 0.311251 0.8 0 0
0.431727 0.408593 0.124875 0.8 0 0
0.138249 0.760643 0.352561 0.8 0 0
0.330687 0.696545 0.093172 0.8 0 0
0.138697 0.921650 0.102956 0.8 0 0
0.320538 0.384993 0.239077 0.8 0 0
0.435251 0.490141 0.140969 0.8 0 0
0.045512 0.584407 0.100080 0.8 0 0
0.279379 0.230970 0.249860 0.8 0 0
0.320325 0.223883 0.101712 0.8 0 0
0.112160 0.692392 0.159583 0.8 0 0
0.338836 0.475406 0.095030 0.8 0 0
0.426828 0.509360 0.188366 0.8 0 0
0.144627 0.156535 0.106816 0.8 0 0
0.218250 0.048061 0.142569 0.8 0 0
0.122571 0.210600 0.102719 0.8 0 0
0.295884 0.649225 0.241539 0.8 0 0
0.375624 0.912394 0.241388 0.8 0 0
0.121913 0.230577 0.136926 0.8 0 0
0.354964 0.712055 0.093163 0.8 0 0
0.043815 0.485736 0.117897 0.8 0 0
0.418235 0.867637 0.242044 0.8 0 0
0.099886 0.181554 0.198199 0.8 0 0
0.431384 0.362598 0.130961 0.8 0 0
0.408650 0.253721 0.140377 0.8 0 0
0.292840 0.042245 0.140466 0.8 0 0
0.402129 0.808825 0.070936 0.8 0 0
0.104019 0.249439 0.198098 0.8 0 0
0.085101 0.157868 0.119796 0.8 0 0
0.422218 0.195830 0.147901 0.8 0 0
0.194395 0.950643 0.133665 0.8 0 0
0.253240 0.354780 0.300331 0.8 0 0
0.060613 0.861687 0.246915 0.8 0 0
0.433576 0.726591 0.184632 0.8 0 0
0.428630 0.741240 0.036488 0.8 0 0
0.171803 0.194922 0.244636 0.8 0 0
0.143684 0.819562 0.093100 0.8 0 0
0.061063 0.784378 0.190098 0.8 0 0
0.105005 0.936312 0.261132 0.8 0 0
0.300674 0.211873 0.247206 0.8 0 0
0.401992 0.637076 0.241655 0.8 0 0
0.125117 0.411770 0.095621 0.8 0 0
0.188109 0.106560 0.110603 0.8 0 0
0.096757 0.203804 0.109750 0.8 0 0
0.355984 0.851012 0.163099 0.8 0 0
0.283203 0.693863 0.093174 0.8 0 0
0.397340 0.728671 0.110771 0.8 0 0
0.361447 0.673179 0.349565 0.8 0 0
0.311189 0.186227 0.242914 0.8 0 0
0.072768 0.045933 0.143630 0.8 0 0
0.119646 0.710756 0.173991 0.8 0 0
0.250214 0.848578 0.241380 0.8 0 0
0.391161 0.841551 0.125264 0.8 0 0
0.385327 0.679203 0.110392 0.8 0 0
0.382259 0.491455 0.094881 0.8 0 0
0.091872 0.535883 0.094010 0.8 0 0
0.313945 0.069036 0.190171 0.8 0 0
0.218730 0.058698 0.128669 0.8 0 0
0.245358 0.592162 0.355246 0.8 0 0
0.175006 0.095633 0.225504 0.8 0 0
0.375394 0.779437 0.241380 0.8 0 0
0.135603 0.418463 0.095559 0.8 0 0
0.404845 0.802471 0.134057 0.8 0 0
0.092714 0.731210 0.190177 0.8 0 0
0.395598 0.385120 0.239083 0.8 0 0
0.081128 0.379906 0.095650 0.8 0 0
0.121913 0.210498 0.194510 0.8 0 0
0.217851 0.532678 0.094498 0.8 0 0
0.341124 0.468373 0.095096 0.8 0 0
0.431702 0.638650 0.141142 0.8 0 0
0.358845 0.861708 0.241380 0.8 0 0
0.049665 0.815566 0.070157 0.8 0 0
0.055161 0.101843 0.110704 0.8 0 0
0.137287 0.069036 0.187853 0.8 0 0
0.360021 0.678092 0.107928 0.8 0 0
0.099974 0.502567 0.321938 0.8 0 0
0.040461 0.496621 0.139972 0.8 0 0
0.374016 0.790598 0.190089 0.8 0 0
0.386724 0.519746 0.094532 0.8 0 0
0.065538 0.741628 0.098175 0.8 0 0
0.044174 0.650386 0.111890 0.8 0 0
0.197224 0.886214 0.095715 0.8 0 0
0.050189 0.746632 0.126880 0.8 0 0
0.360718 0.946404 0.241995 0.8 0 0
0.082803 0.334677 0.236719 0.8 0 0
0.072288 0.160953 0.060026 0.8 0 0
0.317435 0.327119 0.283043 0.8 0 0
0.123169 0.813701 0.351910 0.8 0 0
0.303400 0.335102 0.236739 0.8 0 0
0.151098 0.872752 0.093068 0.8 0 0
0.236389 0.864109 0.353113 0.8 0 0
0.296508 0.536469 0.353712 0.8 0 0
0.119646 0.689496 0.107557 0.8 0 0
0.423263 0.853907 0.218651 0.8 0 0
0.419848 0.827018 0.238559 0.8 0 0
0.055231 0.537852 0.231796 0.8 0 0
0.126122 0.776583 0.093125 0.8 0 0
0.201558 0.454112 0.349539 0.8 0 0
0.371645 0.696101 0.167843 0.8 0 0
0.056659 0.811413 0.035779 0.8 0 0
0.428341 0.715346 0.188428 0.8 0 0
0.077638 0.277332 0.245322 0.8 0 0
0.270234 0.778986 0.241380 0.8 0 0
0.240614 0.760259 0.355336 0.8 0 0
0.177028 0.436403 0.095393 0.8 0 0
0.242549 0.204420 0.103187 0.8 0 0
0.426028 0.778136 0.118467 0.8 0 0
0.355966 0.824413 0.185334 0.8 0 0
0.083287 0.200628 0.143909 0.8 0 0
0.395489 0.860399 0.138331 0.8 0 0
0.129529 0.228395 0.247151 0.8 0 0
0.129842 0.025235 0.143526 0.8 0 0
0.431354 0.598816 0.138968 0.8 0 0
0.277287 0.548856 0.094348 0.8 0 0
0.394798 0.612258 0.283015 0.8 0 0
0.128539 0.762825 0.093133 0.8 0 0
0.082820 0.740532 0.073964 0.8 0 0
0.252261 0.053210 0.172431 0.8 0 0
0.424512 0.162082 0.085311 0.8 0 0
0.352121 0.709690 0.351954 0.8 0 0
0.322254 0.092898 0.223936 0.8 0 0
0.330321 0.407368 0.095662 0.8 0 0
0.054530 0.505541 0.228419 0.8 0 0
0.382872 0.779902 0.061709 0.8 0 0
0.129873 0.494773 0.350202 0.8 0 0
0.326658 0.943581 0.142559 0.8 0 0
0.062708 0.947212 0.122192 0.8 0 0
0.217015 0.708762 0.354995 0.8 0 0
0.050560 0.897026 0.124986 0.8 0 0
0.061292 0.668281 0.241356 0.8 0 0
0.066091 0.153564 0.160224 0.8 0 0
0.380017 0.220760 0.046454 0.8 0 0
0.286093 0.353621 0.237607 0.8 0 0
0.210305 0.950643 0.130610 0.8 0 0
0.336774 0.869024 0.093070 0.8 0 0
0.244518 0.611419 0.355262 0.8 0 0
0.341840 0.625568 0.352380 0.8 0 0
0.223705 0.238116 0.250625 0.8 0 0
0.354662 0.906601 0.306721 0.8 0 0
0.426028 0.795523 0.064535 0.8 0 0
0.415694 0.220951 0.140651 0.8 0 0
0.179236 0.064390 0.184732 0.8 0 0
0.400202 0.741790 0.032075 0.8 0 0
0.058907 0.797002 0.141634 0.8 0 0
0.114425 0.057765 0.115152 0.8 0 0
0.404548 0.768657 0.069639 0.8 0 0
0.141305 0.962230 0.133715 0.8 0 0
0.415570 0.909741 0.125034 0.8 0 0
0.058494 0.907244 0.177006 0.8 0 0
0.264446 0.786685 0.354885 0.8 0 0
0.054148 0.858454 0.142421 0.8 0 0
0.413340 0.071388 0.128915 0.8 0 0
0.045299 0.315207 0.101414 0.8 0 0
0.059033 0.380544 0.243396 0.8 0 0
0.379144 0.684643 0.130500 0.8 0 0
0.142774 0.354797 0.237662 0.8 0 0
0.376686 0.283630 0.132409 0.8 0 0
0.053270 0.635527 0.223394 0.8 0 0
0.119646 0.719235 0.153691 0.8 0 0
0.094735 0.765528 0.133723 0.8 0 0
0.241714 0.595172 0.242058 0.8 0 0
0.405324 0.737358 0.190168 0.8 0 0
0.056947 0.749525 0.059610 0.8 0 0
0.118809 0.569391 0.351719 0.8 0 0
0.426240 0.830835 0.212084 0.8 0 0
0.267694 0.606257 0.093814 0.8 0 0
0.065630 0.136842 0.198266 0.8 0 0
0.340655 0.749832 0.352425 0.8 0 0
0.241098 0.595256 0.355327 0.8 0 0
0.308969 0.854549 0.352910 0.8 0 0
0.151144 0.524458 0.242447 0.8 0 0
0.318748 0.718381 0.353359 0.8 0 0
0.060366 0.126963 0.190995 0.8 0 0
0.063733 0.605710 0.247376 0.8 0 0
0.173079 0.865218 0.352375 0.8 0 0
0.263176 0.100325 0.111075 0.8 0 0
0.312587 0.670144 0.353625 0.8 0 0
0.047165 0.168175 0.153606 0.8 0 0
0.396378 0.779327 0.171681 0.8 0 0
0.407293 0.503306 0.256567 0.8 0 0
0.333053 0.730238 0.241366 0.8 0 0
0.429336 0.809838 0.145193 0.8 0 0
0.351601 0.302979 0.267994 0.8 0 0
0.109005 0.891178 0.319758 0.8 0 0
0.342676 0.584913 0.094013 0.8 0 0
0.095522 0.217818 0.146466 0.8 0 0
0.427065 0.834094 0.058643 0.8 0 0
0.070696 0.260708 0.233250 0.8 0 0
0.353699 0.233073 0.156763 0.8 0 0
0.427115 0.518987 0.165185 0.8 0 0
0.200585 0.042786 0.150939 0.8 0 0
0.258696 0.734876 0.093149 0.8 0 0
0.100306 0.073211 0.110763 0.8 0 0
0.365097 0.663169 0.344180 0.8 0 0
0.429335 0.788670 0.052641 0.8 0 0
0.385499 0.761333 0.190132 0.8 0 0
0.334499 0.528874 0.094533 0.8 0 0
0.423939 0.483386 0.213325 0.8 0 0
0.109247 0.724371 0.338121 0.8 0 0
0.250292 0.729618 0.355153 0.8 0 0
0.254562 0.951315 0.198145 0.8 0 0
0.374056 0.277183 0.153454 0.8 0 0
0.381046 0.794927 0.045363 0.8 0 0
0.258223 0.947034 0.247334 0.8 0 0
0.315450 0.392762 0.095798 0.8 0 0
0.390565 0.686301 0.136490 0.8 0 0
0.355966 0.786871 0.165770 0.8 0 0
0.420407 0.524203 0.231983 0.8 0 0
0.052590 0.758839 0.114943 0.8 0 0
0.080548 0.810617 0.112245 0.8 0 0
0.068119 0.265611 0.111834 0.8 0 0
0.101665 0.838194 0.241380 0.8 0 0
0.119646 0.763349 0.117507 0.8 0 0
0.355966 0.682837 0.116145 0.8 0 0
0.355966 0.774334 0.107974 0.8 0 0
0.385366 0.733416 0.190174 0.8 0 0
0.167007 0.527340 0.242447 0.8 0 0
0.351309 0.034834 0.163024 0.8 0 0
0.428201 0.855562 0.121100 0.8 0 0
0.254153 0.932436 0.270604 0.8 0 0
0.339002 0.278941 0.256286 0.8 0 0
0.046869 0.774335 0.158070 0.8 0 0
0.392216 0.162994 0.081228 0.8 0 0
0.422012 0.204163 0.049346 0.8 0 0
0.422965 0.764002 0.225820 0.8 0 0
0.285769 0.697853 0.354481 0.8 0 0
0.389088 0.223154 0.093704 0.8 0 0
0.429753 0.549958 0.119312 0.8 0 0
0.429383 0.713693 0.116032 0.8 0 0
0.060473 0.230752 0.064803 0.8 0 0
0.426015 0.822118 0.190042 0.8 0 0
0.234873 0.047728 0.143231 0.8 0 0
0.190743 0.835072 0.093090 0.8 0 0
0.112336 0.307527 0.267119 0.8 0 0
0.339559 0.880909 0.342067 0.8 0 0
0.097616 0.064390 0.178680 0.8 0 0
0.412171 0.913964 0.240535 0.8 0 0
0.288911 0.455118 0.349581 0.8 0 0
0.070930 0.568718 0.262278 0.8 0 0
0.046883 0.641826 0.114262 0.8 0 0
0.400759 0.840873 0.179240 0.8 0 0
0.238126 0.295560 0.096701 0.8 0 0
0.380357 0.158454 0.160673 0.8 0 0
0.353494 0.362236 0.096082 0.8 0 0
0.195996 0.952369 0.109122 0.8 0 0
0.080469 0.213708 0.093995 0.8 0 0
0.361138 0.652515 0.349993 0.8 0 0
0.122858 0.432516 0.095429 0.8 0 0
0.299468 0.400177 0.324292 0.8 0 0
0.357842 0.690928 0.351717 0.8 0 0
0.419757 0.733394 0.127865 0.8 0 0
0.307250 0.294973 0.233707 0.8 0 0
0.402712 0.739441 0.134753 0.8 0 0
0.070271 0.255938 0.191836 0.8 0 0
0.422588 0.756736 0.056071 0.8 0 0
0.355217 0.262685 0.184187 0.8 0 0
0.281796 0.069036 0.192192 0.8 0 0
0.282137 0.381660 0.314570 0.8 0 0
0.233836 0.840880 0.093087 0.8 0 0
0.128549 0.650687 0.241525 0.8 0 0
0.075863 0.236952 0.112472 0.8 0 0
0.121772 0.943578 0.250571 0.8 0 0
0.429625 0.380528 0.123620 0.8 0 0
0.410374 0.061760 0.133221 0.8 0 0
0.054380 0.592660 0.228466 0.8 0 0
0.209510 0.060542 0.182627 0.8 0 0
0.182333 0.705136 0.354338 0.8 0 0
0.044041 0.622507 0.152678 0.8 0 0
0.047175 0.548177 0.112438 0.8 0 0
0.251349 0.777886 0.355133 0.8 0 0
0.074281 0.458709 0.268820 0.8 0 0
0.177384 0.625782 0.093633 0.8 0 0
0.303352 0.188215 0.243738 0.8 0 0
0.394442 0.497330 0.282629 0.8 0 0
0.321184 0.066099 0.204116 0.8 0 0
0.076626 0.798930 0.275699 0.8 0 0
0.195107 0.528609 0.353547 0.8 0 0
0.177274 0.561825 0.242378 0.8 0 0
0.070405 0.767680 0.144502 0.8 0 0
0.107582 0.865469 0.334038 0.8 0 0
0.384251 0.871438 0.099787 0.8 0 0
0.262719 0.591499 0.242093 0.8 0 0
0.413184 0.220351 0.237407 0.8 0 0
0.090121 0.810606 0.190059 0.8 0 0
0.284097 0.730254 0.093152 0.8 0 0
0.402247 0.766246 0.269654 0.8 0 0
0.099793 0.069036 0.202921 0.8 0 0
0.121913 0.246682 0.170080 0.8 0 0
0.401978 0.746682 0.190154 0.8 0 0
0.407926 0.717617 0.050547 0.8 0 0
0.110151 0.061180 0.110390 0.8 0 0
0.080296 0.729698 0.123949 0.8 0 0
0.081712 0.805272 0.137394 0.8 0 0
0.366046 0.633099 0.342788 0.8 0 0
0.048194 0.813844 0.078278 0.8 0 0
0.400549 0.776134 0.064214 0.8 0 0
0.183627 0.041874 0.168953 0.8 0 0
0.193885 0.636819 0.093530 0.8 0 0
0.172810 0.743721 0.354034 0.8 0 0
0.389924 0.590277 0.093317 0.8 0 0
0.095892 0.338872 0.096153 0.8 0 0
0.384034 0.410418 0.301531 0.8 0 0
0.254342 0.588224 0.355076 0.8 0 0
0.398883 0.750571 0.241376 0.8 0 0
0.392398 0.201436 0.067781 0.8 0 0
0.410444 0.631938 0.241705 0.8 0 0
0.250893 0.069036 0.173325 0.8 0 0
0.418255 0.684968 0.131362 0.8 0 0
0.430521 0.397549 0.103091 0.8 0 0
0.093279 0.884441 0.241323 0.8 0 0
0.374100 0.956886 0.143612 0.8 0 0
0.054768 0.570158 0.229914 0.8 0 0
0.116111 0.414823 0.095512 0.8 0 0
0.083153 0.271555 0.168475 0.8 0 0
0.221618 0.890089 0.337343 0.8 0 0
0.215370 0.272920 0.255777 0.8 0 0
0.052047 0.160961 0.124301 0.8 0 0
0.214702 0.040031 0.143058 0.8 0 0
0.367827 0.894613 0.315989 0.8 0 0
0.047234 0.813517 0.044030 0.8 0 0
0.084156 0.886751 0.284498 0.8 0 0
0.204994 0.062627 0.208235 0.8 0 0
0.080289 0.545539 0.281913 0.8 0 0
0.390626 0.643053 0.291769 0.8 0 0
0.137705 0.053440 0.195653 0.8 0 0
0.414148 0.612350 0.092130 0.8 0 0
0.208249 0.746836 0.354829 0.8 0 0
0.259052 0.377016 0.238703 0.8 0 0
0.313272 0.708159 0.241355 0.8 0 0
0.401528 0.821004 0.088775 0.8 0 0
0.225539 0.042637 0.162634 0.8 0 0
0.123043 0.456956 0.241749 0.8 0 0
0.413568 0.754809 0.249088 0.8 0 0
0.060152 0.914944 0.184290 0.8 0 0
0.052561 0.794610 0.225467 0.8 0 0
0.055129 0.206034 0.198163 0.8 0 0
0.254408 0.802859 0.355075 0.8 0 0
0.094892 0.839651 0.180626 0.8 0 0
0.379811 0.774939 0.144026 0.8 0 0
0.235401 0.940539 0.257656 0.8 0 0
0.419796 0.860833 0.167017 0.8 0 0
0.080151 0.948152 0.165377 0.8 0 0
0.055143 0.821709 0.094595 0.8 0 0
0.047980 0.124814 0.084602 0.8 0 0
0.425000 0.206639 0.091742 0.8 0 0
0.077108 0.786759 0.115042 0.8 0 0
0.313976 0.589599 0.353562 0.8 0 0
0.422671 0.339028 0.096114 0.8 0 0
0.328125 0.951468 0.143624 0.8 0 0
0.385519 0.390096 0.295338 0.8 0 0
0.095409 0.793992 0.120637 0.8 0 0
0.213096 0.539639 0.242447 0.8 0 0
0.245650 0.961340 0.143621 0.8 0 0
0.393916 0.739142 0.080787 0.8 0 0
0.316554 0.074998 0.219275 0.8 0 0
0.271170 0.665285 0.354757 0.8 0 0
0.062277 0.162448 0.031902 0.8 0 0
0.138309 0.040738 0.150396 0.8 0 0
0.428217 0.256462 0.117985 0.8 0 0
0.247872 0.345569 0.237229 0.8 0 0
0.108357 0.816435 0.190050 0.8 0 0
0.135195 0.675583 0.352452 0.8 0 0
0.047291 0.168826 0.158746 0.8 0 0
0.250868 0.213355 0.102510 0.8 0 0
0.119646 0.765187 0.124920 0.8 0 0
0.044119 0.637596 0.137855 0.8 0 0
0.415549 0.158491 0.064230 0.8 0 0
0.401833 0.587484 0.268256 0.8 0 0
0.197068 0.791850 0.093116 0.8 0 0
0.096406 0.741336 0.103682 0.8 0 0
0.168772 0.490161 0.351224 0.8 0 0
0.132508 0.697364 0.241352 0.8 0 0
0.112674 0.748630 0.343653 0.8 0 0
0.161027 0.882191 0.094893 0.8 0 0
0.206515 0.068147 0.218115 0.8 0 0
0.096939 0.656460 0.241469 0.8 0 0
0.053496 0.078502 0.170550 0.8 0 0
0.068548 0.739194 0.085320 0.8 0 0
0.099177 0.938820 0.148144 0.8 0 0
0.415094 0.733380 0.075818 0.8 0 0
0.394791 0.050606 0.188211 0.8 0 0
0.119646 0.786122 0.188328 0.8 0 0
0.425573 0.501005 0.204695 0.8 0 0
0.385192 0.727676 0.094625 0.8 0 0
0.381046 0.739006 0.053712 0.8 0 0
0.139410 0.060831 0.183743 0.8 0 0
0.065750 0.375369 0.251615 0.8 0 0
0.058069 0.289030 0.099842 0.8 0 0
0.068606 0.145218 0.109250 0.8 0 0
0.052481 0.614838 0.218938 0.8 0 0
0.309267 0.882513 0.342594 0.8 0 0
0.387191 0.248010 0.147585 0.8 0 0
0.320099 0.919482 0.241277 0.8 0 0
0.355966 0.787717 0.180227 0.8 0 0
0.353699 0.253993 0.121358 0.8 0 0
0.416448 0.172074 0.121003 0.8 0 0
0.203686 0.228506 0.101362 0.8 0 0
0.422349 0.201800 0.198169 0.8 0 0
0.046020 0.861183 0.136271 0.8 0 0
0.382002 0.194758 0.147477 0.8 0 0
0.339764 0.109835 0.110354 0.8 0 0
0.387767 0.059969 0.114703 0.8 0 0
0.159306 0.437568 0.345262 0.8 0 0
0.198710 0.569517 0.354649 0.8 0 0
0.288129 0.316582 0.278009 0.8 0 0
0.129831 0.057456 0.188851 0.8 0 0
0.071299 0.064962 0.113891 0.8 0 0
0.360456 0.503432 0.349418 0.8 0 0
0.425000 0.197752 0.059792 0.8 0 0
0.309802 0.292193 0.263733 0.8 0 0
0.401279 0.540283 0.242447 0.8 0 0
0.095780 0.819528 0.190046 0.8 0 0
0.208369 0.060074 0.198973 0.8 0 0
0.420153 0.831808 0.237202 0.8 0 0
0.337362 0.517888 0.351184 0.8 0 0
0.057069 0.745944 0.190155 0.8 0 0
0.217151 0.522981 0.353676 0.8 0 0
0.050189 0.803690 0.083522 0.8 0 0
0.355966 0.729585 0.177447 0.8 0 0
0.418245 0.920357 0.101856 0.8 0 0
0.406823 0.896403 0.255980 0.8 0 0
0.071768 0.259810 0.230061 0.8 0 0
0.241101 0.947841 0.108359 0.8 0 0
0.182288 0.272654 0.098017 0.8 0 0
0.127197 0.774497 0.093126 0.8 0 0
0.076808 0.183259 0.050909 0.8 0 0
0.397313 0.064390 0.184195 0.8 0 0
0.215279 0.189357 0.244235 0.8 0 0
0.382887 0.178518 0.071770 0.8 0 0
0.092639 0.462456 0.094698 0.8 0 0
0.355966 0.747971 0.095409 0.8 0 0
0.429285 0.823730 0.127570 0.8 0 0
0.432657 0.419836 0.116842 0.8 0 0
0.422489 0.189079 0.129425 0.8 0 0
0.084485 0.786462 0.170707 0.8 0 0
0.381046 0.718897 0.069564 0.8 0 0
0.348345 0.767082 0.352096 0.8 0 0
0.106232 0.604203 0.336341 0.8 0 0
0.186601 0.235843 0.250645 0.8 0 0
0.220628 0.885511 0.343058 0.8 0 0
0.247143 0.733029 0.241367 0.8 0 0
0.418581 0.909566 0.168046 0.8 0 0
0.053609 0.898102 0.096878 0.8 0 0
0.403362 0.598803 0.242023 0.8 0 0
0.409814 0.537455 0.251512 0.8 0 0
0.048783 0.623963 0.181596 0.8 0 0
0.119646 0.745748 0.149200 0.8 0 0
0.049834 0.128029 0.191783 0.8 0 0
0.076786 0.818529 0.190047 0.8 0 0
0.154508 0.429391 0.339935 0.8 0 0
0.418164 0.899268 0.203378 0.8 0 0
0.407219 0.192772 0.025037 0.8 0 0
0.425524 0.164990 0.140338 0.8 0 0
0.072389 0.552632 0.265339 0.8 0 0
0.220186 0.558190 0.094261 0.8 0 0
0.064535 0.700011 0.104500 0.8 0 0
0.089350 0.147476 0.198250 0.8 0 0
0.046393 0.394066 0.099711 0.8 0 0
0.046661 0.344505 0.152708 0.8 0 0
0.206848 0.123304 0.109334 0.8 0 0
0.305039 0.946976 0.241292 0.8 0 0
0.402708 0.754288 0.140939 0.8 0 0
0.068134 0.554245 0.093517 0.8 0 0
0.245785 0.845773 0.355238 0.8 0 0
0.391566 0.821443 0.289677 0.8 0 0
0.401535 0.577159 0.268881 0.8 0 0
0.371476 0.049248 0.133288 0.8 0 0
0.433382 0.569673 0.137636 0.8 0 0
0.383319 0.808960 0.305140 0.8 0 0
0.201536 0.962062 0.127599 0.8 0 0
0.064177 0.763058 0.252127 0.8 0 0
0.091443 0.817784 0.090783 0.8 0 0
0.253238 0.309418 0.274596 0.8 0 0
0.238708 0.924812 0.282733 0.8 0 0
0.079211 0.845175 0.113000 0.8 0 0
0.189234 0.622739 0.241793 0.8 0 0
0.238487 0.625261 0.241769 0.8 0 0
0.110222 0.428103 0.331439 0.8 0 0
0.431253 0.489615 0.133625 0.8 0 0
0.408237 0.727288 0.102260 0.8 0 0
0.145318 0.033166 0.188341 0.8 0 0
0.362588 0.860476 0.341659 0.8 0 0
0.395716 0.951901 0.154534 0.8 0 0
0.226891 0.332664 0.236625 0.8 0 0
0.121913 0.130042 0.150980 0.8 0 0
0.355966 0.780251 0.165672 0.8 0 0
0.273998 0.034022 0.164787 0.8 0 0
0.073912 0.775485 0.120519 0.8 0 0
0.220505 0.625983 0.241762 0.8 0 0
0.111952 0.155528 0.198238 0.8 0 0
0.186423 0.962233 0.133035 0.8 0 0
0.045978 0.531423 0.112093 0.8 0 0
0.193863 0.908621 0.307412 0.8 0 0
0.278171 0.961525 0.122638 0.8 0 0
0.077471 0.189670 0.147489 0.8 0 0
0.348527 0.064390 0.179115 0.8 0 0
0.119233 0.554513 0.351763 0.8 0 0
0.329385 0.656132 0.093351 0.8 0 0
0.381046 0.765557 0.039155 0.8 0 0
0.400864 0.056677 0.130551 0.8 0 0
0.113626 0.277593 0.231905 0.8 0 0
0.411912 0.153173 0.076857 0.8 0 0
0.407221 0.794855 0.058758 0.8 0 0
0.402726 0.701856 0.178457 0.8 0 0
0.087562 0.375059 0.288604 0.8 0 0
0.119203 0.726735 0.241364 0.8 0 0
0.107553 0.285220 0.126845 0.8 0 0
0.137739 0.601632 0.241996 0.8 0 0
0.427844 0.124945 0.098755 0.8 0 0
0.050540 0.216500 0.122700 0.8 0 0
0.139470 0.038623 0.145757 0.8 0 0
0.427650 0.677135 0.105062 0.8 0 0
0.132982 0.138826 0.232658 0.8 0 0
0.256727 0.473373 0.351261 0.8 0 0
0.084706 0.175141 0.081815 0.8 0 0
0.415434 0.728326 0.040348 0.8 0 0
0.365480 0.142698 0.198257 0.8 0 0
0.355966 0.749328 0.172381 0.8 0 0
0.385687 0.451971 0.095248 0.8 0 0
0.413874 0.058318 0.185619 0.8 0 0
0.191991 0.888187 0.096118 0.8 0 0
0.289584 0.537141 0.353812 0.8 0 0
0.376435 0.256506 0.191193 0.8 0 0
0.050540 0.183530 0.119357 0.8 0 0
0.307458 0.525423 0.352787 0.8 0 0
0.121913 0.226018 0.111435 0.8 0 0
0.353699 0.212675 0.166664 0.8 0 0
0.286244 0.431155 0.095441 0.8 0 0
0.272533 0.263105 0.230402 0.8 0 0
0.408248 0.125937 0.069655 0.8 0 0
0.193895 0.322916 0.096447 0.8 0 0
0.427277 0.207282 0.028940 0.8 0 0
0.357368 0.843401 0.351694 0.8 0 0
0.112449 0.053265 0.132246 0.8 0 0
0.293432 0.865485 0.241380 0.8 0 0
0.352576 0.805134 0.093108 0.8 0 0
0.412389 0.162634 0.132884 0.8 0 0
0.385691 0.170561 0.111134 0.8 0 0
0.051260 0.752072 0.120513 0.8 0 0
0.391317 0.864766 0.123662 0.8 0 0
0.107670 0.657687 0.339358 0.8 0 0
0.057786 0.152963 0.224866 0.8 0 0
0.411827 0.095273 0.117072 0.8 0 0
0.353374 0.257078 0.099197 0.8 0 0
0.108434 0.953970 0.109409 0.8 0 0
0.107985 0.927489 0.104149 0.8 0 0
0.081056 0.760797 0.129513 0.8 0 0
0.410217 0.739251 0.190165 0.8 0 0
0.081599 0.906260 0.241346 0.8 0 0
0.313713 0.924658 0.241173 0.8 0 0
0.398658 0.165460 0.062544 0.8 0 0
0.043284 0.698303 0.173912 0.8 0 0
0.121913 0.141173 0.147019 0.8 0 0
0.149013 0.802253 0.241380 0.8 0 0
0.274805 0.256551 0.099237 0.8 0 0
0.346346 0.682372 0.352202 0.8 0 0
0.372275 0.513540 0.094676 0.8 0 0
0.355024 0.289106 0.098744 0.8 0 0
0.061658 0.682401 0.245651 0.8 0 0
0.174306 0.500412 0.351920 0.8 0 0
0.409130 0.756906 0.052763 0.8 0 0
0.087016 0.066657 0.110459 0.8 0 0
0.326835 0.926140 0.103873 0.8 0 0
0.215857 0.232303 0.249863 0.8 0 0
0.377837 0.109284 0.161540 0.8 0 0
0.235454 0.453933 0.241717 0.8 0 0
0.419275 0.462134 0.094305 0.8 0 0
0.044071 0.440948 0.144986 0.8 0 0
0.298120 0.061616 0.204935 0.8 0 0
0.174768 0.609650 0.354121 0.8 0 0
0.208332 0.052570 0.140828 0.8 0 0
0.223201 0.784405 0.355112 0.8 0 0
0.326944 0.510614 0.351296 0.8 0 0
0.324218 0.671523 0.353135 0.8 0 0
0.378783 0.189944 0.095836 0.8 0 0
0.350259 0.047938 0.142814 0.8 0 0
0.048931 0.503443 0.101063 0.8 0 0
0.147245 0.525975 0.242447 0.8 0 0
0.414949 0.161530 0.059565 0.8 0 0
0.303541 0.034233 0.161963 0.8 0 0
0.119646 0.705932 0.131375 0.8 0 0
0.114340 0.922697 0.103170 0.8 0 0
0.045622 0.619458 0.105673 0.8 0 0
0.127686 0.968777 0.141949 0.8 0 0
0.153414 0.875123 0.346405 0.8 0 0
0.355966 0.746901 0.139438 0.8 0 0
0.060006 0.332495 0.243660 0.8 0 0
0.049257 0.794477 0.028805 0.8 0 0
0.064544 0.218558 0.061050 0.8 0 0
0.186557 0.313781 0.096532 0.8 0 0
0.423203 0.739706 0.101456 0.8 0 0
0.096757 0.177221 0.106785 0.8 0 0
0.143919 0.619021 0.352813 0.8 0 0
0.142270 0.927935 0.104240 0.8 0 0
0.053125 0.393199 0.222681 0.8 0 0
0.292709 0.194030 0.103975 0.8 0 0
0.083201 0.754008 0.027657 0.8 0 0
0.270621 0.770321 0.241380 0.8 0 0
0.280401 0.288111 0.096846 0.8 0 0
0.392222 0.178010 0.056020 0.8 0 0
0.064534 0.355427 0.264100 0.8 0 0
0.226759 0.953552 0.143626 0.8 0 0
0.060176 0.915049 0.184270 0.8 0 0
0.095171 0.821515 0.069117 0.8 0 0
0.049532 0.321561 0.202306 0.8 0 0
0.258666 0.506038 0.094746 0.8 0 0
0.083602 0.703648 0.074761 0.8 0 0
0.205961 0.791984 0.093116 0.8 0 0
0.045199 0.357259 0.145891 0.8 0 0
0.327297 0.652178 0.353005 0.8 0 0
0.176630 0.069036 0.170328 0.8 0 0
0.422773 0.742715 0.031691 0.8 0 0
0.196507 0.880251 0.346125 0.8 0 0
0.426028 0.813819 0.093453 0.8 0 0
0.045118 0.374727 0.125020 0.8 0 0
0.282417 0.950958 0.190843 0.8 0 0
0.251475 0.064390 0.206895 0.8 0 0
0.370973 0.320532 0.096469 0.8 0 0
0.210328 0.240418 0.100460 0.8 0 0
0.053926 0.805466 0.164535 0.8 0 0
0.065904 0.864172 0.125739 0.8 0 0
0.389665 0.420587 0.240745 0.8 0 0
0.421691 0.920067 0.113944 0.8 0 0
0.175730 0.561506 0.354160 0.8 0 0
0.346605 0.263935 0.230488 0.8 0 0
0.046901 0.830350 0.190030 0.8 0 0
0.088034 0.655630 0.241477 0.8 0 0
0.223538 0.078102 0.220831 0.8 0 0
0.306404 0.680226 0.093182 0.8 0 0
0.405660 0.741740 0.263225 0.8 0 0
0.425640 0.305555 0.096536 0.8 0 0
0.057063 0.585831 0.242148 0.8 0 0
0.353699 0.131073 0.131926 0.8 0 0
0.173048 0.731674 0.354044 0.8 0 0
0.372614 0.837775 0.324150 0.8 0 0
0.428326 0.163555 0.150143 0.8 0 0
0.112902 0.371288 0.095861 0.8 0 0
0.404816 0.820254 0.111704 0.8 0 0
0.068559 0.172673 0.143483 0.8 0 0
0.139852 0.150498 0.107273 0.8 0 0
0.209754 0.876402 0.093710 0.8 0 0
0.263996 0.541624 0.094415 0.8 0 0
0.101680 0.119700 0.185627 0.8 0 0
0.132444 0.048889 0.136847 0.8 0 0
0.410449 0.785040 0.190097 0.8 0 0
0.393086 0.358794 0.279440 0.8 0 0
0.110550 0.114015 0.173549 0.8 0 0
0.425000 0.172268 0.096450 0.8 0 0
0.193141 0.659772 0.093317 0.8 0 0
0.371243 0.467801 0.241866 0.8 0 0
0.131369 0.042092 0.168367 0.8 0 0
0.119646 0.803317 0.094679 0.8 0 0
0.176837 0.109180 0.229265 0.8 0 0
0.161477 0.534063 0.094485 0.8 0 0
0.121913 0.146658 0.114098 0.8 0 0
0.357348 0.724861 0.190186 0.8 0 0
0.189724 0.121024 0.232525 0.8 0 0
0.380316 0.154317 0.128617 0.8 0 0
0.208222 0.602717 0.241985 0.8 0 0
0.394344 0.788457 0.241380 0.8 0 0
0.288254 0.069036 0.174538 0.8 0 0
0.119216 0.650490 0.351765 0.8 0 0
0.119646 0.749716 0.175385 0.8 0 0
0.048355 0.817986 0.042502 0.8 0 0
0.088606 0.288636 0.252569 0.8 0 0
0.126582 0.516220 0.242388 0.8 0 0
0.312354 0.930864 0.104839 0.8 0 0
0.328906 0.798864 0.352914 0.8 0 0
0.098091 0.324383 0.268668 0.8 0 0
0.268262 0.343209 0.293539 0.8 0 0
0.074188 0.147955 0.198249 0.8 0 0
0.380017 0.136369 0.111214 0.8 0 0
0.295741 0.905535 0.099663 0.8 0 0
0.418520 0.803741 0.241380 0.8 0 0
0.203783 0.939953 0.150236 0.8 0 0
0.359697 0.365148 0.096055 0.8 0 0
0.360023 0.272591 0.166595 0.8 0 0
0.142681 0.451325 0.095254 0.8 0 0
0.079848 0.285159 0.232689 0.8 0 0
0.064525 0.773229 0.144873 0.8 0 0
0.281426 0.119717 0.109606 0.8 0 0
0.048560 0.652883 0.162641 0.8 0 0
0.195209 0.855604 0.353916 0.8 0 0
0.067380 0.760743 0.082295 0.8 0 0
0.407810 0.090514 0.111112 0.8 0 0
0.218771 0.489831 0.352009 0.8 0 0
0.354270 0.337069 0.236831 0.8 0 0
0.074269 0.158741 0.076760 0.8 0 0
0.090944 0.584912 0.093544 0.8 0 0
0.317476 0.628725 0.241736 0.8 0 0
0.119646 0.792399 0.129611 0.8 0 0
0.045349 0.637675 0.119222 0.8 0 0
0.046571 0.795335 0.190082 0.8 0 0
0.344431 0.868414 0.348528 0.8 0 0
0.379548 0.297460 0.258232 0.8 0 0
0.420159 0.858875 0.235633 0.8 0 0
0.111540 0.296875 0.096667 0.8 0 0
0.296849 0.576119 0.094094 0.8 0 0
0.049136 0.255176 0.192701 0.8 0 0
0.106486 0.898613 0.311797 0.8 0 0
0.259749 0.630225 0.354974 0.8 0 0
0.202167 0.904634 0.313965 0.8 0 0
0.157052 0.485482 0.350581 0.8 0 0
0.289438 0.673043 0.354411 0.8 0 0
0.424999 0.163817 0.066454 0.8 0 0
0.420422 0.270954 0.169565 0.8 0 0
0.325370 0.064390 0.175115 0.8 0 0
0.113237 0.389753 0.310699 0.8 0 0
0.412936 0.191194 0.048256 0.8 0 0
0.353699 0.098879 0.113686 0.8 0 0
0.415641 0.302123 0.096640 0.8 0 0
0.182733 0.159182 0.106615 0.8 0 0
0.429086 0.384998 0.099720 0.8 0 0
0.095522 0.242041 0.129453 0.8 0 0
0.391641 0.755960 0.115529 0.8 0 0
0.407140 0.311822 0.249297 0.8 0 0
0.397226 0.265602 0.111905 0.8 0 0
0.227570 0.869813 0.351786 0.8 0 0
0.250697 0.167145 0.240680 0.8 0 0
0.409703 0.792477 0.057487 0.8 0 0
0.190592 0.153367 0.107056 0.8 0 0
0.221808 0.295700 0.233782 0.8 0 0
0.102767 0.276532 0.155473 0.8 0 0
0.093799 0.738961 0.068597 0.8 0 0
0.047823 0.815793 0.075313 0.8 0 0
0.277076 0.164943 0.106179 0.8 0 0
0.204339 0.753097 0.354755 0.8 0 0
0.078311 0.177014 0.050836 0.8 0 0
0.221474 0.691728 0.093175 0.8 0 0
0.119646 0.866661 0.116541 0.8 0 0
0.381046 0.766820 0.162270 0.8 0 0
0.050649 0.643633 0.208598 0.8 0 0
0.198715 0.730875 0.354649 0.8 0 0
0.101459 0.823626 0.190040 0.8 0 0
0.176150 0.645784 0.354179 0.8 0 0
0.064644 0.189995 0.133462 0.8 0 0
0.304584 0.055018 0.179425 0.8 0 0
0.419563 0.871821 0.233623 0.8 0 0
0.253145 0.229075 0.101319 0.8 0 0
0.355966 0.824975 0.099668 0.8 0 0
0.355966 0.783245 0.143577 0.8 0 0
0.309715 0.723679 0.093156 0.8 0 0
0.183561 0.208750 0.102859 0.8 0 0
0.429392 0.834816 0.102995 0.8 0 0
0.355966 0.690516 0.106624 0.8 0 0
0.350704 0.511711 0.242340 0.8 0 0
0.343809 0.479174 0.349737 0.8 0 0
0.178490 0.069036 0.183179 0.8 0 0
0.407322 0.237129 0.120643 0.8 0 0
0.167699 0.585542 0.353821 0.8 0 0
0.404696 0.407908 0.261586 0.8 0 0
0.301324 0.948816 0.234731 0.8 0 0
0.420811 0.363140 0.235491 0.8 0 0
0.193880 0.678900 0.093182 0.8 0 0
0.299816 0.576416 0.354164 0.8 0 0
0.420495 0.571466 0.231779 0.8 0 0
0.355966 0.735035 0.121009 0.8 0 0
0.123759 0.481394 0.094975 0.8 0 0
0.287961 0.518997 0.353009 0.8 0 0
0.195680 0.648121 0.354591 0.8 0 0
0.427782 0.787680 0.148542 0.8 0 0
0.428089 0.255898 0.074185 0.8 0 0
0.074463 0.734742 0.123949 0.8 0 0
0.386933 0.064535 0.110390 0.8 0 0
0.051920 0.114541 0.175203 0.8 0 0
0.379811 0.751031 0.133003 0.8 0 0
0.053931 0.745681 0.166564 0.8 0 0
0.392446 0.428783 0.095463 0.8 0 0
0.330787 0.745004 0.352843 0.8 0 0
0.412518 0.805010 0.164777 0.8 0 0
0.048842 0.818433 0.093145 0.8 0 0
0.412662 0.746496 0.116506 0.8 0 0
0.067435 0.173417 0.108369 0.8 0 0
0.279953 0.704891 0.241354 0.8 0 0
0.048538 0.248262 0.204868 0.8 0 0
0.116593 0.896191 0.321938 0.8 0 0
0.277324 0.096888 0.111335 0.8 0 0
0.371550 0.628490 0.093356 0.8 0 0
0.393549 0.807928 0.095592 0.8 0 0
0.120574 0.404667 0.095677 0.8 0 0
0.268292 0.572848 0.354812 0.8 0 0
0.421876 0.806628 0.096342 0.8 0 0
0.069768 0.810203 0.125286 0.8 0 0
0.061577 0.377511 0.095680 0.8 0 0
0.191222 0.104463 0.228014 0.8 0 0
0.278111 0.781078 0.093122 0.8 0 0
0.046859 0.574336 0.108324 0.8 0 0
0.049725 0.368612 0.203404 0.8 0 0
0.136704 0.034678 0.160555 0.8 0 0
0.389296 0.118096 0.182632 0.8 0 0
0.353699 0.132331 0.190672 0.8 0 0
0.049326 0.498981 0.200931 0.8 0 0
0.059595 0.907994 0.104552 0.8 0 0
0.211166 0.051876 0.207735 0.8 0 0
0.334845 0.232152 0.248106 0.8 0 0
0.093276 0.942461 0.154868 0.8 0 0
0.424999 0.194071 0.088805 0.8 0 0
0.108465 0.613150 0.341026 0.8 0 0
0.181577 0.064390 0.202140 0.8 0 0
0.422991 0.777228 0.129058 0.8 0 0
0.170552 0.096960 0.111330 0.8 0 0
0.212217 0.089256 0.223875 0.8 0 0
0.389892 0.895802 0.241276 0.8 0 0
0.103716 0.057090 0.118024 0.8 0 0
0.350895 0.380047 0.095916 0.8 0 0
0.121913 0.232696 0.111529 0.8 0 0
0.415199 0.231680 0.086886 0.8 0 0
0.136520 0.468183 0.349494 0.8 0 0
0.314205 0.401866 0.239867 0.8 0 0
0.233050 0.066888 0.207700 0.8 0 0
0.378035 0.470639 0.095074 0.8 0 0
0.126316 0.519844 0.242428 0.8 0 0
0.047200 0.148117 0.055470 0.8 0 0
0.196911 0.763800 0.354614 0.8 0 0
0.083101 0.214443 0.198151 0.8 0 0
0.183983 0.626583 0.241756 0.8 0 0
0.059066 0.303558 0.243533 0.8 0 0
0.047498 0.844791 0.191363 0.8 0 0
0.115113 0.692250 0.159266 0.8 0 0
0.107798 0.660060 0.339625 0.8 0 0
0.427703 0.784828 0.190097 0.8 0 0
0.416903 0.087572 0.207042 0.8 0 0
0.211896 0.422142 0.337854 0.8 0 0
0.299005 0.139425 0.108112 0.8 0 0
0.360359 0.661521 0.351150 0.8 0 0
0.070291 0.248549 0.146979 0.8 0 0
0.198075 0.961593 0.123269 0.8 0 0
0.338356 0.057078 0.209683 0.8 0 0
0.424295 0.290918 0.215228 0.8 0 0
0.198820 0.924299 0.103497 0.8 0 0
0.293304 0.539897 0.242447 0.8 0 0
0.095522 0.144343 0.058524 0.8 0 0
0.121913 0.210004 0.173877 0.8 0 0
0.338148 0.567857 0.352519 0.8 0 0
0.377714 0.395864 0.239586 0.8 0 0
0.262942 0.295325 0.096703 0.8 0 0
0.386089 0.230123 0.109089 0.8 0 0
0.119646 0.812826 0.174096 0.8 0 0
0.269789 0.033997 0.160881 0.8 0 0
0.096757 0.201854 0.080208 0.8 0 0
0.226591 0.033873 0.155443 0.8 0 0
0.096062 0.920974 0.281342 0.8 0 0
0.121913 0.201269 0.119966 0.8 0 0
0.066010 0.734231 0.093704 0.8 0 0
0.163147 0.311341 0.235404 0.8 0 0
0.311037 0.061108 0.112319 0.8 0 0
0.269122 0.042437 0.168360 0.8 0 0
0.088220 0.545606 0.298553 0.8 0 0
0.293588 0.064043 0.216832 0.8 0 0
0.068738 0.744527 0.134534 0.8 0 0
0.356055 0.175309 0.198209 0.8 0 0
0.068998 0.845650 0.086827 0.8 0 0
0.403831 0.708978 0.062956 0.8 0 0
0.145951 0.658355 0.352905 0.8 0 0
0.427651 0.645632 0.099170 0.8 0 0
0.050505 0.243698 0.097324 0.8 0 0
0.427743 0.088104 0.162236 0.8 0 0
0.086832 0.585252 0.242153 0.8 0 0
0.149294 0.530528 0.242447 0.8 0 0
0.422867 0.082090 0.172692 0.8 0 0
0.353699 0.163299 0.140972 0.8 0 0
0.217151 0.404306 0.328088 0.8 0 0
0.355966 0.761613 0.126564 0.8 0 0
0.199923 0.423898 0.240900 0.8 0 0
0.173130 0.557627 0.094266 0.8 0 0
0.312098 0.187191 0.104493 0.8 0 0
0.389839 0.770517 0.148830 0.8 0 0
0.114956 0.941918 0.252870 0.8 0 0
0.067036 0.335927 0.236777 0.8 0 0
0.316950 0.064390 0.204629 0.8 0 0
0.223329 0.057185 0.124469 0.8 0 0
0.064075 0.089956 0.111008 0.8 0 0
0.381046 0.829521 0.081721 0.8 0 0
0.317469 0.444259 0.347871 0.8 0 0
0.200494 0.758604 0.093135 0.8 0 0
0.153582 0.119950 0.109588 0.8 0 0
0.416169 0.794563 0.110655 0.8 0 0
0.431552 0.432931 0.147461 0.8 0 0
0.235100 0.798413 0.241380 0.8 0 0
0.196314 0.206859 0.246529 0.8 0 0
0.263165 0.033957 0.154911 0.8 0 0
0.305627 0.674563 0.353919 0.8 0 0
0.141793 0.566349 0.242335 0.8 0 0
0.066852 0.184446 0.025589 0.8 0 0
0.123237 0.408202 0.324002 0.8 0 0
0.061814 0.623170 0.245921 0.8 0 0
0.168979 0.949739 0.168990 0.8 0 0
0.354564 0.890003 0.241297 0.8 0 0
0.316324 0.056731 0.125370 0.8 0 0
0.279099 0.935279 0.105741 0.8 0 0
0.059026 0.800194 0.124420 0.8 0 0
0.238882 0.933341 0.241153 0.8 0 0
0.048037 0.467754 0.099870 0.8 0 0
0.184894 0.808698 0.093106 0.8 0 0
0.124045 0.805365 0.093108 0.8 0 0
0.146207 0.657144 0.352916 0.8 0 0
0.173536 0.688480 0.354069 0.8 0 0
0.089063 0.067683 0.207700 0.8 0 0
0.298649 0.875922 0.241362 0.8 0 0
0.119646 0.778377 0.132106 0.8 0 0
0.122773 0.953832 0.124506 0.8 0 0
0.386893 0.165372 0.112402 0.8 0 0
0.428654 0.237136 0.112040 0.8 0 0
0.267323 0.796427 0.241380 0.8 0 0
0.382112 0.840469 0.125928 0.8 0 0
0.145532 0.701951 0.352885 0.8 0 0
0.309635 0.736713 0.093148 0.8 0 0
0.068925 0.357989 0.255827 0.8 0 0
0.353060 0.783590 0.093121 0.8 0 0
0.101518 0.216106 0.242759 0.8 0 0
0.084464 0.749220 0.290939 0.8 0 0
0.270308 0.962234 0.141631 0.8 0 0
0.107170 0.592054 0.338307 0.8 0 0
0.043126 0.246481 0.184785 0.8 0 0
0.329825 0.152427 0.107127 0.8 0 0
0.333467 0.578547 0.242218 0.8 0 0
0.146468 0.860362 0.093075 0.8 0 0
0.404195 0.896180 0.097504 0.8 0 0
0.048759 0.703430 0.209838 0.8 0 0
0.088077 0.873682 0.295924 0.8 0 0
0.430358 0.279883 0.145418 0.8 0 0
0.203718 0.709849 0.241356 0.8 0 0
0.119646 0.733226 0.130396 0.8 0 0
0.234715 0.377998 0.238749 0.8 0 0
0.095171 0.828545 0.129874 0.8 0 0
0.401028 0.189435 0.144651 0.8 0 0
0.062997 0.246981 0.148733 0.8 0 0
0.119646 0.734108 0.166534 0.8 0 0
0.426020 0.797481 0.213176 0.8 0 0
0.422558 0.559777 0.220631 0.8 0 0
0.045326 0.643075 0.125844 0.8 0 0
0.353699 0.234548 0.162104 0.8 0 0
0.388801 0.724496 0.296946 0.8 0 0
0.411274 0.830728 0.191368 0.8 0 0
0.057126 0.714944 0.241359 0.8 0 0
0.119212 0.951007 0.191719 0.8 0 0
0.144107 0.317594 0.235918 0.8 0 0
0.053281 0.126253 0.068892 0.8 0 0
0.355374 0.069036 0.178513 0.8 0 0
0.416886 0.169070 0.067892 0.8 0 0
0.061697 0.732014 0.099128 0.8 0 0
0.185871 0.759428 0.354405 0.8 0 0
0.419219 0.673668 0.233664 0.8 0 0
0.419201 0.243443 0.092697 0.8 0 0
0.433995 0.192884 0.183330 0.8 0 0
0.123511 0.618372 0.351938 0.8 0 0
0.119646 0.767596 0.160627 0.8 0 0
0.379003 0.611195 0.316152 0.8 0 0
0.217249 0.909961 0.306451 0.8 0 0
0.416539 0.780983 0.241380 0.8 0 0
0.147058 0.509674 0.351186 0.8 0 0
0.421229 0.845841 0.167170 0.8 0 0
0.100494 0.592188 0.324303 0.8 0 0
0.314011 0.879040 0.345073 0.8 0 0
0.098855 0.260907 0.186203 0.8 0 0
0.047715 0.831901 0.137506 0.8 0 0
0.149771 0.899820 0.241303 0.8 0 0
0.176731 0.521582 0.094601 0.8 0 0
0.047982 0.125749 0.197279 0.8 0 0
0.094564 0.788480 0.190092 0.8 0 0
0.115464 0.050720 0.134358 0.8 0 0
0.109127 0.254749 0.193186 0.8 0 0
0.426828 0.281530 0.186553 0.8 0 0
0.046216 0.439536 0.099691 0.8 0 0
0.382136 0.164622 0.071678 0.8 0 0
0.082106 0.821902 0.153413 0.8 0 0
0.380017 0.168784 0.162594 0.8 0 0
0.260245 0.581122 0.242193 0.8 0 0
0.154785 0.146862 0.235550 0.8 0 0
0.311566 0.229822 0.248932 0.8 0 0
0.271554 0.049584 0.203266 0.8 0 0
0.330412 0.105158 0.110709 0.8 0 0
0.353699 0.193555 0.129767 0.8 0 0
0.226836 0.064554 0.198142 0.8 0 0
0.156519 0.048868 0.144805 0.8 0 0
0.131661 0.723241 0.093156 0.8 0 0
0.381819 0.269154 0.172833 0.8 0 0
0.096406 0.746365 0.113149 0.8 0 0
0.212764 0.563468 0.242362 0.8 0 0
0.402982 0.437055 0.264834 0.8 0 0
0.296977 0.912459 0.300750 0.8 0 0
0.423320 0.878775 0.094136 0.8 0 0
0.258905 0.858270 0.093077 0.8 0 0
0.298901 0.949594 0.112696 0.8 0 0
0.423805 0.753428 0.079796 0.8 0 0
0.095324 0.166531 0.062109 0.8 0 0
0.402365 0.206631 0.049929 0.8 0 0
0.044015 0.308392 0.140106 0.8 0 0
0.101242 0.920697 0.102771 0.8 0 0
0.353699 0.251978 0.136302 0.8 0 0
0.047650 0.767813 0.028619 0.8 0 0
0.046999 0.517878 0.109400 0.8 0 0
0.300875 0.055783 0.122476 0.8 0 0
0.054608 0.703218 0.120772 0.8 0 0
0.310538 0.603770 0.241975 0.8 0 0
