0.060262 0.025068 0.226193 0.8 0 0
0.405601 0.057842 0.810013 0.8 0 0
0.368502 0.113336 0.863772 0.8 0 0
0.385535 0.137592 0.877798 0.8 0 0
0.402781 0.069447 0.762284 0.8 0 0
0.168277 0.301915 0.278093 0.8 0 0
0.094306 0.073617 0.187753 0.8 0 0
0.128256 0.156601 0.207019 0.8 0 0
0.040952 0.154601 0.283957 0.8 0 0
0.136022 0.299876 0.274715 0.8 0 0
0.061157 0.066176 0.216302 0.8 0 0
0.229250 0.181133 0.933476 0.8 0 0
0.394563 0.223477 0.605361 0.8 0 0
0.076342 0.052341 0.805815 0.8 0 0
0.385740 0.146141 0.124271 0.8 0 0
0.191246 0.076153 0.193395 0.8 0 0
0.049664 0.184519 0.822461 0.8 0 0
0.231304 0.129460 0.959158 0.8 0 0
0.391601 0.230254 0.434890 0.8 0 0
0.080950 0.062283 0.195740 0.8 0 0
0.311820 0.139961 0.028125 0.8 0 0
0.054426 0.136361 0.717556 0.8 0 0
0.244266 0.072458 0.211586 0.8 0 0
0.131225 0.086511 0.148583 0.8 0 0
0.333934 0.123567 0.957078 0.8 0 0
0.127318 0.077725 0.732334 0.8 0 0
0.398424 0.119457 0.261730 0.8 0 0
0.276964 0.075944 0.208400 0.8 0 0
0.076523 0.026222 0.239723 0.8 0 0
0.402209 0.060827 0.811315 0.8 0 0
0.255371 0.144080 0.947095 0.8 0 0
0.285720 0.272673 0.624906 0.8 0 0
0.089491 0.238579 0.077121 0.8 0 0
0.210939 0.258495 0.198802 0.8 0 0
0.157292 0.239969 0.072667 0.8 0 0
0.410587 0.121072 0.117523 0.8 0 0
0.145774 0.079943 0.194446 0.8 0 0
0.318166 0.330176 0.386452 0.8 0 0
0.390443 0.189948 0.225902 0.8 0 0
0.262607 0.070098 0.248295 0.8 0 0
0.125250 0.116064 0.712027 0.8 0 0
0.044428 0.119444 0.834032 0.8 0 0
0.365822 0.059969 0.166917 0.8 0 0
0.199308 0.242767 0.099069 0.8 0 0
0.383754 0.127303 0.938463 0.8 0 0
0.320297 0.325250 0.495474 0.8 0 0
0.325710 0.169000 0.766043 0.8 0 0
0.407726 0.093060 0.409225 0.8 0 0
0.053878 0.187275 0.246002 0.8 0 0
0.390958 0.126738 0.928855 0.8 0 0
0.072244 0.116989 0.052255 0.8 0 0
0.042680 0.134147 0.371196 0.8 0 0
0.360275 0.274476 0.358638 0.8 0 0
0.314728 0.212651 0.789204 0.8 0 0
0.061157 0.122605 0.237552 0.8 0 0
0.052669 0.094519 0.818811 0.8 0 0
0.403578 0.090948 0.836958 0.8 0 0
0.408069 0.147979 0.588181 0.8 0 0
0.138537 0.219926 0.044491 0.8 0 0
0.326756 0.125347 0.753080 0.8 0 0
0.334261 0.311105 0.369416 0.8 0 0
0.127318 0.151258 0.814100 0.8 0 0
0.397089 0.220318 0.569761 0.8 0 0
0.309521 0.327498 0.501291 0.8 0 0
0.345512 0.292647 0.402017 0.8 0 0
0.404591 0.214172 0.270622 0.8 0 0
0.094346 0.114209 0.185995 0.8 0 0
0.071114 0.245078 0.374075 0.8 0 0
0.148641 0.083858 0.159587 0.8 0 0
0.106893 0.287391 0.521726 0.8 0 0
0.221869 0.067650 0.278425 0.8 0 0
0.129771 0.162819 0.935048 0.8 0 0
0.110753 0.067650 0.339104 0.8 0 0
0.065260 0.109792 0.724897 0.8 0 0
0.046061 0.096640 0.603059 0.8 0 0
0.325710 0.076976 0.804624 0.8 0 0
0.044676 0.192649 0.403157 0.8 0 0
0.036702 0.224195 0.611424 0.8 0 0
0.347938 0.085446 0.941861 0.8 0 0
0.061157 0.065979 0.217595 0.8 0 0
0.398006 0.068731 0.339013 0.8 0 0
0.208023 0.261323 0.641938 0.8 0 0
0.058130 0.221442 0.594910 0.8 0 0
0.405919 0.191557 0.447215 0.8 0 0
0.407963 0.093635 0.219978 0.8 0 0
0.399439 0.138068 0.797132 0.8 0 0
0.325392 0.067667 0.458847 0.8 0 0
0.375899 0.107874 0.838210 0.8 0 0
0.377606 0.067664 0.440461 0.8 0 0
0.045480 0.161660 0.284740 0.8 0 0
0.380693 0.067652 0.668535 0.8 0 0
0.289256 0.255074 0.649971 0.8 0 0
0.085117 0.256505 0.600972 0.8 0 0
0.080829 0.248886 0.612723 0.8 0 0
0.188206 0.081963 0.152911 0.8 0 0
0.097736 0.114950 0.144668 0.8 0 0
0.325062 0.167553 0.162272 0.8 0 0
0.170666 0.179661 0.933029 0.8 0 0
0.056545 0.225435 0.318337 0.8 0 0
0.193278 0.078072 0.947794 0.8 0 0
0.143266 0.067676 0.537197 0.8 0 0
0.338636 0.238106 0.060050 0.8 0 0
0.059094 0.030163 0.200355 0.8 0 0
0.405592 0.082912 0.463845 0.8 0 0
0.051477 0.137602 0.892450 0.8 0 0
0.380850 0.241248 0.644402 0.8 0 0
0.046512 0.145515 0.406429 0.8 0 0
0.324773 0.144857 0.214497 0.8 0 0
0.407963 0.073707 0.805147 0.8 0 0
0.407964 0.070332 0.811262 0.8 0 0
0.269630 0.067669 0.561146 0.8 0 0
0.048320 0.150792 0.138078 0.8 0 0
0.267731 0.115485 0.968726 0.8 0 0
0.048764 0.205058 0.245871 0.8 0 0
0.377714 0.167347 0.228863 0.8 0 0
0.324773 0.081789 0.290316 0.8 0 0
0.044135 0.102143 0.738374 0.8 0 0
0.054648 0.117020 0.189992 0.8 0 0
0.128256 0.114420 0.273998 0.8 0 0
0.361965 0.095743 0.711642 0.8 0 0
0.408976 0.104417 0.285865 0.8 0 0
0.361954 0.253295 0.640408 0.8 0 0
0.361363 0.073153 0.858232 0.8 0 0
0.143672 0.260504 0.205632 0.8 0 0
0.127318 0.171397 0.809492 0.8 0 0
0.342323 0.228376 0.693211 0.8 0 0
0.393323 0.241127 0.172287 0.8 0 0
0.406772 0.129516 0.821469 0.8 0 0
0.173476 0.280872 0.243619 0.8 0 0
0.068546 0.041489 0.839856 0.8 0 0
0.122185 0.249784 0.183569 0.8 0 0
0.253406 0.067650 0.283461 0.8 0 0
0.408069 0.115494 0.349941 0.8 0 0
0.264484 0.126024 0.045690 0.8 0 0
0.123217 0.313881 0.376523 0.8 0 0
0.186439 0.067656 0.393617 0.8 0 0
0.232907 0.322979 0.323117 0.8 0 0
0.360310 0.067428 0.736691 0.8 0 0
0.408205 0.131405 0.740123 0.8 0 0
0.326278 0.146135 0.788363 0.8 0 0
0.296601 0.235899 0.676922 0.8 0 0
0.135111 0.070933 0.277304 0.8 0 0
0.403548 0.212913 0.134630 0.8 0 0
0.097145 0.067688 0.603924 0.8 0 0
0.128256 0.072317 0.294859 0.8 0 0
0.285995 0.115435 0.966679 0.8 0 0
0.337391 0.067663 0.434603 0.8 0 0
0.127318 0.077833 0.812814 0.8 0 0
0.106436 0.244421 0.657411 0.8 0 0
0.376749 0.111212 0.725310 0.8 0 0
0.373781 0.151173 0.928601 0.8 0 0
0.384910 0.232615 0.599096 0.8 0 0
0.408069 0.112836 0.454824 0.8 0 0
0.389794 0.224484 0.677387 0.8 0 0
0.216816 0.096155 0.963291 0.8 0 0
0.067839 0.057551 0.854616 0.8 0 0
0.201750 0.067653 0.373682 0.8 0 0
0.046061 0.115292 0.311012 0.8 0 0
0.276210 0.226091 0.753140 0.8 0 0
0.410111 0.158925 0.162215 0.8 0 0
0.147180 0.067654 0.759341 0.8 0 0
0.228863 0.067650 0.846269 0.8 0 0
0.061157 0.112115 0.228145 0.8 0 0
0.045066 0.080321 0.232334 0.8 0 0
0.044655 0.144185 0.518891 0.8 0 0
0.380145 0.137585 0.891245 0.8 0 0
0.165061 0.070580 0.949937 0.8 0 0
0.046061 0.137129 0.374686 0.8 0 0
0.399508 0.070670 0.456675 0.8 0 0
0.047800 0.186179 0.257348 0.8 0 0
0.223929 0.067661 0.706405 0.8 0 0
0.079939 0.173423 0.047305 0.8 0 0
0.346840 0.288003 0.505949 0.8 0 0
0.295419 0.067650 0.877684 0.8 0 0
0.281690 0.067650 0.845337 0.8 0 0
0.061157 0.109609 0.806514 0.8 0 0
0.167331 0.067669 0.496906 0.8 0 0
0.061099 0.245767 0.220969 0.8 0 0
0.388718 0.236849 0.349727 0.8 0 0
0.406177 0.085693 0.346518 0.8 0 0
0.086495 0.261944 0.465472 0.8 0 0
0.046083 0.091058 0.862289 0.8 0 0
0.389313 0.232679 0.443190 0.8 0 0
0.323611 0.067682 0.603272 0.8 0 0
0.324773 0.132408 0.251807 0.8 0 0
0.369194 0.125459 0.859573 0.8 0 0
0.103191 0.067653 0.372980 0.8 0 0
0.049829 0.111045 0.065890 0.8 0 0
0.408069 0.145664 0.384714 0.8 0 0
0.072488 0.244490 0.437385 0.8 0 0
0.323438 0.200900 0.835462 0.8 0 0
0.221576 0.200267 0.834890 0.8 0 0
0.218530 0.242382 0.095409 0.8 0 0
0.047532 0.177220 0.669002 0.8 0 0
0.045609 0.157179 0.709404 0.8 0 0
0.197295 0.259347 0.200574 0.8 0 0
0.241496 0.258360 0.646163 0.8 0 0
0.061157 0.094240 0.244232 0.8 0 0
0.082596 0.125906 0.162406 0.8 0 0
0.294909 0.326080 0.528043 0.8 0 0
0.408055 0.152450 0.319116 0.8 0 0
0.293975 0.067652 0.813128 0.8 0 0
0.063788 0.067675 0.512918 0.8 0 0
0.044175 0.141534 0.258183 0.8 0 0
0.091780 0.157765 0.767887 0.8 0 0
0.402687 0.146149 0.082946 0.8 0 0
0.407621 0.129437 0.342883 0.8 0 0
0.395537 0.190350 0.222880 0.8 0 0
0.386151 0.118467 0.949635 0.8 0 0
0.359378 0.123825 0.851218 0.8 0 0
0.408843 0.052654 0.797841 0.8 0 0
0.408069 0.151617 0.353190 0.8 0 0
0.386944 0.236837 0.416964 0.8 0 0
0.127318 0.071908 0.815253 0.8 0 0
0.048060 0.191163 0.317485 0.8 0 0
0.313404 0.277319 0.238344 0.8 0 0
0.037839 0.143637 0.149059 0.8 0 0
0.370585 0.087404 0.141101 0.8 0 0
0.059322 0.186810 0.249376 0.8 0 0
0.144584 0.146045 0.939149 0.8 0 0
0.381403 0.067676 0.515633 0.8 0 0
0.370350 0.255003 0.632018 0.8 0 0
0.398762 0.133011 0.071967 0.8 0 0
0.359203 0.142290 0.759222 0.8 0 0
0.061157 0.067508 0.231800 0.8 0 0
0.047106 0.171112 0.399553 0.8 0 0
0.172608 0.195408 0.040180 0.8 0 0
0.149563 0.289955 0.258605 0.8 0 0
0.184760 0.241703 0.088198 0.8 0 0
0.058828 0.125480 0.907342 0.8 0 0
0.326924 0.110926 0.308009 0.8 0 0
0.050798 0.106862 0.125819 0.8 0 0
0.061157 0.060460 0.794870 0.8 0 0
0.161423 0.067660 0.676940 0.8 0 0
0.380377 0.067694 0.638657 0.8 0 0
0.388298 0.087345 0.879816 0.8 0 0
0.050440 0.027019 0.806464 0.8 0 0
0.232559 0.067650 0.267456 0.8 0 0
0.408069 0.096586 0.497204 0.8 0 0
0.051089 0.185175 0.821202 0.8 0 0
0.148815 0.179102 0.931521 0.8 0 0
0.361480 0.060131 0.169593 0.8 0 0
0.406233 0.184834 0.473217 0.8 0 0
0.127318 0.074244 0.735068 0.8 0 0
0.214292 0.328897 0.467789 0.8 0 0
0.375225 0.246076 0.584680 0.8 0 0
0.171245 0.076867 0.203761 0.8 0 0
0.283109 0.214880 0.796372 0.8 0 0
0.178847 0.078799 0.180091 0.8 0 0
0.358943 0.088889 0.176084 0.8 0 0
0.066203 0.026074 0.806127 0.8 0 0
0.408837 0.145779 0.203614 0.8 0 0
0.097351 0.067653 0.694824 0.8 0 0
0.196843 0.110357 0.033503 0.8 0 0
0.128256 0.164207 0.192599 0.8 0 0
0.227604 0.067661 0.709413 0.8 0 0
0.148020 0.067650 0.341469 0.8 0 0
0.046061 0.112671 0.575358 0.8 0 0
0.078173 0.249758 0.629259 0.8 0 0
0.113979 0.175845 0.170690 0.8 0 0
0.381109 0.161585 0.198847 0.8 0 0
0.251513 0.331172 0.409824 0.8 0 0
0.408725 0.046088 0.220301 0.8 0 0
0.369490 0.067653 0.671408 0.8 0 0
0.371310 0.256172 0.456616 0.8 0 0
0.064986 0.164684 0.245705 0.8 0 0
0.353983 0.170298 0.931175 0.8 0 0
0.058260 0.138251 0.231956 0.8 0 0
0.358905 0.135301 0.763125 0.8 0 0
0.073127 0.070634 0.309433 0.8 0 0
0.405922 0.135102 0.851423 0.8 0 0
0.301061 0.242455 0.098607 0.8 0 0
0.407807 0.156647 0.538224 0.8 0 0
0.069131 0.067666 0.454028 0.8 0 0
0.127318 0.089353 0.801249 0.8 0 0
0.350342 0.133950 0.137630 0.8 0 0
0.064269 0.184508 0.891759 0.8 0 0
0.204535 0.188678 0.893619 0.8 0 0
0.052665 0.121430 0.222127 0.8 0 0
0.406557 0.055204 0.789061 0.8 0 0
0.330372 0.313794 0.377960 0.8 0 0
0.400692 0.124686 0.880882 0.8 0 0
0.312153 0.067661 0.425339 0.8 0 0
0.093656 0.086975 0.288941 0.8 0 0
0.071308 0.067660 0.414024 0.8 0 0
0.269740 0.067672 0.613276 0.8 0 0
0.340552 0.125132 0.875602 0.8 0 0
0.365272 0.161955 0.928083 0.8 0 0
0.341594 0.237193 0.055963 0.8 0 0
0.089212 0.146140 0.046968 0.8 0 0
0.408069 0.142668 0.659530 0.8 0 0
0.169093 0.079898 0.964631 0.8 0 0
0.408069 0.113426 0.536755 0.8 0 0
0.132253 0.320558 0.537245 0.8 0 0
0.375500 0.083468 0.933172 0.8 0 0
0.091176 0.067657 0.400370 0.8 0 0
0.370286 0.093865 0.272495 0.8 0 0
0.353517 0.067654 0.672288 0.8 0 0
0.266299 0.327514 0.504209 0.8 0 0
0.406453 0.183720 0.299352 0.8 0 0
0.360579 0.226185 0.702999 0.8 0 0
0.282440 0.331060 0.413895 0.8 0 0
0.103279 0.252188 0.196220 0.8 0 0
0.406360 0.087722 0.709593 0.8 0 0
0.049971 0.133399 0.812391 0.8 0 0
0.407249 0.151462 0.725486 0.8 0 0
0.211063 0.324157 0.539458 0.8 0 0
0.406997 0.170626 0.443323 0.8 0 0
0.331213 0.318883 0.357301 0.8 0 0
0.357019 0.067687 0.595504 0.8 0 0
0.115811 0.141661 0.028996 0.8 0 0
0.081006 0.167106 0.222390 0.8 0 0
0.318516 0.328570 0.429091 0.8 0 0
0.056015 0.102517 0.107247 0.8 0 0
0.374916 0.270097 0.241918 0.8 0 0
0.205773 0.241310 0.084121 0.8 0 0
0.282559 0.067656 0.728976 0.8 0 0
0.095155 0.095849 0.711644 0.8 0 0
0.052418 0.158236 0.857665 0.8 0 0
0.356553 0.247339 0.166755 0.8 0 0
0.276640 0.067665 0.455936 0.8 0 0
0.122474 0.085806 0.711307 0.8 0 0
0.082011 0.173052 0.933443 0.8 0 0
0.044140 0.145447 0.254470 0.8 0 0
0.358207 0.243441 0.124140 0.8 0 0
0.066029 0.252534 0.240249 0.8 0 0
0.128256 0.167086 0.199422 0.8 0 0
0.091084 0.244133 0.136582 0.8 0 0
0.385828 0.198937 0.826812 0.8 0 0
0.410612 0.140510 0.305098 0.8 0 0
0.352843 0.279899 0.519131 0.8 0 0
0.370401 0.159384 0.856883 0.8 0 0
0.103179 0.251723 0.195043 0.8 0 0
0.046061 0.111159 0.332544 0.8 0 0
0.266539 0.331143 0.410937 0.8 0 0
0.047530 0.027473 0.228639 0.8 0 0
0.090826 0.168285 0.927352 0.8 0 0
0.061157 0.087380 0.193125 0.8 0 0
0.369544 0.060376 0.856087 0.8 0 0
0.391933 0.067675 0.509126 0.8 0 0
0.369497 0.125243 0.872886 0.8 0 0
0.090565 0.134833 0.199354 0.8 0 0
0.345662 0.203750 0.811369 0.8 0 0
0.063614 0.172989 0.918752 0.8 0 0
0.208641 0.150186 0.949755 0.8 0 0
0.407563 0.160511 0.243230 0.8 0 0
0.079607 0.267281 0.230072 0.8 0 0
0.338924 0.303631 0.359970 0.8 0 0
0.091431 0.162677 0.733635 0.8 0 0
0.141738 0.329783 0.444781 0.8 0 0
0.172473 0.067660 0.695408 0.8 0 0
0.407688 0.158680 0.549664 0.8 0 0
0.406605 0.180586 0.344200 0.8 0 0
0.071226 0.081567 0.887366 0.8 0 0
0.222112 0.178745 0.939285 0.8 0 0
0.165679 0.146146 0.039694 0.8 0 0
0.371881 0.079537 0.932286 0.8 0 0
0.185534 0.327960 0.492713 0.8 0 0
0.364838 0.169520 0.933309 0.8 0 0
0.046582 0.161319 0.381386 0.8 0 0
0.320239 0.156392 0.045015 0.8 0 0
0.389321 0.137589 0.892327 0.8 0 0
0.159415 0.272724 0.624589 0.8 0 0
0.337555 0.067655 0.707084 0.8 0 0
0.326165 0.155459 0.793961 0.8 0 0
0.101907 0.156336 0.940751 0.8 0 0
0.326356 0.092339 0.805873 0.8 0 0
0.247484 0.327443 0.505718 0.8 0 0
0.141766 0.330974 0.415360 0.8 0 0
0.269429 0.074913 0.212175 0.8 0 0
0.391872 0.123297 0.774815 0.8 0 0
0.407964 0.080854 0.808305 0.8 0 0
0.093353 0.169086 0.847382 0.8 0 0
0.402388 0.074372 0.554285 0.8 0 0
0.065419 0.025130 0.225538 0.8 0 0
0.206814 0.114659 0.031525 0.8 0 0
0.183295 0.067662 0.662684 0.8 0 0
0.226766 0.186400 0.906468 0.8 0 0
0.205638 0.188736 0.893376 0.8 0 0
0.406211 0.186384 0.425346 0.8 0 0
0.390167 0.099941 0.155983 0.8 0 0
0.255362 0.067650 0.285437 0.8 0 0
0.038504 0.135147 0.123962 0.8 0 0
0.370513 0.058885 0.166433 0.8 0 0
0.112211 0.294065 0.555336 0.8 0 0
0.047417 0.178604 0.335135 0.8 0 0
0.291889 0.080687 0.178163 0.8 0 0
0.326391 0.134767 0.784064 0.8 0 0
0.372982 0.147717 0.929267 0.8 0 0
0.407140 0.077596 0.251724 0.8 0 0
0.257035 0.251520 0.183342 0.8 0 0
0.055839 0.175123 0.864738 0.8 0 0
0.370387 0.067978 0.189761 0.8 0 0
0.265848 0.218829 0.782279 0.8 0 0
0.127318 0.110581 0.728419 0.8 0 0
0.380993 0.127371 0.712835 0.8 0 0
0.075005 0.067650 0.349660 0.8 0 0
0.323039 0.067657 0.673300 0.8 0 0
0.245742 0.067667 0.612626 0.8 0 0
0.054607 0.111161 0.157346 0.8 0 0
0.113218 0.198002 0.837954 0.8 0 0
0.127318 0.140934 0.848067 0.8 0 0
0.387621 0.132500 0.250654 0.8 0 0
0.382145 0.163171 0.250912 0.8 0 0
0.401510 0.100442 0.297374 0.8 0 0
0.141766 0.192185 0.875258 0.8 0 0
0.405435 0.055092 0.237860 0.8 0 0
0.202618 0.124218 0.959147 0.8 0 0
0.401977 0.215763 0.105185 0.8 0 0
0.360360 0.272237 0.597168 0.8 0 0
0.325932 0.146487 0.297372 0.8 0 0
0.148474 0.227637 0.691060 0.8 0 0
0.191061 0.067650 0.336099 0.8 0 0
0.360536 0.121235 0.855585 0.8 0 0
0.056588 0.143923 0.895967 0.8 0 0
0.387411 0.119311 0.727663 0.8 0 0
0.406997 0.170420 0.515382 0.8 0 0
0.325710 0.080583 0.829054 0.8 0 0
0.200882 0.067651 0.817769 0.8 0 0
0.061157 0.064555 0.809949 0.8 0 0
0.061157 0.106567 0.784260 0.8 0 0
0.278141 0.191447 0.888793 0.8 0 0
0.310489 0.067654 0.746640 0.8 0 0
0.325710 0.070188 0.842061 0.8 0 0
0.367424 0.076909 0.268561 0.8 0 0
0.048939 0.176026 0.132511 0.8 0 0
0.183743 0.074942 0.948999 0.8 0 0
0.101228 0.128779 0.960258 0.8 0 0
0.376783 0.067660 0.415460 0.8 0 0
0.050461 0.083236 0.803419 0.8 0 0
0.391872 0.099327 0.807712 0.8 0 0
0.053768 0.140717 0.074592 0.8 0 0
0.048041 0.148875 0.145157 0.8 0 0
0.316767 0.116582 0.033882 0.8 0 0
0.108812 0.147237 0.943651 0.8 0 0
0.403138 0.081911 0.295394 0.8 0 0
0.127318 0.118111 0.777963 0.8 0 0
0.071185 0.067650 0.352720 0.8 0 0
0.259698 0.244491 0.116558 0.8 0 0
0.331972 0.314469 0.368174 0.8 0 0
0.086411 0.186341 0.891605 0.8 0 0
0.283189 0.332021 0.389466 0.8 0 0
0.154754 0.067674 0.555219 0.8 0 0
0.127986 0.316980 0.305847 0.8 0 0
0.094423 0.239633 0.662036 0.8 0 0
0.054034 0.113158 0.874521 0.8 0 0
0.361369 0.163224 0.233892 0.8 0 0
0.346406 0.291411 0.403164 0.8 0 0
0.229786 0.067650 0.263504 0.8 0 0
0.060335 0.158887 0.193658 0.8 0 0
0.070658 0.107569 0.142231 0.8 0 0
0.276875 0.067654 0.377064 0.8 0 0
0.128256 0.102700 0.254285 0.8 0 0
0.190374 0.242526 0.668721 0.8 0 0
0.316142 0.217229 0.766343 0.8 0 0
0.074398 0.076394 0.878843 0.8 0 0
0.052078 0.212395 0.575847 0.8 0 0
0.044635 0.181115 0.192111 0.8 0 0
0.048554 0.200841 0.287218 0.8 0 0
0.044858 0.117241 0.288387 0.8 0 0
0.399026 0.144870 0.297969 0.8 0 0
0.048712 0.197271 0.665977 0.8 0 0
0.248789 0.224403 0.044966 0.8 0 0
0.324081 0.325485 0.422500 0.8 0 0
0.335425 0.147291 0.945339 0.8 0 0
0.049662 0.077568 0.350699 0.8 0 0
0.400364 0.119958 0.236727 0.8 0 0
0.043715 0.144774 0.384842 0.8 0 0
0.293429 0.303010 0.575229 0.8 0 0
0.247016 0.228327 0.689110 0.8 0 0
0.405827 0.084031 0.311076 0.8 0 0
0.220139 0.086706 0.145551 0.8 0 0
0.095371 0.204497 0.802635 0.8 0 0
0.124330 0.067661 0.422528 0.8 0 0
0.393301 0.190279 0.223413 0.8 0 0
0.172852 0.067670 0.539875 0.8 0 0
0.065245 0.227663 0.637294 0.8 0 0
0.094256 0.119679 0.754599 0.8 0 0
0.361691 0.067664 0.442943 0.8 0 0
0.407007 0.170256 0.526006 0.8 0 0
0.106771 0.071699 0.875211 0.8 0 0
0.283648 0.247071 0.144728 0.8 0 0
0.286767 0.300945 0.578833 0.8 0 0
0.400356 0.113554 0.197288 0.8 0 0
0.386281 0.094612 0.308803 0.8 0 0
0.046195 0.154472 0.514685 0.8 0 0
0.391323 0.172820 0.913101 0.8 0 0
0.294946 0.067678 0.629509 0.8 0 0
0.343765 0.067669 0.475470 0.8 0 0
0.052675 0.124827 0.766323 0.8 0 0
0.225898 0.080187 0.952113 0.8 0 0
0.396939 0.127917 0.148877 0.8 0 0
0.152965 0.331506 0.352281 0.8 0 0
0.083073 0.261214 0.219753 0.8 0 0
0.214588 0.067661 0.520317 0.8 0 0
0.362402 0.154631 0.262775 0.8 0 0
0.127318 0.108673 0.712268 0.8 0 0
0.233459 0.273363 0.624712 0.8 0 0
0.128256 0.090191 0.218980 0.8 0 0
0.143079 0.193404 0.041582 0.8 0 0
0.304615 0.229368 0.685886 0.8 0 0
0.409064 0.037190 0.247903 0.8 0 0
0.168556 0.268596 0.630764 0.8 0 0
0.362244 0.084545 0.159395 0.8 0 0
0.291032 0.170962 0.937390 0.8 0 0
0.310627 0.303763 0.280728 0.8 0 0
0.051346 0.054768 0.231903 0.8 0 0
0.348041 0.067661 0.421780 0.8 0 0
0.049681 0.133743 0.115419 0.8 0 0
0.281077 0.067669 0.507591 0.8 0 0
0.167200 0.067651 0.822766 0.8 0 0
0.241773 0.303038 0.279944 0.8 0 0
0.063501 0.072378 0.861800 0.8 0 0
0.153416 0.067672 0.499237 0.8 0 0
0.380420 0.243024 0.640140 0.8 0 0
0.124646 0.245058 0.130032 0.8 0 0
0.403569 0.090013 0.264873 0.8 0 0
0.136250 0.216237 0.766606 0.8 0 0
0.233586 0.245606 0.128795 0.8 0 0
0.169936 0.260949 0.641752 0.8 0 0
0.348952 0.289081 0.375212 0.8 0 0
0.230725 0.067661 0.703467 0.8 0 0
0.391810 0.167281 0.916123 0.8 0 0
0.409804 0.141646 0.710674 0.8 0 0
0.127318 0.107073 0.754576 0.8 0 0
0.304893 0.067678 0.596293 0.8 0 0
0.116102 0.306932 0.374190 0.8 0 0
0.198032 0.093037 0.125429 0.8 0 0
0.091086 0.188341 0.784821 0.8 0 0
0.373530 0.174237 0.841468 0.8 0 0
0.372792 0.182493 0.184831 0.8 0 0
0.352320 0.238218 0.064368 0.8 0 0
0.408069 0.143968 0.374628 0.8 0 0
0.048841 0.199449 0.656331 0.8 0 0
0.051315 0.123625 0.124993 0.8 0 0
0.408860 0.088122 0.739855 0.8 0 0
0.147979 0.184890 0.908868 0.8 0 0
0.406814 0.175957 0.367520 0.8 0 0
0.076592 0.164480 0.925941 0.8 0 0
0.056911 0.172227 0.059002 0.8 0 0
0.360517 0.234551 0.669397 0.8 0 0
0.045168 0.123617 0.185835 0.8 0 0
0.047598 0.060372 0.771823 0.8 0 0
0.326133 0.155276 0.797294 0.8 0 0
0.366384 0.111783 0.307597 0.8 0 0
0.052369 0.073570 0.557678 0.8 0 0
0.389877 0.234266 0.381797 0.8 0 0
0.094266 0.065161 0.192003 0.8 0 0
0.157749 0.067665 0.444970 0.8 0 0
0.068534 0.074609 0.727260 0.8 0 0
0.375616 0.177368 0.047408 0.8 0 0
0.279312 0.067656 0.388066 0.8 0 0
0.083536 0.236676 0.063933 0.8 0 0
0.377173 0.068877 0.710708 0.8 0 0
0.379536 0.137579 0.905723 0.8 0 0
0.119488 0.260313 0.209807 0.8 0 0
0.251871 0.327053 0.516020 0.8 0 0
0.393570 0.062052 0.767922 0.8 0 0
0.226677 0.239338 0.064052 0.8 0 0
0.046577 0.162242 0.296271 0.8 0 0
0.368902 0.121872 0.160457 0.8 0 0
0.408461 0.116214 0.096691 0.8 0 0
0.309580 0.067675 0.530347 0.8 0 0
0.058234 0.225720 0.058973 0.8 0 0
0.206126 0.219934 0.732936 0.8 0 0
0.331143 0.313440 0.453514 0.8 0 0
0.157697 0.067677 0.616085 0.8 0 0
0.396963 0.222176 0.501034 0.8 0 0
0.335317 0.070101 0.710751 0.8 0 0
0.374508 0.036677 0.265979 0.8 0 0
0.162890 0.331484 0.402846 0.8 0 0
0.165270 0.160635 0.938241 0.8 0 0
0.061775 0.233788 0.068651 0.8 0 0
0.364252 0.052242 0.209669 0.8 0 0
0.186278 0.067657 0.400154 0.8 0 0
0.094299 0.133091 0.200588 0.8 0 0
0.373833 0.146126 0.081831 0.8 0 0
0.326336 0.105516 0.808129 0.8 0 0
0.114250 0.273218 0.615513 0.8 0 0
0.048128 0.187337 0.627949 0.8 0 0
0.328724 0.187371 0.244795 0.8 0 0
0.094095 0.136546 0.763579 0.8 0 0
0.211279 0.275346 0.621896 0.8 0 0
0.365779 0.268620 0.230359 0.8 0 0
0.065035 0.067259 0.761705 0.8 0 0
0.239531 0.331902 0.389907 0.8 0 0
0.048147 0.084772 0.318662 0.8 0 0
0.408069 0.125589 0.416866 0.8 0 0
0.404403 0.183458 0.759090 0.8 0 0
0.402571 0.213725 0.483898 0.8 0 0
0.345497 0.186824 0.774809 0.8 0 0
0.112831 0.154684 0.046002 0.8 0 0
0.343909 0.067650 0.346626 0.8 0 0
0.167935 0.072287 0.244508 0.8 0 0
0.326959 0.323900 0.351606 0.8 0 0
0.177919 0.067673 0.604935 0.8 0 0
0.200502 0.240893 0.079724 0.8 0 0
0.170941 0.067675 0.634986 0.8 0 0
0.368961 0.077812 0.836752 0.8 0 0
0.047061 0.171330 0.352450 0.8 0 0
0.374131 0.186079 0.768925 0.8 0 0
0.128256 0.150685 0.159943 0.8 0 0
0.185593 0.168874 0.938599 0.8 0 0
0.219933 0.127284 0.974229 0.8 0 0
0.170510 0.269875 0.628990 0.8 0 0
0.085432 0.067687 0.587849 0.8 0 0
0.407964 0.108445 0.809465 0.8 0 0
0.126814 0.067658 0.658136 0.8 0 0
0.044030 0.140347 0.813825 0.8 0 0
0.050905 0.144674 0.721922 0.8 0 0
0.268435 0.088773 0.954897 0.8 0 0
0.408645 0.128332 0.830183 0.8 0 0
0.303341 0.067654 0.756820 0.8 0 0
0.393483 0.112503 0.874586 0.8 0 0
0.046061 0.139163 0.556439 0.8 0 0
0.063540 0.122333 0.306144 0.8 0 0
0.272206 0.331757 0.357893 0.8 0 0
0.303208 0.164893 0.943935 0.8 0 0
0.093920 0.123036 0.951591 0.8 0 0
0.231355 0.175487 0.947010 0.8 0 0
0.027244 0.226164 0.606717 0.8 0 0
0.249340 0.067660 0.456932 0.8 0 0
0.071358 0.123003 0.830116 0.8 0 0
0.060420 0.205832 0.054423 0.8 0 0
0.228622 0.085270 0.149996 0.8 0 0
0.094993 0.131329 0.303735 0.8 0 0
0.072540 0.037506 0.186791 0.8 0 0
0.049715 0.183232 0.788541 0.8 0 0
0.409010 0.144617 0.263531 0.8 0 0
0.049407 0.066680 0.289841 0.8 0 0
0.384802 0.067651 0.698850 0.8 0 0
0.365758 0.263053 0.618125 0.8 0 0
0.140195 0.260324 0.641572 0.8 0 0
0.355108 0.175744 0.838683 0.8 0 0
0.407775 0.111874 0.127978 0.8 0 0
0.326528 0.086548 0.747460 0.8 0 0
0.047980 0.189600 0.332238 0.8 0 0
0.360489 0.137570 0.931478 0.8 0 0
0.405283 0.199590 0.634800 0.8 0 0
0.206840 0.326904 0.519581 0.8 0 0
0.346263 0.145380 0.943203 0.8 0 0
0.408069 0.148783 0.516380 0.8 0 0
0.107265 0.286075 0.554681 0.8 0 0
0.135320 0.318206 0.305767 0.8 0 0
0.044119 0.054872 0.266497 0.8 0 0
0.164492 0.083893 0.144075 0.8 0 0
0.283079 0.260966 0.641739 0.8 0 0
0.127318 0.079821 0.721513 0.8 0 0
0.185333 0.137593 0.961698 0.8 0 0
0.405567 0.201046 0.283818 0.8 0 0
0.210479 0.329805 0.444606 0.8 0 0
0.280511 0.224053 0.760791 0.8 0 0
0.278668 0.238488 0.055470 0.8 0 0
0.220758 0.150247 0.954206 0.8 0 0
0.326128 0.185940 0.901415 0.8 0 0
0.075445 0.267853 0.250940 0.8 0 0
0.128256 0.161296 0.251024 0.8 0 0
0.105444 0.266844 0.221960 0.8 0 0
0.256112 0.067651 0.819890 0.8 0 0
0.133845 0.067660 0.413552 0.8 0 0
0.384694 0.146127 0.067604 0.8 0 0
0.209312 0.067659 0.463252 0.8 0 0
0.385146 0.207823 0.778695 0.8 0 0
0.169073 0.126812 0.955520 0.8 0 0
0.120085 0.242321 0.102459 0.8 0 0
0.056392 0.068408 0.478097 0.8 0 0
0.067340 0.067691 0.611330 0.8 0 0
0.112789 0.146130 0.152679 0.8 0 0
0.378818 0.129573 0.824100 0.8 0 0
0.072655 0.248227 0.331342 0.8 0 0
0.365574 0.026580 0.789321 0.8 0 0
0.051442 0.074754 0.536109 0.8 0 0
0.379482 0.141035 0.225619 0.8 0 0
0.061157 0.074001 0.248166 0.8 0 0
0.359305 0.136273 0.181010 0.8 0 0
0.089336 0.166690 0.737270 0.8 0 0
0.217044 0.184394 0.916285 0.8 0 0
0.224030 0.067660 0.527481 0.8 0 0
0.162814 0.249196 0.166309 0.8 0 0
0.348009 0.067650 0.316790 0.8 0 0
0.400640 0.073199 0.159720 0.8 0 0
0.048298 0.190224 0.659771 0.8 0 0
0.401963 0.091355 0.267833 0.8 0 0
0.304982 0.067671 0.484376 0.8 0 0
0.286551 0.211952 0.039544 0.8 0 0
0.408069 0.120021 0.324334 0.8 0 0
0.377391 0.145866 0.722414 0.8 0 0
0.325710 0.078304 0.870646 0.8 0 0
0.046061 0.127433 0.571290 0.8 0 0
0.101380 0.285553 0.356895 0.8 0 0
0.403676 0.213058 0.438310 0.8 0 0
0.059960 0.025873 0.236074 0.8 0 0
0.178498 0.287136 0.601990 0.8 0 0
0.162045 0.067670 0.490208 0.8 0 0
0.056715 0.067998 0.497132 0.8 0 0
0.258542 0.146148 0.037385 0.8 0 0
0.359732 0.216793 0.745546 0.8 0 0
0.167837 0.282951 0.247264 0.8 0 0
0.082321 0.167365 0.793075 0.8 0 0
0.040546 0.142568 0.060000 0.8 0 0
0.094202 0.058664 0.764839 0.8 0 0
0.122926 0.228545 0.696473 0.8 0 0
0.096675 0.236816 0.666850 0.8 0 0
0.066677 0.175037 0.929939 0.8 0 0
0.059392 0.167630 0.894480 0.8 0 0
0.130729 0.239575 0.071667 0.8 0 0
0.385623 0.236760 0.084753 0.8 0 0
0.281179 0.330012 0.440530 0.8 0 0
0.407963 0.090122 0.776122 0.8 0 0
0.130116 0.067656 0.393006 0.8 0 0
0.055691 0.072652 0.829820 0.8 0 0
0.159930 0.255015 0.649893 0.8 0 0
0.400825 0.218333 0.099658 0.8 0 0
0.233737 0.067658 0.472502 0.8 0 0
0.404973 0.209278 0.478622 0.8 0 0
0.400353 0.100250 0.246631 0.8 0 0
0.177849 0.240307 0.074260 0.8 0 0
0.405075 0.204127 0.613897 0.8 0 0
0.230434 0.278037 0.238141 0.8 0 0
0.107139 0.139743 0.151004 0.8 0 0
0.408069 0.139164 0.604271 0.8 0 0
0.047844 0.186071 0.375701 0.8 0 0
0.063202 0.204390 0.764613 0.8 0 0
0.325569 0.067685 0.652428 0.8 0 0
0.339375 0.243904 0.121374 0.8 0 0
0.046061 0.131365 0.616462 0.8 0 0
0.057320 0.095676 0.141126 0.8 0 0
0.049291 0.170029 0.279061 0.8 0 0
0.406616 0.176902 0.645591 0.8 0 0
0.403924 0.074376 0.214676 0.8 0 0
0.325710 0.154197 0.858317 0.8 0 0
0.048527 0.197736 0.446179 0.8 0 0
0.047632 0.180265 0.447074 0.8 0 0
0.067828 0.169223 0.932104 0.8 0 0
0.128256 0.133319 0.255365 0.8 0 0
0.127318 0.095114 0.721744 0.8 0 0
0.067861 0.256794 0.237431 0.8 0 0
0.394678 0.146139 0.085634 0.8 0 0
0.100781 0.144080 0.935254 0.8 0 0
0.332827 0.310319 0.531570 0.8 0 0
0.408232 0.131996 0.715185 0.8 0 0
0.148223 0.137574 0.945135 0.8 0 0
0.258556 0.274690 0.622808 0.8 0 0
0.368119 0.054653 0.774123 0.8 0 0
0.385246 0.067654 0.378995 0.8 0 0
0.167337 0.067668 0.475710 0.8 0 0
0.047602 0.182214 0.320112 0.8 0 0
0.049072 0.205034 0.588887 0.8 0 0
0.400357 0.085269 0.765438 0.8 0 0
0.395231 0.101895 0.067644 0.8 0 0
0.399565 0.025977 0.784554 0.8 0 0
0.083588 0.153776 0.149569 0.8 0 0
0.264598 0.067650 0.299126 0.8 0 0
0.181997 0.067664 0.465007 0.8 0 0
0.305039 0.067680 0.642026 0.8 0 0
0.399230 0.221608 0.375104 0.8 0 0
0.043964 0.076725 0.854678 0.8 0 0
0.180846 0.085068 0.961650 0.8 0 0
0.056187 0.218397 0.594532 0.8 0 0
0.346675 0.170152 0.936773 0.8 0 0
0.146613 0.264408 0.212787 0.8 0 0
0.396350 0.067650 0.705760 0.8 0 0
0.383692 0.135802 0.030712 0.8 0 0
0.369571 0.254417 0.586619 0.8 0 0
0.155019 0.067650 0.317629 0.8 0 0
0.393261 0.067677 0.524875 0.8 0 0
0.286946 0.189860 0.894130 0.8 0 0
0.129679 0.067654 0.773159 0.8 0 0
0.149854 0.239639 0.069913 0.8 0 0
0.407169 0.090420 0.653028 0.8 0 0
0.199862 0.067650 0.352508 0.8 0 0
0.146209 0.078436 0.206857 0.8 0 0
0.375640 0.243727 0.148250 0.8 0 0
0.042972 0.123511 0.099676 0.8 0 0
0.126132 0.067678 0.532971 0.8 0 0
0.408069 0.124520 0.562475 0.8 0 0
0.098840 0.243220 0.120466 0.8 0 0
0.403179 0.208135 0.107630 0.8 0 0
0.409366 0.138253 0.209143 0.8 0 0
0.115966 0.067665 0.446866 0.8 0 0
0.374186 0.147503 0.844203 0.8 0 0
0.050123 0.027239 0.239226 0.8 0 0
0.345622 0.222136 0.728967 0.8 0 0
0.348890 0.243242 0.118015 0.8 0 0
0.372734 0.078687 0.268696 0.8 0 0
0.373905 0.157064 0.048467 0.8 0 0
0.069104 0.137587 0.890120 0.8 0 0
0.128256 0.135191 0.172683 0.8 0 0
0.171569 0.118340 0.046945 0.8 0 0
0.048376 0.195566 0.412899 0.8 0 0
0.326256 0.116348 0.712286 0.8 0 0
0.144955 0.144320 0.936285 0.8 0 0
0.113580 0.146143 0.043246 0.8 0 0
0.375351 0.043537 0.747332 0.8 0 0
0.251517 0.137578 0.952923 0.8 0 0
0.411926 0.175668 0.255703 0.8 0 0
0.410076 0.142923 0.375464 0.8 0 0
0.113711 0.243906 0.121833 0.8 0 0
0.288197 0.277578 0.617403 0.8 0 0
0.296662 0.248238 0.156770 0.8 0 0
0.251230 0.120573 0.971584 0.8 0 0
0.362056 0.039404 0.832979 0.8 0 0
0.369209 0.179257 0.753422 0.8 0 0
0.254347 0.251238 0.656378 0.8 0 0
0.121909 0.308596 0.454957 0.8 0 0
0.043356 0.047772 0.796216 0.8 0 0
0.224181 0.067650 0.325976 0.8 0 0
0.220776 0.330436 0.345347 0.8 0 0
0.327725 0.137462 0.139655 0.8 0 0
0.325787 0.177540 0.818319 0.8 0 0
0.091708 0.102684 0.293807 0.8 0 0
0.158799 0.184010 0.914377 0.8 0 0
0.052583 0.079122 0.756202 0.8 0 0
0.358936 0.145737 0.782584 0.8 0 0
0.197701 0.144586 0.947110 0.8 0 0
0.176867 0.288358 0.256090 0.8 0 0
0.313919 0.315648 0.550143 0.8 0 0
0.046114 0.245338 0.618375 0.8 0 0
0.388010 0.145758 0.175777 0.8 0 0
0.375076 0.025149 0.793298 0.8 0 0
0.048844 0.125978 0.132235 0.8 0 0
0.362144 0.139681 0.776656 0.8 0 0
0.184836 0.106825 0.035619 0.8 0 0
0.208377 0.268578 0.631571 0.8 0 0
0.365055 0.075774 0.293485 0.8 0 0
0.386359 0.089157 0.910558 0.8 0 0
0.095479 0.244820 0.139653 0.8 0 0
0.049398 0.212567 0.388317 0.8 0 0
0.255428 0.067659 0.713894 0.8 0 0
0.067746 0.199456 0.822018 0.8 0 0
0.206543 0.074739 0.183043 0.8 0 0
0.324773 0.093023 0.201499 0.8 0 0
0.201529 0.068218 0.256901 0.8 0 0
0.053250 0.128178 0.879230 0.8 0 0
0.334121 0.239521 0.073591 0.8 0 0
0.169684 0.329107 0.463715 0.8 0 0
0.331701 0.185841 0.818628 0.8 0 0
0.178283 0.299571 0.581531 0.8 0 0
0.046584 0.161069 0.490724 0.8 0 0
0.202889 0.265827 0.213465 0.8 0 0
0.057528 0.067688 0.593449 0.8 0 0
0.369524 0.067673 0.498215 0.8 0 0
0.391004 0.239228 0.268400 0.8 0 0
0.123461 0.145028 0.029428 0.8 0 0
0.058924 0.199879 0.766159 0.8 0 0
0.061157 0.063711 0.772767 0.8 0 0
0.079284 0.157112 0.263550 0.8 0 0
0.073157 0.190242 0.221162 0.8 0 0
0.058015 0.176694 0.836926 0.8 0 0
0.324773 0.135205 0.202998 0.8 0 0
0.321806 0.325674 0.470750 0.8 0 0
0.395444 0.224230 0.058251 0.8 0 0
0.298305 0.067657 0.395880 0.8 0 0
0.063528 0.067656 0.390740 0.8 0 0
0.338777 0.129854 0.962609 0.8 0 0
0.114424 0.067650 0.319769 0.8 0 0
0.222747 0.249828 0.172463 0.8 0 0
0.228877 0.331919 0.388409 0.8 0 0
0.145139 0.106525 0.037398 0.8 0 0
0.047942 0.185516 0.480693 0.8 0 0
0.302884 0.299957 0.579199 0.8 0 0
0.094059 0.069550 0.270995 0.8 0 0
0.234983 0.165032 0.949875 0.8 0 0
0.316261 0.154332 0.936764 0.8 0 0
0.128256 0.084808 0.298780 0.8 0 0
0.409925 0.143218 0.441424 0.8 0 0
0.242695 0.074213 0.183017 0.8 0 0
0.065908 0.039002 0.268852 0.8 0 0
0.067170 0.249526 0.253611 0.8 0 0
0.082340 0.059875 0.765826 0.8 0 0
0.088074 0.185121 0.253877 0.8 0 0
0.403873 0.083346 0.218093 0.8 0 0
0.127980 0.105120 0.959379 0.8 0 0
0.405382 0.202660 0.402145 0.8 0 0
0.378633 0.268088 0.245881 0.8 0 0
0.179369 0.244406 0.116953 0.8 0 0
0.263002 0.241176 0.082411 0.8 0 0
0.116257 0.190949 0.790225 0.8 0 0
0.298222 0.067650 0.862846 0.8 0 0
0.254966 0.135565 0.044509 0.8 0 0
0.407963 0.136960 0.216125 0.8 0 0
0.372412 0.140202 0.939010 0.8 0 0
0.378768 0.067658 0.658365 0.8 0 0
0.390689 0.187374 0.245222 0.8 0 0
0.408069 0.104832 0.604693 0.8 0 0
0.402692 0.093339 0.296925 0.8 0 0
0.211606 0.092738 0.960172 0.8 0 0
0.407963 0.080013 0.824299 0.8 0 0
0.386231 0.067671 0.487993 0.8 0 0
0.098513 0.097642 0.142190 0.8 0 0
0.167092 0.067661 0.421927 0.8 0 0
0.061888 0.100691 0.156054 0.8 0 0
0.058627 0.146138 0.084605 0.8 0 0
0.261223 0.205184 0.836473 0.8 0 0
0.355440 0.289842 0.263563 0.8 0 0
0.048917 0.207990 0.272031 0.8 0 0
0.408668 0.054795 0.781956 0.8 0 0
0.065067 0.073093 0.757397 0.8 0 0
0.102691 0.067671 0.485051 0.8 0 0
0.294199 0.318872 0.308658 0.8 0 0
0.289678 0.324992 0.328170 0.8 0 0
0.406920 0.089230 0.424918 0.8 0 0
0.035370 0.247925 0.613607 0.8 0 0
0.391872 0.095110 0.220306 0.8 0 0
0.404281 0.102581 0.184305 0.8 0 0
0.390319 0.206276 0.051668 0.8 0 0
0.407963 0.073673 0.787811 0.8 0 0
0.374817 0.137586 0.940345 0.8 0 0
0.065105 0.090518 0.183319 0.8 0 0
0.197043 0.067661 0.457839 0.8 0 0
0.049063 0.175174 0.745747 0.8 0 0
0.358775 0.089335 0.180640 0.8 0 0
0.091765 0.163438 0.224631 0.8 0 0
0.283591 0.324208 0.537176 0.8 0 0
0.078855 0.214681 0.750002 0.8 0 0
0.402517 0.148806 0.273264 0.8 0 0
0.355208 0.293960 0.292077 0.8 0 0
0.128849 0.119956 0.144861 0.8 0 0
0.373993 0.146128 0.092253 0.8 0 0
0.324773 0.135255 0.186748 0.8 0 0
0.111519 0.283925 0.596957 0.8 0 0
0.128256 0.093121 0.261401 0.8 0 0
0.043199 0.144174 0.390950 0.8 0 0
0.087679 0.270064 0.232498 0.8 0 0
0.296095 0.205901 0.830482 0.8 0 0
0.188508 0.196786 0.851414 0.8 0 0
0.264142 0.248229 0.155908 0.8 0 0
0.304343 0.067650 0.854486 0.8 0 0
0.366597 0.104105 0.951463 0.8 0 0
0.371121 0.047756 0.846767 0.8 0 0
0.075755 0.247309 0.476901 0.8 0 0
0.143365 0.103130 0.960736 0.8 0 0
0.345421 0.143015 0.943684 0.8 0 0
0.103477 0.067689 0.643118 0.8 0 0
0.052546 0.095862 0.265175 0.8 0 0
0.407963 0.114590 0.791973 0.8 0 0
0.065835 0.188437 0.207073 0.8 0 0
0.044492 0.052925 0.789044 0.8 0 0
0.051276 0.054355 0.223459 0.8 0 0
0.324773 0.093943 0.191658 0.8 0 0
0.046061 0.140455 0.387715 0.8 0 0
0.369704 0.128468 0.941057 0.8 0 0
0.377479 0.136668 0.030399 0.8 0 0
0.408843 0.135691 0.188318 0.8 0 0
0.092845 0.188483 0.808387 0.8 0 0
0.385051 0.067650 0.323760 0.8 0 0
0.364468 0.265307 0.456294 0.8 0 0
0.364580 0.091246 0.864110 0.8 0 0
0.402860 0.033682 0.825912 0.8 0 0
0.162873 0.274377 0.231027 0.8 0 0
0.285342 0.125582 0.969283 0.8 0 0
0.408069 0.141755 0.654307 0.8 0 0
0.403649 0.124385 0.901821 0.8 0 0
0.127318 0.166636 0.757427 0.8 0 0
0.389627 0.057946 0.734870 0.8 0 0
0.244938 0.074117 0.188929 0.8 0 0
0.094269 0.274610 0.402598 0.8 0 0
0.067376 0.067671 0.484869 0.8 0 0
0.408946 0.121599 0.742082 0.8 0 0
0.391162 0.233209 0.611766 0.8 0 0
0.045066 0.114690 0.828552 0.8 0 0
0.407963 0.103799 0.233884 0.8 0 0
0.340043 0.309956 0.299542 0.8 0 0
0.058868 0.128393 0.713372 0.8 0 0
0.284563 0.067656 0.729113 0.8 0 0
0.382574 0.146126 0.070109 0.8 0 0
0.188118 0.285932 0.252182 0.8 0 0
0.042852 0.126932 0.831139 0.8 0 0
0.109910 0.110846 0.954729 0.8 0 0
0.314126 0.329573 0.437249 0.8 0 0
0.044088 0.119093 0.848527 0.8 0 0
0.070904 0.117308 0.862621 0.8 0 0
0.365737 0.067673 0.501405 0.8 0 0
0.282726 0.331502 0.352726 0.8 0 0
0.054672 0.123544 0.762374 0.8 0 0
0.261540 0.067652 0.791906 0.8 0 0
0.406099 0.186981 0.492758 0.8 0 0
0.088532 0.067650 0.350422 0.8 0 0
0.202288 0.067650 0.288666 0.8 0 0
0.248696 0.213933 0.788105 0.8 0 0
0.193910 0.179694 0.935644 0.8 0 0
0.104304 0.067654 0.702359 0.8 0 0
0.409508 0.108041 0.838896 0.8 0 0
0.049734 0.077226 0.337001 0.8 0 0
0.046061 0.145176 0.344754 0.8 0 0
0.363051 0.120242 0.266584 0.8 0 0
0.285149 0.241803 0.090725 0.8 0 0
0.357808 0.248876 0.184353 0.8 0 0
0.400400 0.160088 0.864033 0.8 0 0
0.368676 0.041696 0.749594 0.8 0 0
0.098048 0.147945 0.047147 0.8 0 0
0.044018 0.140341 0.813825 0.8 0 0
0.242837 0.067663 0.685342 0.8 0 0
0.086312 0.139609 0.810843 0.8 0 0
0.346584 0.274547 0.233978 0.8 0 0
0.127318 0.082980 0.764086 0.8 0 0
0.046061 0.116570 0.654912 0.8 0 0
0.045065 0.079062 0.224703 0.8 0 0
0.403649 0.115788 0.779207 0.8 0 0
0.324773 0.184880 0.223858 0.8 0 0
0.339253 0.302947 0.360547 0.8 0 0
0.177163 0.170984 0.945855 0.8 0 0
0.377263 0.246541 0.501102 0.8 0 0
0.348351 0.097862 0.951290 0.8 0 0
0.187679 0.326999 0.517467 0.8 0 0
0.342860 0.307405 0.300962 0.8 0 0
0.400353 0.089195 0.200114 0.8 0 0
0.167949 0.117052 0.032289 0.8 0 0
0.369012 0.041157 0.750256 0.8 0 0
0.346999 0.067683 0.562029 0.8 0 0
0.254546 0.171475 0.939322 0.8 0 0
0.372438 0.185227 0.821003 0.8 0 0
0.396491 0.219980 0.624310 0.8 0 0
0.401306 0.072959 0.375602 0.8 0 0
0.052675 0.058178 0.812943 0.8 0 0
0.362842 0.227985 0.683246 0.8 0 0
0.400991 0.156993 0.152137 0.8 0 0
0.236292 0.163545 0.045819 0.8 0 0
0.071422 0.252775 0.305688 0.8 0 0
0.229597 0.329444 0.452720 0.8 0 0
0.050208 0.215282 0.294356 0.8 0 0
0.273584 0.330483 0.428132 0.8 0 0
0.225493 0.067666 0.653401 0.8 0 0
0.086372 0.115146 0.126277 0.8 0 0
0.101306 0.129174 0.960286 0.8 0 0
0.100875 0.067654 0.707733 0.8 0 0
0.092965 0.257865 0.209190 0.8 0 0
0.402611 0.056362 0.780666 0.8 0 0
0.046061 0.101131 0.450494 0.8 0 0
0.408069 0.120508 0.585321 0.8 0 0
0.392256 0.093428 0.888151 0.8 0 0
0.090128 0.129860 0.031591 0.8 0 0
0.324773 0.182285 0.229699 0.8 0 0
0.121205 0.134907 0.029053 0.8 0 0
0.242741 0.306895 0.285131 0.8 0 0
0.288014 0.067653 0.760355 0.8 0 0
0.295764 0.067673 0.540091 0.8 0 0
0.317887 0.146131 0.050479 0.8 0 0
0.397310 0.140621 0.299718 0.8 0 0
0.092023 0.286162 0.268211 0.8 0 0
0.127417 0.317855 0.315776 0.8 0 0
0.409142 0.118151 0.095956 0.8 0 0
0.046061 0.103557 0.522736 0.8 0 0
0.266687 0.327288 0.510017 0.8 0 0
0.410502 0.135405 0.342157 0.8 0 0
0.309559 0.330276 0.344182 0.8 0 0
0.059303 0.224946 0.527124 0.8 0 0
0.370364 0.259924 0.391225 0.8 0 0
0.142311 0.067658 0.681018 0.8 0 0
0.390936 0.092049 0.297766 0.8 0 0
0.357206 0.213115 0.763355 0.8 0 0
0.365357 0.134262 0.253672 0.8 0 0
0.390991 0.067677 0.524010 0.8 0 0
0.166040 0.067670 0.509174 0.8 0 0
0.044315 0.142321 0.774170 0.8 0 0
0.251465 0.067652 0.365009 0.8 0 0
0.265958 0.164144 0.948257 0.8 0 0
0.253726 0.249818 0.171530 0.8 0 0
0.407963 0.111807 0.188071 0.8 0 0
0.363078 0.151854 0.267365 0.8 0 0
0.048078 0.188888 0.449998 0.8 0 0
0.408069 0.140333 0.622644 0.8 0 0
0.376070 0.211968 0.045653 0.8 0 0
0.082615 0.067686 0.578689 0.8 0 0
0.402923 0.213941 0.451034 0.8 0 0
0.130630 0.268147 0.627544 0.8 0 0
0.049443 0.209409 0.526778 0.8 0 0
0.088353 0.218189 0.735657 0.8 0 0
0.090934 0.142616 0.221076 0.8 0 0
0.408069 0.105915 0.483445 0.8 0 0
0.056359 0.125306 0.132431 0.8 0 0
0.279981 0.073278 0.232827 0.8 0 0
0.062743 0.189654 0.851303 0.8 0 0
0.213073 0.067663 0.680552 0.8 0 0
0.274314 0.067650 0.280260 0.8 0 0
0.296205 0.186176 0.907670 0.8 0 0
0.102998 0.237839 0.060185 0.8 0 0
0.045066 0.069093 0.775811 0.8 0 0
0.053408 0.156113 0.291608 0.8 0 0
0.301144 0.067659 0.682357 0.8 0 0
0.296474 0.255315 0.193976 0.8 0 0
0.376533 0.127098 0.290772 0.8 0 0
0.347795 0.249338 0.185281 0.8 0 0
0.406867 0.126365 0.711533 0.8 0 0
0.044477 0.049063 0.239849 0.8 0 0
0.067511 0.025969 0.805029 0.8 0 0
0.408069 0.142814 0.371419 0.8 0 0
0.325877 0.183181 0.186315 0.8 0 0
0.365790 0.264550 0.429879 0.8 0 0
0.045066 0.073183 0.761008 0.8 0 0
0.260397 0.227262 0.046753 0.8 0 0
0.136843 0.226813 0.715768 0.8 0 0
0.046061 0.095819 0.599741 0.8 0 0
0.359548 0.193437 0.044156 0.8 0 0
0.170141 0.262481 0.639565 0.8 0 0
0.344763 0.067655 0.675033 0.8 0 0
0.148840 0.212510 0.785139 0.8 0 0
0.405917 0.077679 0.259299 0.8 0 0
0.053918 0.089245 0.835822 0.8 0 0
0.092639 0.033297 0.811556 0.8 0 0
0.312896 0.219376 0.044048 0.8 0 0
0.380361 0.067691 0.611835 0.8 0 0
0.338609 0.067677 0.521468 0.8 0 0
0.189798 0.076752 0.187642 0.8 0 0
0.122507 0.186763 0.770972 0.8 0 0
0.091888 0.266719 0.540660 0.8 0 0
0.379153 0.239883 0.634987 0.8 0 0
0.354584 0.277132 0.508116 0.8 0 0
0.365311 0.262384 0.503555 0.8 0 0
0.172331 0.067665 0.446886 0.8 0 0
0.210439 0.332106 0.384947 0.8 0 0
0.124241 0.307089 0.285516 0.8 0 0
0.146423 0.203546 0.824985 0.8 0 0
0.047013 0.090164 0.439608 0.8 0 0
0.332375 0.067683 0.596534 0.8 0 0
0.382234 0.177004 0.749185 0.8 0 0
0.049655 0.137602 0.872692 0.8 0 0
0.334974 0.249272 0.179147 0.8 0 0
0.325671 0.116212 0.048518 0.8 0 0
0.343026 0.185910 0.767099 0.8 0 0
0.405479 0.202856 0.250816 0.8 0 0
0.301572 0.080106 0.189365 0.8 0 0
0.172834 0.072979 0.235489 0.8 0 0
0.088908 0.142950 0.796202 0.8 0 0
0.389626 0.128415 0.950179 0.8 0 0
0.374210 0.057588 0.818793 0.8 0 0
0.247764 0.254509 0.651683 0.8 0 0
0.047037 0.169096 0.428266 0.8 0 0
0.146743 0.260784 0.205608 0.8 0 0
0.405011 0.204287 0.660762 0.8 0 0
0.310680 0.156180 0.044638 0.8 0 0
0.220946 0.175379 0.051670 0.8 0 0
0.244091 0.331497 0.354614 0.8 0 0
0.374049 0.251609 0.480530 0.8 0 0
0.048882 0.070964 0.246762 0.8 0 0
0.059025 0.146140 0.108221 0.8 0 0
0.406522 0.119573 0.253910 0.8 0 0
0.073636 0.249007 0.201469 0.8 0 0
0.128256 0.108123 0.233711 0.8 0 0
0.408069 0.133986 0.513921 0.8 0 0
0.052609 0.067918 0.234366 0.8 0 0
0.309009 0.190880 0.888150 0.8 0 0
0.408069 0.096363 0.666126 0.8 0 0
0.348302 0.123845 0.131231 0.8 0 0
0.315051 0.280331 0.243040 0.8 0 0
0.332714 0.098672 0.124631 0.8 0 0
0.364311 0.087103 0.158162 0.8 0 0
0.356815 0.176334 0.271267 0.8 0 0
0.228015 0.276538 0.619992 0.8 0 0
0.155682 0.271755 0.225931 0.8 0 0
0.275705 0.194369 0.877544 0.8 0 0
0.382591 0.061573 0.766354 0.8 0 0
0.199225 0.067668 0.597386 0.8 0 0
0.188401 0.144080 0.949175 0.8 0 0
0.214973 0.074865 0.952796 0.8 0 0
0.404535 0.195219 0.135320 0.8 0 0
0.410171 0.130412 0.679274 0.8 0 0
0.341881 0.212013 0.776300 0.8 0 0
0.283798 0.144080 0.950120 0.8 0 0
0.081273 0.223029 0.710551 0.8 0 0
0.231685 0.121924 0.029158 0.8 0 0
0.253808 0.331177 0.348219 0.8 0 0
0.405638 0.195980 0.492464 0.8 0 0
0.054231 0.115796 0.914104 0.8 0 0
0.046019 0.119001 0.758517 0.8 0 0
0.333789 0.170612 0.940437 0.8 0 0
0.069799 0.208506 0.779471 0.8 0 0
0.391361 0.232419 0.382724 0.8 0 0
0.096984 0.094175 0.946765 0.8 0 0
0.046243 0.155713 0.317470 0.8 0 0
0.215827 0.067658 0.455439 0.8 0 0
0.296258 0.067676 0.591104 0.8 0 0
0.052053 0.189980 0.781232 0.8 0 0
0.367294 0.264794 0.370794 0.8 0 0
0.171524 0.067670 0.526793 0.8 0 0
0.404046 0.195191 0.096438 0.8 0 0
0.409557 0.120704 0.187601 0.8 0 0
0.390672 0.096555 0.866088 0.8 0 0
0.196381 0.208010 0.793744 0.8 0 0
0.203736 0.286187 0.252660 0.8 0 0
0.392192 0.227421 0.619434 0.8 0 0
0.044291 0.112249 0.843251 0.8 0 0
0.269986 0.067651 0.824623 0.8 0 0
0.077187 0.031531 0.765678 0.8 0 0
0.346755 0.067689 0.653830 0.8 0 0
0.252339 0.090494 0.132521 0.8 0 0
0.048818 0.201125 0.544046 0.8 0 0
0.236123 0.067663 0.556156 0.8 0 0
0.361273 0.188428 0.206995 0.8 0 0
0.332652 0.068462 0.879606 0.8 0 0
0.045066 0.097806 0.814175 0.8 0 0
0.052247 0.216010 0.105415 0.8 0 0
0.069354 0.144190 0.847253 0.8 0 0
0.409003 0.148915 0.765089 0.8 0 0
0.207162 0.114523 0.031564 0.8 0 0
0.408069 0.103345 0.627643 0.8 0 0
0.127318 0.187805 0.777578 0.8 0 0
0.325749 0.085889 0.829871 0.8 0 0
0.111149 0.067687 0.650234 0.8 0 0
0.173000 0.269183 0.221033 0.8 0 0
0.365815 0.265432 0.405816 0.8 0 0
0.164915 0.169555 0.042672 0.8 0 0
0.094451 0.137346 0.870676 0.8 0 0
0.129577 0.326402 0.403809 0.8 0 0
0.341232 0.221531 0.733972 0.8 0 0
0.407513 0.034054 0.818584 0.8 0 0
0.203511 0.289017 0.599803 0.8 0 0
0.051438 0.106498 0.121392 0.8 0 0
0.053288 0.214563 0.564110 0.8 0 0
0.128256 0.112229 0.159329 0.8 0 0
0.369630 0.127716 0.147985 0.8 0 0
0.048860 0.205707 0.382537 0.8 0 0
0.258549 0.067658 0.725747 0.8 0 0
0.127858 0.201703 0.829172 0.8 0 0
0.337959 0.144080 0.936043 0.8 0 0
0.371433 0.125199 0.033507 0.8 0 0
0.042424 0.181662 0.213973 0.8 0 0
0.365797 0.146146 0.144858 0.8 0 0
0.057957 0.154336 0.835809 0.8 0 0
0.047823 0.186604 0.267956 0.8 0 0
0.131683 0.067674 0.504619 0.8 0 0
0.208053 0.067656 0.748803 0.8 0 0
0.331376 0.171251 0.278375 0.8 0 0
0.409351 0.143112 0.581557 0.8 0 0
0.187147 0.067659 0.410564 0.8 0 0
0.129811 0.133244 0.949919 0.8 0 0
0.359719 0.268615 0.591292 0.8 0 0
0.385205 0.202996 0.806743 0.8 0 0
0.152874 0.298698 0.581775 0.8 0 0
0.046061 0.119246 0.579393 0.8 0 0
0.064900 0.230065 0.553051 0.8 0 0
0.327184 0.092528 0.123381 0.8 0 0
0.045522 0.113946 0.133408 0.8 0 0
0.209057 0.317275 0.302548 0.8 0 0
0.189725 0.239213 0.062164 0.8 0 0
0.274812 0.067667 0.493935 0.8 0 0
0.127318 0.083236 0.842137 0.8 0 0
0.325710 0.111355 0.870994 0.8 0 0
0.372211 0.067663 0.437347 0.8 0 0
0.046061 0.109752 0.393365 0.8 0 0
0.054133 0.162798 0.820141 0.8 0 0
0.126860 0.321594 0.434826 0.8 0 0
0.050138 0.168318 0.835510 0.8 0 0
0.393480 0.067653 0.372488 0.8 0 0
0.056575 0.067677 0.527069 0.8 0 0
0.121985 0.317535 0.378627 0.8 0 0
0.325710 0.075266 0.834244 0.8 0 0
0.402011 0.073882 0.505927 0.8 0 0
0.046061 0.126765 0.594369 0.8 0 0
0.140071 0.083409 0.168958 0.8 0 0
0.183209 0.327677 0.500002 0.8 0 0
0.106500 0.135892 0.148873 0.8 0 0
0.149738 0.067652 0.819160 0.8 0 0
0.114394 0.302146 0.378230 0.8 0 0
0.050631 0.130012 0.112787 0.8 0 0
0.111874 0.107200 0.126298 0.8 0 0
0.063704 0.230258 0.635359 0.8 0 0
0.401641 0.089640 0.267597 0.8 0 0
0.331443 0.314379 0.479754 0.8 0 0
0.390723 0.233817 0.358870 0.8 0 0
0.179749 0.105570 0.036422 0.8 0 0
0.378554 0.071094 0.861428 0.8 0 0
0.270406 0.067669 0.544583 0.8 0 0
0.058101 0.228199 0.309713 0.8 0 0
0.164873 0.067650 0.317723 0.8 0 0
0.138279 0.140998 0.949199 0.8 0 0
0.057487 0.135988 0.779140 0.8 0 0
0.288932 0.149952 0.938246 0.8 0 0
0.207844 0.067668 0.623723 0.8 0 0
0.353639 0.178148 0.927720 0.8 0 0
0.294300 0.067668 0.467874 0.8 0 0
0.219758 0.240535 0.076324 0.8 0 0
0.324773 0.091790 0.265123 0.8 0 0
0.353504 0.201009 0.043290 0.8 0 0
0.075954 0.253842 0.314927 0.8 0 0
0.401569 0.146143 0.077061 0.8 0 0
0.324773 0.102452 0.257695 0.8 0 0
0.300638 0.067653 0.770198 0.8 0 0
0.346795 0.149028 0.933253 0.8 0 0
0.244938 0.216381 0.757143 0.8 0 0
0.370227 0.144458 0.938616 0.8 0 0
0.098233 0.150814 0.295494 0.8 0 0
0.382474 0.202533 0.809456 0.8 0 0
0.048066 0.189664 0.406857 0.8 0 0
0.095591 0.121486 0.146568 0.8 0 0
0.127318 0.087450 0.741691 0.8 0 0
0.092063 0.149484 0.755095 0.8 0 0
0.200972 0.241806 0.669856 0.8 0 0
0.326086 0.146302 0.740199 0.8 0 0
0.400353 0.071211 0.828765 0.8 0 0
0.312829 0.293922 0.587782 0.8 0 0
0.050593 0.070801 0.828000 0.8 0 0
0.088789 0.146133 0.126990 0.8 0 0
0.407311 0.118313 0.831272 0.8 0 0
0.219120 0.327501 0.503510 0.8 0 0
0.254797 0.194283 0.050758 0.8 0 0
0.050317 0.150420 0.089150 0.8 0 0
0.252834 0.189236 0.900119 0.8 0 0
0.350491 0.098039 0.876230 0.8 0 0
0.390776 0.146157 0.037949 0.8 0 0
0.046283 0.155962 0.497186 0.8 0 0
0.325710 0.173251 0.763940 0.8 0 0
0.299095 0.228614 0.741730 0.8 0 0
0.218515 0.067667 0.643138 0.8 0 0
0.104362 0.286728 0.434918 0.8 0 0
0.336024 0.170251 0.937919 0.8 0 0
0.268648 0.239988 0.070210 0.8 0 0
0.048064 0.186242 0.555384 0.8 0 0
0.394935 0.130027 0.200358 0.8 0 0
0.091904 0.197079 0.839011 0.8 0 0
0.270643 0.067651 0.820336 0.8 0 0
0.355025 0.246979 0.651653 0.8 0 0
0.167756 0.315708 0.296835 0.8 0 0
0.116283 0.191316 0.870698 0.8 0 0
0.043418 0.133447 0.709677 0.8 0 0
0.091160 0.280723 0.324799 0.8 0 0
0.055212 0.248457 0.613468 0.8 0 0
0.043974 0.090290 0.288884 0.8 0 0
0.050206 0.127923 0.304965 0.8 0 0
0.132270 0.271399 0.229099 0.8 0 0
0.370024 0.115513 0.954360 0.8 0 0
0.382016 0.141704 0.720362 0.8 0 0
0.408030 0.037930 0.823903 0.8 0 0
0.365961 0.259786 0.551519 0.8 0 0
0.376767 0.067650 0.325161 0.8 0 0
0.360016 0.261060 0.214925 0.8 0 0
0.326205 0.137963 0.726688 0.8 0 0
0.257355 0.067665 0.524351 0.8 0 0
0.269823 0.067650 0.838711 0.8 0 0
0.047727 0.181955 0.453744 0.8 0 0
0.147777 0.169709 0.935063 0.8 0 0
0.310384 0.144315 0.940511 0.8 0 0
0.132574 0.241625 0.092381 0.8 0 0
0.206216 0.067660 0.710409 0.8 0 0
0.165952 0.325680 0.330066 0.8 0 0
0.311879 0.329340 0.455718 0.8 0 0
0.160618 0.067678 0.644540 0.8 0 0
0.407935 0.154793 0.325565 0.8 0 0
0.348206 0.208722 0.787749 0.8 0 0
0.371390 0.133776 0.252871 0.8 0 0
0.124973 0.274807 0.615981 0.8 0 0
0.384785 0.134487 0.205149 0.8 0 0
0.270054 0.181195 0.929987 0.8 0 0
0.294402 0.247801 0.152319 0.8 0 0
0.104080 0.137571 0.894852 0.8 0 0
0.060682 0.146136 0.068642 0.8 0 0
0.058410 0.221674 0.603805 0.8 0 0
0.045065 0.086864 0.823975 0.8 0 0
0.337458 0.067686 0.633935 0.8 0 0
0.403396 0.089279 0.296203 0.8 0 0
0.279513 0.330361 0.344633 0.8 0 0
0.085100 0.257719 0.625726 0.8 0 0
0.407963 0.134274 0.781274 0.8 0 0
0.048191 0.186621 0.373275 0.8 0 0
0.405512 0.171427 0.277792 0.8 0 0
0.410032 0.141395 0.808544 0.8 0 0
0.046061 0.143572 0.629113 0.8 0 0
0.210728 0.182194 0.927290 0.8 0 0
0.178189 0.125751 0.029485 0.8 0 0
0.207561 0.330426 0.428754 0.8 0 0
0.315075 0.306239 0.284053 0.8 0 0
0.219960 0.204412 0.813488 0.8 0 0
0.087915 0.277016 0.295375 0.8 0 0
0.129543 0.099592 0.957207 0.8 0 0
0.378835 0.067650 0.355076 0.8 0 0
0.296119 0.221858 0.768272 0.8 0 0
0.131221 0.209527 0.795973 0.8 0 0
0.294822 0.067650 0.319337 0.8 0 0
0.157499 0.067673 0.546895 0.8 0 0
0.161264 0.067670 0.505809 0.8 0 0
0.166996 0.225562 0.702332 0.8 0 0
