0.289268 0.191158 0.086671 0.8 0 0
0.352139 0.082465 0.240791 0.8 0 0
0.362810 0.102904 0.361046 0.8 0 0
0.237088 0.130979 0.054771 0.8 0 0
0.362242 0.187445 0.410739 0.8 0 0
0.174522 0.271936 0.468958 0.8 0 0
0.053311 0.050265 0.314506 0.8 0 0
0.101309 0.264427 0.370080 0.8 0 0
0.088815 0.070422 0.428999 0.8 0 0
0.099288 0.265977 0.465730 0.8 0 0
0.100349 0.248480 0.280016 0.8 0 0
0.355548 0.178370 0.068206 0.8 0 0
0.169321 0.069739 0.548476 0.8 0 0
0.112580 0.114092 0.763452 0.8 0 0
0.234786 0.069743 0.547736 0.8 0 0
0.371660 0.131661 0.345758 0.8 0 0
0.279883 0.231643 0.246405 0.8 0 0
0.127550 0.119637 0.932008 0.8 0 0
0.242149 0.095067 0.051026 0.8 0 0
0.175260 0.070259 0.456338 0.8 0 0
0.337030 0.224336 0.338051 0.8 0 0
0.317712 0.090054 0.920710 0.8 0 0
0.327001 0.086535 0.737830 0.8 0 0
0.284423 0.268863 0.448615 0.8 0 0
0.342140 0.072074 0.589459 0.8 0 0
0.174993 0.092386 0.098894 0.8 0 0
0.030052 0.149954 0.757792 0.8 0 0
0.279893 0.192793 0.817342 0.8 0 0
0.066440 0.146676 0.804030 0.8 0 0
0.219806 0.082711 0.818567 0.8 0 0
0.045241 0.125090 0.909283 0.8 0 0
0.202031 0.070152 0.474030 0.8 0 0
0.183840 0.126457 0.048390 0.8 0 0
0.231479 0.086992 0.861587 0.8 0 0
0.159527 0.088801 0.150644 0.8 0 0
0.142847 0.177463 0.934304 0.8 0 0
0.047296 0.076180 0.714749 0.8 0 0
0.266197 0.072400 0.324007 0.8 0 0
0.157237 0.068484 0.674700 0.8 0 0
0.065585 0.210369 0.555233 0.8 0 0
0.115043 0.076053 0.281038 0.8 0 0
0.060220 0.071655 0.205775 0.8 0 0
0.031518 0.142713 0.297320 0.8 0 0
0.201432 0.084578 0.181035 0.8 0 0
0.370162 0.174330 0.339789 0.8 0 0
0.356322 0.116880 0.783522 0.8 0 0
0.289001 0.088823 0.905883 0.8 0 0
0.348238 0.146459 0.775076 0.8 0 0
0.176187 0.271374 0.397680 0.8 0 0
0.317896 0.113220 0.028615 0.8 0 0
0.212179 0.069760 0.544668 0.8 0 0
0.356881 0.034545 0.260441 0.8 0 0
0.289535 0.106537 0.230552 0.8 0 0
0.233923 0.089021 0.909462 0.8 0 0
0.337068 0.084075 0.204153 0.8 0 0
0.335859 0.116749 0.718203 0.8 0 0
0.332417 0.191038 0.770872 0.8 0 0
0.047476 0.188199 0.097971 0.8 0 0
0.047544 0.121985 0.781342 0.8 0 0
0.330594 0.126143 0.725846 0.8 0 0
0.146191 0.172103 0.059849 0.8 0 0
0.078941 0.126788 0.246661 0.8 0 0
0.112597 0.079638 0.273197 0.8 0 0
0.357601 0.131676 0.264749 0.8 0 0
0.142349 0.270342 0.429544 0.8 0 0
0.172295 0.234277 0.600524 0.8 0 0
0.338623 0.192008 0.729253 0.8 0 0
0.044453 0.045179 0.750109 0.8 0 0
0.213988 0.201178 0.723978 0.8 0 0
0.369361 0.124942 0.479448 0.8 0 0
0.081208 0.069342 0.620235 0.8 0 0
0.062977 0.204546 0.576020 0.8 0 0
0.172653 0.208140 0.643309 0.8 0 0
0.323403 0.040976 0.251298 0.8 0 0
0.036306 0.112654 0.653116 0.8 0 0
0.156080 0.190534 0.082346 0.8 0 0
0.349059 0.080029 0.249550 0.8 0 0
0.355924 0.092126 0.415879 0.8 0 0
0.077434 0.122095 0.925984 0.8 0 0
0.252527 0.089484 0.138478 0.8 0 0
0.061205 0.145701 0.924566 0.8 0 0
0.304707 0.181081 0.070704 0.8 0 0
0.346679 0.125759 0.816255 0.8 0 0
0.289565 0.124985 0.795345 0.8 0 0
0.354257 0.107887 0.186473 0.8 0 0
0.164005 0.195945 0.806768 0.8 0 0
0.372146 0.165415 0.326107 0.8 0 0
0.044850 0.113933 0.167066 0.8 0 0
0.068431 0.122565 0.329343 0.8 0 0
0.042570 0.162132 0.852256 0.8 0 0
0.225150 0.078889 0.247992 0.8 0 0
0.365472 0.110973 0.507727 0.8 0 0
0.327040 0.067910 0.246655 0.8 0 0
0.171967 0.070990 0.343394 0.8 0 0
0.066132 0.179849 0.899378 0.8 0 0
0.334540 0.092318 0.830905 0.8 0 0
0.352463 0.094038 0.770500 0.8 0 0
0.075071 0.096534 0.791524 0.8 0 0
0.356156 0.115355 0.219905 0.8 0 0
0.108596 0.262106 0.319204 0.8 0 0
0.112563 0.118906 0.283908 0.8 0 0
0.223357 0.159426 0.943140 0.8 0 0
0.046946 0.111596 0.794204 0.8 0 0
0.177884 0.181175 0.069189 0.8 0 0
0.236093 0.068378 0.680469 0.8 0 0
0.288038 0.196110 0.646425 0.8 0 0
0.164722 0.234648 0.245966 0.8 0 0
0.094654 0.148846 0.748993 0.8 0 0
0.049405 0.089759 0.905624 0.8 0 0
0.078212 0.041566 0.795274 0.8 0 0
0.058193 0.193146 0.710199 0.8 0 0
0.330191 0.123063 0.027814 0.8 0 0
0.361286 0.132611 0.869771 0.8 0 0
0.347131 0.098388 0.205301 0.8 0 0
0.352748 0.195011 0.421975 0.8 0 0
0.356874 0.081889 0.213936 0.8 0 0
0.167868 0.108397 0.965945 0.8 0 0
0.033266 0.127342 0.604666 0.8 0 0
0.138867 0.091940 0.122816 0.8 0 0
0.172243 0.229944 0.236977 0.8 0 0
0.075919 0.116318 0.312899 0.8 0 0
0.372365 0.144362 0.290693 0.8 0 0
0.201049 0.247628 0.582081 0.8 0 0
0.253541 0.075637 0.757519 0.8 0 0
0.353475 0.186897 0.627991 0.8 0 0
0.327361 0.173513 0.063379 0.8 0 0
0.176956 0.073738 0.308862 0.8 0 0
0.270459 0.269120 0.411534 0.8 0 0
0.042872 0.095224 0.549622 0.8 0 0
0.326970 0.053197 0.278302 0.8 0 0
0.029022 0.157236 0.384987 0.8 0 0
0.052204 0.067198 0.272545 0.8 0 0
0.053320 0.195674 0.521512 0.8 0 0
0.261391 0.087777 0.158934 0.8 0 0
0.112625 0.194684 0.784331 0.8 0 0
0.054753 0.183776 0.073767 0.8 0 0
0.321205 0.238827 0.516529 0.8 0 0
0.359107 0.161688 0.858640 0.8 0 0
0.139565 0.126950 0.050370 0.8 0 0
0.034383 0.118010 0.374821 0.8 0 0
0.326421 0.202439 0.613575 0.8 0 0
0.165815 0.070801 0.371255 0.8 0 0
0.154410 0.194603 0.819840 0.8 0 0
0.127157 0.070838 0.362093 0.8 0 0
0.048453 0.189491 0.462308 0.8 0 0
0.123653 0.201832 0.640434 0.8 0 0
0.199051 0.178115 0.065347 0.8 0 0
0.329755 0.145657 0.244885 0.8 0 0
0.353718 0.176501 0.838973 0.8 0 0
0.112588 0.088645 0.288556 0.8 0 0
0.363885 0.130047 0.124594 0.8 0 0
0.231494 0.069094 0.700934 0.8 0 0
0.033842 0.148385 0.796824 0.8 0 0
0.052172 0.195722 0.447693 0.8 0 0
0.096728 0.097481 0.041234 0.8 0 0
0.083218 0.182172 0.878515 0.8 0 0
0.070042 0.028631 0.285606 0.8 0 0
0.324930 0.121656 0.224357 0.8 0 0
0.310234 0.070824 0.362111 0.8 0 0
0.342324 0.217621 0.306270 0.8 0 0
0.289537 0.081766 0.727399 0.8 0 0
0.085321 0.068735 0.657264 0.8 0 0
0.112593 0.095934 0.781414 0.8 0 0
0.170802 0.107991 0.966448 0.8 0 0
0.232917 0.117028 0.963608 0.8 0 0
0.117843 0.096893 0.072972 0.8 0 0
0.264698 0.070795 0.715786 0.8 0 0
0.053389 0.209176 0.294535 0.8 0 0
0.034477 0.119867 0.600546 0.8 0 0
0.052012 0.050249 0.721445 0.8 0 0
0.310205 0.228121 0.581777 0.8 0 0
0.312687 0.255179 0.463058 0.8 0 0
0.043918 0.179277 0.576997 0.8 0 0
0.323844 0.125774 0.248337 0.8 0 0
0.039007 0.102306 0.686470 0.8 0 0
0.211864 0.269313 0.344159 0.8 0 0
0.116009 0.125326 0.036214 0.8 0 0
0.084359 0.093104 0.118286 0.8 0 0
0.337819 0.103899 0.947221 0.8 0 0
0.075127 0.106121 0.238918 0.8 0 0
0.357149 0.129341 0.266437 0.8 0 0
0.371921 0.143567 0.456023 0.8 0 0
0.354651 0.192604 0.421285 0.8 0 0
0.206105 0.070050 0.492132 0.8 0 0
0.074175 0.069381 0.613460 0.8 0 0
0.358875 0.147024 0.743169 0.8 0 0
0.353457 0.106713 0.825807 0.8 0 0
0.323358 0.050135 0.235271 0.8 0 0
0.173065 0.096995 0.043508 0.8 0 0
0.047911 0.043108 0.809607 0.8 0 0
0.347723 0.092789 0.879305 0.8 0 0
0.047888 0.121852 0.762836 0.8 0 0
0.231947 0.115254 0.966779 0.8 0 0
0.076609 0.104857 0.299728 0.8 0 0
0.220580 0.070384 0.438972 0.8 0 0
0.026932 0.155793 0.254163 0.8 0 0
0.225821 0.271848 0.471176 0.8 0 0
0.370946 0.147720 0.597450 0.8 0 0
0.083417 0.138698 0.723439 0.8 0 0
0.097263 0.264717 0.436921 0.8 0 0
0.358553 0.166669 0.847311 0.8 0 0
0.255600 0.095970 0.041464 0.8 0 0
0.032586 0.128788 0.524405 0.8 0 0
0.351509 0.191794 0.473184 0.8 0 0
0.188871 0.263901 0.300380 0.8 0 0
0.289714 0.225231 0.597556 0.8 0 0
0.137840 0.127889 0.052692 0.8 0 0
0.073438 0.193681 0.630742 0.8 0 0
0.371331 0.147957 0.808087 0.8 0 0
0.141928 0.068461 0.695622 0.8 0 0
0.368474 0.126690 0.664216 0.8 0 0
0.066771 0.097989 0.847639 0.8 0 0
0.309912 0.087777 0.157501 0.8 0 0
0.187576 0.117550 0.957281 0.8 0 0
0.287952 0.089613 0.915791 0.8 0 0
0.138274 0.207033 0.172723 0.8 0 0
0.342558 0.217325 0.315332 0.8 0 0
0.078872 0.086241 0.219417 0.8 0 0
0.329842 0.111878 0.824708 0.8 0 0
0.372332 0.161891 0.354933 0.8 0 0
0.365726 0.112170 0.539028 0.8 0 0
0.056952 0.146341 0.262787 0.8 0 0
0.352136 0.190465 0.523069 0.8 0 0
0.046804 0.205939 0.566428 0.8 0 0
0.238463 0.189784 0.080656 0.8 0 0
0.320244 0.195439 0.663145 0.8 0 0
0.353046 0.130770 0.321180 0.8 0 0
0.255901 0.126776 0.035551 0.8 0 0
0.112572 0.109625 0.203059 0.8 0 0
0.032909 0.176728 0.204249 0.8 0 0
0.054250 0.081272 0.397653 0.8 0 0
0.070669 0.055925 0.317595 0.8 0 0
0.324115 0.103357 0.313975 0.8 0 0
0.151676 0.155963 0.054957 0.8 0 0
0.035974 0.131317 0.165856 0.8 0 0
0.332128 0.070313 0.447602 0.8 0 0
0.289536 0.094458 0.310180 0.8 0 0
0.251820 0.069642 0.565949 0.8 0 0
0.132683 0.069791 0.539086 0.8 0 0
0.083424 0.192939 0.739573 0.8 0 0
0.315673 0.208933 0.610522 0.8 0 0
0.057126 0.214160 0.309153 0.8 0 0
0.096747 0.090469 0.929427 0.8 0 0
0.195364 0.090335 0.113561 0.8 0 0
0.169373 0.181956 0.935183 0.8 0 0
0.197178 0.191945 0.871044 0.8 0 0
0.073824 0.140711 0.747250 0.8 0 0
0.080610 0.069473 0.596811 0.8 0 0
0.350469 0.194185 0.126745 0.8 0 0
0.341788 0.074620 0.363514 0.8 0 0
0.339547 0.069291 0.623355 0.8 0 0
0.266326 0.096731 0.033311 0.8 0 0
0.323749 0.064573 0.814979 0.8 0 0
0.177174 0.199190 0.768997 0.8 0 0
0.233877 0.271324 0.483990 0.8 0 0
0.192471 0.071481 0.335489 0.8 0 0
0.156286 0.082154 0.209695 0.8 0 0
0.327009 0.081036 0.801881 0.8 0 0
0.330160 0.109146 0.209493 0.8 0 0
0.289543 0.084001 0.697527 0.8 0 0
0.321486 0.087862 0.882508 0.8 0 0
0.359183 0.176692 0.651602 0.8 0 0
0.094373 0.187225 0.834141 0.8 0 0
0.148513 0.193558 0.828743 0.8 0 0
0.366545 0.138569 0.308486 0.8 0 0
0.112586 0.106757 0.778836 0.8 0 0
0.057455 0.078287 0.349300 0.8 0 0
0.285021 0.070162 0.472525 0.8 0 0
0.333170 0.227350 0.263805 0.8 0 0
0.040051 0.125920 0.853522 0.8 0 0
0.097133 0.213874 0.214000 0.8 0 0
0.044074 0.162172 0.865856 0.8 0 0
0.300079 0.102671 0.192292 0.8 0 0
0.068562 0.226817 0.297734 0.8 0 0
0.151704 0.127282 0.936473 0.8 0 0
0.077459 0.083274 0.318869 0.8 0 0
0.169518 0.087234 0.869317 0.8 0 0
0.166437 0.168816 0.055930 0.8 0 0
0.071616 0.135902 0.298453 0.8 0 0
0.325077 0.243720 0.311518 0.8 0 0
0.332413 0.082453 0.831098 0.8 0 0
0.081901 0.241850 0.377439 0.8 0 0
0.132678 0.268081 0.369251 0.8 0 0
0.184453 0.197004 0.103883 0.8 0 0
0.216491 0.201337 0.716467 0.8 0 0
0.324795 0.096830 0.075670 0.8 0 0
0.345276 0.130255 0.205441 0.8 0 0
0.280654 0.069483 0.594879 0.8 0 0
0.151426 0.227862 0.607944 0.8 0 0
0.227565 0.069042 0.638496 0.8 0 0
0.180184 0.233449 0.602946 0.8 0 0
0.355690 0.058561 0.294700 0.8 0 0
0.151482 0.194268 0.821797 0.8 0 0
0.039472 0.146163 0.255410 0.8 0 0
0.048581 0.140712 0.304006 0.8 0 0
0.064925 0.221175 0.299234 0.8 0 0
0.088240 0.196082 0.660602 0.8 0 0
0.063917 0.199317 0.144413 0.8 0 0
0.130804 0.246573 0.273209 0.8 0 0
0.289699 0.147548 0.744805 0.8 0 0
0.343523 0.074575 0.492298 0.8 0 0
0.366252 0.141843 0.729185 0.8 0 0
0.084448 0.068919 0.646214 0.8 0 0
0.098088 0.070078 0.487123 0.8 0 0
0.168760 0.070580 0.407544 0.8 0 0
0.201309 0.217589 0.208140 0.8 0 0
0.345295 0.075918 0.582980 0.8 0 0
0.342179 0.182030 0.891817 0.8 0 0
0.207207 0.270184 0.353800 0.8 0 0
0.173294 0.195314 0.820083 0.8 0 0
0.254380 0.216172 0.210898 0.8 0 0
0.250879 0.167262 0.936037 0.8 0 0
0.340313 0.089714 0.335212 0.8 0 0
0.317326 0.147903 0.798924 0.8 0 0
0.347386 0.201995 0.425651 0.8 0 0
0.082410 0.119348 0.952170 0.8 0 0
0.191486 0.077951 0.259292 0.8 0 0
0.088472 0.144914 0.241317 0.8 0 0
0.049435 0.085949 0.531545 0.8 0 0
0.359032 0.094691 0.640424 0.8 0 0
0.112572 0.110391 0.250615 0.8 0 0
0.117873 0.264820 0.337650 0.8 0 0
0.280156 0.079214 0.243972 0.8 0 0
0.112577 0.120922 0.821629 0.8 0 0
0.279237 0.087696 0.159515 0.8 0 0
0.066777 0.212942 0.552560 0.8 0 0
0.054524 0.175815 0.907048 0.8 0 0
0.325569 0.055734 0.796222 0.8 0 0
0.208082 0.087376 0.872627 0.8 0 0
0.122926 0.070266 0.711334 0.8 0 0
0.100268 0.263444 0.351109 0.8 0 0
0.032420 0.150293 0.762445 0.8 0 0
0.239979 0.124226 0.038164 0.8 0 0
0.230885 0.074835 0.750487 0.8 0 0
0.361547 0.114068 0.032732 0.8 0 0
0.135359 0.092349 0.119605 0.8 0 0
0.172616 0.198468 0.776568 0.8 0 0
0.045265 0.034796 0.763182 0.8 0 0
0.051376 0.189828 0.722165 0.8 0 0
0.153870 0.069735 0.549160 0.8 0 0
0.055998 0.202219 0.551755 0.8 0 0
0.140662 0.127320 0.051930 0.8 0 0
0.046572 0.054484 0.219535 0.8 0 0
0.353404 0.144517 0.256939 0.8 0 0
0.357512 0.121510 0.800677 0.8 0 0
0.095211 0.134477 0.316505 0.8 0 0
0.259743 0.117967 0.944221 0.8 0 0
0.250427 0.090027 0.922060 0.8 0 0
0.082143 0.227031 0.243893 0.8 0 0
0.337260 0.069500 0.591830 0.8 0 0
0.352604 0.098429 0.792517 0.8 0 0
0.139679 0.088316 0.896008 0.8 0 0
0.045840 0.034295 0.754528 0.8 0 0
0.271139 0.192853 0.823922 0.8 0 0
0.082330 0.070204 0.465276 0.8 0 0
0.037370 0.184265 0.156289 0.8 0 0
0.134593 0.192292 0.833702 0.8 0 0
0.026304 0.154121 0.309767 0.8 0 0
0.324137 0.243683 0.332943 0.8 0 0
0.130742 0.193988 0.807878 0.8 0 0
0.238069 0.088675 0.135387 0.8 0 0
0.038253 0.192398 0.282862 0.8 0 0
0.145546 0.211914 0.194230 0.8 0 0
0.074748 0.089459 0.849474 0.8 0 0
0.278094 0.269454 0.446389 0.8 0 0
0.354700 0.138442 0.723006 0.8 0 0
0.101221 0.210000 0.617695 0.8 0 0
0.078300 0.134864 0.779085 0.8 0 0
0.047391 0.108947 0.178810 0.8 0 0
0.051561 0.082985 0.524717 0.8 0 0
0.187831 0.088500 0.139856 0.8 0 0
0.065591 0.116326 0.717966 0.8 0 0
0.351489 0.092022 0.941919 0.8 0 0
0.174843 0.269071 0.537067 0.8 0 0
0.368947 0.136163 0.191781 0.8 0 0
0.046213 0.078407 0.264557 0.8 0 0
0.102803 0.265893 0.414023 0.8 0 0
0.106052 0.094181 0.112175 0.8 0 0
0.226650 0.069841 0.529993 0.8 0 0
0.323751 0.047272 0.791217 0.8 0 0
0.116203 0.268685 0.470041 0.8 0 0
0.076665 0.125444 0.266026 0.8 0 0
0.363789 0.193400 0.268246 0.8 0 0
0.128181 0.213748 0.622724 0.8 0 0
0.241576 0.271229 0.483888 0.8 0 0
0.077592 0.037816 0.746627 0.8 0 0
0.075435 0.131416 0.805710 0.8 0 0
0.208701 0.272480 0.463247 0.8 0 0
0.045251 0.128682 0.269305 0.8 0 0
0.356804 0.044782 0.783275 0.8 0 0
0.089449 0.178909 0.902251 0.8 0 0
0.088328 0.256557 0.455999 0.8 0 0
0.366636 0.181715 0.373713 0.8 0 0
0.208456 0.118326 0.953332 0.8 0 0
0.288812 0.069534 0.585608 0.8 0 0
0.038188 0.112323 0.081572 0.8 0 0
0.077778 0.111743 0.298523 0.8 0 0
0.248280 0.089038 0.138714 0.8 0 0
0.238249 0.077683 0.262054 0.8 0 0
0.120393 0.069858 0.526982 0.8 0 0
0.366417 0.110271 0.051234 0.8 0 0
0.265441 0.217690 0.219469 0.8 0 0
0.342088 0.036792 0.301054 0.8 0 0
0.277291 0.070246 0.459786 0.8 0 0
0.364599 0.156173 0.070877 0.8 0 0
0.336255 0.224849 0.347423 0.8 0 0
0.328118 0.189564 0.791877 0.8 0 0
0.189284 0.173669 0.060698 0.8 0 0
0.241239 0.188019 0.890650 0.8 0 0
0.270656 0.210966 0.628220 0.8 0 0
0.215281 0.084235 0.831735 0.8 0 0
0.063814 0.197685 0.625476 0.8 0 0
0.107378 0.195897 0.757865 0.8 0 0
0.034493 0.175745 0.152781 0.8 0 0
0.182971 0.106491 0.032924 0.8 0 0
0.050494 0.133314 0.317976 0.8 0 0
0.211839 0.076867 0.271970 0.8 0 0
0.344600 0.206981 0.373485 0.8 0 0
0.366817 0.161783 0.612182 0.8 0 0
0.032906 0.128855 0.571428 0.8 0 0
0.368612 0.159025 0.119580 0.8 0 0
0.311278 0.196420 0.661599 0.8 0 0
0.340738 0.070381 0.206182 0.8 0 0
0.065639 0.145259 0.284837 0.8 0 0
0.250759 0.267868 0.539076 0.8 0 0
0.239843 0.131537 0.055188 0.8 0 0
0.106338 0.069543 0.584035 0.8 0 0
0.059811 0.192480 0.764580 0.8 0 0
0.278729 0.117919 0.951004 0.8 0 0
0.368502 0.155236 0.674576 0.8 0 0
0.289540 0.085144 0.812060 0.8 0 0
0.190497 0.084411 0.833289 0.8 0 0
0.179078 0.184842 0.922231 0.8 0 0
0.075054 0.108986 0.262632 0.8 0 0
0.075164 0.040906 0.302214 0.8 0 0
0.370619 0.135528 0.314852 0.8 0 0
0.162894 0.084069 0.187139 0.8 0 0
0.356903 0.200792 0.546363 0.8 0 0
0.330218 0.068597 0.665694 0.8 0 0
0.246515 0.216660 0.627144 0.8 0 0
0.043249 0.145136 0.904680 0.8 0 0
0.289725 0.246238 0.562128 0.8 0 0
0.317880 0.070319 0.447488 0.8 0 0
0.328271 0.227518 0.249524 0.8 0 0
0.190300 0.072869 0.319181 0.8 0 0
0.210543 0.089227 0.123363 0.8 0 0
0.059260 0.150384 0.781823 0.8 0 0
0.332710 0.078017 0.334405 0.8 0 0
0.037478 0.168775 0.475282 0.8 0 0
0.086905 0.187182 0.831522 0.8 0 0
0.201557 0.069493 0.592841 0.8 0 0
0.040748 0.179708 0.419444 0.8 0 0
0.339056 0.098214 0.046486 0.8 0 0
0.368827 0.152632 0.808068 0.8 0 0
0.339152 0.204472 0.582119 0.8 0 0
0.112470 0.195809 0.769449 0.8 0 0
0.133633 0.071333 0.720498 0.8 0 0
0.327221 0.089074 0.770261 0.8 0 0
0.325701 0.229016 0.571186 0.8 0 0
0.308948 0.115055 0.703391 0.8 0 0
0.060963 0.092062 0.942312 0.8 0 0
0.140894 0.080887 0.224591 0.8 0 0
0.239591 0.076778 0.272702 0.8 0 0
0.289569 0.136932 0.758083 0.8 0 0
0.355693 0.131066 0.801417 0.8 0 0
0.167833 0.070037 0.494514 0.8 0 0
0.315049 0.070455 0.425006 0.8 0 0
0.216632 0.070704 0.389760 0.8 0 0
0.159253 0.195471 0.096944 0.8 0 0
0.118597 0.073994 0.743520 0.8 0 0
0.044126 0.178834 0.642333 0.8 0 0
0.084384 0.068720 0.658199 0.8 0 0
0.083180 0.192403 0.753939 0.8 0 0
0.296956 0.124298 0.040157 0.8 0 0
0.316741 0.193792 0.100819 0.8 0 0
0.351570 0.074292 0.244742 0.8 0 0
0.069579 0.192189 0.094132 0.8 0 0
0.239626 0.221652 0.619878 0.8 0 0
0.284855 0.068962 0.700073 0.8 0 0
0.219874 0.069621 0.569752 0.8 0 0
0.058219 0.025000 0.267255 0.8 0 0
0.075018 0.067984 0.260009 0.8 0 0
0.367186 0.170848 0.133030 0.8 0 0
0.294273 0.112410 0.334503 0.8 0 0
0.356654 0.070216 0.315663 0.8 0 0
0.291053 0.267404 0.427935 0.8 0 0
0.281342 0.150305 0.933158 0.8 0 0
0.064971 0.126463 0.219953 0.8 0 0
0.076406 0.233720 0.417700 0.8 0 0
0.357302 0.077135 0.217619 0.8 0 0
0.327200 0.085779 0.260791 0.8 0 0
0.076862 0.049129 0.281445 0.8 0 0
0.096444 0.255990 0.535247 0.8 0 0
0.091017 0.198581 0.649624 0.8 0 0
0.183580 0.069652 0.564171 0.8 0 0
0.220476 0.271936 0.472311 0.8 0 0
0.326811 0.139099 0.792883 0.8 0 0
0.084464 0.248603 0.288548 0.8 0 0
0.188102 0.200713 0.737929 0.8 0 0
0.234295 0.235848 0.597135 0.8 0 0
0.142567 0.119456 0.935987 0.8 0 0
0.067176 0.172220 0.062471 0.8 0 0
0.044881 0.181929 0.484097 0.8 0 0
0.354581 0.051229 0.762057 0.8 0 0
0.111793 0.153790 0.054846 0.8 0 0
0.359561 0.095671 0.514692 0.8 0 0
0.088485 0.068427 0.676080 0.8 0 0
0.042567 0.176040 0.647718 0.8 0 0
0.290056 0.069852 0.528035 0.8 0 0
0.075064 0.064676 0.319542 0.8 0 0
0.346443 0.098884 0.035316 0.8 0 0
0.075158 0.089619 0.735194 0.8 0 0
0.150548 0.173172 0.060846 0.8 0 0
0.200253 0.193077 0.866686 0.8 0 0
0.354151 0.053758 0.216898 0.8 0 0
0.077427 0.075822 0.730200 0.8 0 0
0.049086 0.099074 0.747790 0.8 0 0
0.169116 0.269264 0.350213 0.8 0 0
0.175291 0.086200 0.170330 0.8 0 0
0.287898 0.093033 0.096050 0.8 0 0
0.168282 0.183238 0.071838 0.8 0 0
0.065662 0.138914 0.822525 0.8 0 0
0.033879 0.181759 0.189057 0.8 0 0
0.289519 0.078051 0.304245 0.8 0 0
0.265021 0.068951 0.699870 0.8 0 0
0.282681 0.089954 0.920158 0.8 0 0
0.181366 0.270771 0.516348 0.8 0 0
0.292873 0.134104 0.828816 0.8 0 0
0.184560 0.207572 0.165743 0.8 0 0
0.336954 0.221073 0.323102 0.8 0 0
0.350521 0.174907 0.884714 0.8 0 0
0.082266 0.227814 0.574788 0.8 0 0
0.279252 0.087206 0.866865 0.8 0 0
0.190512 0.070187 0.468086 0.8 0 0
0.098598 0.203902 0.168062 0.8 0 0
0.263731 0.096808 0.031879 0.8 0 0
0.331920 0.183085 0.873029 0.8 0 0
0.289926 0.221661 0.229987 0.8 0 0
0.323804 0.051960 0.806709 0.8 0 0
0.194436 0.201254 0.728847 0.8 0 0
0.083312 0.069194 0.629711 0.8 0 0
0.112549 0.141544 0.259672 0.8 0 0
0.344305 0.200367 0.448623 0.8 0 0
0.344815 0.199066 0.520308 0.8 0 0
0.061795 0.214657 0.363433 0.8 0 0
0.112362 0.068604 0.665978 0.8 0 0
0.034308 0.157519 0.101668 0.8 0 0
0.091435 0.069301 0.622882 0.8 0 0
0.291113 0.152964 0.054599 0.8 0 0
0.067470 0.155632 0.056628 0.8 0 0
0.370183 0.136259 0.540685 0.8 0 0
0.070036 0.138663 0.823061 0.8 0 0
0.357004 0.065014 0.218973 0.8 0 0
0.318679 0.069497 0.592333 0.8 0 0
0.169447 0.093087 0.093157 0.8 0 0
0.063242 0.200945 0.157941 0.8 0 0
0.130526 0.070789 0.371020 0.8 0 0
0.366599 0.141807 0.087883 0.8 0 0
0.130692 0.068346 0.694690 0.8 0 0
0.076007 0.086595 0.208352 0.8 0 0
0.353045 0.059842 0.765985 0.8 0 0
0.094306 0.068749 0.656696 0.8 0 0
0.207156 0.241600 0.255739 0.8 0 0
0.100247 0.263922 0.527141 0.8 0 0
0.352496 0.192161 0.125319 0.8 0 0
0.284421 0.109764 0.029724 0.8 0 0
0.281509 0.070673 0.390855 0.8 0 0
0.212348 0.069879 0.523071 0.8 0 0
0.040518 0.098893 0.438313 0.8 0 0
0.254416 0.068395 0.678658 0.8 0 0
0.164673 0.094785 0.074821 0.8 0 0
0.356121 0.123473 0.281719 0.8 0 0
0.105116 0.108430 0.700615 0.8 0 0
0.327884 0.145317 0.259288 0.8 0 0
0.188663 0.075280 0.290761 0.8 0 0
0.141425 0.096839 0.034840 0.8 0 0
0.112824 0.203599 0.633225 0.8 0 0
0.326222 0.109567 0.193209 0.8 0 0
0.180229 0.206962 0.646225 0.8 0 0
0.266829 0.093362 0.077235 0.8 0 0
0.105130 0.089419 0.914506 0.8 0 0
0.129687 0.200841 0.132335 0.8 0 0
0.111729 0.069183 0.630392 0.8 0 0
0.046262 0.115525 0.816212 0.8 0 0
0.112592 0.083605 0.294719 0.8 0 0
0.060605 0.183301 0.074110 0.8 0 0
0.086838 0.248744 0.438630 0.8 0 0
0.046890 0.106339 0.875612 0.8 0 0
0.030854 0.170618 0.292474 0.8 0 0
0.270305 0.268989 0.518921 0.8 0 0
0.226325 0.076311 0.278352 0.8 0 0
0.355797 0.103195 0.228408 0.8 0 0
0.068936 0.135804 0.213240 0.8 0 0
0.321544 0.069464 0.598455 0.8 0 0
0.053544 0.071783 0.770462 0.8 0 0
0.326987 0.115508 0.279175 0.8 0 0
0.067897 0.215597 0.531553 0.8 0 0
0.241921 0.182342 0.930488 0.8 0 0
0.256256 0.218003 0.622202 0.8 0 0
0.048217 0.186335 0.612982 0.8 0 0
0.325860 0.122156 0.925598 0.8 0 0
0.206676 0.203813 0.653376 0.8 0 0
0.340271 0.203186 0.494107 0.8 0 0
0.349082 0.137294 0.057610 0.8 0 0
0.110674 0.114459 0.953408 0.8 0 0
0.030577 0.154918 0.760559 0.8 0 0
0.030895 0.144743 0.527773 0.8 0 0
0.098349 0.070264 0.455287 0.8 0 0
0.177407 0.081143 0.221646 0.8 0 0
0.184655 0.260206 0.290017 0.8 0 0
0.220428 0.272023 0.438041 0.8 0 0
0.365423 0.172986 0.107947 0.8 0 0
0.313517 0.138283 0.823616 0.8 0 0
0.266427 0.236634 0.253419 0.8 0 0
0.280102 0.193789 0.094563 0.8 0 0
0.047045 0.192371 0.149416 0.8 0 0
0.340654 0.143111 0.732369 0.8 0 0
0.331561 0.230530 0.270310 0.8 0 0
0.169105 0.070145 0.475066 0.8 0 0
0.356927 0.181099 0.604391 0.8 0 0
0.279828 0.196537 0.767016 0.8 0 0
0.338214 0.126796 0.725655 0.8 0 0
0.360868 0.160504 0.845336 0.8 0 0
0.177086 0.079642 0.239337 0.8 0 0
0.247673 0.258463 0.558648 0.8 0 0
0.363044 0.102114 0.495623 0.8 0 0
0.098676 0.150450 0.780607 0.8 0 0
0.042867 0.137961 0.894754 0.8 0 0
0.259856 0.198180 0.750721 0.8 0 0
0.224077 0.070163 0.472344 0.8 0 0
0.342762 0.192449 0.760497 0.8 0 0
0.062677 0.145839 0.760815 0.8 0 0
0.331290 0.119909 0.028002 0.8 0 0
0.322731 0.201922 0.166187 0.8 0 0
0.032472 0.124475 0.403805 0.8 0 0
0.105423 0.093929 0.697971 0.8 0 0
0.176579 0.152888 0.053899 0.8 0 0
0.252040 0.196615 0.660240 0.8 0 0
0.305061 0.141232 0.923399 0.8 0 0
0.289553 0.125346 0.266581 0.8 0 0
0.094768 0.194251 0.726966 0.8 0 0
0.183418 0.139660 0.055357 0.8 0 0
0.038931 0.125478 0.844178 0.8 0 0
0.287249 0.194941 0.783102 0.8 0 0
0.320693 0.204078 0.182675 0.8 0 0
0.147047 0.093577 0.098605 0.8 0 0
0.112596 0.091519 0.795089 0.8 0 0
0.072200 0.087034 0.160988 0.8 0 0
0.145419 0.069796 0.538041 0.8 0 0
0.334470 0.194687 0.645052 0.8 0 0
0.303972 0.135636 0.826909 0.8 0 0
0.370953 0.132633 0.437257 0.8 0 0
0.104903 0.070095 0.484007 0.8 0 0
0.182684 0.090807 0.955170 0.8 0 0
0.158273 0.086495 0.166902 0.8 0 0
0.344677 0.185748 0.076650 0.8 0 0
0.163750 0.211949 0.635904 0.8 0 0
0.106182 0.256546 0.540671 0.8 0 0
0.058960 0.102386 0.323584 0.8 0 0
0.063060 0.148471 0.747688 0.8 0 0
0.288925 0.069815 0.534816 0.8 0 0
0.147971 0.121919 0.025245 0.8 0 0
0.176821 0.086722 0.855632 0.8 0 0
0.097135 0.108758 0.700683 0.8 0 0
0.072387 0.227620 0.558303 0.8 0 0
0.350860 0.192353 0.513811 0.8 0 0
0.227148 0.093929 0.064393 0.8 0 0
0.340824 0.143957 0.292317 0.8 0 0
0.308748 0.116298 0.027282 0.8 0 0
0.212065 0.069492 0.593111 0.8 0 0
0.253836 0.068939 0.644771 0.8 0 0
0.075126 0.086814 0.857744 0.8 0 0
0.187090 0.074134 0.304263 0.8 0 0
0.364149 0.107192 0.397961 0.8 0 0
0.083399 0.128284 0.203624 0.8 0 0
0.287884 0.083632 0.826695 0.8 0 0
0.245515 0.224567 0.228887 0.8 0 0
0.184714 0.165721 0.946557 0.8 0 0
0.184138 0.177733 0.945253 0.8 0 0
0.251970 0.266330 0.547385 0.8 0 0
0.364885 0.109498 0.590113 0.8 0 0
0.184979 0.072253 0.728185 0.8 0 0
0.076717 0.079208 0.715699 0.8 0 0
0.356590 0.150485 0.779013 0.8 0 0
0.178952 0.201811 0.654751 0.8 0 0
0.067985 0.089608 0.915395 0.8 0 0
0.271510 0.204781 0.161663 0.8 0 0
0.112562 0.113916 0.318304 0.8 0 0
0.309744 0.205490 0.184787 0.8 0 0
0.079522 0.195700 0.112788 0.8 0 0
0.255086 0.264993 0.313526 0.8 0 0
0.300607 0.086870 0.859065 0.8 0 0
0.187712 0.069913 0.516890 0.8 0 0
0.225773 0.069810 0.535501 0.8 0 0
0.199654 0.197666 0.807654 0.8 0 0
0.316451 0.111426 0.952039 0.8 0 0
0.342695 0.139331 0.219552 0.8 0 0
0.086728 0.247739 0.526983 0.8 0 0
0.182894 0.088479 0.142642 0.8 0 0
0.343598 0.098389 0.108858 0.8 0 0
0.078418 0.103701 0.310617 0.8 0 0
0.119974 0.069467 0.597663 0.8 0 0
0.234923 0.069692 0.556857 0.8 0 0
0.029916 0.145386 0.243590 0.8 0 0
0.132211 0.080781 0.802066 0.8 0 0
0.148907 0.220877 0.618670 0.8 0 0
0.189640 0.118954 0.948583 0.8 0 0
0.364100 0.155207 0.831749 0.8 0 0
0.035021 0.114686 0.348290 0.8 0 0
0.184106 0.268656 0.339268 0.8 0 0
0.032458 0.167949 0.185439 0.8 0 0
0.289538 0.082523 0.773762 0.8 0 0
0.047639 0.052914 0.251261 0.8 0 0
0.039042 0.150438 0.781128 0.8 0 0
0.279633 0.081033 0.222637 0.8 0 0
0.219249 0.210949 0.184100 0.8 0 0
0.290449 0.204398 0.166428 0.8 0 0
0.159455 0.247088 0.269624 0.8 0 0
0.325325 0.132496 0.799745 0.8 0 0
0.098703 0.180973 0.889619 0.8 0 0
0.110543 0.206606 0.181638 0.8 0 0
0.368108 0.130405 0.203143 0.8 0 0
0.063276 0.216940 0.359695 0.8 0 0
0.163292 0.087627 0.879832 0.8 0 0
0.324177 0.132083 0.795060 0.8 0 0
0.251915 0.094720 0.057125 0.8 0 0
0.056742 0.075338 0.643822 0.8 0 0
0.197601 0.089052 0.128110 0.8 0 0
0.050366 0.171162 0.890864 0.8 0 0
0.039696 0.161876 0.822221 0.8 0 0
0.289529 0.102178 0.204030 0.8 0 0
0.227770 0.216196 0.206091 0.8 0 0
0.068078 0.217377 0.442002 0.8 0 0
0.295133 0.111579 0.193735 0.8 0 0
0.070561 0.145212 0.781472 0.8 0 0
0.078362 0.090044 0.216021 0.8 0 0
0.279597 0.199749 0.669985 0.8 0 0
0.356169 0.031881 0.260938 0.8 0 0
0.330863 0.190482 0.778528 0.8 0 0
0.234479 0.069667 0.561468 0.8 0 0
0.166425 0.069436 0.603278 0.8 0 0
0.050945 0.142476 0.298272 0.8 0 0
0.054870 0.145089 0.286375 0.8 0 0
0.120529 0.091102 0.939094 0.8 0 0
0.158008 0.202972 0.666000 0.8 0 0
0.289540 0.087018 0.727385 0.8 0 0
0.280344 0.147946 0.053968 0.8 0 0
0.046941 0.049714 0.755443 0.8 0 0
0.091892 0.261463 0.446998 0.8 0 0
0.260487 0.069464 0.598267 0.8 0 0
0.328307 0.145418 0.260300 0.8 0 0
0.245593 0.128020 0.034848 0.8 0 0
0.302889 0.147613 0.745005 0.8 0 0
0.151320 0.069960 0.508489 0.8 0 0
0.355590 0.176067 0.811758 0.8 0 0
0.200163 0.271941 0.388583 0.8 0 0
0.290842 0.194545 0.100621 0.8 0 0
0.050283 0.149986 0.786117 0.8 0 0
0.246177 0.089466 0.914788 0.8 0 0
0.151023 0.269083 0.531205 0.8 0 0
0.056398 0.173419 0.064494 0.8 0 0
0.074709 0.236725 0.361087 0.8 0 0
0.347670 0.185241 0.857987 0.8 0 0
0.232782 0.185576 0.913490 0.8 0 0
0.032127 0.123362 0.339558 0.8 0 0
0.323146 0.096702 0.087244 0.8 0 0
0.318650 0.251556 0.318688 0.8 0 0
0.271700 0.068465 0.673710 0.8 0 0
0.134186 0.068887 0.699349 0.8 0 0
0.105078 0.126595 0.710348 0.8 0 0
0.323769 0.069007 0.311556 0.8 0 0
0.077733 0.189450 0.794380 0.8 0 0
0.035312 0.164654 0.110806 0.8 0 0
0.141095 0.198083 0.755855 0.8 0 0
0.233813 0.196094 0.808005 0.8 0 0
0.234642 0.271359 0.416804 0.8 0 0
0.230089 0.075828 0.759073 0.8 0 0
0.141368 0.086960 0.862183 0.8 0 0
0.274275 0.260591 0.300833 0.8 0 0
0.034542 0.130065 0.200923 0.8 0 0
0.299396 0.122211 0.329541 0.8 0 0
0.233323 0.090573 0.108072 0.8 0 0
0.172680 0.129900 0.942940 0.8 0 0
0.289266 0.188392 0.080228 0.8 0 0
0.250118 0.081598 0.808994 0.8 0 0
0.302640 0.227596 0.243199 0.8 0 0
0.299426 0.201147 0.145217 0.8 0 0
0.340656 0.071245 0.474858 0.8 0 0
0.205848 0.203345 0.138512 0.8 0 0
0.030843 0.147985 0.562593 0.8 0 0
0.043543 0.120200 0.875167 0.8 0 0
0.353095 0.107917 0.784918 0.8 0 0
0.357535 0.117969 0.298528 0.8 0 0
0.245433 0.069477 0.595917 0.8 0 0
0.127974 0.077868 0.259903 0.8 0 0
0.187485 0.075987 0.760463 0.8 0 0
0.247976 0.181578 0.070085 0.8 0 0
0.283670 0.196030 0.771412 0.8 0 0
0.303851 0.217389 0.603152 0.8 0 0
0.047067 0.127501 0.056858 0.8 0 0
0.048402 0.196655 0.388769 0.8 0 0
0.252514 0.126997 0.032450 0.8 0 0
0.213540 0.071226 0.719248 0.8 0 0
0.049456 0.029536 0.285392 0.8 0 0
0.149374 0.191856 0.086310 0.8 0 0
0.289559 0.115718 0.757366 0.8 0 0
0.356472 0.092983 0.265497 0.8 0 0
0.371026 0.154616 0.785022 0.8 0 0
0.047541 0.105368 0.287010 0.8 0 0
0.217993 0.271424 0.386608 0.8 0 0
0.045088 0.061545 0.309022 0.8 0 0
0.352854 0.088483 0.380579 0.8 0 0
0.286147 0.087922 0.883808 0.8 0 0
0.363303 0.103474 0.552156 0.8 0 0
0.334102 0.141296 0.056755 0.8 0 0
0.060581 0.091415 0.175098 0.8 0 0
0.306222 0.144316 0.053065 0.8 0 0
0.217225 0.200014 0.754880 0.8 0 0
0.264882 0.069449 0.601070 0.8 0 0
0.110627 0.196234 0.110231 0.8 0 0
0.075143 0.081055 0.737283 0.8 0 0
0.055852 0.203779 0.402694 0.8 0 0
0.238490 0.143301 0.939063 0.8 0 0
0.112582 0.088212 0.325737 0.8 0 0
0.091375 0.069599 0.573950 0.8 0 0
0.089030 0.120629 0.936537 0.8 0 0
0.083088 0.069418 0.606652 0.8 0 0
0.162365 0.124703 0.040465 0.8 0 0
0.078388 0.038452 0.756688 0.8 0 0
0.290540 0.255933 0.292428 0.8 0 0
0.324821 0.112363 0.296461 0.8 0 0
0.349080 0.084931 0.281729 0.8 0 0
0.172026 0.072966 0.734422 0.8 0 0
0.355399 0.090435 0.666221 0.8 0 0
0.053562 0.203402 0.217327 0.8 0 0
0.039312 0.158915 0.066646 0.8 0 0
0.342752 0.137098 0.803230 0.8 0 0
0.117374 0.160686 0.931062 0.8 0 0
0.069134 0.086448 0.709466 0.8 0 0
0.355659 0.199429 0.228059 0.8 0 0
0.082012 0.240144 0.536174 0.8 0 0
0.222264 0.069098 0.635069 0.8 0 0
0.202013 0.197443 0.105565 0.8 0 0
0.048029 0.184571 0.687007 0.8 0 0
0.259168 0.205042 0.157974 0.8 0 0
0.052122 0.198684 0.180871 0.8 0 0
0.158468 0.070784 0.373667 0.8 0 0
0.171946 0.077255 0.771505 0.8 0 0
0.197615 0.078440 0.781615 0.8 0 0
0.125062 0.240339 0.577388 0.8 0 0
0.187702 0.200640 0.739672 0.8 0 0
0.313512 0.190543 0.793600 0.8 0 0
0.037783 0.106987 0.533090 0.8 0 0
0.263196 0.070527 0.416273 0.8 0 0
0.112570 0.136166 0.765223 0.8 0 0
0.350490 0.102875 0.335624 0.8 0 0
0.315549 0.089260 0.910815 0.8 0 0
0.368682 0.155907 0.109841 0.8 0 0
0.076487 0.238483 0.274451 0.8 0 0
0.309658 0.092619 0.123141 0.8 0 0
0.052495 0.108413 0.084258 0.8 0 0
0.070580 0.069162 0.631281 0.8 0 0
0.040303 0.129851 0.861642 0.8 0 0
0.050891 0.205380 0.335562 0.8 0 0
0.311109 0.121763 0.945412 0.8 0 0
0.371672 0.153039 0.493958 0.8 0 0
0.195739 0.083713 0.827222 0.8 0 0
0.043011 0.186379 0.119500 0.8 0 0
0.315330 0.070800 0.366060 0.8 0 0
0.156388 0.195322 0.811451 0.8 0 0
0.310881 0.245132 0.275896 0.8 0 0
0.123610 0.208408 0.185526 0.8 0 0
0.115001 0.127347 0.034450 0.8 0 0
0.349569 0.066506 0.263062 0.8 0 0
0.310369 0.260521 0.513624 0.8 0 0
0.256882 0.081150 0.221316 0.8 0 0
0.107019 0.068662 0.662326 0.8 0 0
0.194013 0.068629 0.665735 0.8 0 0
0.204805 0.229862 0.234459 0.8 0 0
0.341388 0.143055 0.285823 0.8 0 0
0.354947 0.171835 0.858438 0.8 0 0
0.067703 0.121234 0.947140 0.8 0 0
0.347898 0.199808 0.174551 0.8 0 0
0.026935 0.148349 0.342972 0.8 0 0
0.313896 0.192191 0.769298 0.8 0 0
0.120723 0.125827 0.046196 0.8 0 0
0.118102 0.199653 0.668366 0.8 0 0
0.343706 0.199108 0.557012 0.8 0 0
0.053091 0.134898 0.717812 0.8 0 0
0.046385 0.119484 0.705564 0.8 0 0
0.045399 0.033304 0.261704 0.8 0 0
0.092177 0.179565 0.068905 0.8 0 0
0.295369 0.203146 0.158346 0.8 0 0
0.055558 0.146539 0.773793 0.8 0 0
0.317133 0.070794 0.367128 0.8 0 0
0.344436 0.073564 0.692029 0.8 0 0
0.256084 0.129974 0.934472 0.8 0 0
0.354569 0.031911 0.246062 0.8 0 0
0.174993 0.189553 0.882662 0.8 0 0
0.266217 0.269113 0.395984 0.8 0 0
0.181486 0.263702 0.300527 0.8 0 0
0.242239 0.069364 0.616302 0.8 0 0
0.112590 0.100216 0.767453 0.8 0 0
0.048205 0.088165 0.664542 0.8 0 0
0.038604 0.145992 0.251018 0.8 0 0
0.044691 0.093361 0.723892 0.8 0 0
0.362460 0.100806 0.604616 0.8 0 0
0.266425 0.189932 0.081618 0.8 0 0
0.320482 0.165370 0.928265 0.8 0 0
0.365695 0.136406 0.108927 0.8 0 0
0.289530 0.103153 0.210804 0.8 0 0
0.076534 0.054273 0.219177 0.8 0 0
0.313145 0.238706 0.560595 0.8 0 0
0.307737 0.213131 0.214546 0.8 0 0
0.289547 0.109746 0.294451 0.8 0 0
0.358106 0.198652 0.308385 0.8 0 0
0.217819 0.070908 0.716520 0.8 0 0
0.326984 0.120731 0.772678 0.8 0 0
0.312370 0.201554 0.157262 0.8 0 0
0.352247 0.110245 0.268806 0.8 0 0
0.325523 0.146290 0.258676 0.8 0 0
0.078160 0.128337 0.292839 0.8 0 0
0.073660 0.233802 0.326036 0.8 0 0
0.166844 0.070860 0.362362 0.8 0 0
0.108798 0.142198 0.299386 0.8 0 0
0.293526 0.130456 0.054966 0.8 0 0
0.068887 0.100131 0.829726 0.8 0 0
0.148616 0.211770 0.192589 0.8 0 0
0.327003 0.102163 0.239284 0.8 0 0
0.076053 0.181769 0.879879 0.8 0 0
0.046456 0.088738 0.730415 0.8 0 0
0.194316 0.169689 0.951644 0.8 0 0
0.029806 0.139194 0.393032 0.8 0 0
0.364721 0.168424 0.497807 0.8 0 0
0.108354 0.146955 0.054406 0.8 0 0
0.323704 0.132815 0.278987 0.8 0 0
0.247350 0.069369 0.615436 0.8 0 0
0.328808 0.069449 0.601198 0.8 0 0
0.242399 0.080483 0.229163 0.8 0 0
0.319409 0.198228 0.131693 0.8 0 0
0.304166 0.212882 0.212245 0.8 0 0
0.223014 0.272186 0.462218 0.8 0 0
0.347210 0.135866 0.826622 0.8 0 0
0.313066 0.069818 0.534289 0.8 0 0
0.172561 0.070002 0.500848 0.8 0 0
0.081310 0.070635 0.394275 0.8 0 0
0.125557 0.086833 0.858904 0.8 0 0
0.295530 0.192872 0.794009 0.8 0 0
0.115449 0.068901 0.648400 0.8 0 0
0.121018 0.090100 0.924684 0.8 0 0
0.151474 0.212922 0.196854 0.8 0 0
0.049887 0.032498 0.292298 0.8 0 0
0.343420 0.192132 0.717423 0.8 0 0
0.269486 0.168360 0.934413 0.8 0 0
0.153577 0.271088 0.478486 0.8 0 0
0.051886 0.206897 0.327459 0.8 0 0
0.160534 0.069854 0.527516 0.8 0 0
0.350645 0.105882 0.145431 0.8 0 0
0.062360 0.180060 0.070460 0.8 0 0
0.358630 0.125437 0.050871 0.8 0 0
0.266136 0.207356 0.176517 0.8 0 0
0.336271 0.211341 0.523845 0.8 0 0
0.098297 0.068850 0.650816 0.8 0 0
0.223658 0.069542 0.584145 0.8 0 0
0.039043 0.171163 0.526880 0.8 0 0
0.289534 0.090851 0.319551 0.8 0 0
0.032646 0.185636 0.290102 0.8 0 0
0.108600 0.196690 0.732310 0.8 0 0
0.352606 0.189860 0.505199 0.8 0 0
0.026123 0.153496 0.301365 0.8 0 0
0.073275 0.132032 0.808520 0.8 0 0
0.289553 0.127230 0.220428 0.8 0 0
0.374186 0.159197 0.297893 0.8 0 0
0.150633 0.226266 0.610313 0.8 0 0
0.321354 0.195549 0.657512 0.8 0 0
0.362660 0.139864 0.221277 0.8 0 0
0.335490 0.227532 0.342915 0.8 0 0
0.232236 0.150027 0.943007 0.8 0 0
0.073432 0.185355 0.852638 0.8 0 0
0.323961 0.130006 0.795793 0.8 0 0
0.214165 0.086598 0.156671 0.8 0 0
0.143327 0.152506 0.933690 0.8 0 0
0.025696 0.146707 0.291385 0.8 0 0
0.118346 0.070410 0.430935 0.8 0 0
0.073070 0.041363 0.305601 0.8 0 0
0.207433 0.268742 0.542008 0.8 0 0
0.354983 0.033641 0.244115 0.8 0 0
0.351008 0.173215 0.888687 0.8 0 0
0.216434 0.068628 0.665185 0.8 0 0
0.261460 0.087826 0.882314 0.8 0 0
0.263795 0.087325 0.162267 0.8 0 0
0.352137 0.199914 0.377988 0.8 0 0
0.077966 0.061083 0.735520 0.8 0 0
0.363424 0.181014 0.115787 0.8 0 0
0.249042 0.237768 0.592099 0.8 0 0
0.338152 0.205787 0.195784 0.8 0 0
0.358885 0.177681 0.609834 0.8 0 0
0.141336 0.169029 0.938518 0.8 0 0
0.375886 0.145440 0.307613 0.8 0 0
0.319925 0.070453 0.425063 0.8 0 0
0.221588 0.071360 0.720437 0.8 0 0
0.265258 0.085856 0.173112 0.8 0 0
0.290163 0.262661 0.321178 0.8 0 0
0.075498 0.038535 0.297868 0.8 0 0
0.240270 0.068884 0.648134 0.8 0 0
0.081620 0.089271 0.697665 0.8 0 0
0.339656 0.142511 0.298123 0.8 0 0
0.253766 0.087312 0.869235 0.8 0 0
0.347473 0.079754 0.465506 0.8 0 0
0.187438 0.068359 0.683044 0.8 0 0
0.076147 0.232606 0.472153 0.8 0 0
0.127413 0.115471 0.026394 0.8 0 0
0.370539 0.143692 0.690223 0.8 0 0
0.153468 0.271107 0.435508 0.8 0 0
0.353147 0.213652 0.556217 0.8 0 0
0.078554 0.094541 0.813794 0.8 0 0
0.076746 0.117333 0.746172 0.8 0 0
0.112594 0.088483 0.211139 0.8 0 0
0.088064 0.089607 0.916817 0.8 0 0
0.048102 0.078183 0.229321 0.8 0 0
0.202006 0.209022 0.173246 0.8 0 0
0.335903 0.120929 0.936899 0.8 0 0
0.289555 0.109822 0.749361 0.8 0 0
0.359221 0.174319 0.757035 0.8 0 0
0.107472 0.223950 0.234915 0.8 0 0
0.155413 0.222544 0.225480 0.8 0 0
0.065869 0.120965 0.706560 0.8 0 0
0.334125 0.216628 0.465817 0.8 0 0
0.085673 0.176141 0.917699 0.8 0 0
0.071332 0.188679 0.082650 0.8 0 0
0.165821 0.133104 0.055711 0.8 0 0
0.171921 0.154076 0.943529 0.8 0 0
0.153535 0.092980 0.102598 0.8 0 0
0.296682 0.194476 0.775082 0.8 0 0
0.370910 0.129650 0.379113 0.8 0 0
0.322637 0.096545 0.060726 0.8 0 0
0.212238 0.261841 0.294730 0.8 0 0
0.249054 0.071075 0.718116 0.8 0 0
0.269775 0.119162 0.950072 0.8 0 0
0.045394 0.120664 0.945748 0.8 0 0
0.237080 0.073016 0.734809 0.8 0 0
0.264523 0.071523 0.722067 0.8 0 0
0.293809 0.203104 0.157510 0.8 0 0
0.323638 0.103888 0.846986 0.8 0 0
0.149348 0.202405 0.649710 0.8 0 0
0.147401 0.094749 0.084097 0.8 0 0
0.245868 0.136597 0.939202 0.8 0 0
0.255824 0.086583 0.852115 0.8 0 0
0.159004 0.232602 0.242862 0.8 0 0
0.058371 0.192865 0.746768 0.8 0 0
0.322037 0.069608 0.572283 0.8 0 0
0.207839 0.076486 0.764714 0.8 0 0
0.077754 0.121321 0.810088 0.8 0 0
0.211277 0.075731 0.285358 0.8 0 0
0.088266 0.156214 0.925044 0.8 0 0
0.274136 0.252432 0.558421 0.8 0 0
0.353616 0.175263 0.852087 0.8 0 0
0.072840 0.050896 0.721485 0.8 0 0
0.076627 0.233720 0.446918 0.8 0 0
0.172318 0.236583 0.248646 0.8 0 0
0.279121 0.269238 0.480514 0.8 0 0
0.370294 0.134600 0.497200 0.8 0 0
0.316359 0.110585 0.334919 0.8 0 0
0.060765 0.200018 0.561206 0.8 0 0
0.353534 0.098886 0.037683 0.8 0 0
0.300981 0.134154 0.056879 0.8 0 0
0.092695 0.187568 0.828399 0.8 0 0
0.155469 0.194614 0.820609 0.8 0 0
0.200787 0.070683 0.393816 0.8 0 0
0.352802 0.110234 0.761981 0.8 0 0
0.139037 0.231539 0.243835 0.8 0 0
0.252890 0.071498 0.721790 0.8 0 0
0.261827 0.144962 0.936729 0.8 0 0
0.276370 0.072638 0.731750 0.8 0 0
0.353408 0.128547 0.711818 0.8 0 0
0.318136 0.249276 0.373470 0.8 0 0
0.238696 0.069548 0.582974 0.8 0 0
0.108974 0.109564 0.844859 0.8 0 0
0.077341 0.125022 0.045590 0.8 0 0
0.067631 0.119328 0.331206 0.8 0 0
0.282985 0.091537 0.945301 0.8 0 0
0.164529 0.115077 0.965415 0.8 0 0
0.370938 0.143239 0.537049 0.8 0 0
0.076635 0.030455 0.265793 0.8 0 0
0.249371 0.088333 0.154845 0.8 0 0
0.082117 0.097990 0.037980 0.8 0 0
0.327170 0.081470 0.779697 0.8 0 0
0.032522 0.157378 0.757900 0.8 0 0
0.130921 0.086957 0.161711 0.8 0 0
0.249733 0.165728 0.055984 0.8 0 0
0.181811 0.126199 0.035593 0.8 0 0
0.270417 0.166914 0.930925 0.8 0 0
0.075633 0.103393 0.297984 0.8 0 0
0.332308 0.127327 0.814615 0.8 0 0
0.043883 0.189135 0.144983 0.8 0 0
0.294306 0.187089 0.852419 0.8 0 0
0.109199 0.070363 0.438705 0.8 0 0
0.310920 0.250434 0.542358 0.8 0 0
0.032936 0.126691 0.543350 0.8 0 0
0.172747 0.113387 0.031940 0.8 0 0
0.063984 0.144861 0.288431 0.8 0 0
0.075104 0.064462 0.789033 0.8 0 0
0.203847 0.271498 0.374154 0.8 0 0
0.215507 0.232553 0.240149 0.8 0 0
0.332925 0.231897 0.343275 0.8 0 0
0.225276 0.244556 0.263033 0.8 0 0
0.275806 0.079800 0.793558 0.8 0 0
0.102671 0.088160 0.151342 0.8 0 0
0.252194 0.214963 0.205480 0.8 0 0
0.098834 0.146357 0.270991 0.8 0 0
0.151492 0.075648 0.757716 0.8 0 0
0.185099 0.272047 0.426739 0.8 0 0
0.205108 0.210536 0.180869 0.8 0 0
0.256260 0.069624 0.569247 0.8 0 0
0.076562 0.084959 0.714800 0.8 0 0
0.303427 0.198205 0.662784 0.8 0 0
0.356786 0.096566 0.719316 0.8 0 0
0.047582 0.141634 0.781771 0.8 0 0
0.234810 0.136428 0.942228 0.8 0 0
0.283534 0.070031 0.495577 0.8 0 0
0.348092 0.210094 0.284618 0.8 0 0
0.049361 0.204525 0.284725 0.8 0 0
0.219763 0.070655 0.397630 0.8 0 0
0.057138 0.074912 0.681749 0.8 0 0
0.214763 0.125917 0.950397 0.8 0 0
0.204233 0.265472 0.305921 0.8 0 0
0.321785 0.239650 0.383394 0.8 0 0
0.035315 0.119576 0.705627 0.8 0 0
0.112554 0.133560 0.279279 0.8 0 0
0.333004 0.088021 0.152490 0.8 0 0
0.344128 0.209718 0.551400 0.8 0 0
0.239000 0.088305 0.141968 0.8 0 0
0.357540 0.051322 0.236830 0.8 0 0
0.036185 0.157171 0.807462 0.8 0 0
0.168111 0.218625 0.625507 0.8 0 0
0.355810 0.092592 0.386580 0.8 0 0
0.229695 0.261972 0.296917 0.8 0 0
0.095998 0.203309 0.625974 0.8 0 0
0.223586 0.069261 0.625121 0.8 0 0
0.327879 0.036456 0.803911 0.8 0 0
0.056969 0.075426 0.623216 0.8 0 0
0.258558 0.089813 0.144542 0.8 0 0
0.315614 0.070036 0.494675 0.8 0 0
0.220858 0.089853 0.115436 0.8 0 0
0.328528 0.136005 0.738069 0.8 0 0
0.133681 0.075388 0.289046 0.8 0 0
0.365257 0.165418 0.636575 0.8 0 0
0.335797 0.213621 0.413597 0.8 0 0
0.245927 0.171946 0.059416 0.8 0 0
0.182899 0.086618 0.852843 0.8 0 0
0.323722 0.105302 0.731344 0.8 0 0
0.354614 0.107331 0.884715 0.8 0 0
0.147415 0.068254 0.688050 0.8 0 0
0.356372 0.183311 0.491836 0.8 0 0
0.054204 0.113390 0.334285 0.8 0 0
0.176488 0.124703 0.035759 0.8 0 0
0.265562 0.214609 0.624160 0.8 0 0
0.252990 0.271118 0.453602 0.8 0 0
0.289546 0.118474 0.210111 0.8 0 0
0.242740 0.070690 0.390437 0.8 0 0
0.355949 0.047856 0.226137 0.8 0 0
0.078842 0.231534 0.253429 0.8 0 0
0.262053 0.204020 0.643295 0.8 0 0
0.317682 0.096061 0.070095 0.8 0 0
0.045328 0.092030 0.502950 0.8 0 0
0.048215 0.087662 0.206745 0.8 0 0
0.044603 0.178617 0.688427 0.8 0 0
0.057995 0.215296 0.320347 0.8 0 0
0.185422 0.071547 0.334633 0.8 0 0
0.093288 0.143569 0.234843 0.8 0 0
0.193381 0.201299 0.726334 0.8 0 0
0.185548 0.200429 0.743552 0.8 0 0
0.261410 0.200547 0.681250 0.8 0 0
0.336909 0.213257 0.577760 0.8 0 0
0.204738 0.092877 0.079240 0.8 0 0
0.039272 0.189958 0.345912 0.8 0 0
0.353797 0.180085 0.069514 0.8 0 0
0.176769 0.201126 0.126121 0.8 0 0
0.105870 0.149803 0.788101 0.8 0 0
0.356978 0.054831 0.730255 0.8 0 0
0.221098 0.070099 0.709550 0.8 0 0
0.366617 0.114245 0.377699 0.8 0 0
0.138935 0.092966 0.110231 0.8 0 0
0.343308 0.200132 0.451770 0.8 0 0
0.180963 0.182583 0.934948 0.8 0 0
0.260059 0.093077 0.079834 0.8 0 0
0.074822 0.052829 0.313932 0.8 0 0
0.340932 0.212967 0.363011 0.8 0 0
0.286033 0.069053 0.637819 0.8 0 0
0.029765 0.146812 0.182376 0.8 0 0
0.365013 0.122538 0.068701 0.8 0 0
0.362005 0.181691 0.111042 0.8 0 0
0.075106 0.074775 0.796722 0.8 0 0
0.346126 0.136797 0.298234 0.8 0 0
0.072331 0.222761 0.579258 0.8 0 0
0.042013 0.096818 0.451024 0.8 0 0
0.058870 0.030632 0.796063 0.8 0 0
0.320952 0.163522 0.928560 0.8 0 0
0.319080 0.117064 0.841596 0.8 0 0
0.089933 0.088100 0.888726 0.8 0 0
0.052065 0.082978 0.462077 0.8 0 0
0.313551 0.251448 0.428756 0.8 0 0
0.246900 0.083835 0.828337 0.8 0 0
0.338708 0.208513 0.380119 0.8 0 0
0.345795 0.204905 0.394854 0.8 0 0
0.171292 0.073186 0.315268 0.8 0 0
0.051063 0.083244 0.641047 0.8 0 0
0.348265 0.088106 0.758439 0.8 0 0
0.357733 0.127287 0.247900 0.8 0 0
0.148883 0.198216 0.112683 0.8 0 0
0.294022 0.266631 0.413930 0.8 0 0
0.327348 0.066161 0.714976 0.8 0 0
0.210436 0.271673 0.488405 0.8 0 0
0.129798 0.086888 0.860340 0.8 0 0
0.358927 0.158834 0.870510 0.8 0 0
0.167934 0.076752 0.767176 0.8 0 0
0.298325 0.070084 0.485945 0.8 0 0
0.178593 0.217274 0.210029 0.8 0 0
0.241564 0.125264 0.035683 0.8 0 0
0.096505 0.264235 0.429514 0.8 0 0
0.095466 0.190536 0.086357 0.8 0 0
0.046465 0.112147 0.753039 0.8 0 0
0.112568 0.113231 0.240489 0.8 0 0
0.043446 0.098865 0.079105 0.8 0 0
0.034673 0.160996 0.599428 0.8 0 0
0.206407 0.203670 0.140606 0.8 0 0
0.162482 0.246103 0.267469 0.8 0 0
0.266573 0.126247 0.047512 0.8 0 0
0.178808 0.080959 0.223815 0.8 0 0
0.054032 0.144113 0.788063 0.8 0 0
0.071685 0.069818 0.534320 0.8 0 0
0.174211 0.092560 0.097167 0.8 0 0
0.353933 0.098340 0.073150 0.8 0 0
0.369673 0.151859 0.681171 0.8 0 0
0.220915 0.087644 0.144157 0.8 0 0
0.128990 0.200992 0.666936 0.8 0 0
0.328866 0.144830 0.274753 0.8 0 0
0.029789 0.138817 0.389972 0.8 0 0
0.307888 0.084860 0.179678 0.8 0 0
0.333325 0.102376 0.323580 0.8 0 0
0.340176 0.094933 0.104768 0.8 0 0
0.075079 0.084631 0.795261 0.8 0 0
0.251880 0.096678 0.031650 0.8 0 0
0.080196 0.087593 0.697568 0.8 0 0
0.036892 0.124351 0.199002 0.8 0 0
0.319888 0.119917 0.197128 0.8 0 0
0.097628 0.120225 0.938955 0.8 0 0
0.110382 0.189973 0.836828 0.8 0 0
0.101470 0.222018 0.597485 0.8 0 0
0.248457 0.270723 0.416153 0.8 0 0
0.039078 0.134610 0.853660 0.8 0 0
0.330990 0.070754 0.373683 0.8 0 0
0.365314 0.184140 0.161659 0.8 0 0
0.263334 0.204448 0.155835 0.8 0 0
0.174747 0.195762 0.814681 0.8 0 0
0.112553 0.132629 0.297432 0.8 0 0
0.334865 0.140054 0.743003 0.8 0 0
0.159861 0.199719 0.119685 0.8 0 0
0.075114 0.083409 0.799702 0.8 0 0
0.077877 0.137920 0.256310 0.8 0 0
0.250556 0.236280 0.594002 0.8 0 0
0.206245 0.205230 0.150273 0.8 0 0
0.199283 0.070157 0.473143 0.8 0 0
0.026991 0.156612 0.271638 0.8 0 0
0.295561 0.247010 0.557469 0.8 0 0
0.052736 0.193186 0.093496 0.8 0 0
0.294586 0.266304 0.403951 0.8 0 0
0.033864 0.123419 0.674401 0.8 0 0
0.128000 0.246742 0.273962 0.8 0 0
0.057785 0.214802 0.265070 0.8 0 0
0.062662 0.203769 0.584500 0.8 0 0
0.325103 0.192720 0.095384 0.8 0 0
0.032590 0.125759 0.468464 0.8 0 0
0.192790 0.202364 0.694099 0.8 0 0
0.192674 0.069607 0.572192 0.8 0 0
0.338030 0.146540 0.767303 0.8 0 0
0.257498 0.166891 0.934290 0.8 0 0
0.035668 0.115724 0.642817 0.8 0 0
0.289520 0.086232 0.259453 0.8 0 0
0.327147 0.072910 0.773537 0.8 0 0
0.336931 0.089063 0.907909 0.8 0 0
0.197246 0.079858 0.236830 0.8 0 0
0.204242 0.231786 0.237789 0.8 0 0
0.376257 0.151785 0.295029 0.8 0 0
0.371316 0.141569 0.471728 0.8 0 0
0.068929 0.027466 0.283076 0.8 0 0
0.289558 0.114174 0.770542 0.8 0 0
0.337497 0.191908 0.733231 0.8 0 0
0.222769 0.087625 0.878619 0.8 0 0
0.289569 0.134383 0.739436 0.8 0 0
0.247851 0.124785 0.040938 0.8 0 0
0.074549 0.188817 0.802248 0.8 0 0
0.374610 0.151247 0.204956 0.8 0 0
0.030160 0.145379 0.283753 0.8 0 0
0.053995 0.090991 0.864272 0.8 0 0
0.281751 0.084106 0.830753 0.8 0 0
0.154267 0.088876 0.907836 0.8 0 0
0.180096 0.167576 0.947066 0.8 0 0
0.033215 0.123235 0.508904 0.8 0 0
0.331898 0.070638 0.393454 0.8 0 0
0.212729 0.197390 0.801084 0.8 0 0
0.247847 0.245477 0.267317 0.8 0 0
0.260426 0.192977 0.831303 0.8 0 0
0.045396 0.119924 0.730798 0.8 0 0
0.075316 0.145287 0.807762 0.8 0 0
0.349377 0.205128 0.231119 0.8 0 0
0.240081 0.127142 0.032567 0.8 0 0
0.031581 0.150013 0.127108 0.8 0 0
0.221908 0.090662 0.950091 0.8 0 0
0.180284 0.084653 0.181563 0.8 0 0
0.092538 0.261886 0.496550 0.8 0 0
0.075263 0.188631 0.805280 0.8 0 0
0.296135 0.096659 0.040453 0.8 0 0
0.327053 0.234225 0.561052 0.8 0 0
0.289547 0.098200 0.743426 0.8 0 0
0.092107 0.070123 0.478925 0.8 0 0
0.306547 0.223414 0.591673 0.8 0 0
0.056743 0.199459 0.584490 0.8 0 0
0.045956 0.091505 0.463752 0.8 0 0
0.134869 0.087239 0.869327 0.8 0 0
0.325429 0.069994 0.502357 0.8 0 0
0.053506 0.084743 0.756335 0.8 0 0
0.233040 0.073636 0.309811 0.8 0 0
0.339575 0.150152 0.784321 0.8 0 0
0.280325 0.075728 0.758445 0.8 0 0
0.334682 0.165506 0.926826 0.8 0 0
0.167816 0.207036 0.164605 0.8 0 0
0.355279 0.103055 0.945083 0.8 0 0
0.335837 0.101071 0.033067 0.8 0 0
0.188373 0.227394 0.613945 0.8 0 0
0.032258 0.159109 0.458122 0.8 0 0
0.324233 0.243555 0.293227 0.8 0 0
0.367318 0.159900 0.774936 0.8 0 0
0.262631 0.077174 0.267913 0.8 0 0
0.370753 0.172701 0.239811 0.8 0 0
0.136491 0.142337 0.933535 0.8 0 0
0.345122 0.078848 0.338603 0.8 0 0
0.076013 0.069418 0.606646 0.8 0 0
0.353940 0.192151 0.432343 0.8 0 0
0.181530 0.199240 0.660118 0.8 0 0
0.348790 0.091613 0.858641 0.8 0 0
0.103670 0.150353 0.054192 0.8 0 0
0.070497 0.192438 0.729062 0.8 0 0
0.046415 0.083117 0.802096 0.8 0 0
0.233478 0.271658 0.471701 0.8 0 0
0.187573 0.073813 0.741664 0.8 0 0
0.227104 0.262003 0.558430 0.8 0 0
0.333060 0.093693 0.848104 0.8 0 0
0.036220 0.137497 0.837073 0.8 0 0
0.244013 0.200191 0.720120 0.8 0 0
0.173842 0.069739 0.548373 0.8 0 0
0.169431 0.266334 0.315928 0.8 0 0
0.079896 0.103573 0.335614 0.8 0 0
0.368828 0.126225 0.586758 0.8 0 0
0.277301 0.268800 0.510176 0.8 0 0
0.250335 0.082211 0.208889 0.8 0 0
0.263956 0.185775 0.898091 0.8 0 0
0.345055 0.055595 0.317828 0.8 0 0
0.042340 0.092787 0.899945 0.8 0 0
0.367545 0.152342 0.077092 0.8 0 0
0.253241 0.238997 0.255886 0.8 0 0
0.312974 0.068407 0.693255 0.8 0 0
0.273385 0.193514 0.813400 0.8 0 0
0.202177 0.214129 0.637143 0.8 0 0
0.367022 0.158766 0.691424 0.8 0 0
0.267195 0.068610 0.664880 0.8 0 0
0.053014 0.035155 0.737269 0.8 0 0
0.312836 0.092077 0.127135 0.8 0 0
0.344961 0.131777 0.714862 0.8 0 0
0.289072 0.266239 0.372093 0.8 0 0
0.256899 0.206710 0.168130 0.8 0 0
