0.800233 0.448915 0.264271 0.8 0 0
0.038221 0.424556 0.051166 0.8 0 0
0.824644 0.632385 0.025000 0.8 0 0
0.367779 0.719415 0.060830 0.8 0 0
0.436172 0.136719 0.065769 0.8 0 0
0.134747 0.579319 0.291699 0.8 0 0
0.171064 0.136719 0.104090 0.8 0 0
0.875728 0.285573 0.291688 0.8 0 0
0.482618 0.401910 0.222981 0.8 0 0
0.794230 0.721356 0.051158 0.8 0 0
0.647761 0.123360 0.263328 0.8 0 0
0.685828 0.108276 0.263328 0.8 0 0
0.136420 0.179886 0.025000 0.8 0 0
0.143377 0.401910 0.083721 0.8 0 0
0.878396 0.401910 0.113803 0.8 0 0
0.170542 0.108219 0.091956 0.8 0 0
0.882830 0.297391 0.025000 0.8 0 0
0.858008 0.672217 0.052417 0.8 0 0
0.596559 0.747914 0.174663 0.8 0 0
0.138448 0.401910 0.195826 0.8 0 0
0.937309 0.136719 0.234241 0.8 0 0
0.108498 0.136719 0.197620 0.8 0 0
0.101087 0.102082 0.277777 0.8 0 0
0.101087 0.220745 0.271879 0.8 0 0
0.118424 0.039629 0.264282 0.8 0 0
0.106469 0.370342 0.052417 0.8 0 0
0.590702 0.108219 0.072009 0.8 0 0
0.763034 0.719415 0.207512 0.8 0 0
0.898662 0.722337 0.263328 0.8 0 0
0.841928 0.372532 0.264271 0.8 0 0
0.101946 0.412860 0.263328 0.8 0 0
0.786506 0.562476 0.028422 0.8 0 0
0.876568 0.430410 0.237272 0.8 0 0
0.424488 0.719415 0.122806 0.8 0 0
0.794433 0.430410 0.170208 0.8 0 0
0.128485 0.633688 0.052417 0.8 0 0
0.922029 0.747914 0.161208 0.8 0 0
0.159699 0.108219 0.166858 0.8 0 0
0.192560 0.703408 0.025000 0.8 0 0
0.294254 0.401910 0.196129 0.8 0 0
0.744450 0.108219 0.199573 0.8 0 0
0.803508 0.747915 0.238308 0.8 0 0
0.763701 0.401910 0.247904 0.8 0 0
0.138506 0.747914 0.182818 0.8 0 0
0.186954 0.559634 0.052417 0.8 0 0
0.128675 0.115523 0.025000 0.8 0 0
0.917477 0.747914 0.095549 0.8 0 0
0.817870 0.226618 0.025000 0.8 0 0
0.862029 0.113287 0.052417 0.8 0 0
0.203719 0.315018 0.291699 0.8 0 0
0.605199 0.108219 0.189401 0.8 0 0
0.128039 0.413499 0.051165 0.8 0 0
0.789077 0.669189 0.025000 0.8 0 0
0.891642 0.025005 0.039253 0.8 0 0
0.482879 0.430410 0.231606 0.8 0 0
0.180384 0.751209 0.052417 0.8 0 0
0.104919 0.782099 0.291699 0.8 0 0
0.819251 0.136719 0.226717 0.8 0 0
0.787242 0.747914 0.098133 0.8 0 0
0.101087 0.236329 0.026498 0.8 0 0
0.169741 0.788108 0.025000 0.8 0 0
0.792836 0.333560 0.264271 0.8 0 0
0.086638 0.719415 0.173955 0.8 0 0
0.786506 0.502027 0.039436 0.8 0 0
0.406136 0.719415 0.098422 0.8 0 0
0.174746 0.407450 0.051165 0.8 0 0
0.323739 0.719415 0.133581 0.8 0 0
0.619144 0.136719 0.164471 0.8 0 0
0.556694 0.108219 0.081158 0.8 0 0
0.222468 0.401910 0.157695 0.8 0 0
0.871913 0.283197 0.291688 0.8 0 0
0.625001 0.747915 0.256160 0.8 0 0
0.818714 0.212195 0.264271 0.8 0 0
0.101087 0.277979 0.030502 0.8 0 0
0.376448 0.136719 0.208095 0.8 0 0
0.043207 0.409365 0.051166 0.8 0 0
0.838501 0.057548 0.025000 0.8 0 0
0.817415 0.701731 0.264271 0.8 0 0
0.493461 0.401910 0.243786 0.8 0 0
0.700410 0.401910 0.178872 0.8 0 0
0.736072 0.136719 0.210458 0.8 0 0
0.793847 0.105250 0.052417 0.8 0 0
0.089624 0.430410 0.091174 0.8 0 0
0.549881 0.430410 0.223091 0.8 0 0
0.889702 0.430410 0.180310 0.8 0 0
0.091393 0.719415 0.147330 0.8 0 0
0.135143 0.108219 0.083054 0.8 0 0
0.052775 0.719415 0.132957 0.8 0 0
0.130914 0.617591 0.025000 0.8 0 0
0.484763 0.747914 0.057804 0.8 0 0
0.395495 0.430410 0.204313 0.8 0 0
0.103403 0.526836 0.025000 0.8 0 0
0.039699 0.108219 0.220154 0.8 0 0
0.101087 0.546915 0.039623 0.8 0 0
0.889557 0.108219 0.069338 0.8 0 0
0.490069 0.411946 0.263328 0.8 0 0
0.656400 0.719415 0.228835 0.8 0 0
0.667128 0.108219 0.241811 0.8 0 0
0.507494 0.401910 0.216642 0.8 0 0
0.205443 0.621715 0.264282 0.8 0 0
0.799188 0.401910 0.158262 0.8 0 0
0.560260 0.724014 0.051160 0.8 0 0
0.887876 0.719415 0.143304 0.8 0 0
0.175181 0.136719 0.191423 0.8 0 0
0.431939 0.719415 0.162070 0.8 0 0
0.835097 0.254452 0.264271 0.8 0 0
0.152157 0.056751 0.291699 0.8 0 0
0.720183 0.136719 0.173653 0.8 0 0
0.882589 0.130734 0.052417 0.8 0 0
0.804597 0.476077 0.264271 0.8 0 0
0.101087 0.642726 0.038638 0.8 0 0
0.178269 0.773758 0.025000 0.8 0 0
0.708557 0.401910 0.119670 0.8 0 0
0.839264 0.704364 0.264271 0.8 0 0
0.037264 0.430410 0.256859 0.8 0 0
0.818555 0.719415 0.233762 0.8 0 0
0.653123 0.401910 0.220495 0.8 0 0
0.129866 0.719415 0.240056 0.8 0 0
0.300371 0.719415 0.194251 0.8 0 0
0.785300 0.719415 0.165948 0.8 0 0
0.377491 0.747914 0.245094 0.8 0 0
0.393814 0.401910 0.176205 0.8 0 0
0.896174 0.145410 0.289006 0.8 0 0
0.884353 0.216272 0.264271 0.8 0 0
0.792233 0.700357 0.025000 0.8 0 0
0.101087 0.112075 0.288514 0.8 0 0
0.082405 0.136719 0.122473 0.8 0 0
0.868722 0.531425 0.052417 0.8 0 0
0.861792 0.483414 0.291688 0.8 0 0
0.702816 0.747914 0.063655 0.8 0 0
0.630393 0.430410 0.217671 0.8 0 0
0.101087 0.509667 0.048534 0.8 0 0
0.891327 0.108219 0.255940 0.8 0 0
0.934091 0.136719 0.192736 0.8 0 0
0.337626 0.401910 0.248066 0.8 0 0
0.025000 0.404024 0.157341 0.8 0 0
0.102299 0.524833 0.291699 0.8 0 0
0.110184 0.733924 0.025000 0.8 0 0
0.853956 0.108219 0.253635 0.8 0 0
0.592181 0.719415 0.114290 0.8 0 0
0.169296 0.136719 0.155520 0.8 0 0
0.351514 0.108219 0.262337 0.8 0 0
0.784749 0.401910 0.240173 0.8 0 0
0.101087 0.061363 0.274904 0.8 0 0
0.025000 0.408622 0.060723 0.8 0 0
0.626508 0.430410 0.063151 0.8 0 0
0.741290 0.719415 0.222249 0.8 0 0
0.152596 0.430410 0.253512 0.8 0 0
0.289035 0.136719 0.068762 0.8 0 0
0.112982 0.091087 0.291699 0.8 0 0
0.893674 0.346448 0.025000 0.8 0 0
0.057559 0.108219 0.061973 0.8 0 0
0.123126 0.314878 0.264282 0.8 0 0
0.886310 0.401910 0.174242 0.8 0 0
0.206955 0.266519 0.264282 0.8 0 0
0.853679 0.084960 0.052417 0.8 0 0
0.459511 0.418340 0.263328 0.8 0 0
0.408107 0.719415 0.080118 0.8 0 0
0.868556 0.229923 0.291688 0.8 0 0
0.025000 0.424074 0.070241 0.8 0 0
0.219424 0.108219 0.219251 0.8 0 0
0.789968 0.430410 0.066464 0.8 0 0
0.104353 0.747914 0.162255 0.8 0 0
0.101087 0.077087 0.275853 0.8 0 0
0.104990 0.108219 0.062393 0.8 0 0
0.166889 0.745451 0.051165 0.8 0 0
0.897560 0.108219 0.183126 0.8 0 0
0.186894 0.430410 0.217821 0.8 0 0
0.851258 0.401910 0.159492 0.8 0 0
0.181951 0.617661 0.052417 0.8 0 0
0.801500 0.527233 0.025000 0.8 0 0
0.338438 0.409932 0.051163 0.8 0 0
0.526107 0.108219 0.129396 0.8 0 0
0.158523 0.030195 0.052417 0.8 0 0
0.631524 0.430410 0.221116 0.8 0 0
0.975000 0.125341 0.237045 0.8 0 0
0.584498 0.430410 0.160457 0.8 0 0
0.178651 0.365195 0.291699 0.8 0 0
0.870674 0.555628 0.264271 0.8 0 0
0.868479 0.774853 0.291688 0.8 0 0
0.871916 0.190229 0.291688 0.8 0 0
0.727257 0.747914 0.117196 0.8 0 0
0.876782 0.460823 0.025000 0.8 0 0
0.181879 0.401910 0.176945 0.8 0 0
0.392480 0.747914 0.136838 0.8 0 0
0.469426 0.430410 0.228550 0.8 0 0
0.295529 0.719415 0.087954 0.8 0 0
0.193173 0.183101 0.291699 0.8 0 0
0.334379 0.719415 0.066871 0.8 0 0
0.702555 0.136719 0.072403 0.8 0 0
0.791018 0.545448 0.025000 0.8 0 0
0.486909 0.747914 0.183301 0.8 0 0
0.142014 0.747914 0.209255 0.8 0 0
0.088668 0.747914 0.229444 0.8 0 0
0.765151 0.747914 0.195384 0.8 0 0
0.101087 0.498859 0.038638 0.8 0 0
0.189591 0.719415 0.214583 0.8 0 0
0.830065 0.136719 0.198505 0.8 0 0
0.958154 0.736066 0.263328 0.8 0 0
0.688349 0.114421 0.051159 0.8 0 0
0.294602 0.719415 0.216758 0.8 0 0
0.149158 0.145177 0.264282 0.8 0 0
0.211248 0.136719 0.052466 0.8 0 0
0.159612 0.401910 0.099008 0.8 0 0
0.141608 0.430410 0.140984 0.8 0 0
0.114642 0.292492 0.291699 0.8 0 0
0.646687 0.747914 0.077156 0.8 0 0
0.829253 0.430410 0.177674 0.8 0 0
0.157458 0.539112 0.264282 0.8 0 0
0.153820 0.170498 0.025000 0.8 0 0
0.791387 0.718877 0.291688 0.8 0 0
0.848874 0.788294 0.045619 0.8 0 0
0.781705 0.401910 0.122706 0.8 0 0
0.513379 0.121420 0.051161 0.8 0 0
0.200747 0.465198 0.264282 0.8 0 0
0.569103 0.401910 0.146360 0.8 0 0
0.404367 0.747914 0.133283 0.8 0 0
0.392075 0.108219 0.199431 0.8 0 0
0.841164 0.580017 0.052417 0.8 0 0
0.135548 0.108219 0.188270 0.8 0 0
0.484967 0.108219 0.227358 0.8 0 0
0.189156 0.401910 0.099376 0.8 0 0
0.805822 0.158711 0.264271 0.8 0 0
0.208378 0.256921 0.052417 0.8 0 0
0.607663 0.747914 0.218313 0.8 0 0
0.106506 0.124119 0.264282 0.8 0 0
0.770804 0.401910 0.202273 0.8 0 0
0.188119 0.164488 0.291699 0.8 0 0
0.236674 0.430410 0.206133 0.8 0 0
0.895799 0.111260 0.291688 0.8 0 0
0.681043 0.430410 0.065307 0.8 0 0
0.140804 0.351683 0.052417 0.8 0 0
0.837969 0.475448 0.264271 0.8 0 0
0.166097 0.083726 0.052417 0.8 0 0
0.896863 0.430410 0.188559 0.8 0 0
0.687509 0.108219 0.244038 0.8 0 0
0.624652 0.719415 0.057783 0.8 0 0
0.154875 0.262745 0.025000 0.8 0 0
0.454640 0.719415 0.180523 0.8 0 0
0.825455 0.747915 0.193383 0.8 0 0
0.844719 0.026048 0.264271 0.8 0 0
0.092698 0.430410 0.167370 0.8 0 0
0.119645 0.430606 0.025000 0.8 0 0
0.808248 0.035692 0.264271 0.8 0 0
0.210754 0.092252 0.029302 0.8 0 0
0.791618 0.740797 0.291688 0.8 0 0
0.271147 0.430410 0.228550 0.8 0 0
0.726387 0.747914 0.086880 0.8 0 0
0.609171 0.719415 0.242944 0.8 0 0
0.242299 0.401910 0.200021 0.8 0 0
0.208465 0.737942 0.051164 0.8 0 0
0.032799 0.430410 0.063643 0.8 0 0
0.120762 0.719415 0.187351 0.8 0 0
0.104886 0.318652 0.264282 0.8 0 0
0.148449 0.469461 0.291699 0.8 0 0
0.101087 0.693951 0.278389 0.8 0 0
0.136567 0.333537 0.291699 0.8 0 0
0.088871 0.719415 0.231050 0.8 0 0
0.213190 0.747914 0.227106 0.8 0 0
0.593949 0.136719 0.119612 0.8 0 0
0.131795 0.369084 0.052417 0.8 0 0
0.238240 0.136719 0.138898 0.8 0 0
0.121322 0.338709 0.291699 0.8 0 0
0.419791 0.108219 0.163319 0.8 0 0
0.962561 0.108219 0.124604 0.8 0 0
0.127547 0.108219 0.171688 0.8 0 0
0.828847 0.719415 0.164491 0.8 0 0
0.815691 0.167027 0.052417 0.8 0 0
0.038829 0.719415 0.142313 0.8 0 0
0.181777 0.488726 0.291699 0.8 0 0
0.183299 0.401910 0.195224 0.8 0 0
0.026131 0.108219 0.103548 0.8 0 0
0.791098 0.568440 0.025000 0.8 0 0
0.549359 0.108219 0.125997 0.8 0 0
0.538168 0.401910 0.057901 0.8 0 0
0.875393 0.298432 0.291688 0.8 0 0
0.810079 0.332326 0.264271 0.8 0 0
0.861869 0.401910 0.210879 0.8 0 0
0.025000 0.414964 0.172732 0.8 0 0
0.896173 0.555977 0.048949 0.8 0 0
0.117872 0.627794 0.052417 0.8 0 0
0.876049 0.112797 0.291688 0.8 0 0
0.755264 0.108219 0.166770 0.8 0 0
0.134298 0.370273 0.052417 0.8 0 0
0.383898 0.719415 0.168409 0.8 0 0
0.148556 0.382503 0.291699 0.8 0 0
0.343309 0.430410 0.058279 0.8 0 0
0.210754 0.187876 0.281424 0.8 0 0
0.922435 0.719415 0.218908 0.8 0 0
0.151118 0.110760 0.263328 0.8 0 0
0.617114 0.719415 0.178231 0.8 0 0
0.176399 0.108219 0.097337 0.8 0 0
0.886726 0.464783 0.025000 0.8 0 0
0.121804 0.572796 0.052417 0.8 0 0
0.797758 0.771499 0.025000 0.8 0 0
0.148204 0.377751 0.291699 0.8 0 0
0.101087 0.260345 0.269291 0.8 0 0
0.896174 0.174481 0.286627 0.8 0 0
0.561188 0.430410 0.224846 0.8 0 0
0.886833 0.136719 0.179170 0.8 0 0
0.438346 0.719415 0.077676 0.8 0 0
0.936699 0.131134 0.051156 0.8 0 0
0.172928 0.095513 0.052417 0.8 0 0
0.896174 0.101779 0.284421 0.8 0 0
0.645992 0.401910 0.133617 0.8 0 0
0.833701 0.035925 0.291688 0.8 0 0
0.483720 0.136719 0.243527 0.8 0 0
0.140901 0.147763 0.291699 0.8 0 0
0.881665 0.060804 0.291688 0.8 0 0
0.163294 0.719415 0.260388 0.8 0 0
0.768514 0.747915 0.256866 0.8 0 0
0.786507 0.615076 0.291153 0.8 0 0
0.798542 0.355016 0.025000 0.8 0 0
0.856118 0.286878 0.052417 0.8 0 0
0.591862 0.401910 0.259883 0.8 0 0
0.896174 0.407567 0.281790 0.8 0 0
0.896173 0.660034 0.047085 0.8 0 0
0.375839 0.747914 0.185509 0.8 0 0
0.761265 0.747914 0.090065 0.8 0 0
0.846436 0.377983 0.291688 0.8 0 0
0.613084 0.136719 0.150517 0.8 0 0
0.837400 0.401910 0.092215 0.8 0 0
0.821572 0.189184 0.025000 0.8 0 0
0.821983 0.406616 0.025000 0.8 0 0
0.114387 0.569791 0.291699 0.8 0 0
0.445363 0.747914 0.135905 0.8 0 0
0.916404 0.719415 0.063348 0.8 0 0
0.386247 0.430410 0.238735 0.8 0 0
0.168310 0.430410 0.101507 0.8 0 0
0.258680 0.747914 0.096591 0.8 0 0
0.916781 0.430410 0.086549 0.8 0 0
0.810939 0.786734 0.291688 0.8 0 0
0.735636 0.747915 0.228550 0.8 0 0
0.104809 0.041190 0.025000 0.8 0 0
0.568900 0.136719 0.106138 0.8 0 0
0.091335 0.401910 0.232015 0.8 0 0
0.354442 0.719415 0.178581 0.8 0 0
0.194659 0.287228 0.291699 0.8 0 0
0.868315 0.056782 0.025000 0.8 0 0
0.671562 0.136719 0.135009 0.8 0 0
0.168958 0.045616 0.264282 0.8 0 0
0.243430 0.136719 0.207363 0.8 0 0
0.430808 0.747914 0.069622 0.8 0 0
0.512394 0.401910 0.072243 0.8 0 0
0.272828 0.719415 0.186100 0.8 0 0
0.510306 0.401910 0.252573 0.8 0 0
0.847510 0.388862 0.291688 0.8 0 0
0.027928 0.127560 0.051166 0.8 0 0
0.745407 0.719415 0.209176 0.8 0 0
0.810611 0.514632 0.025000 0.8 0 0
0.412079 0.413369 0.263328 0.8 0 0
0.622826 0.719415 0.150906 0.8 0 0
0.035524 0.401910 0.071180 0.8 0 0
0.627581 0.430410 0.062303 0.8 0 0
0.156816 0.544493 0.025000 0.8 0 0
0.716240 0.719415 0.067909 0.8 0 0
0.579859 0.401910 0.144256 0.8 0 0
0.124528 0.156894 0.025000 0.8 0 0
0.623029 0.736677 0.051160 0.8 0 0
0.198320 0.115080 0.291699 0.8 0 0
0.891247 0.640001 0.264271 0.8 0 0
0.193418 0.744279 0.263328 0.8 0 0
0.487634 0.724622 0.263328 0.8 0 0
0.896174 0.529817 0.277803 0.8 0 0
0.835103 0.377075 0.052417 0.8 0 0
0.583831 0.719415 0.138389 0.8 0 0
0.786507 0.672916 0.273328 0.8 0 0
0.201684 0.326782 0.291699 0.8 0 0
0.811943 0.311058 0.291688 0.8 0 0
0.205015 0.108219 0.217503 0.8 0 0
0.359574 0.719415 0.115516 0.8 0 0
0.701048 0.136719 0.070998 0.8 0 0
0.372997 0.108219 0.199502 0.8 0 0
0.210754 0.115150 0.274105 0.8 0 0
0.845027 0.232508 0.264271 0.8 0 0
0.052340 0.108219 0.102078 0.8 0 0
0.882224 0.376352 0.291688 0.8 0 0
0.624739 0.747914 0.152421 0.8 0 0
0.466788 0.747914 0.092329 0.8 0 0
0.844933 0.431822 0.025000 0.8 0 0
0.810674 0.225895 0.025000 0.8 0 0
0.659937 0.401910 0.125666 0.8 0 0
0.210754 0.076015 0.046205 0.8 0 0
0.721372 0.747914 0.155814 0.8 0 0
0.512393 0.136719 0.105621 0.8 0 0
0.224498 0.430410 0.163859 0.8 0 0
0.124539 0.278701 0.264282 0.8 0 0
0.190083 0.430410 0.153739 0.8 0 0
0.173162 0.147716 0.291699 0.8 0 0
0.101087 0.750743 0.035412 0.8 0 0
0.808891 0.494153 0.264271 0.8 0 0
0.123678 0.215596 0.264282 0.8 0 0
0.873669 0.136719 0.061238 0.8 0 0
0.550316 0.747914 0.173129 0.8 0 0
0.198387 0.419051 0.025000 0.8 0 0
0.198581 0.315740 0.052417 0.8 0 0
0.974999 0.132689 0.105288 0.8 0 0
0.047556 0.719415 0.162385 0.8 0 0
0.241371 0.430410 0.244116 0.8 0 0
0.073678 0.401910 0.132341 0.8 0 0
0.104208 0.401910 0.255545 0.8 0 0
0.820701 0.108219 0.188611 0.8 0 0
0.847556 0.399181 0.052417 0.8 0 0
0.974999 0.114245 0.123244 0.8 0 0
0.179008 0.136719 0.149952 0.8 0 0
0.210754 0.612001 0.045689 0.8 0 0
0.673070 0.719415 0.231133 0.8 0 0
0.679274 0.747914 0.153580 0.8 0 0
0.876008 0.788294 0.031886 0.8 0 0
0.609228 0.108219 0.068409 0.8 0 0
0.135230 0.136719 0.191631 0.8 0 0
0.101087 0.035739 0.291584 0.8 0 0
0.219656 0.136719 0.211721 0.8 0 0
0.852067 0.678460 0.052417 0.8 0 0
0.184695 0.139353 0.052417 0.8 0 0
0.549968 0.108219 0.141349 0.8 0 0
0.181462 0.372276 0.264282 0.8 0 0
0.208046 0.477591 0.291699 0.8 0 0
0.880126 0.038683 0.025000 0.8 0 0
0.725779 0.401910 0.168661 0.8 0 0
0.851807 0.465687 0.052417 0.8 0 0
0.621144 0.747914 0.094282 0.8 0 0
0.974998 0.418876 0.056258 0.8 0 0
0.049354 0.740667 0.263328 0.8 0 0
0.195134 0.725609 0.291699 0.8 0 0
0.896174 0.452852 0.280084 0.8 0 0
0.582004 0.430410 0.116990 0.8 0 0
0.898517 0.747915 0.242899 0.8 0 0
0.160511 0.720437 0.052417 0.8 0 0
0.846342 0.151915 0.025000 0.8 0 0
0.647412 0.719415 0.247211 0.8 0 0
0.774051 0.742163 0.051158 0.8 0 0
0.178863 0.401910 0.128585 0.8 0 0
0.671098 0.430410 0.137347 0.8 0 0
0.587629 0.747914 0.143835 0.8 0 0
0.877277 0.303091 0.052417 0.8 0 0
0.359980 0.129991 0.263328 0.8 0 0
0.802638 0.108219 0.130742 0.8 0 0
0.668489 0.747914 0.109957 0.8 0 0
0.826122 0.719415 0.234682 0.8 0 0
0.565740 0.415278 0.051160 0.8 0 0
0.443565 0.430410 0.242161 0.8 0 0
0.830395 0.025000 0.266931 0.8 0 0
0.703396 0.401910 0.234727 0.8 0 0
0.067648 0.719415 0.075913 0.8 0 0
0.679941 0.430410 0.068311 0.8 0 0
0.957893 0.741773 0.263328 0.8 0 0
0.116985 0.083493 0.291699 0.8 0 0
0.190895 0.430410 0.246344 0.8 0 0
0.831966 0.578806 0.052417 0.8 0 0
0.832971 0.331422 0.025000 0.8 0 0
0.101087 0.434472 0.034774 0.8 0 0
0.576091 0.108219 0.225448 0.8 0 0
0.122597 0.706600 0.264282 0.8 0 0
0.610214 0.410104 0.263328 0.8 0 0
0.643990 0.747914 0.112968 0.8 0 0
0.341627 0.430410 0.156742 0.8 0 0
0.146711 0.401910 0.201207 0.8 0 0
0.583542 0.108219 0.209934 0.8 0 0
0.757177 0.430410 0.260479 0.8 0 0
0.975000 0.111338 0.238968 0.8 0 0
0.391871 0.747914 0.155738 0.8 0 0
0.853954 0.136719 0.102465 0.8 0 0
0.210754 0.049716 0.032840 0.8 0 0
0.605460 0.747915 0.247936 0.8 0 0
0.120240 0.430410 0.260285 0.8 0 0
0.187189 0.401441 0.291699 0.8 0 0
0.871203 0.127054 0.264271 0.8 0 0
0.279467 0.719415 0.233600 0.8 0 0
0.711747 0.401910 0.072027 0.8 0 0
0.794278 0.349214 0.291688 0.8 0 0
0.778951 0.136719 0.112437 0.8 0 0
0.878931 0.290395 0.264271 0.8 0 0
0.752887 0.401910 0.074027 0.8 0 0
0.924494 0.405850 0.051156 0.8 0 0
0.786507 0.159550 0.274479 0.8 0 0
0.660400 0.108219 0.099598 0.8 0 0
0.829289 0.703921 0.052417 0.8 0 0
0.810263 0.136719 0.105353 0.8 0 0
0.085855 0.401910 0.156589 0.8 0 0
0.898168 0.747914 0.147267 0.8 0 0
0.644193 0.719415 0.098109 0.8 0 0
0.699599 0.108219 0.182874 0.8 0 0
0.830094 0.747914 0.131668 0.8 0 0
0.139583 0.381291 0.025000 0.8 0 0
0.535210 0.430410 0.160321 0.8 0 0
0.187825 0.351777 0.291699 0.8 0 0
0.126619 0.136719 0.239279 0.8 0 0
0.975000 0.118221 0.210478 0.8 0 0
0.433244 0.739482 0.051162 0.8 0 0
0.804087 0.430410 0.139011 0.8 0 0
0.901415 0.430410 0.113699 0.8 0 0
0.868586 0.449987 0.264271 0.8 0 0
0.823033 0.788294 0.048469 0.8 0 0
0.121574 0.108219 0.233549 0.8 0 0
0.910838 0.136719 0.153826 0.8 0 0
0.874962 0.025000 0.268204 0.8 0 0
0.881904 0.136719 0.194646 0.8 0 0
0.428286 0.430410 0.062117 0.8 0 0
0.405730 0.108219 0.178898 0.8 0 0
0.189069 0.719415 0.191138 0.8 0 0
0.124125 0.719415 0.255053 0.8 0 0
0.672635 0.108219 0.149417 0.8 0 0
0.797420 0.108219 0.262428 0.8 0 0
0.791185 0.430410 0.115778 0.8 0 0
0.786506 0.702430 0.045599 0.8 0 0
0.312287 0.108219 0.115594 0.8 0 0
0.884831 0.430410 0.113751 0.8 0 0
0.597834 0.747914 0.138001 0.8 0 0
0.220526 0.430410 0.195081 0.8 0 0
0.974998 0.430089 0.151223 0.8 0 0
0.127086 0.781725 0.052417 0.8 0 0
0.041613 0.747914 0.206110 0.8 0 0
0.773472 0.747915 0.250811 0.8 0 0
0.605749 0.430410 0.199431 0.8 0 0
0.157904 0.221746 0.025000 0.8 0 0
0.786506 0.513884 0.025337 0.8 0 0
0.806568 0.635179 0.264271 0.8 0 0
0.738188 0.401910 0.096858 0.8 0 0
0.129458 0.707182 0.264282 0.8 0 0
0.719052 0.136719 0.086738 0.8 0 0
0.165407 0.181097 0.052417 0.8 0 0
0.792865 0.671262 0.052417 0.8 0 0
0.829652 0.527930 0.264271 0.8 0 0
0.709948 0.719415 0.061117 0.8 0 0
0.958908 0.136719 0.195753 0.8 0 0
0.703687 0.136719 0.248681 0.8 0 0
0.246474 0.747914 0.116592 0.8 0 0
0.025232 0.117649 0.051166 0.8 0 0
0.317506 0.108219 0.242135 0.8 0 0
0.385319 0.402908 0.051162 0.8 0 0
0.172312 0.676411 0.291699 0.8 0 0
0.818188 0.745805 0.264271 0.8 0 0
0.366764 0.430410 0.073468 0.8 0 0
0.431301 0.108219 0.160846 0.8 0 0
0.879874 0.719415 0.171082 0.8 0 0
0.333249 0.401910 0.086658 0.8 0 0
0.180318 0.556862 0.025000 0.8 0 0
0.118704 0.136719 0.130884 0.8 0 0
0.250214 0.136719 0.136884 0.8 0 0
0.462324 0.719415 0.223124 0.8 0 0
0.409006 0.430410 0.172857 0.8 0 0
0.786507 0.692134 0.265804 0.8 0 0
0.166552 0.753842 0.264282 0.8 0 0
0.292079 0.719415 0.076765 0.8 0 0
0.596675 0.136719 0.064388 0.8 0 0
0.263696 0.401910 0.170236 0.8 0 0
0.170648 0.418655 0.052417 0.8 0 0
0.432258 0.733554 0.051162 0.8 0 0
0.332495 0.136719 0.144653 0.8 0 0
0.799255 0.788295 0.285962 0.8 0 0
0.423125 0.136719 0.185412 0.8 0 0
0.920203 0.136719 0.149947 0.8 0 0
0.649673 0.430410 0.240205 0.8 0 0
0.894051 0.719415 0.104265 0.8 0 0
0.728301 0.401910 0.230415 0.8 0 0
0.053558 0.430410 0.245010 0.8 0 0
0.783503 0.719415 0.152745 0.8 0 0
0.295268 0.109869 0.051163 0.8 0 0
0.210754 0.173876 0.036878 0.8 0 0
0.577945 0.430410 0.230823 0.8 0 0
0.257839 0.118443 0.051164 0.8 0 0
0.058457 0.136719 0.170802 0.8 0 0
0.659502 0.401910 0.160690 0.8 0 0
0.350789 0.430410 0.219485 0.8 0 0
0.419415 0.131766 0.263328 0.8 0 0
0.111253 0.401910 0.188413 0.8 0 0
0.877816 0.309660 0.291688 0.8 0 0
0.824035 0.726128 0.263328 0.8 0 0
0.488272 0.726442 0.263328 0.8 0 0
0.135305 0.280518 0.025000 0.8 0 0
0.882947 0.199136 0.025000 0.8 0 0
0.974998 0.743361 0.085610 0.8 0 0
0.848562 0.136719 0.051694 0.8 0 0
0.185716 0.043286 0.291699 0.8 0 0
0.195345 0.773945 0.291699 0.8 0 0
0.080173 0.108219 0.097610 0.8 0 0
0.833909 0.243270 0.264271 0.8 0 0
0.896174 0.751419 0.290558 0.8 0 0
0.859312 0.714893 0.291688 0.8 0 0
0.514191 0.136719 0.148258 0.8 0 0
0.861380 0.729825 0.025000 0.8 0 0
0.688262 0.114287 0.051159 0.8 0 0
0.858449 0.401910 0.112100 0.8 0 0
0.958617 0.112147 0.051156 0.8 0 0
0.947687 0.719415 0.110909 0.8 0 0
0.286049 0.719415 0.138276 0.8 0 0
0.896173 0.752677 0.036707 0.8 0 0
0.745552 0.136719 0.182168 0.8 0 0
0.519439 0.136719 0.171613 0.8 0 0
0.929480 0.418484 0.263328 0.8 0 0
0.101087 0.600004 0.050594 0.8 0 0
0.601342 0.747914 0.072773 0.8 0 0
0.174186 0.434635 0.025000 0.8 0 0
0.172064 0.659708 0.264282 0.8 0 0
0.094147 0.430410 0.168917 0.8 0 0
0.372591 0.430410 0.224438 0.8 0 0
0.661676 0.136719 0.194335 0.8 0 0
0.806333 0.500023 0.052417 0.8 0 0
0.448610 0.136719 0.160736 0.8 0 0
0.954936 0.401910 0.118005 0.8 0 0
0.025029 0.427001 0.263328 0.8 0 0
0.378448 0.747914 0.261088 0.8 0 0
0.885427 0.616496 0.291688 0.8 0 0
0.887780 0.403980 0.264271 0.8 0 0
0.878221 0.136719 0.116302 0.8 0 0
0.800540 0.266239 0.291688 0.8 0 0
0.912085 0.401910 0.057262 0.8 0 0
0.169417 0.614121 0.264282 0.8 0 0
0.495346 0.430410 0.066882 0.8 0 0
0.605198 0.430410 0.240542 0.8 0 0
0.200623 0.522899 0.291699 0.8 0 0
0.637757 0.430410 0.177881 0.8 0 0
0.030683 0.719415 0.053996 0.8 0 0
0.277873 0.747914 0.074933 0.8 0 0
0.594964 0.747914 0.189304 0.8 0 0
0.974998 0.746307 0.117733 0.8 0 0
0.299762 0.430410 0.222858 0.8 0 0
0.102149 0.136719 0.055672 0.8 0 0
0.896174 0.110447 0.043212 0.8 0 0
0.786507 0.367547 0.283693 0.8 0 0
0.197115 0.608227 0.264282 0.8 0 0
0.808505 0.524413 0.052417 0.8 0 0
0.856042 0.425110 0.263328 0.8 0 0
0.239806 0.747914 0.230117 0.8 0 0
0.598009 0.719415 0.204702 0.8 0 0
0.087189 0.401910 0.131791 0.8 0 0
0.778835 0.401910 0.181067 0.8 0 0
0.674143 0.430410 0.077822 0.8 0 0
0.147638 0.418835 0.051165 0.8 0 0
0.632538 0.430410 0.196679 0.8 0 0
0.802869 0.430410 0.098444 0.8 0 0
0.133257 0.250445 0.264282 0.8 0 0
0.896174 0.448542 0.041429 0.8 0 0
0.860883 0.430410 0.179248 0.8 0 0
0.732505 0.430410 0.086485 0.8 0 0
0.767180 0.430410 0.115221 0.8 0 0
0.846998 0.080191 0.025000 0.8 0 0
0.147103 0.720647 0.025000 0.8 0 0
0.667765 0.735447 0.263328 0.8 0 0
0.306285 0.108219 0.118120 0.8 0 0
0.210754 0.248302 0.280326 0.8 0 0
0.127836 0.108219 0.229819 0.8 0 0
0.589804 0.401910 0.144858 0.8 0 0
0.361661 0.719415 0.155110 0.8 0 0
0.661705 0.131798 0.051159 0.8 0 0
0.836096 0.401910 0.075166 0.8 0 0
0.205185 0.788109 0.264282 0.8 0 0
0.787816 0.730430 0.264271 0.8 0 0
0.621754 0.136719 0.225992 0.8 0 0
0.759091 0.108219 0.099299 0.8 0 0
0.822884 0.298319 0.025000 0.8 0 0
0.786507 0.746504 0.268435 0.8 0 0
0.875594 0.539880 0.291688 0.8 0 0
0.173906 0.719415 0.208135 0.8 0 0
0.879252 0.165583 0.291688 0.8 0 0
0.131627 0.355876 0.052417 0.8 0 0
0.834692 0.041870 0.025000 0.8 0 0
0.814724 0.726378 0.025000 0.8 0 0
0.939599 0.108219 0.188371 0.8 0 0
0.786507 0.173923 0.285121 0.8 0 0
0.099163 0.747914 0.226343 0.8 0 0
0.266392 0.401910 0.112701 0.8 0 0
0.885007 0.575871 0.052417 0.8 0 0
0.153727 0.719415 0.212959 0.8 0 0
0.087537 0.401910 0.146152 0.8 0 0
0.115733 0.103083 0.025000 0.8 0 0
0.101087 0.659313 0.286305 0.8 0 0
0.923683 0.136719 0.214220 0.8 0 0
0.088928 0.747914 0.227754 0.8 0 0
0.184082 0.401910 0.149667 0.8 0 0
0.886485 0.719415 0.255959 0.8 0 0
0.277873 0.108219 0.127185 0.8 0 0
0.789917 0.599445 0.264271 0.8 0 0
0.025087 0.430410 0.181952 0.8 0 0
0.416022 0.108219 0.198473 0.8 0 0
0.310808 0.136719 0.148921 0.8 0 0
0.786507 0.149323 0.271428 0.8 0 0
0.334467 0.401910 0.054038 0.8 0 0
0.168677 0.623951 0.025000 0.8 0 0
0.892138 0.136719 0.183314 0.8 0 0
0.873214 0.025004 0.037250 0.8 0 0
0.882318 0.046058 0.052417 0.8 0 0
0.896174 0.629169 0.031253 0.8 0 0
0.965345 0.108219 0.206631 0.8 0 0
0.101087 0.616473 0.038582 0.8 0 0
0.507262 0.401910 0.118791 0.8 0 0
0.858769 0.025256 0.052417 0.8 0 0
0.818787 0.136719 0.108247 0.8 0 0
0.486619 0.117582 0.051161 0.8 0 0
0.394162 0.108219 0.143584 0.8 0 0
0.870319 0.025000 0.048509 0.8 0 0
0.118530 0.401910 0.062186 0.8 0 0
0.874018 0.401910 0.146509 0.8 0 0
0.215365 0.747914 0.130442 0.8 0 0
0.856477 0.719415 0.250397 0.8 0 0
0.165263 0.308216 0.052417 0.8 0 0
0.140828 0.521454 0.025000 0.8 0 0
0.178855 0.615774 0.025000 0.8 0 0
0.195623 0.435031 0.025000 0.8 0 0
0.673360 0.719415 0.115674 0.8 0 0
0.316578 0.430410 0.066560 0.8 0 0
0.424024 0.430410 0.190055 0.8 0 0
0.866232 0.218764 0.052417 0.8 0 0
0.150360 0.561079 0.291699 0.8 0 0
0.805276 0.401910 0.220682 0.8 0 0
0.698874 0.747914 0.215250 0.8 0 0
0.898255 0.747914 0.068995 0.8 0 0
0.793485 0.403677 0.264271 0.8 0 0
0.874419 0.041330 0.291688 0.8 0 0
0.808175 0.747914 0.098463 0.8 0 0
0.791581 0.444885 0.264271 0.8 0 0
0.559275 0.401910 0.093907 0.8 0 0
0.253548 0.732345 0.263328 0.8 0 0
0.928610 0.110537 0.051156 0.8 0 0
0.490533 0.430410 0.057144 0.8 0 0
0.689190 0.136719 0.091808 0.8 0 0
0.176931 0.366173 0.025000 0.8 0 0
0.815892 0.551251 0.025000 0.8 0 0
0.749001 0.719415 0.119262 0.8 0 0
0.894788 0.045196 0.291688 0.8 0 0
0.801749 0.677156 0.291688 0.8 0 0
0.210754 0.703222 0.032366 0.8 0 0
0.614505 0.430410 0.204210 0.8 0 0
0.172422 0.489261 0.025000 0.8 0 0
0.498536 0.136719 0.259844 0.8 0 0
0.939541 0.747915 0.171724 0.8 0 0
0.972447 0.136719 0.091412 0.8 0 0
0.878163 0.430410 0.201788 0.8 0 0
0.195360 0.747914 0.150508 0.8 0 0
0.786507 0.266822 0.287281 0.8 0 0
0.967664 0.136719 0.184311 0.8 0 0
0.189562 0.048667 0.025000 0.8 0 0
0.786507 0.047176 0.265248 0.8 0 0
0.665272 0.401910 0.095408 0.8 0 0
0.368706 0.719415 0.197663 0.8 0 0
0.136998 0.401910 0.085592 0.8 0 0
0.566290 0.108219 0.112898 0.8 0 0
0.174631 0.401910 0.100736 0.8 0 0
0.101087 0.770520 0.051207 0.8 0 0
0.411906 0.719415 0.254755 0.8 0 0
0.135138 0.222771 0.025000 0.8 0 0
0.515959 0.136719 0.085627 0.8 0 0
0.176921 0.719415 0.093264 0.8 0 0
0.344121 0.747914 0.167406 0.8 0 0
0.825457 0.759781 0.052417 0.8 0 0
0.804486 0.515818 0.291688 0.8 0 0
0.103512 0.430410 0.149752 0.8 0 0
0.210754 0.278725 0.272693 0.8 0 0
0.596878 0.408571 0.263328 0.8 0 0
0.786507 0.077506 0.050422 0.8 0 0
0.146722 0.353500 0.264282 0.8 0 0
0.961893 0.430410 0.058531 0.8 0 0
0.861561 0.197613 0.291688 0.8 0 0
0.851475 0.661432 0.052417 0.8 0 0
0.258245 0.136719 0.236760 0.8 0 0
0.805829 0.728916 0.264271 0.8 0 0
0.828794 0.319118 0.052417 0.8 0 0
0.679564 0.404023 0.263328 0.8 0 0
0.822472 0.487095 0.052417 0.8 0 0
0.185706 0.569838 0.291699 0.8 0 0
0.084493 0.719415 0.192836 0.8 0 0
0.621376 0.401910 0.216849 0.8 0 0
0.885310 0.154527 0.025000 0.8 0 0
0.145142 0.774830 0.025000 0.8 0 0
0.331132 0.719415 0.142756 0.8 0 0
0.821425 0.274555 0.291688 0.8 0 0
0.198520 0.108219 0.178266 0.8 0 0
0.293355 0.136719 0.055754 0.8 0 0
0.873261 0.140961 0.052417 0.8 0 0
0.889877 0.719415 0.236702 0.8 0 0
0.166274 0.592247 0.052417 0.8 0 0
0.618535 0.129459 0.051160 0.8 0 0
0.354355 0.401910 0.170345 0.8 0 0
0.043381 0.136719 0.211309 0.8 0 0
0.705339 0.401910 0.260880 0.8 0 0
0.833283 0.401910 0.138571 0.8 0 0
0.853638 0.118511 0.025000 0.8 0 0
0.396540 0.401910 0.192295 0.8 0 0
0.451277 0.430210 0.051162 0.8 0 0
0.859724 0.430410 0.061581 0.8 0 0
0.324319 0.136719 0.242847 0.8 0 0
0.101087 0.205557 0.289425 0.8 0 0
0.277090 0.136719 0.160802 0.8 0 0
0.241516 0.136719 0.187602 0.8 0 0
0.792939 0.324662 0.052417 0.8 0 0
0.786507 0.235816 0.267719 0.8 0 0
0.078114 0.719415 0.118006 0.8 0 0
0.952732 0.747914 0.113661 0.8 0 0
0.667242 0.719415 0.056132 0.8 0 0
0.882599 0.719415 0.169211 0.8 0 0
0.160102 0.685728 0.025000 0.8 0 0
0.579917 0.430410 0.230965 0.8 0 0
0.530079 0.719415 0.242607 0.8 0 0
0.649673 0.430410 0.094774 0.8 0 0
0.210754 0.128451 0.271932 0.8 0 0
0.267146 0.136719 0.066341 0.8 0 0
0.139131 0.646896 0.052417 0.8 0 0
0.814218 0.774480 0.052417 0.8 0 0
0.821388 0.311387 0.025000 0.8 0 0
0.245488 0.747914 0.058079 0.8 0 0
0.240878 0.430410 0.158983 0.8 0 0
0.896174 0.689851 0.031530 0.8 0 0
0.663822 0.401910 0.189174 0.8 0 0
0.786506 0.451617 0.042184 0.8 0 0
0.282483 0.421727 0.263328 0.8 0 0
0.147776 0.304325 0.264282 0.8 0 0
0.876527 0.428998 0.052417 0.8 0 0
0.627494 0.417657 0.263328 0.8 0 0
0.660110 0.136719 0.087315 0.8 0 0
0.173453 0.411085 0.291699 0.8 0 0
0.495201 0.746182 0.051161 0.8 0 0
0.201796 0.719415 0.113103 0.8 0 0
0.100323 0.401910 0.065857 0.8 0 0
0.469658 0.430410 0.094310 0.8 0 0
0.755844 0.719415 0.090169 0.8 0 0
0.156418 0.766538 0.291699 0.8 0 0
0.117242 0.686403 0.025000 0.8 0 0
0.210754 0.412250 0.291636 0.8 0 0
0.158800 0.490123 0.052417 0.8 0 0
0.896173 0.576639 0.044305 0.8 0 0
0.173892 0.038581 0.052417 0.8 0 0
0.059008 0.401910 0.061824 0.8 0 0
0.879364 0.702197 0.052417 0.8 0 0
0.917274 0.430410 0.206838 0.8 0 0
0.205657 0.078088 0.291699 0.8 0 0
0.807219 0.401910 0.148678 0.8 0 0
0.618390 0.747914 0.085114 0.8 0 0
0.872597 0.401910 0.232156 0.8 0 0
0.421676 0.401910 0.205757 0.8 0 0
0.112105 0.665090 0.291699 0.8 0 0
0.096351 0.136719 0.062665 0.8 0 0
0.173065 0.430410 0.139456 0.8 0 0
0.857058 0.517192 0.052417 0.8 0 0
0.098786 0.401910 0.251427 0.8 0 0
0.028943 0.719415 0.171767 0.8 0 0
0.039409 0.430410 0.058509 0.8 0 0
0.262942 0.401910 0.115912 0.8 0 0
0.842293 0.645242 0.264271 0.8 0 0
0.896174 0.450571 0.031413 0.8 0 0
0.700932 0.722842 0.263328 0.8 0 0
0.198491 0.430410 0.117979 0.8 0 0
0.899647 0.747914 0.122052 0.8 0 0
0.475283 0.726482 0.051161 0.8 0 0
0.196349 0.671285 0.052417 0.8 0 0
0.192868 0.672544 0.264282 0.8 0 0
0.319419 0.747914 0.145974 0.8 0 0
0.553534 0.136719 0.181274 0.8 0 0
0.418081 0.108219 0.153827 0.8 0 0
0.357660 0.430410 0.248144 0.8 0 0
0.566783 0.747914 0.142877 0.8 0 0
0.843657 0.619781 0.052417 0.8 0 0
0.586962 0.136719 0.068312 0.8 0 0
0.623638 0.401910 0.184201 0.8 0 0
0.137340 0.137886 0.291699 0.8 0 0
0.620970 0.719415 0.085735 0.8 0 0
0.117714 0.218904 0.291699 0.8 0 0
0.248272 0.133304 0.263328 0.8 0 0
0.165397 0.391401 0.264282 0.8 0 0
0.128938 0.719415 0.074799 0.8 0 0
0.834940 0.717292 0.291688 0.8 0 0
0.597632 0.401910 0.056197 0.8 0 0
0.141129 0.163789 0.291699 0.8 0 0
0.750249 0.401994 0.051158 0.8 0 0
0.843836 0.108219 0.100943 0.8 0 0
0.168486 0.537108 0.052417 0.8 0 0
0.127521 0.025000 0.048320 0.8 0 0
0.744508 0.405228 0.051158 0.8 0 0
0.221599 0.401910 0.104789 0.8 0 0
0.202608 0.412957 0.263328 0.8 0 0
0.114240 0.077925 0.025000 0.8 0 0
0.181198 0.676829 0.052417 0.8 0 0
0.632538 0.747914 0.112522 0.8 0 0
0.210754 0.386463 0.277504 0.8 0 0
0.896173 0.633595 0.040477 0.8 0 0
0.881787 0.747914 0.151573 0.8 0 0
0.730388 0.719415 0.144068 0.8 0 0
0.322840 0.108219 0.196355 0.8 0 0
0.189518 0.423198 0.052417 0.8 0 0
0.758048 0.747915 0.224069 0.8 0 0
0.360154 0.136719 0.197657 0.8 0 0
0.101087 0.744407 0.039109 0.8 0 0
0.955631 0.133715 0.051156 0.8 0 0
0.557245 0.747914 0.210724 0.8 0 0
0.917883 0.136719 0.069344 0.8 0 0
0.136795 0.430410 0.087865 0.8 0 0
0.204914 0.574567 0.264282 0.8 0 0
0.101087 0.289417 0.291672 0.8 0 0
0.183082 0.146295 0.025000 0.8 0 0
0.375810 0.430410 0.162109 0.8 0 0
0.658806 0.430410 0.091264 0.8 0 0
0.844224 0.078886 0.025000 0.8 0 0
0.604300 0.401910 0.186739 0.8 0 0
0.110010 0.182029 0.025000 0.8 0 0
0.069533 0.719415 0.061189 0.8 0 0
0.199334 0.540929 0.052417 0.8 0 0
0.242009 0.416970 0.263328 0.8 0 0
0.790118 0.125609 0.264271 0.8 0 0
0.825226 0.511721 0.025000 0.8 0 0
0.739173 0.108219 0.083040 0.8 0 0
0.786507 0.247999 0.042946 0.8 0 0
0.333220 0.401910 0.168941 0.8 0 0
0.101087 0.328901 0.041288 0.8 0 0
0.897095 0.430410 0.083370 0.8 0 0
0.786507 0.247696 0.031459 0.8 0 0
0.965083 0.719415 0.062157 0.8 0 0
0.032451 0.430410 0.056042 0.8 0 0
0.795777 0.788294 0.032141 0.8 0 0
0.944644 0.108219 0.156293 0.8 0 0
0.915157 0.747914 0.055747 0.8 0 0
0.954211 0.719415 0.132361 0.8 0 0
0.152428 0.500746 0.264282 0.8 0 0
0.890630 0.747915 0.197534 0.8 0 0
0.073389 0.136719 0.135883 0.8 0 0
0.145256 0.761948 0.025000 0.8 0 0
0.363372 0.401910 0.110938 0.8 0 0
0.825455 0.430410 0.196918 0.8 0 0
0.689422 0.747915 0.251802 0.8 0 0
0.614563 0.401910 0.170001 0.8 0 0
0.435940 0.401910 0.170694 0.8 0 0
0.824159 0.383624 0.025000 0.8 0 0
0.210754 0.238006 0.026521 0.8 0 0
0.159728 0.678321 0.264282 0.8 0 0
0.101087 0.392775 0.269614 0.8 0 0
0.219395 0.719415 0.162707 0.8 0 0
0.810465 0.430410 0.089230 0.8 0 0
0.449509 0.430410 0.256018 0.8 0 0
0.391842 0.719415 0.060162 0.8 0 0
0.791199 0.336029 0.264271 0.8 0 0
0.806066 0.461658 0.291688 0.8 0 0
0.252533 0.108219 0.196906 0.8 0 0
0.154215 0.402722 0.052417 0.8 0 0
0.132272 0.108219 0.139851 0.8 0 0
0.168918 0.028704 0.025000 0.8 0 0
0.812609 0.427204 0.264271 0.8 0 0
0.565856 0.747914 0.246395 0.8 0 0
0.734853 0.747914 0.118627 0.8 0 0
0.875363 0.142786 0.025000 0.8 0 0
0.431910 0.136719 0.199483 0.8 0 0
0.716095 0.401910 0.246920 0.8 0 0
0.449711 0.108219 0.148537 0.8 0 0
0.797187 0.430410 0.139652 0.8 0 0
0.153439 0.246765 0.291699 0.8 0 0
0.626886 0.136719 0.230577 0.8 0 0
0.844445 0.719415 0.086271 0.8 0 0
0.043178 0.401910 0.234282 0.8 0 0
0.070373 0.136719 0.107050 0.8 0 0
0.896172 0.686683 0.051946 0.8 0 0
0.834765 0.339547 0.052417 0.8 0 0
0.852409 0.614703 0.052417 0.8 0 0
0.102381 0.430410 0.188730 0.8 0 0
0.379752 0.430410 0.230971 0.8 0 0
0.855291 0.365451 0.052417 0.8 0 0
0.372504 0.430410 0.209947 0.8 0 0
0.885907 0.720740 0.052417 0.8 0 0
0.127025 0.401910 0.097532 0.8 0 0
0.124257 0.221723 0.025000 0.8 0 0
0.894550 0.319630 0.052417 0.8 0 0
0.756278 0.401910 0.247503 0.8 0 0
0.409209 0.719415 0.128647 0.8 0 0
0.388247 0.719415 0.157466 0.8 0 0
0.858290 0.707510 0.025000 0.8 0 0
0.808757 0.548756 0.264271 0.8 0 0
0.347078 0.401910 0.128136 0.8 0 0
0.646397 0.430410 0.238683 0.8 0 0
0.805049 0.449474 0.291688 0.8 0 0
0.363778 0.430410 0.145158 0.8 0 0
0.839662 0.736854 0.263328 0.8 0 0
0.139028 0.108219 0.208964 0.8 0 0
0.433476 0.108219 0.141564 0.8 0 0
0.221192 0.430410 0.136237 0.8 0 0
0.487373 0.401910 0.094387 0.8 0 0
0.382246 0.719415 0.146951 0.8 0 0
0.119163 0.683911 0.052417 0.8 0 0
0.339366 0.430410 0.206683 0.8 0 0
0.642483 0.430410 0.263315 0.8 0 0
0.829376 0.525974 0.052417 0.8 0 0
0.472645 0.430410 0.110607 0.8 0 0
0.121342 0.747914 0.109782 0.8 0 0
0.815800 0.719415 0.104058 0.8 0 0
0.792802 0.236120 0.025000 0.8 0 0
0.868568 0.136719 0.253499 0.8 0 0
0.140274 0.401910 0.165621 0.8 0 0
0.727982 0.430410 0.091730 0.8 0 0
0.820033 0.719415 0.120731 0.8 0 0
0.294022 0.401910 0.243760 0.8 0 0
0.281149 0.401910 0.149892 0.8 0 0
0.709195 0.126315 0.051159 0.8 0 0
0.851188 0.594393 0.025000 0.8 0 0
0.492591 0.719415 0.087867 0.8 0 0
0.169333 0.637811 0.052417 0.8 0 0
0.584643 0.719415 0.098439 0.8 0 0
0.530572 0.747914 0.256419 0.8 0 0
0.164831 0.747914 0.080334 0.8 0 0
0.311272 0.430410 0.153155 0.8 0 0
0.871524 0.430410 0.081544 0.8 0 0
0.203073 0.615961 0.264282 0.8 0 0
0.880270 0.657704 0.264271 0.8 0 0
0.068315 0.747914 0.198333 0.8 0 0
0.162483 0.401910 0.207824 0.8 0 0
0.772021 0.108219 0.085475 0.8 0 0
0.101087 0.046035 0.036886 0.8 0 0
0.168455 0.136719 0.141547 0.8 0 0
0.448668 0.108219 0.238735 0.8 0 0
0.410949 0.131012 0.263328 0.8 0 0
0.786808 0.127729 0.291688 0.8 0 0
0.227774 0.108219 0.117389 0.8 0 0
0.882338 0.747914 0.054673 0.8 0 0
0.815772 0.145389 0.025000 0.8 0 0
0.653616 0.108219 0.088157 0.8 0 0
0.377723 0.108219 0.061652 0.8 0 0
0.700468 0.136719 0.129421 0.8 0 0
0.909186 0.719415 0.177202 0.8 0 0
0.588847 0.747914 0.178678 0.8 0 0
0.679160 0.136719 0.244757 0.8 0 0
0.816989 0.747915 0.210439 0.8 0 0
0.786507 0.783961 0.265249 0.8 0 0
0.032103 0.430410 0.139710 0.8 0 0
0.353601 0.719415 0.223829 0.8 0 0
0.038626 0.136719 0.123685 0.8 0 0
0.284222 0.747914 0.247755 0.8 0 0
0.832993 0.747914 0.153930 0.8 0 0
0.046628 0.401910 0.056081 0.8 0 0
0.481023 0.124839 0.051161 0.8 0 0
0.210754 0.654746 0.025642 0.8 0 0
0.154393 0.368502 0.264282 0.8 0 0
0.101087 0.690550 0.051604 0.8 0 0
0.819279 0.108219 0.086232 0.8 0 0
0.122154 0.123325 0.263328 0.8 0 0
0.974999 0.117416 0.109005 0.8 0 0
0.340526 0.401910 0.213676 0.8 0 0
0.189990 0.731805 0.025000 0.8 0 0
0.921478 0.719415 0.148024 0.8 0 0
0.718560 0.719415 0.180342 0.8 0 0
0.675157 0.747914 0.122201 0.8 0 0
0.210754 0.545332 0.275424 0.8 0 0
0.197737 0.108219 0.197295 0.8 0 0
0.732563 0.719415 0.189608 0.8 0 0
0.156685 0.788294 0.029568 0.8 0 0
0.114505 0.713939 0.291699 0.8 0 0
0.196085 0.136719 0.101422 0.8 0 0
0.097017 0.108219 0.055025 0.8 0 0
0.803997 0.253289 0.025000 0.8 0 0
0.786506 0.743219 0.035654 0.8 0 0
0.054949 0.401910 0.193891 0.8 0 0
0.077650 0.136719 0.210499 0.8 0 0
0.698788 0.127319 0.263328 0.8 0 0
0.204328 0.508130 0.264282 0.8 0 0
0.101087 0.099473 0.034310 0.8 0 0
0.505783 0.739388 0.051161 0.8 0 0
0.356269 0.136719 0.072426 0.8 0 0
0.132849 0.691715 0.291699 0.8 0 0
0.423560 0.404247 0.263328 0.8 0 0
0.101087 0.064251 0.273099 0.8 0 0
0.452060 0.430410 0.086178 0.8 0 0
0.850569 0.528912 0.025000 0.8 0 0
0.796758 0.429185 0.291688 0.8 0 0
0.786507 0.165513 0.280014 0.8 0 0
0.453886 0.747914 0.178814 0.8 0 0
0.922608 0.430410 0.060273 0.8 0 0
0.305706 0.430410 0.238049 0.8 0 0
0.254302 0.719415 0.210419 0.8 0 0
0.256100 0.747914 0.238729 0.8 0 0
0.285556 0.430410 0.185394 0.8 0 0
0.135172 0.706181 0.052417 0.8 0 0
0.974999 0.120175 0.122642 0.8 0 0
0.819830 0.430410 0.145363 0.8 0 0
0.036539 0.430410 0.167034 0.8 0 0
0.101087 0.508340 0.280492 0.8 0 0
0.025000 0.109131 0.198955 0.8 0 0
0.796774 0.649669 0.025000 0.8 0 0
0.631176 0.401910 0.249568 0.8 0 0
0.465222 0.747914 0.115444 0.8 0 0
0.709457 0.136719 0.249795 0.8 0 0
0.025000 0.426788 0.091097 0.8 0 0
0.214640 0.747914 0.069482 0.8 0 0
0.879804 0.441559 0.025000 0.8 0 0
0.974999 0.115819 0.201995 0.8 0 0
0.163185 0.284385 0.264282 0.8 0 0
0.514046 0.108219 0.209934 0.8 0 0
0.363314 0.401910 0.232526 0.8 0 0
0.170050 0.719415 0.138051 0.8 0 0
0.969519 0.108219 0.119475 0.8 0 0
0.698758 0.401910 0.204779 0.8 0 0
0.882000 0.093556 0.052417 0.8 0 0
0.722299 0.430410 0.248506 0.8 0 0
0.116944 0.682094 0.025000 0.8 0 0
0.841488 0.401910 0.137127 0.8 0 0
0.111790 0.705412 0.264282 0.8 0 0
0.587832 0.136719 0.170720 0.8 0 0
0.911678 0.401910 0.234714 0.8 0 0
0.628016 0.108219 0.137677 0.8 0 0
0.198484 0.196588 0.291699 0.8 0 0
0.896174 0.387652 0.034284 0.8 0 0
0.957371 0.719415 0.199567 0.8 0 0
0.797391 0.401910 0.070025 0.8 0 0
0.868304 0.261331 0.025000 0.8 0 0
0.614128 0.425393 0.263328 0.8 0 0
0.648223 0.430410 0.243190 0.8 0 0
0.867552 0.211310 0.291688 0.8 0 0
0.540459 0.719415 0.258841 0.8 0 0
0.674838 0.136719 0.100938 0.8 0 0
0.881629 0.788294 0.271093 0.8 0 0
0.924639 0.401910 0.083674 0.8 0 0
0.137223 0.231274 0.052417 0.8 0 0
0.156800 0.725709 0.051165 0.8 0 0
0.892079 0.430410 0.258083 0.8 0 0
0.147033 0.496040 0.264282 0.8 0 0
0.895124 0.719415 0.219640 0.8 0 0
0.209780 0.034318 0.052417 0.8 0 0
0.135838 0.719415 0.069586 0.8 0 0
0.153670 0.607202 0.264282 0.8 0 0
0.224237 0.108219 0.256652 0.8 0 0
0.873094 0.128381 0.264271 0.8 0 0
0.053384 0.136719 0.053814 0.8 0 0
0.715979 0.719415 0.051184 0.8 0 0
0.413529 0.108219 0.084300 0.8 0 0
0.101087 0.727892 0.285088 0.8 0 0
0.881933 0.130897 0.052417 0.8 0 0
0.357080 0.747914 0.191505 0.8 0 0
0.113108 0.136719 0.076735 0.8 0 0
0.202231 0.401910 0.191753 0.8 0 0
0.220149 0.747914 0.069268 0.8 0 0
0.901474 0.136719 0.201173 0.8 0 0
0.407267 0.135517 0.263328 0.8 0 0
0.608417 0.136719 0.190346 0.8 0 0
0.288890 0.108219 0.201160 0.8 0 0
0.659762 0.430410 0.056164 0.8 0 0
0.174330 0.589684 0.025000 0.8 0 0
0.840006 0.293522 0.025000 0.8 0 0
0.173152 0.108219 0.154387 0.8 0 0
0.974302 0.401910 0.225481 0.8 0 0
0.320782 0.136719 0.255506 0.8 0 0
0.149813 0.733409 0.051165 0.8 0 0
0.178110 0.430410 0.187855 0.8 0 0
0.139810 0.043240 0.052417 0.8 0 0
0.189307 0.778045 0.264282 0.8 0 0
0.806929 0.136719 0.128307 0.8 0 0
0.274597 0.108219 0.075619 0.8 0 0
0.042830 0.134932 0.051166 0.8 0 0
0.188711 0.178535 0.264282 0.8 0 0
0.901792 0.747914 0.083862 0.8 0 0
0.575626 0.719415 0.139671 0.8 0 0
0.412833 0.719415 0.065679 0.8 0 0
0.852331 0.719415 0.152298 0.8 0 0
0.178544 0.293773 0.264282 0.8 0 0
0.143612 0.680254 0.052417 0.8 0 0
0.962909 0.401910 0.132400 0.8 0 0
0.204378 0.344789 0.264282 0.8 0 0
0.086319 0.719415 0.091951 0.8 0 0
0.758976 0.124131 0.263328 0.8 0 0
0.786507 0.655003 0.273140 0.8 0 0
0.155183 0.164861 0.025000 0.8 0 0
0.149024 0.413461 0.025000 0.8 0 0
0.647469 0.108219 0.103476 0.8 0 0
0.617869 0.747915 0.251880 0.8 0 0
0.938556 0.124381 0.263328 0.8 0 0
0.617433 0.719415 0.051535 0.8 0 0
0.188725 0.583465 0.291699 0.8 0 0
0.715167 0.136719 0.067326 0.8 0 0
0.892514 0.108219 0.068891 0.8 0 0
0.885963 0.136719 0.173938 0.8 0 0
0.603633 0.719415 0.149391 0.8 0 0
0.680319 0.401910 0.112793 0.8 0 0
0.321217 0.136719 0.234455 0.8 0 0
0.131293 0.331208 0.291699 0.8 0 0
0.857775 0.512024 0.025000 0.8 0 0
0.621638 0.401910 0.125575 0.8 0 0
0.185097 0.123190 0.263328 0.8 0 0
0.137581 0.268010 0.291699 0.8 0 0
0.805451 0.747769 0.263328 0.8 0 0
0.160569 0.747914 0.129815 0.8 0 0
0.362705 0.136719 0.138800 0.8 0 0
0.640540 0.719415 0.110735 0.8 0 0
0.477225 0.108219 0.143318 0.8 0 0
0.150266 0.303860 0.264282 0.8 0 0
0.326203 0.108219 0.052801 0.8 0 0
0.883342 0.616357 0.291688 0.8 0 0
0.106117 0.030195 0.025000 0.8 0 0
0.861330 0.163393 0.264271 0.8 0 0
0.141405 0.136719 0.233121 0.8 0 0
0.739667 0.136719 0.209370 0.8 0 0
0.141664 0.308053 0.052417 0.8 0 0
0.817676 0.630312 0.025000 0.8 0 0
0.786507 0.508479 0.267544 0.8 0 0
0.821959 0.580273 0.052417 0.8 0 0
0.793063 0.531868 0.025000 0.8 0 0
0.786507 0.683701 0.265228 0.8 0 0
0.350035 0.401910 0.233950 0.8 0 0
0.104758 0.108219 0.102971 0.8 0 0
0.837922 0.719415 0.243715 0.8 0 0
0.121125 0.279307 0.025000 0.8 0 0
0.699917 0.747914 0.135106 0.8 0 0
0.066923 0.108219 0.056644 0.8 0 0
0.136302 0.136719 0.231367 0.8 0 0
0.725721 0.136719 0.191784 0.8 0 0
0.384681 0.430410 0.236139 0.8 0 0
0.610823 0.747914 0.063216 0.8 0 0
0.712500 0.409205 0.051159 0.8 0 0
0.790988 0.250725 0.025000 0.8 0 0
0.657501 0.747914 0.128573 0.8 0 0
0.101087 0.718667 0.266478 0.8 0 0
0.893988 0.203506 0.264271 0.8 0 0
0.248996 0.401910 0.189920 0.8 0 0
0.693510 0.136719 0.198071 0.8 0 0
0.791563 0.719415 0.189317 0.8 0 0
0.274713 0.108219 0.120749 0.8 0 0
0.078578 0.401910 0.204711 0.8 0 0
0.471659 0.401910 0.172954 0.8 0 0
0.660951 0.136719 0.128929 0.8 0 0
0.786507 0.315717 0.040340 0.8 0 0
0.643353 0.720699 0.263328 0.8 0 0
0.109716 0.136719 0.152989 0.8 0 0
0.179742 0.573099 0.052417 0.8 0 0
0.124792 0.401910 0.112191 0.8 0 0
0.210754 0.194166 0.270955 0.8 0 0
0.786507 0.205347 0.042917 0.8 0 0
0.089653 0.108219 0.210933 0.8 0 0
0.832459 0.765932 0.025000 0.8 0 0
0.154075 0.747914 0.087081 0.8 0 0
0.301821 0.414682 0.263328 0.8 0 0
0.786996 0.603428 0.264271 0.8 0 0
0.683711 0.108219 0.208257 0.8 0 0
0.194160 0.711934 0.025000 0.8 0 0
0.025000 0.134572 0.166069 0.8 0 0
0.210929 0.136719 0.210394 0.8 0 0
0.722328 0.136719 0.138189 0.8 0 0
0.365170 0.401910 0.084774 0.8 0 0
0.130610 0.632034 0.025000 0.8 0 0
0.137259 0.719415 0.223603 0.8 0 0
0.874617 0.372928 0.264271 0.8 0 0
0.666605 0.719415 0.126702 0.8 0 0
0.341279 0.747914 0.199275 0.8 0 0
0.206838 0.689829 0.264282 0.8 0 0
0.832428 0.653465 0.052417 0.8 0 0
0.872984 0.051835 0.291688 0.8 0 0
0.829933 0.077320 0.264271 0.8 0 0
0.676579 0.108219 0.258064 0.8 0 0
0.103406 0.067816 0.291699 0.8 0 0
0.896174 0.676107 0.274791 0.8 0 0
0.025000 0.115855 0.141141 0.8 0 0
0.488301 0.136719 0.053887 0.8 0 0
0.823654 0.653162 0.264271 0.8 0 0
0.101087 0.250771 0.274455 0.8 0 0
0.518250 0.401910 0.111759 0.8 0 0
0.834704 0.747915 0.196925 0.8 0 0
0.476037 0.401910 0.121744 0.8 0 0
0.194722 0.136719 0.202055 0.8 0 0
0.550373 0.108219 0.059487 0.8 0 0
0.744131 0.401910 0.079117 0.8 0 0
0.427504 0.401910 0.194730 0.8 0 0
0.135780 0.136719 0.161633 0.8 0 0
0.860336 0.181377 0.291688 0.8 0 0
0.034249 0.401910 0.193270 0.8 0 0
0.644803 0.401910 0.141336 0.8 0 0
0.025000 0.413529 0.238186 0.8 0 0
0.141840 0.747914 0.128721 0.8 0 0
0.092089 0.719415 0.132593 0.8 0 0
0.795908 0.754657 0.291688 0.8 0 0
0.210754 0.165699 0.052213 0.8 0 0
0.956241 0.108219 0.197605 0.8 0 0
0.123140 0.136719 0.216306 0.8 0 0
0.307387 0.416493 0.051163 0.8 0 0
0.301183 0.136719 0.053138 0.8 0 0
0.896174 0.399466 0.025756 0.8 0 0
0.734679 0.425761 0.051158 0.8 0 0
0.344643 0.401910 0.141040 0.8 0 0
0.593427 0.136719 0.087698 0.8 0 0
0.157927 0.615775 0.264282 0.8 0 0
0.777357 0.108219 0.193428 0.8 0 0
0.181305 0.177090 0.264282 0.8 0 0
0.114558 0.426296 0.264282 0.8 0 0
0.450146 0.430410 0.107020 0.8 0 0
0.101087 0.140541 0.038398 0.8 0 0
0.255201 0.108219 0.208645 0.8 0 0
0.860065 0.738980 0.291688 0.8 0 0
0.838588 0.430410 0.205472 0.8 0 0
0.165561 0.452223 0.264282 0.8 0 0
0.873834 0.455997 0.264271 0.8 0 0
0.167292 0.137210 0.291699 0.8 0 0
0.728446 0.401910 0.198531 0.8 0 0
0.210754 0.341597 0.025156 0.8 0 0
0.342149 0.719415 0.232351 0.8 0 0
0.912577 0.426545 0.051156 0.8 0 0
0.955892 0.108219 0.099946 0.8 0 0
0.195891 0.463684 0.264282 0.8 0 0
0.906170 0.719415 0.072653 0.8 0 0
0.341308 0.430410 0.127715 0.8 0 0
0.961575 0.136719 0.101235 0.8 0 0
0.685015 0.108219 0.090403 0.8 0 0
0.824701 0.747915 0.218332 0.8 0 0
0.203039 0.532613 0.264282 0.8 0 0
0.302197 0.736025 0.051163 0.8 0 0
0.535819 0.719415 0.159880 0.8 0 0
0.223599 0.136719 0.118937 0.8 0 0
0.045382 0.719415 0.091777 0.8 0 0
0.294225 0.726107 0.263328 0.8 0 0
0.161347 0.266472 0.291699 0.8 0 0
0.325797 0.108219 0.150274 0.8 0 0
0.377259 0.719415 0.125591 0.8 0 0
0.130603 0.554719 0.264282 0.8 0 0
0.193558 0.541279 0.291699 0.8 0 0
0.204003 0.724840 0.052417 0.8 0 0
0.210754 0.674314 0.025564 0.8 0 0
0.148840 0.768517 0.025000 0.8 0 0
0.896174 0.492825 0.269346 0.8 0 0
0.163242 0.050205 0.025000 0.8 0 0
0.249693 0.108219 0.263211 0.8 0 0
0.786507 0.222329 0.290428 0.8 0 0
0.071562 0.747914 0.141976 0.8 0 0
0.691364 0.430410 0.204851 0.8 0 0
0.890772 0.295823 0.264271 0.8 0 0
0.205265 0.025000 0.038573 0.8 0 0
0.974999 0.136382 0.118083 0.8 0 0
0.045208 0.719415 0.124636 0.8 0 0
0.658197 0.722637 0.263328 0.8 0 0
0.122641 0.452246 0.052417 0.8 0 0
0.865955 0.292329 0.264271 0.8 0 0
0.348818 0.732442 0.051163 0.8 0 0
0.396830 0.136719 0.259974 0.8 0 0
0.824817 0.747914 0.163843 0.8 0 0
0.146769 0.108219 0.092617 0.8 0 0
0.432490 0.430410 0.151023 0.8 0 0
0.570320 0.747914 0.108184 0.8 0 0
0.550084 0.430410 0.090599 0.8 0 0
0.885882 0.570632 0.025000 0.8 0 0
0.523497 0.108219 0.113073 0.8 0 0
0.649789 0.401910 0.199509 0.8 0 0
0.373114 0.719415 0.248565 0.8 0 0
0.251171 0.430410 0.185057 0.8 0 0
0.059008 0.430410 0.153326 0.8 0 0
0.131370 0.439341 0.264282 0.8 0 0
0.797113 0.770520 0.264271 0.8 0 0
0.567335 0.401910 0.136311 0.8 0 0
0.101087 0.308402 0.034293 0.8 0 0
0.571045 0.401910 0.237887 0.8 0 0
0.507030 0.401910 0.149902 0.8 0 0
0.189070 0.567485 0.264282 0.8 0 0
0.815658 0.114661 0.264271 0.8 0 0
0.214640 0.747914 0.218585 0.8 0 0
0.322579 0.430410 0.188695 0.8 0 0
0.720792 0.719415 0.068595 0.8 0 0
0.504449 0.719415 0.105258 0.8 0 0
0.896174 0.169846 0.274821 0.8 0 0
0.143676 0.255290 0.052417 0.8 0 0
0.189347 0.288672 0.025000 0.8 0 0
0.025000 0.119436 0.159135 0.8 0 0
0.131084 0.739842 0.051165 0.8 0 0
0.758598 0.136719 0.115312 0.8 0 0
0.480937 0.108219 0.199580 0.8 0 0
0.525788 0.401910 0.084144 0.8 0 0
0.814599 0.740447 0.052417 0.8 0 0
0.814322 0.725193 0.263328 0.8 0 0
0.726214 0.719415 0.246214 0.8 0 0
0.155524 0.430410 0.169014 0.8 0 0
0.625987 0.108219 0.240270 0.8 0 0
0.473254 0.401910 0.135988 0.8 0 0
0.802344 0.411203 0.025000 0.8 0 0
0.649992 0.108219 0.173213 0.8 0 0
0.845200 0.136719 0.234203 0.8 0 0
0.772340 0.427488 0.051158 0.8 0 0
0.826900 0.371577 0.291688 0.8 0 0
0.507088 0.719415 0.251446 0.8 0 0
0.208766 0.258855 0.264282 0.8 0 0
0.356790 0.430410 0.100197 0.8 0 0
0.786507 0.146971 0.288178 0.8 0 0
0.122096 0.719415 0.213697 0.8 0 0
0.401352 0.722043 0.263328 0.8 0 0
0.127055 0.165070 0.025000 0.8 0 0
0.850020 0.262145 0.025000 0.8 0 0
0.207973 0.091390 0.291699 0.8 0 0
