0.449194 0.673144 0.055622 0.8 0 0
0.331216 0.750738 0.069515 0.8 0 0
0.025000 0.205358 0.180097 0.8 0 0
0.055622 0.474361 0.066543 0.8 0 0
0.431484 0.327510 0.025000 0.8 0 0
0.903728 0.904953 0.025000 0.8 0 0
0.668053 0.228937 0.070585 0.8 0 0
0.652742 0.129335 0.032426 0.8 0 0
0.483739 0.659475 0.040311 0.8 0 0
0.346527 0.166931 0.040579 0.8 0 0
0.316725 0.400179 0.055622 0.8 0 0
0.661050 0.762345 0.025000 0.8 0 0
0.331216 0.433626 0.061856 0.8 0 0
0.954570 0.974272 0.181994 0.8 0 0
0.580918 0.668354 0.065879 0.8 0 0
0.492023 0.476464 0.025000 0.8 0 0
0.974269 0.202162 0.121063 0.8 0 0
0.289607 0.362370 0.075374 0.8 0 0
0.849028 0.637519 0.044783 0.8 0 0
0.361837 0.101991 0.159631 0.8 0 0
0.593671 0.592560 0.025000 0.8 0 0
0.528264 0.639875 0.025000 0.8 0 0
0.664457 0.025234 0.148347 0.8 0 0
0.893101 0.357289 0.040311 0.8 0 0
0.278112 0.362379 0.137623 0.8 0 0
0.085729 0.623642 0.025000 0.8 0 0
0.919309 0.668085 0.095340 0.8 0 0
0.657648 0.137269 0.025000 0.8 0 0
0.438444 0.637846 0.135221 0.8 0 0
0.943647 0.515770 0.152524 0.8 0 0
0.331216 0.770195 0.163112 0.8 0 0
0.198139 0.025606 0.114825 0.8 0 0
0.361837 0.703217 0.097579 0.8 0 0
0.246748 0.419495 0.025000 0.8 0 0
0.803902 0.566636 0.055622 0.8 0 0
0.938062 0.943970 0.055622 0.8 0 0
0.608380 0.223236 0.025000 0.8 0 0
0.599173 0.637718 0.073435 0.8 0 0
0.411897 0.419841 0.025000 0.8 0 0
0.025000 0.445821 0.070234 0.8 0 0
0.553935 0.664378 0.055622 0.8 0 0
0.972419 0.222152 0.193419 0.8 0 0
0.107905 0.357929 0.025000 0.8 0 0
0.065534 0.209919 0.055622 0.8 0 0
0.645029 0.241749 0.040311 0.8 0 0
0.133586 0.366629 0.055622 0.8 0 0
0.693684 0.117747 0.055622 0.8 0 0
0.711993 0.362034 0.115522 0.8 0 0
0.117367 0.974939 0.046170 0.8 0 0
0.707216 0.815117 0.025000 0.8 0 0
0.798164 0.853788 0.025000 0.8 0 0
0.102024 0.331898 0.114227 0.8 0 0
0.863639 0.361913 0.108536 0.8 0 0
0.331216 0.655977 0.082706 0.8 0 0
0.055622 0.455269 0.096990 0.8 0 0
0.361837 0.376236 0.078533 0.8 0 0
0.943647 0.380638 0.117998 0.8 0 0
0.179191 0.261215 0.025000 0.8 0 0
0.750014 0.331382 0.062034 0.8 0 0
0.370334 0.025468 0.122400 0.8 0 0
0.025000 0.072861 0.098345 0.8 0 0
0.668053 0.552918 0.046465 0.8 0 0
0.210799 0.362433 0.163500 0.8 0 0
0.278615 0.334453 0.025000 0.8 0 0
0.346527 0.076777 0.033954 0.8 0 0
0.025000 0.337295 0.123610 0.8 0 0
0.240933 0.638766 0.040311 0.8 0 0
0.827504 0.647132 0.193419 0.8 0 0
0.668053 0.918504 0.191844 0.8 0 0
0.361837 0.052059 0.134184 0.8 0 0
0.492948 0.165473 0.025000 0.8 0 0
0.488855 0.954259 0.025000 0.8 0 0
0.640073 0.668307 0.059113 0.8 0 0
0.663209 0.317165 0.055622 0.8 0 0
0.803976 0.346892 0.035268 0.8 0 0
0.690656 0.423682 0.025000 0.8 0 0
0.785090 0.684134 0.025000 0.8 0 0
0.055622 0.342145 0.040731 0.8 0 0
0.055622 0.419860 0.104195 0.8 0 0
0.348424 0.641622 0.193419 0.8 0 0
0.542823 0.687274 0.025000 0.8 0 0
0.198302 0.093823 0.025000 0.8 0 0
0.041727 0.359050 0.193419 0.8 0 0
0.879075 0.150941 0.055622 0.8 0 0
0.846733 0.361926 0.096752 0.8 0 0
0.331216 0.403263 0.187644 0.8 0 0
0.954234 0.025003 0.136137 0.8 0 0
0.098912 0.331900 0.062884 0.8 0 0
0.256369 0.025559 0.137936 0.8 0 0
0.707175 0.331416 0.160304 0.8 0 0
0.336566 0.154810 0.193419 0.8 0 0
0.701909 0.055826 0.130063 0.8 0 0
0.513171 0.726982 0.055622 0.8 0 0
0.923166 0.890403 0.055622 0.8 0 0
0.974269 0.656398 0.088322 0.8 0 0
0.126586 0.361517 0.025000 0.8 0 0
0.796846 0.865124 0.055622 0.8 0 0
0.886215 0.431541 0.055622 0.8 0 0
0.381544 0.232011 0.025000 0.8 0 0
0.709647 0.055820 0.104186 0.8 0 0
0.695971 0.026802 0.040311 0.8 0 0
0.040311 0.754541 0.036309 0.8 0 0
0.126091 0.230254 0.055622 0.8 0 0
0.331216 0.584458 0.172616 0.8 0 0
0.340324 0.657799 0.040311 0.8 0 0
0.361837 0.638174 0.052226 0.8 0 0
0.060760 0.056337 0.189854 0.8 0 0
0.361837 0.727889 0.044951 0.8 0 0
0.445265 0.331625 0.082598 0.8 0 0
0.834760 0.794380 0.025000 0.8 0 0
0.197676 0.070291 0.025000 0.8 0 0
0.943647 0.324594 0.168640 0.8 0 0
0.943647 0.856657 0.153384 0.8 0 0
0.715226 0.055815 0.106223 0.8 0 0
0.264906 0.122475 0.025000 0.8 0 0
0.761908 0.974425 0.118718 0.8 0 0
0.923387 0.331244 0.093672 0.8 0 0
0.055622 0.957950 0.097294 0.8 0 0
0.822329 0.943756 0.136810 0.8 0 0
0.637431 0.109981 0.051044 0.8 0 0
0.025000 0.914635 0.095074 0.8 0 0
0.943647 0.185481 0.055618 0.8 0 0
0.943647 0.560684 0.076192 0.8 0 0
0.270835 0.025548 0.077958 0.8 0 0
0.859677 0.668132 0.124161 0.8 0 0
0.650535 0.637677 0.083196 0.8 0 0
0.874192 0.025067 0.156094 0.8 0 0
0.534693 0.777045 0.025000 0.8 0 0
0.196142 0.052739 0.040311 0.8 0 0
0.161687 0.532227 0.025000 0.8 0 0
0.055622 0.455325 0.072949 0.8 0 0
0.637431 0.115280 0.129581 0.8 0 0
0.882327 0.371834 0.055622 0.8 0 0
0.053030 0.333276 0.025000 0.8 0 0
0.652742 0.186696 0.037707 0.8 0 0
0.025000 0.295381 0.109671 0.8 0 0
0.623062 0.573085 0.055622 0.8 0 0
0.453215 0.668456 0.174887 0.8 0 0
0.887897 0.051573 0.055622 0.8 0 0
0.294357 0.025529 0.092630 0.8 0 0
0.656461 0.959324 0.056506 0.8 0 0
0.974269 0.140624 0.157342 0.8 0 0
0.361837 0.437579 0.149861 0.8 0 0
0.206142 0.802875 0.025000 0.8 0 0
0.685931 0.974486 0.176523 0.8 0 0
0.571083 0.315184 0.025000 0.8 0 0
0.055622 0.085758 0.100518 0.8 0 0
0.958397 0.076394 0.025000 0.8 0 0
0.043970 0.025728 0.187167 0.8 0 0
0.974269 0.310184 0.186746 0.8 0 0
0.335510 0.056118 0.171817 0.8 0 0
0.668053 0.062712 0.141819 0.8 0 0
0.275709 0.653108 0.052786 0.8 0 0
0.668053 0.857358 0.111377 0.8 0 0
0.522264 0.928279 0.025000 0.8 0 0
0.400262 0.232151 0.055622 0.8 0 0
0.828987 0.361940 0.142936 0.8 0 0
0.025000 0.647090 0.190812 0.8 0 0
0.970417 0.905832 0.193419 0.8 0 0
0.191186 0.025611 0.189461 0.8 0 0
0.688768 0.716039 0.055622 0.8 0 0
0.910727 0.943334 0.025000 0.8 0 0
0.611763 0.106794 0.025000 0.8 0 0
0.025000 0.164202 0.051221 0.8 0 0
0.614353 0.055896 0.133707 0.8 0 0
0.361837 0.620091 0.127857 0.8 0 0
0.601489 0.025284 0.153005 0.8 0 0
0.361837 0.941157 0.133432 0.8 0 0
0.941389 0.784792 0.055622 0.8 0 0
0.974269 0.490931 0.064580 0.8 0 0
0.378600 0.060638 0.055622 0.8 0 0
0.234524 0.207881 0.055622 0.8 0 0
0.943647 0.153548 0.152678 0.8 0 0
0.116602 0.331886 0.135988 0.8 0 0
0.116456 0.192910 0.025000 0.8 0 0
0.974269 0.312483 0.068833 0.8 0 0
0.823358 0.494426 0.055622 0.8 0 0
0.178817 0.069207 0.025000 0.8 0 0
0.331216 0.766887 0.090219 0.8 0 0
0.558273 0.362156 0.153276 0.8 0 0
0.094887 0.349686 0.025000 0.8 0 0
0.047091 0.631754 0.040311 0.8 0 0
0.881321 0.668115 0.169374 0.8 0 0
0.055622 0.481455 0.072052 0.8 0 0
0.724001 0.055808 0.099097 0.8 0 0
0.467211 0.235768 0.055622 0.8 0 0
0.439514 0.362251 0.156351 0.8 0 0
0.371778 0.428261 0.055622 0.8 0 0
0.668053 0.745523 0.054614 0.8 0 0
0.422504 0.040676 0.039851 0.8 0 0
0.351184 0.319660 0.193419 0.8 0 0
0.708837 0.974468 0.131918 0.8 0 0
0.401801 0.637875 0.131007 0.8 0 0
0.906830 0.592298 0.025000 0.8 0 0
0.114836 0.331888 0.128591 0.8 0 0
0.668053 0.943288 0.143081 0.8 0 0
0.344466 0.790044 0.040311 0.8 0 0
0.392739 0.258421 0.025000 0.8 0 0
0.206100 0.974868 0.074370 0.8 0 0
0.941735 0.775185 0.055622 0.8 0 0
0.128984 0.952811 0.040311 0.8 0 0
0.475661 0.056006 0.113494 0.8 0 0
0.630625 0.668314 0.087719 0.8 0 0
0.564355 0.104224 0.055622 0.8 0 0
0.457090 0.346892 0.046832 0.8 0 0
0.207202 0.668651 0.049782 0.8 0 0
0.900466 0.723487 0.055622 0.8 0 0
0.597007 0.326557 0.025000 0.8 0 0
0.100139 0.110298 0.025000 0.8 0 0
0.659321 0.281700 0.025000 0.8 0 0
0.909329 0.668093 0.146071 0.8 0 0
0.553011 0.055945 0.150440 0.8 0 0
0.361837 0.620708 0.120232 0.8 0 0
0.040311 0.408019 0.025835 0.8 0 0
0.791547 0.864909 0.055622 0.8 0 0
0.331216 0.721132 0.090411 0.8 0 0
0.637431 0.891225 0.129044 0.8 0 0
0.943647 0.574673 0.148987 0.8 0 0
0.256270 0.653108 0.025448 0.8 0 0
0.042312 0.056351 0.128652 0.8 0 0
0.772146 0.959324 0.041073 0.8 0 0
0.331216 0.282457 0.124456 0.8 0 0
0.710393 0.139484 0.025000 0.8 0 0
0.661429 0.025237 0.099135 0.8 0 0
0.053488 0.123158 0.055622 0.8 0 0
0.123979 0.499640 0.025000 0.8 0 0
0.214665 0.338911 0.055622 0.8 0 0
0.751873 0.343229 0.040311 0.8 0 0
0.668053 0.694050 0.168827 0.8 0 0
0.171471 0.968911 0.193419 0.8 0 0
0.641388 0.686087 0.025000 0.8 0 0
0.854763 0.974351 0.103943 0.8 0 0
0.040311 0.429822 0.037195 0.8 0 0
0.025000 0.535816 0.070234 0.8 0 0
0.637431 0.558497 0.174756 0.8 0 0
0.229602 0.668634 0.126797 0.8 0 0
0.579186 0.824771 0.055622 0.8 0 0
0.397131 0.413131 0.055622 0.8 0 0
0.551937 0.642617 0.040311 0.8 0 0
0.808759 0.943767 0.161024 0.8 0 0
0.891298 0.800249 0.025000 0.8 0 0
0.943647 0.800894 0.149066 0.8 0 0
0.669571 0.637662 0.064380 0.8 0 0
0.578114 0.668356 0.079416 0.8 0 0
0.025000 0.791979 0.144735 0.8 0 0
0.072425 0.974975 0.113788 0.8 0 0
0.232487 0.637576 0.055622 0.8 0 0
0.778994 0.637574 0.101041 0.8 0 0
0.637431 0.106476 0.072673 0.8 0 0
0.689347 0.310642 0.025000 0.8 0 0
0.575302 0.974574 0.184578 0.8 0 0
0.958351 0.543311 0.025000 0.8 0 0
0.717523 0.892524 0.055622 0.8 0 0
0.026872 0.857358 0.193419 0.8 0 0
0.652742 0.177014 0.042411 0.8 0 0
0.956859 0.421822 0.193419 0.8 0 0
0.668053 0.385376 0.163481 0.8 0 0
0.126476 0.056284 0.112288 0.8 0 0
0.087725 0.331909 0.162626 0.8 0 0
0.221040 0.056209 0.066781 0.8 0 0
0.331216 0.654744 0.067085 0.8 0 0
0.674382 0.025226 0.098686 0.8 0 0
0.652742 0.304380 0.025527 0.8 0 0
0.361837 0.591915 0.154683 0.8 0 0
0.974269 0.085982 0.138422 0.8 0 0
0.339524 0.509350 0.193419 0.8 0 0
0.398543 0.615129 0.025000 0.8 0 0
0.473183 0.747570 0.025000 0.8 0 0
0.361837 0.612213 0.135025 0.8 0 0
0.409805 0.971272 0.193419 0.8 0 0
0.331216 0.194424 0.186424 0.8 0 0
0.723003 0.668241 0.109041 0.8 0 0
0.270214 0.708993 0.025000 0.8 0 0
0.044806 0.302334 0.025000 0.8 0 0
0.705543 0.060657 0.025000 0.8 0 0
0.680694 0.954371 0.055622 0.8 0 0
0.725121 0.651192 0.055622 0.8 0 0
0.637431 0.133587 0.139114 0.8 0 0
0.025000 0.094197 0.166930 0.8 0 0
0.672862 0.040676 0.034795 0.8 0 0
0.637431 0.842387 0.126722 0.8 0 0
0.637431 0.446718 0.089551 0.8 0 0
0.566327 0.538825 0.055622 0.8 0 0
0.943647 0.279569 0.116923 0.8 0 0
0.331216 0.412346 0.104597 0.8 0 0
0.055622 0.144465 0.191027 0.8 0 0
0.040311 0.908533 0.027835 0.8 0 0
0.938221 0.137802 0.025000 0.8 0 0
0.494184 0.362207 0.128119 0.8 0 0
0.799126 0.040676 0.053164 0.8 0 0
0.168285 0.304315 0.025000 0.8 0 0
0.250169 0.056186 0.192765 0.8 0 0
0.182807 0.689358 0.055622 0.8 0 0
0.958958 0.451082 0.033703 0.8 0 0
0.107307 0.653108 0.053853 0.8 0 0
0.245487 0.056189 0.120998 0.8 0 0
0.668053 0.089206 0.186676 0.8 0 0
0.361837 0.318399 0.065879 0.8 0 0
0.671582 0.858246 0.025000 0.8 0 0
0.679853 0.346892 0.040610 0.8 0 0
0.236999 0.944222 0.061543 0.8 0 0
0.658614 0.903953 0.040311 0.8 0 0
0.958958 0.829145 0.055343 0.8 0 0
0.871363 0.943717 0.118236 0.8 0 0
0.430858 0.959324 0.026499 0.8 0 0
0.873935 0.805370 0.055622 0.8 0 0
0.182153 0.911121 0.025000 0.8 0 0
0.791781 0.653108 0.050988 0.8 0 0
0.958584 0.346892 0.052016 0.8 0 0
0.790734 0.653351 0.025000 0.8 0 0
0.110131 0.056297 0.041236 0.8 0 0
0.392586 0.331667 0.161458 0.8 0 0
0.025000 0.843648 0.158972 0.8 0 0
0.464233 0.668447 0.068314 0.8 0 0
0.543571 0.228357 0.025000 0.8 0 0
0.563821 0.041359 0.040311 0.8 0 0
0.409533 0.696461 0.025000 0.8 0 0
0.905178 0.032977 0.193419 0.8 0 0
0.148731 0.331861 0.176761 0.8 0 0
0.346527 0.824491 0.053863 0.8 0 0
0.592204 0.457895 0.025000 0.8 0 0
0.778183 0.454381 0.025000 0.8 0 0
0.623191 0.943914 0.169846 0.8 0 0
0.476005 0.676658 0.055622 0.8 0 0
0.887626 0.272186 0.025000 0.8 0 0
0.414086 0.362271 0.146263 0.8 0 0
0.359279 0.370545 0.040311 0.8 0 0
0.832199 0.724038 0.025000 0.8 0 0
0.668053 0.070703 0.042105 0.8 0 0
0.808434 0.491603 0.025000 0.8 0 0
0.044759 0.473735 0.025000 0.8 0 0
0.484201 0.699816 0.025000 0.8 0 0
0.892027 0.653108 0.047324 0.8 0 0
0.470146 0.084786 0.055622 0.8 0 0
0.807565 0.370592 0.025000 0.8 0 0
0.764881 0.025154 0.189499 0.8 0 0
0.639903 0.135830 0.193419 0.8 0 0
0.331216 0.440803 0.132105 0.8 0 0
0.244617 0.653108 0.044781 0.8 0 0
0.780940 0.323716 0.055622 0.8 0 0
0.870283 0.361908 0.056861 0.8 0 0
0.637431 0.135017 0.068931 0.8 0 0
0.668053 0.295185 0.186873 0.8 0 0
0.342989 0.377975 0.193419 0.8 0 0
0.455915 0.362238 0.069795 0.8 0 0
0.647396 0.921728 0.040311 0.8 0 0
0.082065 0.409730 0.025000 0.8 0 0
0.877689 0.331281 0.156220 0.8 0 0
0.441865 0.637843 0.115082 0.8 0 0
0.059134 0.056338 0.078005 0.8 0 0
0.055622 0.432981 0.148996 0.8 0 0
0.943647 0.052900 0.052030 0.8 0 0
0.280568 0.959324 0.048030 0.8 0 0
0.361837 0.044013 0.143529 0.8 0 0
0.686416 0.668270 0.044212 0.8 0 0
0.085459 0.056317 0.153524 0.8 0 0
0.644883 0.179341 0.025000 0.8 0 0
0.370974 0.770260 0.025000 0.8 0 0
0.025000 0.939699 0.063711 0.8 0 0
0.700337 0.267214 0.055622 0.8 0 0
0.769072 0.395740 0.055622 0.8 0 0
0.804359 0.443372 0.055622 0.8 0 0
0.881850 0.516349 0.055622 0.8 0 0
0.044248 0.959324 0.072374 0.8 0 0
0.625437 0.948664 0.193419 0.8 0 0
0.025000 0.800025 0.072659 0.8 0 0
0.438356 0.668467 0.147894 0.8 0 0
0.952443 0.482660 0.193419 0.8 0 0
0.490509 0.752887 0.055622 0.8 0 0
0.797537 0.340313 0.055622 0.8 0 0
0.953155 0.857545 0.025000 0.8 0 0
0.361837 0.818220 0.134497 0.8 0 0
0.668053 0.545264 0.074500 0.8 0 0
0.893648 0.974320 0.113302 0.8 0 0
0.974269 0.279345 0.140193 0.8 0 0
0.596674 0.668341 0.108807 0.8 0 0
0.655854 0.100168 0.025000 0.8 0 0
0.487061 0.324108 0.055622 0.8 0 0
0.803752 0.368293 0.025000 0.8 0 0
0.025000 0.887665 0.117073 0.8 0 0
0.170047 0.342394 0.040311 0.8 0 0
0.243128 0.331786 0.128997 0.8 0 0
0.343966 0.640799 0.040311 0.8 0 0
0.058889 0.416430 0.055622 0.8 0 0
0.331216 0.044125 0.129100 0.8 0 0
0.344249 0.884665 0.040311 0.8 0 0
0.479771 0.374311 0.055622 0.8 0 0
0.361837 0.223834 0.101083 0.8 0 0
0.668053 0.455718 0.079664 0.8 0 0
0.782875 0.798025 0.055622 0.8 0 0
0.974269 0.837565 0.188059 0.8 0 0
0.957902 0.948231 0.025000 0.8 0 0
0.860599 0.346892 0.051331 0.8 0 0
0.668053 0.940933 0.051291 0.8 0 0
0.162081 0.056256 0.075837 0.8 0 0
0.331832 0.415514 0.040311 0.8 0 0
0.419052 0.331646 0.077725 0.8 0 0
0.361837 0.311670 0.091481 0.8 0 0
0.025000 0.254645 0.121269 0.8 0 0
0.177294 0.368900 0.025000 0.8 0 0
0.025000 0.760466 0.095013 0.8 0 0
0.583064 0.346892 0.048739 0.8 0 0
0.780202 0.277990 0.055622 0.8 0 0
0.530602 0.362178 0.059170 0.8 0 0
0.295418 0.858760 0.025000 0.8 0 0
0.041754 0.974999 0.120068 0.8 0 0
0.455500 0.333907 0.193419 0.8 0 0
0.865933 0.637505 0.130250 0.8 0 0
0.637431 0.671313 0.149683 0.8 0 0
0.802789 0.768840 0.025000 0.8 0 0
0.025000 0.524265 0.059749 0.8 0 0
0.361837 0.837088 0.147482 0.8 0 0
0.932604 0.539909 0.025000 0.8 0 0
0.652742 0.545282 0.038572 0.8 0 0
0.179368 0.896094 0.025000 0.8 0 0
0.212444 0.668647 0.046549 0.8 0 0
0.719906 0.334751 0.040311 0.8 0 0
0.422784 0.510929 0.055622 0.8 0 0
0.923307 0.055650 0.066833 0.8 0 0
0.070236 0.056329 0.056894 0.8 0 0
0.204741 0.753308 0.025000 0.8 0 0
0.709496 0.109037 0.025000 0.8 0 0
0.129390 0.236310 0.025000 0.8 0 0
0.204154 0.362438 0.132750 0.8 0 0
0.587410 0.545638 0.025000 0.8 0 0
0.958899 0.722338 0.040311 0.8 0 0
0.652742 0.194583 0.047435 0.8 0 0
0.596218 0.025289 0.147992 0.8 0 0
0.222849 0.638018 0.112564 0.8 0 0
0.688598 0.943862 0.059641 0.8 0 0
0.666753 0.686704 0.040311 0.8 0 0
0.492482 0.055993 0.044871 0.8 0 0
0.327612 0.845807 0.055622 0.8 0 0
0.577173 0.331520 0.151533 0.8 0 0
0.637431 0.393647 0.050137 0.8 0 0
0.746770 0.025169 0.097373 0.8 0 0
0.967455 0.252374 0.040311 0.8 0 0
0.383413 0.513957 0.025000 0.8 0 0
0.040311 0.237123 0.035640 0.8 0 0
0.511218 0.240038 0.025000 0.8 0 0
0.447075 0.668460 0.159757 0.8 0 0
0.769175 0.040676 0.047324 0.8 0 0
0.713982 0.639744 0.055622 0.8 0 0
0.612128 0.615035 0.025000 0.8 0 0
0.030110 0.750486 0.040311 0.8 0 0
0.465647 0.331608 0.116437 0.8 0 0
0.040311 0.101056 0.050347 0.8 0 0
0.331216 0.806894 0.187317 0.8 0 0
0.905996 0.637473 0.112624 0.8 0 0
0.346527 0.092346 0.033084 0.8 0 0
0.145520 0.653108 0.037011 0.8 0 0
0.300137 0.903851 0.055622 0.8 0 0
0.652742 0.640828 0.049854 0.8 0 0
0.044872 0.455213 0.040311 0.8 0 0
0.092968 0.331905 0.161570 0.8 0 0
0.807632 0.055742 0.045077 0.8 0 0
0.614557 0.813445 0.025000 0.8 0 0
0.055622 0.726347 0.145870 0.8 0 0
0.314034 0.223806 0.025000 0.8 0 0
0.784424 0.943786 0.193405 0.8 0 0
0.097590 0.362523 0.061828 0.8 0 0
0.092327 0.295904 0.055622 0.8 0 0
0.107821 0.958829 0.055622 0.8 0 0
0.668053 0.678209 0.098733 0.8 0 0
0.796883 0.267953 0.055622 0.8 0 0
0.755521 0.195677 0.055622 0.8 0 0
0.943647 0.283102 0.132039 0.8 0 0
0.723928 0.668240 0.050735 0.8 0 0
0.654495 0.795371 0.040311 0.8 0 0
0.559654 0.789633 0.055622 0.8 0 0
0.943647 0.145839 0.069748 0.8 0 0
0.943647 0.165604 0.093850 0.8 0 0
0.645070 0.095655 0.193419 0.8 0 0
0.542649 0.668384 0.070024 0.8 0 0
0.722791 0.331404 0.096635 0.8 0 0
0.162833 0.331849 0.060071 0.8 0 0
0.848871 0.861872 0.055622 0.8 0 0
0.974269 0.323249 0.177784 0.8 0 0
0.356153 0.378031 0.040311 0.8 0 0
0.040311 0.578869 0.025473 0.8 0 0
0.974269 0.897421 0.141132 0.8 0 0
0.974269 0.766494 0.192199 0.8 0 0
0.744176 0.635380 0.055622 0.8 0 0
0.634201 0.482109 0.025000 0.8 0 0
0.361837 0.244384 0.086906 0.8 0 0
0.642383 0.270850 0.040311 0.8 0 0
0.277867 0.653108 0.049423 0.8 0 0
0.361837 0.615662 0.124026 0.8 0 0
0.361837 0.497687 0.141674 0.8 0 0
0.974269 0.450755 0.056819 0.8 0 0
0.676217 0.040676 0.050786 0.8 0 0
0.460969 0.870067 0.055622 0.8 0 0
0.943647 0.637614 0.150080 0.8 0 0
0.668053 0.057862 0.064781 0.8 0 0
0.349948 0.056106 0.139987 0.8 0 0
0.598456 0.690311 0.055622 0.8 0 0
0.729948 0.974451 0.105387 0.8 0 0
0.938153 0.637448 0.065422 0.8 0 0
0.380086 0.479725 0.025000 0.8 0 0
0.720346 0.223591 0.025000 0.8 0 0
0.484023 0.106196 0.055622 0.8 0 0
0.637431 0.220386 0.132193 0.8 0 0
0.566604 0.331528 0.110424 0.8 0 0
0.025000 0.716002 0.053665 0.8 0 0
0.143099 0.710516 0.055622 0.8 0 0
0.974269 0.159408 0.156253 0.8 0 0
0.209778 0.695414 0.055622 0.8 0 0
0.298025 0.488258 0.025000 0.8 0 0
0.389875 0.025453 0.087701 0.8 0 0
0.055622 0.775465 0.173014 0.8 0 0
0.943647 0.564328 0.091406 0.8 0 0
0.331216 0.198826 0.139815 0.8 0 0
0.207797 0.186677 0.025000 0.8 0 0
0.108475 0.608830 0.055622 0.8 0 0
0.336699 0.205723 0.040311 0.8 0 0
0.882766 0.622334 0.055622 0.8 0 0
0.643262 0.666547 0.193419 0.8 0 0
0.890371 0.943702 0.078140 0.8 0 0
0.801705 0.740720 0.025000 0.8 0 0
0.025000 0.708853 0.129684 0.8 0 0
0.361837 0.264570 0.059249 0.8 0 0
0.025000 0.109728 0.174719 0.8 0 0
0.891093 0.250524 0.025000 0.8 0 0
0.097038 0.056308 0.142880 0.8 0 0
0.559127 0.025318 0.192438 0.8 0 0
0.806297 0.668175 0.099172 0.8 0 0
0.586169 0.362134 0.159304 0.8 0 0
0.424667 0.025425 0.149333 0.8 0 0
0.042792 0.974998 0.048198 0.8 0 0
0.637431 0.143708 0.106036 0.8 0 0
0.773913 0.469726 0.055622 0.8 0 0
0.052051 0.135437 0.040311 0.8 0 0
0.637431 0.856741 0.156421 0.8 0 0
0.217469 0.841312 0.055622 0.8 0 0
0.076879 0.878833 0.055622 0.8 0 0
0.939932 0.055636 0.106653 0.8 0 0
0.441101 0.604606 0.055622 0.8 0 0
0.257981 0.256692 0.025000 0.8 0 0
0.044488 0.622091 0.025000 0.8 0 0
0.353123 0.663240 0.193419 0.8 0 0
0.166318 0.025631 0.075683 0.8 0 0
0.974269 0.471193 0.046680 0.8 0 0
0.626725 0.402833 0.055622 0.8 0 0
0.361837 0.195181 0.156323 0.8 0 0
0.291542 0.362369 0.067314 0.8 0 0
0.648379 0.608485 0.193419 0.8 0 0
0.867126 0.974342 0.150977 0.8 0 0
0.652989 0.974512 0.087476 0.8 0 0
0.637431 0.348173 0.166005 0.8 0 0
0.895528 0.025050 0.105190 0.8 0 0
0.208825 0.823949 0.025000 0.8 0 0
0.338706 0.654519 0.040311 0.8 0 0
0.620594 0.264037 0.055622 0.8 0 0
0.794818 0.820014 0.055622 0.8 0 0
0.725190 0.668239 0.160070 0.8 0 0
0.921624 0.695479 0.025000 0.8 0 0
0.147657 0.638078 0.075837 0.8 0 0
0.361837 0.261570 0.069029 0.8 0 0
0.025000 0.254982 0.042787 0.8 0 0
0.025000 0.061002 0.145487 0.8 0 0
0.943647 0.813790 0.165822 0.8 0 0
0.025000 0.142951 0.052179 0.8 0 0
0.783187 0.973419 0.193419 0.8 0 0
0.637431 0.346042 0.131628 0.8 0 0
0.710490 0.656617 0.040311 0.8 0 0
0.447100 0.242730 0.055622 0.8 0 0
0.494248 0.970562 0.193419 0.8 0 0
0.361837 0.681293 0.081626 0.8 0 0
0.958117 0.923709 0.025000 0.8 0 0
0.346527 0.608952 0.026472 0.8 0 0
0.055622 0.812837 0.070211 0.8 0 0
0.943647 0.457400 0.069057 0.8 0 0
0.163750 0.638065 0.138464 0.8 0 0
0.939767 0.974284 0.051675 0.8 0 0
0.126269 0.917700 0.055622 0.8 0 0
0.974269 0.441868 0.155342 0.8 0 0
0.339009 0.631838 0.193419 0.8 0 0
0.798859 0.974396 0.076972 0.8 0 0
0.497086 0.944015 0.133091 0.8 0 0
0.219634 0.050678 0.040311 0.8 0 0
0.149003 0.638076 0.188793 0.8 0 0
0.104485 0.314997 0.055622 0.8 0 0
0.726163 0.974454 0.098588 0.8 0 0
0.331216 0.801034 0.171733 0.8 0 0
0.614582 0.025274 0.114807 0.8 0 0
0.361837 0.284447 0.046530 0.8 0 0
0.664825 0.103290 0.025000 0.8 0 0
0.974269 0.743785 0.171738 0.8 0 0
0.789575 0.959324 0.036713 0.8 0 0
0.391945 0.698965 0.025000 0.8 0 0
0.749776 0.948556 0.193419 0.8 0 0
0.462071 0.887207 0.025000 0.8 0 0
0.346527 0.179678 0.028958 0.8 0 0
0.285425 0.637968 0.166121 0.8 0 0
0.668053 0.120578 0.143198 0.8 0 0
0.974269 0.782054 0.060548 0.8 0 0
0.857035 0.025081 0.137179 0.8 0 0
0.063822 0.944360 0.093677 0.8 0 0
0.028648 0.327706 0.193419 0.8 0 0
0.361837 0.499397 0.165939 0.8 0 0
0.552645 0.653108 0.025950 0.8 0 0
0.094233 0.924270 0.055622 0.8 0 0
0.668053 0.200957 0.108536 0.8 0 0
0.519414 0.359209 0.040311 0.8 0 0
0.318603 0.745206 0.055622 0.8 0 0
0.129939 0.638092 0.053721 0.8 0 0
0.071412 0.886197 0.055622 0.8 0 0
0.363049 0.625082 0.055622 0.8 0 0
0.355915 0.331696 0.117274 0.8 0 0
0.805743 0.851639 0.055622 0.8 0 0
0.817069 0.851405 0.025000 0.8 0 0
0.361837 0.651379 0.093224 0.8 0 0
0.958958 0.093898 0.039722 0.8 0 0
0.782492 0.170117 0.025000 0.8 0 0
0.062833 0.574954 0.025000 0.8 0 0
0.414355 0.880104 0.025000 0.8 0 0
0.374727 0.331681 0.044278 0.8 0 0
0.140713 0.331867 0.066080 0.8 0 0
0.619041 0.943918 0.162958 0.8 0 0
0.346527 0.563403 0.055225 0.8 0 0
0.668053 0.062376 0.171836 0.8 0 0
0.685413 0.700750 0.055622 0.8 0 0
0.346527 0.764223 0.035164 0.8 0 0
0.637431 0.863245 0.054062 0.8 0 0
0.652742 0.641025 0.030566 0.8 0 0
0.096212 0.638119 0.161654 0.8 0 0
0.879589 0.513957 0.025000 0.8 0 0
0.426585 0.637855 0.186181 0.8 0 0
0.759979 0.734393 0.025000 0.8 0 0
0.040429 0.648378 0.165841 0.8 0 0
0.055622 0.587794 0.133348 0.8 0 0
0.356900 0.581916 0.025000 0.8 0 0
0.974269 0.616026 0.107087 0.8 0 0
0.419059 0.974699 0.146197 0.8 0 0
0.756362 0.183266 0.025000 0.8 0 0
0.130465 0.087234 0.055622 0.8 0 0
0.361837 0.716955 0.082729 0.8 0 0
0.215123 0.748327 0.055622 0.8 0 0
0.768165 0.630474 0.025000 0.8 0 0
0.401673 0.653108 0.031652 0.8 0 0
0.247551 0.542498 0.025000 0.8 0 0
0.694889 0.281905 0.055622 0.8 0 0
0.025000 0.821304 0.161239 0.8 0 0
0.643342 0.055873 0.157248 0.8 0 0
0.025000 0.350808 0.170294 0.8 0 0
0.699918 0.055828 0.100971 0.8 0 0
0.491967 0.081898 0.055622 0.8 0 0
0.230071 0.025580 0.042904 0.8 0 0
0.958958 0.786614 0.025922 0.8 0 0
0.736653 0.546983 0.055622 0.8 0 0
0.732354 0.166744 0.025000 0.8 0 0
0.601155 0.943932 0.113367 0.8 0 0
0.375228 0.362302 0.167855 0.8 0 0
0.962452 0.391936 0.193419 0.8 0 0
0.546711 0.588336 0.055622 0.8 0 0
0.477136 0.752822 0.055622 0.8 0 0
0.637453 0.345817 0.055622 0.8 0 0
0.405346 0.653556 0.193419 0.8 0 0
0.205675 0.803324 0.025000 0.8 0 0
0.361837 0.771036 0.043689 0.8 0 0
0.241897 0.953324 0.055622 0.8 0 0
0.635204 0.362095 0.104924 0.8 0 0
0.160173 0.773681 0.055622 0.8 0 0
0.621806 0.331484 0.155202 0.8 0 0
0.974269 0.124503 0.106232 0.8 0 0
0.904569 0.246075 0.025000 0.8 0 0
0.823218 0.164454 0.025000 0.8 0 0
0.434196 0.056039 0.078996 0.8 0 0
0.411953 0.687461 0.025000 0.8 0 0
0.217703 0.129793 0.055622 0.8 0 0
0.632846 0.571954 0.055622 0.8 0 0
0.331216 0.318174 0.062791 0.8 0 0
0.974269 0.418178 0.118914 0.8 0 0
0.035193 0.496818 0.193419 0.8 0 0
0.361837 0.813818 0.142641 0.8 0 0
0.737981 0.641229 0.040311 0.8 0 0
0.590107 0.026180 0.040311 0.8 0 0
0.336683 0.959324 0.087645 0.8 0 0
0.250837 0.331779 0.145361 0.8 0 0
0.025000 0.951222 0.063735 0.8 0 0
0.252415 0.974831 0.061132 0.8 0 0
0.820029 0.943758 0.189027 0.8 0 0
0.210030 0.562394 0.055622 0.8 0 0
0.171565 0.751093 0.025000 0.8 0 0
0.911026 0.070151 0.025000 0.8 0 0
0.595337 0.961395 0.193419 0.8 0 0
0.055622 0.478875 0.115676 0.8 0 0
0.644303 0.808239 0.025000 0.8 0 0
0.623777 0.025267 0.082215 0.8 0 0
0.235711 0.356789 0.025000 0.8 0 0
0.087364 0.536881 0.055622 0.8 0 0
0.655247 0.347509 0.055622 0.8 0 0
0.157747 0.668691 0.157463 0.8 0 0
0.637431 0.620456 0.157720 0.8 0 0
0.037277 0.959324 0.128890 0.8 0 0
0.025000 0.661724 0.185648 0.8 0 0
0.641572 0.331468 0.053273 0.8 0 0
0.701468 0.776783 0.055622 0.8 0 0
0.758809 0.637591 0.182737 0.8 0 0
0.177611 0.509668 0.055622 0.8 0 0
0.262876 0.944201 0.050324 0.8 0 0
0.776504 0.361982 0.052268 0.8 0 0
0.217058 0.044994 0.055622 0.8 0 0
0.281237 0.025539 0.134156 0.8 0 0
0.415502 0.944080 0.162047 0.8 0 0
0.774389 0.453708 0.055622 0.8 0 0
0.047270 0.178921 0.040311 0.8 0 0
0.974269 0.139671 0.168832 0.8 0 0
0.897289 0.694947 0.055622 0.8 0 0
0.146099 0.643903 0.025000 0.8 0 0
0.045843 0.828098 0.055622 0.8 0 0
0.447932 0.319679 0.055622 0.8 0 0
0.055622 0.445176 0.112386 0.8 0 0
0.097217 0.668739 0.171201 0.8 0 0
0.409766 0.700330 0.055622 0.8 0 0
0.878393 0.919495 0.025000 0.8 0 0
0.225852 0.170800 0.025000 0.8 0 0
0.775150 0.668199 0.097499 0.8 0 0
0.502495 0.025363 0.121031 0.8 0 0
0.361837 0.910794 0.139978 0.8 0 0
0.885467 0.186630 0.055622 0.8 0 0
0.176739 0.331838 0.113727 0.8 0 0
0.943647 0.605036 0.170402 0.8 0 0
0.504919 0.262467 0.055622 0.8 0 0
0.426690 0.540021 0.025000 0.8 0 0
0.140875 0.959034 0.055622 0.8 0 0
0.597671 0.959324 0.026821 0.8 0 0
0.935368 0.943666 0.086990 0.8 0 0
0.637431 0.449718 0.162734 0.8 0 0
0.694254 0.799352 0.055622 0.8 0 0
0.686074 0.343612 0.040311 0.8 0 0
0.046241 0.025726 0.125474 0.8 0 0
0.055622 0.623456 0.134095 0.8 0 0
0.846616 0.954356 0.040311 0.8 0 0
0.668053 0.823883 0.046726 0.8 0 0
0.948491 0.723412 0.055622 0.8 0 0
0.192545 0.809426 0.055622 0.8 0 0
0.652742 0.550301 0.046945 0.8 0 0
0.037630 0.884469 0.193419 0.8 0 0
0.955005 0.874394 0.055622 0.8 0 0
0.271701 0.056169 0.127427 0.8 0 0
0.974269 0.561244 0.067851 0.8 0 0
0.025000 0.080319 0.151412 0.8 0 0
0.093965 0.668741 0.082771 0.8 0 0
0.647976 0.082515 0.055622 0.8 0 0
0.075010 0.389142 0.025000 0.8 0 0
0.652742 0.394796 0.032700 0.8 0 0
0.329135 0.219124 0.025000 0.8 0 0
0.609885 0.250169 0.025000 0.8 0 0
0.411430 0.653108 0.041612 0.8 0 0
0.346527 0.490304 0.040845 0.8 0 0
0.376095 0.721861 0.055622 0.8 0 0
0.209969 0.974865 0.051605 0.8 0 0
0.804191 0.695975 0.055622 0.8 0 0
0.361837 0.899776 0.132511 0.8 0 0
0.361837 0.885113 0.153300 0.8 0 0
0.668053 0.529956 0.150010 0.8 0 0
0.041703 0.759158 0.055622 0.8 0 0
0.270387 0.025548 0.144436 0.8 0 0
0.519632 0.668403 0.047418 0.8 0 0
0.664198 0.415542 0.040311 0.8 0 0
0.361701 0.218311 0.040311 0.8 0 0
0.943647 0.360172 0.108709 0.8 0 0
0.943647 0.120915 0.173336 0.8 0 0
0.974269 0.839808 0.042811 0.8 0 0
0.256233 0.052246 0.055622 0.8 0 0
0.036870 0.959324 0.098793 0.8 0 0
0.025000 0.269588 0.082472 0.8 0 0
0.043273 0.360480 0.025000 0.8 0 0
0.710122 0.885020 0.055622 0.8 0 0
0.626592 0.637696 0.066426 0.8 0 0
0.482108 0.764466 0.055622 0.8 0 0
0.693445 0.974480 0.064235 0.8 0 0
0.869582 0.361908 0.179345 0.8 0 0
0.943647 0.309091 0.150122 0.8 0 0
0.958900 0.637431 0.063922 0.8 0 0
0.773952 0.361984 0.051291 0.8 0 0
0.471063 0.056010 0.135707 0.8 0 0
0.045591 0.838995 0.055622 0.8 0 0
0.054422 0.763382 0.025000 0.8 0 0
0.055622 0.196079 0.104732 0.8 0 0
0.361837 0.501556 0.092238 0.8 0 0
0.606642 0.597382 0.025000 0.8 0 0
0.637431 0.289410 0.187223 0.8 0 0
0.578287 0.955905 0.193419 0.8 0 0
0.622454 0.766503 0.025000 0.8 0 0
0.484360 0.669481 0.055622 0.8 0 0
0.974269 0.419580 0.099508 0.8 0 0
0.650153 0.108364 0.055622 0.8 0 0
0.055622 0.269000 0.075902 0.8 0 0
0.626140 0.668318 0.121946 0.8 0 0
0.073740 0.056326 0.178359 0.8 0 0
0.231216 0.336369 0.055622 0.8 0 0
0.051849 0.329333 0.193419 0.8 0 0
0.663252 0.025235 0.049731 0.8 0 0
0.187059 0.516443 0.025000 0.8 0 0
0.923846 0.943675 0.188013 0.8 0 0
0.572803 0.433569 0.055622 0.8 0 0
0.361837 0.789820 0.179504 0.8 0 0
0.223618 0.597008 0.025000 0.8 0 0
0.858015 0.974349 0.079215 0.8 0 0
0.943647 0.523789 0.051605 0.8 0 0
0.880262 0.662687 0.055622 0.8 0 0
0.174852 0.638056 0.126432 0.8 0 0
0.907260 0.853508 0.025000 0.8 0 0
0.130415 0.638091 0.119143 0.8 0 0
0.361837 0.448597 0.166822 0.8 0 0
0.055622 0.429028 0.128960 0.8 0 0
0.331216 0.677957 0.154566 0.8 0 0
0.679183 0.668276 0.175850 0.8 0 0
0.370208 0.097215 0.055622 0.8 0 0
0.904801 0.650581 0.040311 0.8 0 0
0.342463 0.055776 0.193419 0.8 0 0
0.310994 0.637947 0.129399 0.8 0 0
0.442231 0.469324 0.025000 0.8 0 0
0.406804 0.839845 0.055622 0.8 0 0
0.944041 0.637443 0.166649 0.8 0 0
0.331216 0.412963 0.109910 0.8 0 0
0.668053 0.801258 0.049479 0.8 0 0
0.361837 0.514004 0.173116 0.8 0 0
0.320431 0.025508 0.049348 0.8 0 0
0.747456 0.770653 0.055622 0.8 0 0
0.361837 0.571954 0.134619 0.8 0 0
0.967958 0.959324 0.090210 0.8 0 0
0.650435 0.272027 0.040311 0.8 0 0
0.055622 0.100981 0.100616 0.8 0 0
0.846673 0.637521 0.156912 0.8 0 0
0.025000 0.923130 0.178406 0.8 0 0
0.277951 0.757878 0.025000 0.8 0 0
0.040311 0.372405 0.037369 0.8 0 0
0.340371 0.668545 0.052212 0.8 0 0
0.531570 0.943987 0.169215 0.8 0 0
0.947819 0.426504 0.193419 0.8 0 0
0.635724 0.346892 0.026591 0.8 0 0
0.529712 0.040676 0.037762 0.8 0 0
0.934922 0.295774 0.055622 0.8 0 0
0.025000 0.125092 0.134619 0.8 0 0
0.653228 0.658407 0.055622 0.8 0 0
0.046488 0.666799 0.055622 0.8 0 0
0.745224 0.055792 0.152146 0.8 0 0
0.637431 0.761392 0.071360 0.8 0 0
0.218584 0.668642 0.054165 0.8 0 0
0.824621 0.055728 0.101424 0.8 0 0
0.778778 0.331359 0.045778 0.8 0 0
0.974269 0.283242 0.130296 0.8 0 0
0.208404 0.785082 0.025000 0.8 0 0
0.040187 0.344817 0.156052 0.8 0 0
0.334191 0.614606 0.025000 0.8 0 0
0.821624 0.974378 0.114059 0.8 0 0
0.222403 0.570739 0.025000 0.8 0 0
0.646962 0.364966 0.193419 0.8 0 0
0.282568 0.064955 0.055622 0.8 0 0
0.367314 0.668524 0.170621 0.8 0 0
0.331216 0.238637 0.168846 0.8 0 0
0.416537 0.025432 0.062464 0.8 0 0
0.668053 0.461016 0.169308 0.8 0 0
0.235253 0.534993 0.055622 0.8 0 0
0.045656 0.150147 0.025000 0.8 0 0
0.668053 0.585383 0.153239 0.8 0 0
0.668053 0.791838 0.122222 0.8 0 0
0.056170 0.823351 0.055622 0.8 0 0
0.055622 0.492781 0.104714 0.8 0 0
0.958572 0.331216 0.190246 0.8 0 0
0.649778 0.240683 0.193419 0.8 0 0
0.250719 0.644417 0.025000 0.8 0 0
0.668053 0.390787 0.098663 0.8 0 0
0.770905 0.055771 0.188686 0.8 0 0
0.210754 0.974864 0.083995 0.8 0 0
0.361837 0.840705 0.091971 0.8 0 0
0.668053 0.384198 0.181705 0.8 0 0
0.642275 0.191228 0.055622 0.8 0 0
0.637431 0.473745 0.175728 0.8 0 0
0.496705 0.883170 0.025000 0.8 0 0
0.284023 0.038858 0.193419 0.8 0 0
0.599285 0.637718 0.138389 0.8 0 0
0.361134 0.239749 0.055622 0.8 0 0
0.327407 0.904757 0.025000 0.8 0 0
0.346808 0.056109 0.187251 0.8 0 0
0.346235 0.637919 0.080897 0.8 0 0
0.432410 0.839294 0.055622 0.8 0 0
0.649804 0.644763 0.040311 0.8 0 0
0.336771 0.806968 0.025000 0.8 0 0
0.668053 0.507556 0.091962 0.8 0 0
0.468129 0.667074 0.040311 0.8 0 0
0.527834 0.682181 0.025000 0.8 0 0
0.221833 0.042003 0.025000 0.8 0 0
0.943647 0.922149 0.040615 0.8 0 0
0.841899 0.793502 0.055622 0.8 0 0
0.649253 0.331462 0.103275 0.8 0 0
0.668053 0.793436 0.102354 0.8 0 0
0.652742 0.760765 0.029536 0.8 0 0
0.668053 0.177351 0.156183 0.8 0 0
0.637431 0.160165 0.052095 0.8 0 0
0.865150 0.482043 0.055622 0.8 0 0
0.361837 0.486669 0.073192 0.8 0 0
0.046337 0.040676 0.155234 0.8 0 0
0.507541 0.025359 0.122937 0.8 0 0
0.943647 0.440214 0.128114 0.8 0 0
0.361837 0.958231 0.047063 0.8 0 0
0.193349 0.074516 0.025000 0.8 0 0
0.567775 0.661678 0.055622 0.8 0 0
0.762240 0.709460 0.025000 0.8 0 0
0.361837 0.051274 0.141870 0.8 0 0
0.668053 0.861760 0.120746 0.8 0 0
0.873290 0.425215 0.025000 0.8 0 0
0.445020 0.974678 0.190980 0.8 0 0
0.944553 0.481202 0.040311 0.8 0 0
0.458845 0.944045 0.049114 0.8 0 0
0.153566 0.346892 0.040042 0.8 0 0
0.341658 0.515247 0.025000 0.8 0 0
0.691516 0.715123 0.025000 0.8 0 0
0.387534 0.185817 0.025000 0.8 0 0
0.418351 0.331646 0.166776 0.8 0 0
0.052189 0.100308 0.055622 0.8 0 0
0.956959 0.252262 0.040311 0.8 0 0
0.937277 0.436279 0.055622 0.8 0 0
0.641266 0.613830 0.025000 0.8 0 0
0.061403 0.369040 0.055622 0.8 0 0
0.943647 0.583421 0.188218 0.8 0 0
0.740363 0.584906 0.025000 0.8 0 0
0.192251 0.025610 0.055151 0.8 0 0
0.958825 0.332781 0.090467 0.8 0 0
0.814041 0.631913 0.055622 0.8 0 0
0.555805 0.360746 0.040311 0.8 0 0
0.668053 0.378900 0.072916 0.8 0 0
0.943918 0.299306 0.040311 0.8 0 0
0.958593 0.042248 0.176756 0.8 0 0
0.025000 0.184556 0.130016 0.8 0 0
0.948818 0.175276 0.025000 0.8 0 0
0.610936 0.974546 0.128661 0.8 0 0
0.264298 0.933026 0.055622 0.8 0 0
0.361837 0.405562 0.085528 0.8 0 0
0.535693 0.060647 0.055622 0.8 0 0
0.872770 0.668122 0.085112 0.8 0 0
0.650406 0.310175 0.025000 0.8 0 0
0.346527 0.290905 0.042403 0.8 0 0
0.267475 0.550983 0.025000 0.8 0 0
0.331216 0.334155 0.102429 0.8 0 0
0.612339 0.025276 0.085262 0.8 0 0
0.776391 0.361982 0.087313 0.8 0 0
0.331216 0.117158 0.048259 0.8 0 0
0.451289 0.362241 0.069903 0.8 0 0
0.500798 0.785213 0.055622 0.8 0 0
0.417855 0.025431 0.091551 0.8 0 0
0.578351 0.331519 0.061800 0.8 0 0
0.974269 0.148614 0.190358 0.8 0 0
0.773632 0.192798 0.055622 0.8 0 0
0.637431 0.329809 0.177812 0.8 0 0
0.438447 0.649407 0.055622 0.8 0 0
0.331216 0.898402 0.083794 0.8 0 0
0.652742 0.876665 0.031710 0.8 0 0
0.786807 0.943784 0.187326 0.8 0 0
0.659486 0.331454 0.047296 0.8 0 0
0.807759 0.637552 0.182177 0.8 0 0
0.593162 0.025291 0.088303 0.8 0 0
0.822575 0.055730 0.080234 0.8 0 0
0.361837 0.787577 0.182915 0.8 0 0
0.536076 0.146296 0.025000 0.8 0 0
0.520272 0.943996 0.121255 0.8 0 0
0.331216 0.828453 0.152861 0.8 0 0
0.331216 0.558104 0.067015 0.8 0 0
0.361837 0.545713 0.145408 0.8 0 0
0.579774 0.298512 0.025000 0.8 0 0
0.754474 0.113653 0.055622 0.8 0 0
0.419691 0.893150 0.055622 0.8 0 0
0.115250 0.675864 0.025000 0.8 0 0
0.078636 0.750934 0.055622 0.8 0 0
0.974269 0.946540 0.159837 0.8 0 0
0.608801 0.590560 0.055622 0.8 0 0
0.627845 0.943911 0.131198 0.8 0 0
0.053513 0.959324 0.106578 0.8 0 0
0.430363 0.747093 0.055622 0.8 0 0
0.025000 0.588916 0.063852 0.8 0 0
0.184901 0.346892 0.049913 0.8 0 0
0.784140 0.340282 0.040311 0.8 0 0
0.277824 0.668595 0.182990 0.8 0 0
0.055622 0.642884 0.068912 0.8 0 0
0.055622 0.318483 0.193115 0.8 0 0
0.813537 0.860666 0.025000 0.8 0 0
0.703146 0.025203 0.169925 0.8 0 0
0.311427 0.337659 0.040311 0.8 0 0
0.331216 0.358041 0.163981 0.8 0 0
0.543468 0.384152 0.055622 0.8 0 0
0.592746 0.300325 0.055622 0.8 0 0
0.790045 0.361971 0.132427 0.8 0 0
0.222502 0.025586 0.089023 0.8 0 0
0.958958 0.334743 0.029198 0.8 0 0
0.025000 0.244440 0.053768 0.8 0 0
0.377450 0.772905 0.025000 0.8 0 0
0.425055 0.659425 0.025000 0.8 0 0
0.298119 0.040676 0.025587 0.8 0 0
0.835442 0.485435 0.055622 0.8 0 0
0.361837 0.322015 0.178373 0.8 0 0
0.282332 0.944186 0.159257 0.8 0 0
0.864868 0.637506 0.181116 0.8 0 0
0.040311 0.947278 0.040147 0.8 0 0
0.974269 0.531975 0.134595 0.8 0 0
0.523927 0.078898 0.025000 0.8 0 0
0.668053 0.751327 0.177555 0.8 0 0
0.736949 0.647949 0.193419 0.8 0 0
0.668053 0.784717 0.107508 0.8 0 0
0.714767 0.423392 0.055622 0.8 0 0
0.091422 0.362528 0.114003 0.8 0 0
0.361837 0.328127 0.109928 0.8 0 0
0.686796 0.703909 0.055622 0.8 0 0
0.698212 0.025207 0.045409 0.8 0 0
0.361837 0.316716 0.156262 0.8 0 0
0.314363 0.362351 0.165780 0.8 0 0
0.891823 0.055675 0.159365 0.8 0 0
0.849314 0.645480 0.040311 0.8 0 0
0.867225 0.372171 0.025000 0.8 0 0
0.766091 0.882291 0.025000 0.8 0 0
0.095824 0.362525 0.161383 0.8 0 0
0.434101 0.484650 0.055622 0.8 0 0
0.441867 0.216133 0.055622 0.8 0 0
0.633098 0.959324 0.042022 0.8 0 0
0.648101 0.040676 0.133820 0.8 0 0
0.974269 0.859685 0.085962 0.8 0 0
0.645565 0.346892 0.050843 0.8 0 0
0.174686 0.665761 0.025000 0.8 0 0
0.668053 0.346098 0.114106 0.8 0 0
0.889037 0.638230 0.055622 0.8 0 0
0.359713 0.956838 0.055622 0.8 0 0
0.702945 0.243851 0.055622 0.8 0 0
0.062017 0.331930 0.163159 0.8 0 0
0.720794 0.363620 0.025000 0.8 0 0
0.652817 0.767625 0.055622 0.8 0 0
0.057983 0.817865 0.055622 0.8 0 0
0.899707 0.943694 0.094873 0.8 0 0
0.376665 0.201910 0.025000 0.8 0 0
0.245078 0.668621 0.101737 0.8 0 0
0.974269 0.814519 0.045937 0.8 0 0
0.670431 0.943877 0.085794 0.8 0 0
0.795416 0.089515 0.025000 0.8 0 0
0.331216 0.554824 0.086079 0.8 0 0
0.306357 0.025519 0.116540 0.8 0 0
0.143894 0.653108 0.048847 0.8 0 0
0.378649 0.362299 0.045483 0.8 0 0
0.181499 0.653108 0.046629 0.8 0 0
0.692777 0.408346 0.025000 0.8 0 0
0.845675 0.074245 0.055622 0.8 0 0
0.974269 0.941718 0.077426 0.8 0 0
0.494509 0.346892 0.041104 0.8 0 0
0.294951 0.924597 0.055622 0.8 0 0
0.873992 0.055689 0.115811 0.8 0 0
0.592934 0.055913 0.149164 0.8 0 0
0.958958 0.193574 0.047920 0.8 0 0
0.641042 0.072871 0.055622 0.8 0 0
0.943647 0.896832 0.164547 0.8 0 0
0.668053 0.548236 0.069347 0.8 0 0
0.668053 0.876843 0.100219 0.8 0 0
0.959325 0.960389 0.051011 0.8 0 0
0.361837 0.714740 0.170406 0.8 0 0
0.578306 0.943950 0.134394 0.8 0 0
0.721224 0.876039 0.055622 0.8 0 0
0.068966 0.362546 0.114526 0.8 0 0
0.637431 0.856573 0.100022 0.8 0 0
0.958958 0.952857 0.045132 0.8 0 0
0.331216 0.786596 0.071468 0.8 0 0
0.698795 0.510219 0.025000 0.8 0 0
0.361837 0.044573 0.180298 0.8 0 0
0.963485 0.959324 0.064548 0.8 0 0
0.348774 0.974755 0.117180 0.8 0 0
0.341140 0.133839 0.193419 0.8 0 0
0.756466 0.055783 0.118073 0.8 0 0
0.571083 0.667939 0.025000 0.8 0 0
0.503696 0.055984 0.165084 0.8 0 0
0.589749 0.668347 0.168710 0.8 0 0
0.124936 0.974933 0.092766 0.8 0 0
0.055622 0.185902 0.092200 0.8 0 0
0.565802 0.943960 0.047796 0.8 0 0
0.175985 0.731599 0.055622 0.8 0 0
0.522881 0.795707 0.025000 0.8 0 0
0.734877 0.135334 0.055622 0.8 0 0
0.426877 0.308960 0.025000 0.8 0 0
0.040311 0.884581 0.050570 0.8 0 0
0.748232 0.499220 0.025000 0.8 0 0
0.749279 0.953493 0.055622 0.8 0 0
0.297605 0.054848 0.193419 0.8 0 0
0.232889 0.925653 0.055622 0.8 0 0
0.943647 0.056825 0.042287 0.8 0 0
0.168676 0.944276 0.168205 0.8 0 0
0.351210 0.056105 0.110634 0.8 0 0
0.858576 0.974348 0.057212 0.8 0 0
0.693028 0.943859 0.045778 0.8 0 0
0.462294 0.944043 0.162846 0.8 0 0
0.879875 0.331279 0.083963 0.8 0 0
0.962381 0.417897 0.193419 0.8 0 0
0.316575 0.701414 0.025000 0.8 0 0
0.084037 0.379899 0.025000 0.8 0 0
0.346527 0.633819 0.054023 0.8 0 0
0.381459 0.888814 0.025000 0.8 0 0
0.025000 0.903813 0.141959 0.8 0 0
0.626342 0.270242 0.025000 0.8 0 0
0.320220 0.557104 0.025000 0.8 0 0
0.094310 0.362526 0.075159 0.8 0 0
0.637431 0.571590 0.137880 0.8 0 0
0.847179 0.415309 0.025000 0.8 0 0
0.361837 0.878413 0.174602 0.8 0 0
0.652742 0.142558 0.044115 0.8 0 0
0.722595 0.331404 0.051324 0.8 0 0
0.974269 0.891169 0.116933 0.8 0 0
0.455604 0.853629 0.055622 0.8 0 0
0.674554 0.933924 0.055622 0.8 0 0
0.637431 0.800305 0.047306 0.8 0 0
0.313793 0.668566 0.131722 0.8 0 0
0.055622 0.180210 0.118110 0.8 0 0
0.637431 0.352126 0.041026 0.8 0 0
0.858348 0.055701 0.162757 0.8 0 0
0.361115 0.757158 0.025000 0.8 0 0
0.974269 0.742972 0.047208 0.8 0 0
0.943647 0.377666 0.184765 0.8 0 0
0.266685 0.974820 0.126110 0.8 0 0
0.668053 0.164062 0.047395 0.8 0 0
0.025000 0.627801 0.082864 0.8 0 0
0.353228 0.653108 0.028321 0.8 0 0
0.530768 0.475847 0.055622 0.8 0 0
0.331216 0.072161 0.180373 0.8 0 0
0.346527 0.169061 0.049468 0.8 0 0
0.125719 0.056285 0.114839 0.8 0 0
0.260242 0.137568 0.055622 0.8 0 0
0.534086 0.040676 0.027405 0.8 0 0
0.974269 0.429729 0.110340 0.8 0 0
0.536514 0.956332 0.040311 0.8 0 0
0.346527 0.575991 0.033221 0.8 0 0
0.974269 0.244917 0.054076 0.8 0 0
0.331216 0.228684 0.040783 0.8 0 0
0.947402 0.780400 0.040311 0.8 0 0
0.521210 0.362186 0.100462 0.8 0 0
0.367423 0.761448 0.025000 0.8 0 0
0.331216 0.166641 0.185317 0.8 0 0
0.177652 0.668675 0.157318 0.8 0 0
0.637431 0.537190 0.098186 0.8 0 0
0.943647 0.081160 0.066403 0.8 0 0
0.609415 0.331494 0.115241 0.8 0 0
0.721196 0.572683 0.055622 0.8 0 0
0.346527 0.548376 0.031287 0.8 0 0
0.974269 0.700750 0.142903 0.8 0 0
0.331216 0.525246 0.056198 0.8 0 0
0.800668 0.507266 0.025000 0.8 0 0
0.637431 0.555581 0.138062 0.8 0 0
0.055622 0.407440 0.059277 0.8 0 0
0.668053 0.136306 0.130483 0.8 0 0
0.652742 0.733206 0.046658 0.8 0 0
0.181985 0.418094 0.025000 0.8 0 0
0.274587 0.647716 0.055622 0.8 0 0
0.108045 0.519088 0.055622 0.8 0 0
0.326113 0.331719 0.048039 0.8 0 0
0.477902 0.401038 0.055622 0.8 0 0
0.806879 0.025121 0.077365 0.8 0 0
0.395774 0.637880 0.131591 0.8 0 0
0.637431 0.680144 0.111938 0.8 0 0
0.199975 0.958281 0.040311 0.8 0 0
0.603652 0.653108 0.031343 0.8 0 0
0.407607 0.640138 0.193419 0.8 0 0
0.025000 0.304128 0.178088 0.8 0 0
0.567915 0.640511 0.025000 0.8 0 0
0.612330 0.331492 0.057006 0.8 0 0
0.724963 0.664468 0.040311 0.8 0 0
0.812137 0.361954 0.054502 0.8 0 0
0.243124 0.362407 0.089341 0.8 0 0
0.690516 0.499220 0.025000 0.8 0 0
0.748039 0.668221 0.066837 0.8 0 0
0.793014 0.300175 0.025000 0.8 0 0
0.040445 0.668241 0.103966 0.8 0 0
0.055622 0.759401 0.086509 0.8 0 0
0.242297 0.944218 0.083762 0.8 0 0
0.174537 0.164454 0.055622 0.8 0 0
0.025000 0.779222 0.192480 0.8 0 0
0.621254 0.025269 0.158893 0.8 0 0
0.943647 0.846564 0.128600 0.8 0 0
0.415990 0.384740 0.025000 0.8 0 0
0.754155 0.637594 0.140506 0.8 0 0
0.663355 0.959324 0.108120 0.8 0 0
0.289091 0.246926 0.055622 0.8 0 0
0.811714 0.959324 0.035060 0.8 0 0
0.305053 0.054302 0.025000 0.8 0 0
0.826891 0.096823 0.025000 0.8 0 0
0.226872 0.056204 0.060791 0.8 0 0
0.055622 0.533825 0.114708 0.8 0 0
0.197872 0.217273 0.055622 0.8 0 0
0.432458 0.056041 0.043596 0.8 0 0
0.762846 0.637587 0.101452 0.8 0 0
0.361837 0.395637 0.053361 0.8 0 0
0.430083 0.193294 0.055622 0.8 0 0
0.331216 0.741234 0.094476 0.8 0 0
0.637431 0.329725 0.066267 0.8 0 0
0.799842 0.025126 0.132170 0.8 0 0
0.094242 0.851751 0.055622 0.8 0 0
0.752419 0.646473 0.025000 0.8 0 0
0.763920 0.331371 0.101733 0.8 0 0
0.346527 0.291998 0.054109 0.8 0 0
0.237650 0.353600 0.040311 0.8 0 0
0.409729 0.840163 0.055622 0.8 0 0
0.943647 0.754635 0.081584 0.8 0 0
0.075963 0.652061 0.025000 0.8 0 0
0.943647 0.263673 0.146043 0.8 0 0
0.938800 0.477950 0.055622 0.8 0 0
0.058497 0.509415 0.025000 0.8 0 0
0.800995 0.528414 0.025000 0.8 0 0
0.668053 0.883768 0.094266 0.8 0 0
0.656002 0.124195 0.040311 0.8 0 0
0.379448 0.944108 0.091995 0.8 0 0
0.958958 0.713759 0.040603 0.8 0 0
0.600815 0.974554 0.109555 0.8 0 0
0.487651 0.362212 0.169318 0.8 0 0
0.346527 0.796361 0.039367 0.8 0 0
0.943647 0.390703 0.051221 0.8 0 0
0.867281 0.907505 0.025000 0.8 0 0
0.105307 0.898617 0.025000 0.8 0 0
0.679722 0.884291 0.025000 0.8 0 0
0.313202 0.054947 0.025000 0.8 0 0
0.668053 0.278700 0.065408 0.8 0 0
0.280829 0.640829 0.040311 0.8 0 0
0.394444 0.974718 0.119750 0.8 0 0
0.103911 0.025681 0.085995 0.8 0 0
0.217855 0.668643 0.110274 0.8 0 0
0.943647 0.897757 0.041568 0.8 0 0
0.630118 0.665228 0.193419 0.8 0 0
0.168724 0.336285 0.025000 0.8 0 0
0.606679 0.831415 0.055622 0.8 0 0
0.495182 0.921476 0.025000 0.8 0 0
0.628033 0.776886 0.055622 0.8 0 0
0.819334 0.668164 0.050605 0.8 0 0
0.933700 0.361857 0.070641 0.8 0 0
0.025000 0.409150 0.144020 0.8 0 0
0.820919 0.432635 0.055622 0.8 0 0
0.025000 0.753121 0.130105 0.8 0 0
0.583391 0.778961 0.055622 0.8 0 0
0.331216 0.908075 0.112480 0.8 0 0
0.361837 0.947297 0.091308 0.8 0 0
0.361837 0.338304 0.106443 0.8 0 0
0.531398 0.974609 0.169864 0.8 0 0
0.428017 0.040676 0.030698 0.8 0 0
0.435104 0.668024 0.193419 0.8 0 0
0.613473 0.878413 0.025000 0.8 0 0
0.805505 0.025122 0.063945 0.8 0 0
0.331216 0.041770 0.155435 0.8 0 0
0.639920 0.346892 0.046802 0.8 0 0
0.331216 0.871768 0.139413 0.8 0 0
0.433162 0.025418 0.188555 0.8 0 0
0.098336 0.485389 0.055622 0.8 0 0
0.106129 0.770213 0.055622 0.8 0 0
0.731750 0.350802 0.040311 0.8 0 0
0.974269 0.567048 0.045063 0.8 0 0
0.520806 0.385628 0.025000 0.8 0 0
0.717131 0.393758 0.055622 0.8 0 0
0.096504 0.561693 0.055622 0.8 0 0
0.361837 0.746841 0.088327 0.8 0 0
0.820443 0.439625 0.055622 0.8 0 0
0.548358 0.972465 0.040311 0.8 0 0
0.641864 0.796530 0.055622 0.8 0 0
0.943647 0.620708 0.091612 0.8 0 0
0.105653 0.090094 0.025000 0.8 0 0
0.091500 0.952443 0.193419 0.8 0 0
0.055622 0.755476 0.179770 0.8 0 0
0.386762 0.974724 0.074332 0.8 0 0
0.331216 0.187079 0.135698 0.8 0 0
0.502695 0.523321 0.055622 0.8 0 0
0.739195 0.404739 0.055622 0.8 0 0
0.628061 0.646370 0.055622 0.8 0 0
0.511227 0.784671 0.055622 0.8 0 0
0.596802 0.747523 0.025000 0.8 0 0
0.290007 0.713077 0.025000 0.8 0 0
0.668053 0.392553 0.126726 0.8 0 0
0.802621 0.318473 0.025000 0.8 0 0
0.155251 0.668693 0.106929 0.8 0 0
0.055622 0.220694 0.046483 0.8 0 0
0.786650 0.547488 0.025000 0.8 0 0
0.071113 0.703470 0.025000 0.8 0 0
0.396992 0.056069 0.140394 0.8 0 0
0.219132 0.478669 0.025000 0.8 0 0
0.811097 0.159959 0.055622 0.8 0 0
0.590821 0.764279 0.025000 0.8 0 0
0.095186 0.612596 0.025000 0.8 0 0
0.825606 0.974375 0.060478 0.8 0 0
0.267851 0.362388 0.160140 0.8 0 0
0.277036 0.410412 0.025000 0.8 0 0
0.512526 0.619502 0.025000 0.8 0 0
0.652742 0.129989 0.044437 0.8 0 0
0.410449 0.056058 0.129184 0.8 0 0
0.235973 0.806585 0.025000 0.8 0 0
0.541739 0.406440 0.025000 0.8 0 0
0.956521 0.361839 0.096854 0.8 0 0
0.920855 0.637461 0.158972 0.8 0 0
0.040311 0.627380 0.041734 0.8 0 0
0.769399 0.067422 0.055622 0.8 0 0
0.173239 0.337767 0.040311 0.8 0 0
0.510302 0.555198 0.025000 0.8 0 0
0.598680 0.554048 0.025000 0.8 0 0
0.434185 0.690246 0.055622 0.8 0 0
0.552581 0.642596 0.040311 0.8 0 0
0.044533 0.944375 0.184620 0.8 0 0
0.668053 0.390002 0.058057 0.8 0 0
0.943647 0.602765 0.063408 0.8 0 0
0.236900 0.362412 0.122974 0.8 0 0
0.668053 0.137624 0.184036 0.8 0 0
0.109157 0.652482 0.055622 0.8 0 0
0.422244 0.362265 0.154842 0.8 0 0
0.958958 0.942437 0.054582 0.8 0 0
0.025000 0.195322 0.127969 0.8 0 0
0.111368 0.025675 0.062908 0.8 0 0
0.910721 0.655860 0.193419 0.8 0 0
0.391468 0.809183 0.055622 0.8 0 0
0.587699 0.424682 0.025000 0.8 0 0
0.935744 0.249085 0.025000 0.8 0 0
0.229823 0.149109 0.055622 0.8 0 0
0.048581 0.282989 0.040311 0.8 0 0
0.120131 0.362505 0.114694 0.8 0 0
0.487271 0.025375 0.099653 0.8 0 0
0.864350 0.656982 0.193419 0.8 0 0
0.912037 0.055659 0.118526 0.8 0 0
0.176191 0.371255 0.055622 0.8 0 0
0.034935 0.956492 0.193419 0.8 0 0
0.724873 0.974455 0.156416 0.8 0 0
0.413831 0.389376 0.055622 0.8 0 0
0.961956 0.959324 0.069473 0.8 0 0
0.381239 0.974729 0.055534 0.8 0 0
0.948403 0.025008 0.177280 0.8 0 0
0.943647 0.376629 0.185377 0.8 0 0
0.901158 0.861517 0.055622 0.8 0 0
0.290883 0.944179 0.069926 0.8 0 0
0.443055 0.056032 0.129736 0.8 0 0
0.771109 0.893870 0.025000 0.8 0 0
0.937224 0.668070 0.100681 0.8 0 0
0.417383 0.924606 0.025000 0.8 0 0
0.113559 0.899832 0.055622 0.8 0 0
0.157582 0.638070 0.067454 0.8 0 0
0.343852 0.637921 0.165444 0.8 0 0
0.191452 0.855629 0.025000 0.8 0 0
0.647191 0.181920 0.055622 0.8 0 0
0.418386 0.974680 0.040311 0.8 0 0
0.245374 0.606821 0.025000 0.8 0 0
0.492920 0.933998 0.025000 0.8 0 0
0.231767 0.417916 0.055622 0.8 0 0
0.331216 0.934989 0.073379 0.8 0 0
0.319092 0.668562 0.094233 0.8 0 0
0.025000 0.219685 0.149267 0.8 0 0
0.637431 0.100841 0.086369 0.8 0 0
0.076477 0.201013 0.025000 0.8 0 0
0.286960 0.795922 0.025000 0.8 0 0
0.331216 0.287559 0.156678 0.8 0 0
0.079262 0.473202 0.055622 0.8 0 0
0.859097 0.361916 0.136969 0.8 0 0
0.531868 0.648211 0.040311 0.8 0 0
0.489537 0.489968 0.055622 0.8 0 0
0.494602 0.585626 0.025000 0.8 0 0
0.362785 0.332288 0.040311 0.8 0 0
0.673208 0.702021 0.025000 0.8 0 0
0.248062 0.331782 0.152543 0.8 0 0
0.025000 0.252206 0.118862 0.8 0 0
0.943647 0.766410 0.112092 0.8 0 0
0.207572 0.281410 0.025000 0.8 0 0
0.943647 0.355546 0.066917 0.8 0 0
0.500723 0.854358 0.025000 0.8 0 0
0.827601 0.463184 0.025000 0.8 0 0
0.095812 0.653108 0.049371 0.8 0 0
0.103391 0.207349 0.055622 0.8 0 0
0.025000 0.138661 0.186144 0.8 0 0
0.157619 0.331854 0.124974 0.8 0 0
0.800874 0.687639 0.055622 0.8 0 0
0.803369 0.619119 0.025000 0.8 0 0
0.055622 0.724945 0.132707 0.8 0 0
0.937499 0.943664 0.109522 0.8 0 0
0.668053 0.249907 0.054175 0.8 0 0
0.955363 0.560768 0.193419 0.8 0 0
0.882253 0.360775 0.040311 0.8 0 0
0.637431 0.486613 0.094228 0.8 0 0
0.632388 0.211143 0.025000 0.8 0 0
0.055622 0.765092 0.141399 0.8 0 0
0.055622 0.189602 0.122129 0.8 0 0
