0.415008 0.735867 0.047977 0.8 0 0
0.360476 0.025000 0.047102 0.8 0 0
0.343034 0.613134 0.034127 0.8 0 0
0.134163 0.514293 0.046358 0.8 0 0
0.457432 0.371761 0.085221 0.8 0 0
0.320247 0.668557 0.137701 0.8 0 0
0.051564 0.915465 0.101239 0.8 0 0
0.041429 0.469328 0.226683 0.8 0 0
0.107449 0.810000 0.244437 0.8 0 0
0.210826 0.658427 0.124361 0.8 0 0
0.460056 0.593210 0.212716 0.8 0 0
0.048440 0.524423 0.036823 0.8 0 0
0.216957 0.802111 0.069319 0.8 0 0
0.343034 0.670020 0.108519 0.8 0 0
0.160300 0.033532 0.035687 0.8 0 0
0.077052 0.374846 0.112690 0.8 0 0
0.036065 0.185695 0.041505 0.8 0 0
0.343034 0.847545 0.105222 0.8 0 0
0.296328 0.371675 0.036949 0.8 0 0
0.526512 0.287905 0.243288 0.8 0 0
0.363528 0.054014 0.227025 0.8 0 0
0.537132 0.854937 0.181265 0.8 0 0
0.242325 0.054014 0.219832 0.8 0 0
0.353155 0.758855 0.204104 0.8 0 0
0.036065 0.275854 0.107981 0.8 0 0
0.195090 0.371675 0.108154 0.8 0 0
0.053611 0.418274 0.245381 0.8 0 0
0.190950 0.025000 0.059767 0.8 0 0
0.095482 0.522508 0.243531 0.8 0 0
0.304734 0.175730 0.235082 0.8 0 0
0.473606 0.735867 0.040603 0.8 0 0
0.317741 0.802111 0.173822 0.8 0 0
0.518436 0.735867 0.107667 0.8 0 0
0.236357 0.054014 0.214545 0.8 0 0
0.163913 0.524423 0.038909 0.8 0 0
0.164405 0.287080 0.234705 0.8 0 0
0.511306 0.583080 0.211247 0.8 0 0
0.353155 0.780233 0.180085 0.8 0 0
0.345975 0.063721 0.207644 0.8 0 0
0.051564 0.918389 0.053107 0.8 0 0
0.149453 0.260807 0.236535 0.8 0 0
0.508386 0.375583 0.027661 0.8 0 0
0.041429 0.598187 0.036086 0.8 0 0
0.257689 0.524423 0.063342 0.8 0 0
0.505865 0.054014 0.092999 0.8 0 0
0.404039 0.745997 0.195294 0.8 0 0
0.205423 0.376866 0.218738 0.8 0 0
0.046036 0.944601 0.236174 0.8 0 0
0.082922 0.658194 0.244082 0.8 0 0
0.476535 0.745997 0.139661 0.8 0 0
0.340292 0.372323 0.116756 0.8 0 0
0.454423 0.975000 0.069513 0.8 0 0
0.431558 0.975000 0.094280 0.8 0 0
0.106367 0.658427 0.096639 0.8 0 0
0.067295 0.964869 0.120892 0.8 0 0
0.151393 0.376521 0.228661 0.8 0 0
0.065135 0.321690 0.234705 0.8 0 0
0.060235 0.377844 0.032820 0.8 0 0
0.493994 0.289405 0.235082 0.8 0 0
0.046200 0.521273 0.177719 0.8 0 0
0.232263 0.377922 0.126370 0.8 0 0
0.312066 0.968046 0.030364 0.8 0 0
0.447491 0.048159 0.035687 0.8 0 0
0.129503 0.377666 0.105664 0.8 0 0
0.490755 0.247330 0.245160 0.8 0 0
0.537132 0.646605 0.041236 0.8 0 0
0.342714 0.073622 0.245389 0.8 0 0
0.540754 0.374652 0.180448 0.8 0 0
0.149784 0.806430 0.030364 0.8 0 0
0.526997 0.443899 0.186447 0.8 0 0
0.051564 0.807377 0.103324 0.8 0 0
0.170157 0.377353 0.221036 0.8 0 0
0.075526 0.556292 0.235443 0.8 0 0
0.353155 0.497284 0.215924 0.8 0 0
0.391489 0.025000 0.065047 0.8 0 0
0.229744 0.377490 0.073643 0.8 0 0
0.127411 0.802111 0.232644 0.8 0 0
0.526997 0.800241 0.212469 0.8 0 0
0.092498 0.345791 0.025000 0.8 0 0
0.054069 0.472032 0.235082 0.8 0 0
0.344205 0.135115 0.235082 0.8 0 0
0.353155 0.808260 0.179137 0.8 0 0
0.385373 0.964869 0.166348 0.8 0 0
0.349642 0.926748 0.030377 0.8 0 0
0.314822 0.375257 0.226239 0.8 0 0
0.042125 0.054014 0.071239 0.8 0 0
0.136865 0.374851 0.085690 0.8 0 0
0.081163 0.781950 0.244519 0.8 0 0
0.526997 0.485815 0.061612 0.8 0 0
0.045035 0.964869 0.102106 0.8 0 0
0.331120 0.107673 0.234705 0.8 0 0
0.041429 0.548037 0.185863 0.8 0 0
0.367450 0.223572 0.234705 0.8 0 0
0.045852 0.189534 0.245429 0.8 0 0
0.036065 0.136602 0.145203 0.8 0 0
0.192661 0.428179 0.235082 0.8 0 0
0.526512 0.210466 0.238094 0.8 0 0
0.090429 0.398992 0.235082 0.8 0 0
0.155137 0.420372 0.235082 0.8 0 0
0.353061 0.829672 0.242906 0.8 0 0
0.465237 0.063721 0.145505 0.8 0 0
0.090314 0.371675 0.160466 0.8 0 0
0.537132 0.468136 0.148146 0.8 0 0
0.255712 0.964869 0.100862 0.8 0 0
0.041429 0.654708 0.048849 0.8 0 0
0.469661 0.376119 0.072222 0.8 0 0
0.343034 0.610984 0.040352 0.8 0 0
0.363480 0.964869 0.107325 0.8 0 0
0.358424 0.975000 0.218506 0.8 0 0
0.168942 0.371675 0.029416 0.8 0 0
0.365682 0.054014 0.188965 0.8 0 0
0.469909 0.964869 0.228863 0.8 0 0
0.539561 0.379215 0.253811 0.8 0 0
0.036065 0.122244 0.171647 0.8 0 0
0.526997 0.657838 0.199776 0.8 0 0
0.490972 0.377929 0.241433 0.8 0 0
0.526997 0.735169 0.061417 0.8 0 0
0.495066 0.735867 0.076848 0.8 0 0
0.057623 0.374843 0.121298 0.8 0 0
0.250421 0.372754 0.097841 0.8 0 0
0.125240 0.514293 0.123382 0.8 0 0
0.196645 0.668558 0.142895 0.8 0 0
0.262102 0.025000 0.099806 0.8 0 0
0.442489 0.377377 0.157668 0.8 0 0
0.347235 0.593210 0.070222 0.8 0 0
0.338421 0.376757 0.049854 0.8 0 0
0.285248 0.063721 0.133859 0.8 0 0
0.036065 0.108100 0.048206 0.8 0 0
0.353155 0.820259 0.142550 0.8 0 0
0.454439 0.583080 0.042507 0.8 0 0
0.360352 0.975000 0.097075 0.8 0 0
0.396753 0.362105 0.235082 0.8 0 0
0.104847 0.975000 0.235357 0.8 0 0
0.056960 0.377550 0.084703 0.8 0 0
0.188934 0.373884 0.185427 0.8 0 0
0.246512 0.373158 0.165583 0.8 0 0
0.299510 0.658427 0.204282 0.8 0 0
0.291914 0.116680 0.025000 0.8 0 0
0.038341 0.371675 0.163513 0.8 0 0
0.058290 0.054014 0.051963 0.8 0 0
0.448310 0.583080 0.052795 0.8 0 0
0.166803 0.375612 0.145009 0.8 0 0
0.435055 0.583080 0.149159 0.8 0 0
0.084115 0.089651 0.234705 0.8 0 0
0.537132 0.430803 0.142574 0.8 0 0
0.436084 0.379710 0.201370 0.8 0 0
0.540057 0.351384 0.039208 0.8 0 0
0.343034 0.446560 0.097923 0.8 0 0
0.356859 0.243938 0.245328 0.8 0 0
0.292699 0.207849 0.245363 0.8 0 0
0.217562 0.063721 0.223711 0.8 0 0
0.537132 0.595319 0.107683 0.8 0 0
0.526997 0.468583 0.107539 0.8 0 0
0.448724 0.054014 0.112870 0.8 0 0
0.353155 0.856797 0.227984 0.8 0 0
0.325952 0.054014 0.088749 0.8 0 0
0.353155 0.833956 0.226671 0.8 0 0
0.526997 0.903354 0.211691 0.8 0 0
0.036065 0.299276 0.145292 0.8 0 0
0.036065 0.214478 0.182149 0.8 0 0
0.216793 0.668558 0.101977 0.8 0 0
0.137894 0.063720 0.056306 0.8 0 0
0.355722 0.975000 0.131394 0.8 0 0
0.394484 0.593210 0.185986 0.8 0 0
0.165558 0.063721 0.228250 0.8 0 0
0.175936 0.221317 0.245298 0.8 0 0
0.529995 0.364463 0.231225 0.8 0 0
0.435391 0.583080 0.122314 0.8 0 0
0.494868 0.376780 0.073056 0.8 0 0
0.297190 0.054014 0.223678 0.8 0 0
0.417688 0.372500 0.257473 0.8 0 0
0.526997 0.593064 0.075587 0.8 0 0
0.522516 0.975000 0.098155 0.8 0 0
0.387784 0.211579 0.234705 0.8 0 0
0.045278 0.371675 0.158278 0.8 0 0
0.311395 0.514293 0.163907 0.8 0 0
0.041429 0.513535 0.051148 0.8 0 0
0.343034 0.835203 0.047254 0.8 0 0
0.106387 0.054014 0.195666 0.8 0 0
0.537132 0.426798 0.079758 0.8 0 0
0.204702 0.802111 0.085800 0.8 0 0
0.094424 0.665731 0.030391 0.8 0 0
0.258154 0.378119 0.225302 0.8 0 0
0.127619 0.975000 0.162642 0.8 0 0
0.129336 0.228962 0.234705 0.8 0 0
0.114378 0.377281 0.176883 0.8 0 0
0.299372 0.063721 0.180702 0.8 0 0
0.281615 0.904176 0.243579 0.8 0 0
0.226694 0.948290 0.245446 0.8 0 0
0.341530 0.812242 0.065550 0.8 0 0
0.483482 0.593210 0.082356 0.8 0 0
0.168038 0.374888 0.074858 0.8 0 0
0.537132 0.803296 0.210522 0.8 0 0
0.320953 0.054014 0.098432 0.8 0 0
0.124535 0.376569 0.257676 0.8 0 0
0.036065 0.129040 0.026587 0.8 0 0
0.501943 0.371675 0.201867 0.8 0 0
0.417654 0.293682 0.025000 0.8 0 0
0.411636 0.063720 0.083378 0.8 0 0
0.526997 0.704225 0.191893 0.8 0 0
0.537132 0.884557 0.068157 0.8 0 0
0.120501 0.333433 0.245403 0.8 0 0
0.123773 0.376113 0.212993 0.8 0 0
0.337519 0.054014 0.101939 0.8 0 0
0.431693 0.219446 0.235082 0.8 0 0
0.489161 0.085938 0.234705 0.8 0 0
0.130274 0.030834 0.035687 0.8 0 0
0.198143 0.378233 0.158595 0.8 0 0
0.224141 0.375767 0.133558 0.8 0 0
0.479886 0.371675 0.028456 0.8 0 0
0.343034 0.708547 0.085412 0.8 0 0
0.525425 0.374956 0.158307 0.8 0 0
0.136384 0.376573 0.216780 0.8 0 0
0.537132 0.447346 0.083985 0.8 0 0
0.281597 0.358820 0.235100 0.8 0 0
0.519309 0.593210 0.099101 0.8 0 0
0.036065 0.297948 0.224113 0.8 0 0
0.197004 0.377259 0.036127 0.8 0 0
0.147843 0.675918 0.243703 0.8 0 0
0.295609 0.806862 0.236174 0.8 0 0
0.478388 0.156468 0.245184 0.8 0 0
0.036065 0.134013 0.098733 0.8 0 0
0.352958 0.964869 0.214969 0.8 0 0
0.540057 0.241041 0.105447 0.8 0 0
0.192006 0.514293 0.113376 0.8 0 0
0.381539 0.371675 0.039355 0.8 0 0
0.047346 0.141536 0.235123 0.8 0 0
0.066219 0.659247 0.235082 0.8 0 0
0.339641 0.086064 0.234705 0.8 0 0
0.517217 0.189165 0.235082 0.8 0 0
0.066910 0.668558 0.194383 0.8 0 0
0.336045 0.025000 0.149090 0.8 0 0
0.041429 0.799291 0.114134 0.8 0 0
0.499712 0.331898 0.025000 0.8 0 0
0.283237 0.521529 0.236214 0.8 0 0
0.332587 0.142118 0.245290 0.8 0 0
0.496583 0.327342 0.235082 0.8 0 0
0.309043 0.514293 0.114017 0.8 0 0
0.105548 0.668558 0.104992 0.8 0 0
0.232107 0.378855 0.127451 0.8 0 0
0.154728 0.890270 0.244392 0.8 0 0
0.262758 0.802111 0.065318 0.8 0 0
0.200411 0.668558 0.123965 0.8 0 0
0.370798 0.975000 0.219787 0.8 0 0
0.194973 0.812242 0.136469 0.8 0 0
0.540057 0.347759 0.151046 0.8 0 0
0.083382 0.514293 0.128319 0.8 0 0
0.240111 0.025000 0.123393 0.8 0 0
0.537132 0.853819 0.111559 0.8 0 0
0.407345 0.379466 0.183584 0.8 0 0
0.264192 0.811668 0.030364 0.8 0 0
0.051564 0.686231 0.189845 0.8 0 0
0.352885 0.969449 0.038945 0.8 0 0
0.036065 0.371171 0.205829 0.8 0 0
0.448501 0.964869 0.229730 0.8 0 0
0.537132 0.840387 0.120540 0.8 0 0
0.325696 0.514293 0.091544 0.8 0 0
0.256857 0.411515 0.245291 0.8 0 0
0.523411 0.964869 0.052303 0.8 0 0
0.333520 0.281244 0.234705 0.8 0 0
0.353155 0.793045 0.137393 0.8 0 0
0.371116 0.593210 0.196475 0.8 0 0
0.091007 0.364875 0.244158 0.8 0 0
0.343034 0.891402 0.229667 0.8 0 0
0.448517 0.964874 0.236174 0.8 0 0
0.071178 0.802111 0.147819 0.8 0 0
0.173354 0.263984 0.245302 0.8 0 0
0.479166 0.029074 0.229880 0.8 0 0
0.343034 0.757337 0.121351 0.8 0 0
0.053737 0.375994 0.250018 0.8 0 0
0.537132 0.699456 0.156261 0.8 0 0
0.400977 0.375565 0.156975 0.8 0 0
0.379169 0.025000 0.039154 0.8 0 0
0.441492 0.335206 0.245220 0.8 0 0
0.353155 0.680882 0.153969 0.8 0 0
0.277194 0.298636 0.234705 0.8 0 0
0.370372 0.372179 0.048139 0.8 0 0
0.202015 0.803477 0.243773 0.8 0 0
0.078770 0.668558 0.109087 0.8 0 0
0.306957 0.088410 0.234705 0.8 0 0
0.364590 0.207323 0.234705 0.8 0 0
0.089297 0.514293 0.191085 0.8 0 0
0.412601 0.591255 0.236190 0.8 0 0
0.428095 0.376122 0.091024 0.8 0 0
0.041429 0.620337 0.087628 0.8 0 0
0.517693 0.203736 0.234705 0.8 0 0
0.348996 0.964869 0.142179 0.8 0 0
0.232288 0.238986 0.245190 0.8 0 0
0.526997 0.549583 0.166863 0.8 0 0
0.526997 0.959019 0.057529 0.8 0 0
0.443233 0.371675 0.189925 0.8 0 0
0.057306 0.371675 0.128531 0.8 0 0
0.066893 0.812242 0.171731 0.8 0 0
0.170220 0.678845 0.243561 0.8 0 0
0.041429 0.777699 0.160538 0.8 0 0
0.156154 0.954463 0.235082 0.8 0 0
0.059445 0.514293 0.225725 0.8 0 0
0.352458 0.839106 0.236187 0.8 0 0
0.243231 0.514293 0.146383 0.8 0 0
0.041429 0.447773 0.112532 0.8 0 0
0.126202 0.658427 0.146167 0.8 0 0
0.314957 0.376906 0.054085 0.8 0 0
0.526997 0.603273 0.099066 0.8 0 0
0.311048 0.812242 0.173257 0.8 0 0
0.300181 0.087857 0.235082 0.8 0 0
0.537132 0.974686 0.160984 0.8 0 0
0.336997 0.377513 0.123962 0.8 0 0
0.353155 0.832366 0.231841 0.8 0 0
0.160214 0.975000 0.134465 0.8 0 0
0.540057 0.075429 0.068001 0.8 0 0
0.084342 0.377568 0.120394 0.8 0 0
0.353155 0.735309 0.225289 0.8 0 0
0.203334 0.168768 0.234705 0.8 0 0
0.101195 0.541168 0.243557 0.8 0 0
0.204841 0.356910 0.234705 0.8 0 0
0.353155 0.587800 0.178075 0.8 0 0
0.114295 0.227397 0.236348 0.8 0 0
0.043293 0.909744 0.030364 0.8 0 0
0.174807 0.942492 0.245446 0.8 0 0
0.089037 0.964869 0.135050 0.8 0 0
0.502442 0.040263 0.092125 0.8 0 0
0.369460 0.593210 0.192160 0.8 0 0
0.044542 0.562188 0.244521 0.8 0 0
0.526997 0.695693 0.172937 0.8 0 0
0.532493 0.371401 0.169541 0.8 0 0
0.051564 0.723639 0.145815 0.8 0 0
0.459469 0.374554 0.030473 0.8 0 0
0.089581 0.660342 0.236187 0.8 0 0
0.526997 0.688502 0.040162 0.8 0 0
0.083577 0.975000 0.228197 0.8 0 0
0.526512 0.225115 0.235470 0.8 0 0
0.447289 0.377980 0.120646 0.8 0 0
0.540057 0.263203 0.197662 0.8 0 0
0.381065 0.025000 0.090667 0.8 0 0
0.052852 0.376383 0.198191 0.8 0 0
0.258598 0.371675 0.034542 0.8 0 0
0.353155 0.578982 0.150904 0.8 0 0
0.542394 0.377516 0.216169 0.8 0 0
0.051564 0.734127 0.098017 0.8 0 0
0.305072 0.524422 0.200042 0.8 0 0
0.106153 0.524423 0.079314 0.8 0 0
0.251954 0.370124 0.025000 0.8 0 0
0.230036 0.238647 0.234705 0.8 0 0
0.299313 0.170909 0.245241 0.8 0 0
0.515386 0.054014 0.131769 0.8 0 0
0.345994 0.371675 0.107143 0.8 0 0
0.041429 0.491385 0.104273 0.8 0 0
0.041429 0.652473 0.192766 0.8 0 0
0.507369 0.376548 0.104758 0.8 0 0
0.103394 0.377289 0.131238 0.8 0 0
0.537132 0.367873 0.120729 0.8 0 0
0.193137 0.658427 0.159287 0.8 0 0
0.174711 0.802111 0.150476 0.8 0 0
0.526997 0.383260 0.220384 0.8 0 0
0.250616 0.054014 0.045134 0.8 0 0
0.205365 0.658427 0.191136 0.8 0 0
0.223811 0.524423 0.067274 0.8 0 0
0.197873 0.405706 0.245446 0.8 0 0
0.520868 0.745997 0.084944 0.8 0 0
0.041429 0.457871 0.112677 0.8 0 0
0.276107 0.375812 0.114014 0.8 0 0
0.041429 0.479443 0.154602 0.8 0 0
0.496405 0.099346 0.234705 0.8 0 0
0.092991 0.524423 0.134173 0.8 0 0
0.353155 0.808224 0.137764 0.8 0 0
0.349762 0.930706 0.236187 0.8 0 0
0.521753 0.114605 0.025000 0.8 0 0
0.079916 0.371675 0.062593 0.8 0 0
0.122414 0.203979 0.025000 0.8 0 0
0.111138 0.802111 0.043391 0.8 0 0
0.294798 0.514293 0.104068 0.8 0 0
0.541276 0.377490 0.213047 0.8 0 0
0.335226 0.802111 0.186265 0.8 0 0
0.202483 0.952103 0.235082 0.8 0 0
0.171240 0.802111 0.046613 0.8 0 0
0.041429 0.411279 0.216144 0.8 0 0
0.241292 0.812242 0.109367 0.8 0 0
0.249727 0.234767 0.235446 0.8 0 0
0.076804 0.882782 0.244895 0.8 0 0
0.252184 0.063721 0.197450 0.8 0 0
0.353155 0.909220 0.128166 0.8 0 0
0.455887 0.375363 0.151189 0.8 0 0
0.055394 0.580076 0.245291 0.8 0 0
0.476061 0.379950 0.221342 0.8 0 0
0.144625 0.290807 0.245357 0.8 0 0
0.353155 0.491556 0.195492 0.8 0 0
0.353155 0.618032 0.227293 0.8 0 0
0.406925 0.583080 0.230894 0.8 0 0
0.526997 0.408150 0.061285 0.8 0 0
0.204333 0.940099 0.245446 0.8 0 0
0.041429 0.943091 0.050168 0.8 0 0
0.191333 0.378625 0.112927 0.8 0 0
0.044140 0.054014 0.165196 0.8 0 0
0.123212 0.377371 0.175917 0.8 0 0
0.295146 0.375608 0.201556 0.8 0 0
0.092119 0.258640 0.236625 0.8 0 0
0.444226 0.593210 0.095106 0.8 0 0
0.460072 0.252102 0.235082 0.8 0 0
0.420824 0.975000 0.217909 0.8 0 0
0.142533 0.281971 0.234705 0.8 0 0
0.514786 0.075691 0.234705 0.8 0 0
0.183069 0.802111 0.113474 0.8 0 0
0.341972 0.378390 0.118142 0.8 0 0
0.353155 0.518392 0.123343 0.8 0 0
0.219284 0.371675 0.193720 0.8 0 0
0.345927 0.568392 0.030377 0.8 0 0
0.512005 0.735867 0.223751 0.8 0 0
0.520846 0.975000 0.083212 0.8 0 0
0.051564 0.701843 0.219222 0.8 0 0
0.347325 0.129364 0.235082 0.8 0 0
0.041429 0.589748 0.093055 0.8 0 0
0.540057 0.329203 0.181925 0.8 0 0
0.537132 0.528495 0.131463 0.8 0 0
0.084952 0.878474 0.244825 0.8 0 0
0.189021 0.812242 0.175864 0.8 0 0
0.085706 0.514293 0.101336 0.8 0 0
0.537132 0.405560 0.129723 0.8 0 0
0.353061 0.643884 0.241503 0.8 0 0
0.513186 0.141973 0.025000 0.8 0 0
0.222637 0.197377 0.025000 0.8 0 0
0.181989 0.116963 0.245249 0.8 0 0
0.285164 0.373467 0.232289 0.8 0 0
0.051564 0.804098 0.066122 0.8 0 0
0.529301 0.589823 0.030364 0.8 0 0
0.434672 0.593210 0.066712 0.8 0 0
0.331366 0.371675 0.155218 0.8 0 0
0.279407 0.377870 0.133436 0.8 0 0
0.044753 0.853501 0.245443 0.8 0 0
0.051564 0.950098 0.182170 0.8 0 0
0.081943 0.802111 0.151732 0.8 0 0
0.103126 0.371675 0.120614 0.8 0 0
0.068763 0.534275 0.235082 0.8 0 0
0.137998 0.063720 0.096540 0.8 0 0
0.030590 0.375660 0.259703 0.8 0 0
0.055244 0.102290 0.245260 0.8 0 0
0.082490 0.668558 0.128795 0.8 0 0
0.343034 0.704029 0.033782 0.8 0 0
0.224793 0.063721 0.206032 0.8 0 0
0.540057 0.073995 0.032168 0.8 0 0
0.540057 0.104387 0.131136 0.8 0 0
0.224852 0.093345 0.234705 0.8 0 0
0.177288 0.514293 0.126409 0.8 0 0
0.037449 0.158259 0.025000 0.8 0 0
0.036065 0.239131 0.148147 0.8 0 0
0.359827 0.063720 0.059180 0.8 0 0
0.343034 0.589878 0.081291 0.8 0 0
0.051564 0.785358 0.136551 0.8 0 0
0.264751 0.164105 0.025000 0.8 0 0
0.408579 0.371675 0.159193 0.8 0 0
0.239331 0.385188 0.242890 0.8 0 0
0.139009 0.353502 0.236649 0.8 0 0
0.417251 0.745997 0.160167 0.8 0 0
0.537132 0.403492 0.060707 0.8 0 0
0.415076 0.593210 0.113125 0.8 0 0
0.537132 0.807674 0.191660 0.8 0 0
0.484874 0.153509 0.235082 0.8 0 0
0.526997 0.787629 0.115528 0.8 0 0
0.343034 0.520180 0.192032 0.8 0 0
0.149917 0.524423 0.189892 0.8 0 0
0.356377 0.372246 0.107839 0.8 0 0
0.515016 0.975000 0.098180 0.8 0 0
0.300074 0.524422 0.172901 0.8 0 0
0.055660 0.141827 0.234705 0.8 0 0
0.126699 0.668558 0.053924 0.8 0 0
0.526997 0.885657 0.150312 0.8 0 0
0.483167 0.735867 0.225479 0.8 0 0
0.355054 0.964869 0.168000 0.8 0 0
0.051564 0.742380 0.178521 0.8 0 0
0.077326 0.097749 0.235610 0.8 0 0
0.524538 0.267410 0.025000 0.8 0 0
0.108256 0.344058 0.243401 0.8 0 0
0.526997 0.378678 0.035024 0.8 0 0
0.131307 0.269082 0.245368 0.8 0 0
0.537132 0.874311 0.145420 0.8 0 0
0.226486 0.514293 0.224739 0.8 0 0
0.051564 0.737201 0.136130 0.8 0 0
0.379233 0.372486 0.220622 0.8 0 0
0.487493 0.374699 0.200431 0.8 0 0
0.526997 0.873827 0.147574 0.8 0 0
0.051564 0.527526 0.030483 0.8 0 0
0.128458 0.681593 0.243854 0.8 0 0
0.537132 0.600758 0.038303 0.8 0 0
0.223637 0.371200 0.025000 0.8 0 0
0.140504 0.025000 0.078530 0.8 0 0
0.306174 0.084507 0.235082 0.8 0 0
0.036065 0.258055 0.224504 0.8 0 0
0.081674 0.373938 0.091823 0.8 0 0
0.152533 0.374846 0.077947 0.8 0 0
0.489671 0.583080 0.031515 0.8 0 0
0.252924 0.378766 0.155589 0.8 0 0
0.371078 0.378218 0.115980 0.8 0 0
0.362836 0.583080 0.061658 0.8 0 0
0.343034 0.958065 0.152888 0.8 0 0
0.344719 0.744275 0.053843 0.8 0 0
0.041429 0.973904 0.111609 0.8 0 0
0.143502 0.197396 0.025000 0.8 0 0
0.299329 0.325787 0.245446 0.8 0 0
0.077117 0.133509 0.234705 0.8 0 0
0.041429 0.947748 0.227626 0.8 0 0
0.485531 0.054014 0.147686 0.8 0 0
0.172003 0.371675 0.139705 0.8 0 0
0.156101 0.658427 0.216240 0.8 0 0
0.193640 0.377430 0.235001 0.8 0 0
0.540057 0.127731 0.227243 0.8 0 0
0.411086 0.583736 0.236200 0.8 0 0
0.225151 0.377712 0.143987 0.8 0 0
0.488833 0.374630 0.206493 0.8 0 0
0.112746 0.181401 0.235816 0.8 0 0
0.310706 0.964869 0.229868 0.8 0 0
0.148827 0.865385 0.244346 0.8 0 0
0.269270 0.668557 0.214877 0.8 0 0
0.036065 0.246761 0.224414 0.8 0 0
0.094851 0.054014 0.234321 0.8 0 0
0.538210 0.592752 0.038795 0.8 0 0
0.391690 0.374612 0.252894 0.8 0 0
0.407226 0.593210 0.207152 0.8 0 0
0.204545 0.377909 0.115246 0.8 0 0
0.041429 0.505636 0.049421 0.8 0 0
0.329894 0.376847 0.054857 0.8 0 0
0.343034 0.689663 0.051243 0.8 0 0
0.159836 0.802111 0.195172 0.8 0 0
0.100201 0.404454 0.245446 0.8 0 0
0.036065 0.167392 0.028571 0.8 0 0
0.369107 0.735867 0.042374 0.8 0 0
0.350088 0.593210 0.196984 0.8 0 0
0.081883 0.524423 0.169704 0.8 0 0
0.285893 0.514293 0.041151 0.8 0 0
0.071086 0.802111 0.191736 0.8 0 0
0.472288 0.371675 0.191563 0.8 0 0
0.526997 0.831278 0.110629 0.8 0 0
0.438508 0.192477 0.235082 0.8 0 0
0.420162 0.583080 0.210524 0.8 0 0
0.100570 0.181795 0.245440 0.8 0 0
0.252800 0.072240 0.234705 0.8 0 0
0.368989 0.372186 0.146818 0.8 0 0
0.046186 0.810520 0.214618 0.8 0 0
0.343034 0.752874 0.123807 0.8 0 0
0.411962 0.375915 0.061393 0.8 0 0
0.537132 0.415248 0.158974 0.8 0 0
0.051564 0.819728 0.081542 0.8 0 0
0.480752 0.371650 0.190143 0.8 0 0
0.259244 0.054014 0.133670 0.8 0 0
0.046013 0.364463 0.123907 0.8 0 0
0.233341 0.161652 0.235624 0.8 0 0
0.537132 0.630640 0.182214 0.8 0 0
0.534236 0.975000 0.068923 0.8 0 0
0.356176 0.371675 0.099776 0.8 0 0
0.413610 0.379592 0.220861 0.8 0 0
0.140549 0.206432 0.025000 0.8 0 0
0.526997 0.896406 0.157153 0.8 0 0
0.156254 0.812242 0.155061 0.8 0 0
0.537132 0.709554 0.186347 0.8 0 0
0.269556 0.658427 0.102046 0.8 0 0
0.199879 0.377741 0.085140 0.8 0 0
0.118025 0.802111 0.136362 0.8 0 0
0.371108 0.351542 0.235082 0.8 0 0
0.142686 0.723563 0.243901 0.8 0 0
0.129734 0.377498 0.169277 0.8 0 0
0.121861 0.308593 0.234705 0.8 0 0
0.537132 0.414074 0.149031 0.8 0 0
0.389460 0.376347 0.032102 0.8 0 0
0.447186 0.234216 0.025000 0.8 0 0
0.089645 0.668558 0.061448 0.8 0 0
0.130314 0.831453 0.244355 0.8 0 0
0.245647 0.524423 0.112453 0.8 0 0
0.154303 0.028722 0.229880 0.8 0 0
0.526997 0.683119 0.127977 0.8 0 0
0.229167 0.063721 0.169750 0.8 0 0
0.286547 0.802111 0.219479 0.8 0 0
0.242755 0.802111 0.161863 0.8 0 0
0.425228 0.063721 0.217867 0.8 0 0
0.337729 0.524423 0.077707 0.8 0 0
0.294814 0.668556 0.222520 0.8 0 0
0.051564 0.622518 0.070575 0.8 0 0
0.046893 0.054014 0.065140 0.8 0 0
0.352573 0.379372 0.186658 0.8 0 0
0.452948 0.593210 0.178418 0.8 0 0
0.146755 0.115426 0.245332 0.8 0 0
0.041429 0.853036 0.189481 0.8 0 0
0.305535 0.524422 0.172757 0.8 0 0
0.044946 0.146668 0.242726 0.8 0 0
0.406677 0.082090 0.244366 0.8 0 0
0.241115 0.373490 0.194010 0.8 0 0
0.041429 0.553309 0.091026 0.8 0 0
0.526997 0.621120 0.117425 0.8 0 0
0.349503 0.519610 0.208439 0.8 0 0
0.152289 0.308424 0.236504 0.8 0 0
0.130951 0.054014 0.127558 0.8 0 0
0.464104 0.745997 0.176025 0.8 0 0
0.051564 0.528887 0.227318 0.8 0 0
0.290619 0.975000 0.189261 0.8 0 0
0.051564 0.696124 0.230810 0.8 0 0
0.526997 0.501985 0.156537 0.8 0 0
0.109241 0.376250 0.236597 0.8 0 0
0.123662 0.849801 0.244464 0.8 0 0
0.343034 0.399288 0.221653 0.8 0 0
0.103563 0.634616 0.243861 0.8 0 0
0.041429 0.809574 0.098475 0.8 0 0
0.268412 0.371675 0.080692 0.8 0 0
0.433128 0.202441 0.245271 0.8 0 0
0.414856 0.063720 0.120187 0.8 0 0
0.353155 0.709270 0.079815 0.8 0 0
0.234601 0.658427 0.064400 0.8 0 0
0.058274 0.637159 0.235082 0.8 0 0
0.146787 0.025000 0.044950 0.8 0 0
0.282487 0.514293 0.182794 0.8 0 0
0.115296 0.374680 0.197378 0.8 0 0
0.379656 0.378861 0.148687 0.8 0 0
0.253482 0.063721 0.180281 0.8 0 0
0.196320 0.371675 0.196504 0.8 0 0
0.195114 0.902289 0.244159 0.8 0 0
0.041429 0.716595 0.159527 0.8 0 0
0.334212 0.611904 0.235082 0.8 0 0
0.521760 0.294516 0.245446 0.8 0 0
0.480394 0.054014 0.050068 0.8 0 0
0.178488 0.890998 0.244233 0.8 0 0
0.359345 0.257144 0.234705 0.8 0 0
0.112364 0.524423 0.192674 0.8 0 0
0.509249 0.336416 0.025000 0.8 0 0
0.322630 0.054014 0.118368 0.8 0 0
0.374509 0.735867 0.119180 0.8 0 0
0.129611 0.377061 0.165528 0.8 0 0
0.526997 0.630435 0.139421 0.8 0 0
0.537132 0.396059 0.194782 0.8 0 0
0.526997 0.869356 0.070933 0.8 0 0
0.241588 0.317635 0.235535 0.8 0 0
0.404839 0.583080 0.094062 0.8 0 0
0.478763 0.054014 0.231095 0.8 0 0
0.105240 0.152907 0.235462 0.8 0 0
0.520603 0.374784 0.177029 0.8 0 0
0.461854 0.298993 0.235082 0.8 0 0
0.353155 0.868869 0.210661 0.8 0 0
0.343034 0.724539 0.087572 0.8 0 0
0.436464 0.178362 0.235082 0.8 0 0
0.103142 0.723504 0.244169 0.8 0 0
0.283263 0.113832 0.235555 0.8 0 0
0.127197 0.377810 0.135617 0.8 0 0
0.414794 0.964869 0.044094 0.8 0 0
0.041577 0.895027 0.030364 0.8 0 0
0.122968 0.054014 0.184863 0.8 0 0
0.531905 0.342679 0.234705 0.8 0 0
0.420930 0.054014 0.026312 0.8 0 0
0.312298 0.257936 0.235082 0.8 0 0
0.093898 0.371675 0.061281 0.8 0 0
0.197274 0.054014 0.220926 0.8 0 0
0.483310 0.136925 0.245175 0.8 0 0
0.451359 0.236976 0.245236 0.8 0 0
0.160613 0.668558 0.088468 0.8 0 0
0.282459 0.373218 0.204845 0.8 0 0
0.451585 0.187392 0.025000 0.8 0 0
0.475241 0.366711 0.025000 0.8 0 0
0.492713 0.964869 0.064501 0.8 0 0
0.195920 0.054014 0.220504 0.8 0 0
0.197008 0.385188 0.237295 0.8 0 0
0.499605 0.054014 0.134457 0.8 0 0
0.051564 0.890017 0.087760 0.8 0 0
0.526997 0.837816 0.031243 0.8 0 0
0.100186 0.970286 0.236174 0.8 0 0
0.064304 0.162098 0.234705 0.8 0 0
0.429933 0.964869 0.087276 0.8 0 0
0.526997 0.516628 0.127713 0.8 0 0
0.054636 0.377839 0.055033 0.8 0 0
0.265792 0.151136 0.244237 0.8 0 0
0.064860 0.514293 0.085677 0.8 0 0
0.080685 0.215952 0.234705 0.8 0 0
0.411532 0.025000 0.050261 0.8 0 0
0.438690 0.156306 0.235082 0.8 0 0
0.046200 0.524331 0.148720 0.8 0 0
0.245226 0.044013 0.035687 0.8 0 0
0.343034 0.406317 0.189582 0.8 0 0
0.282903 0.524423 0.132741 0.8 0 0
0.271733 0.964869 0.173238 0.8 0 0
0.211787 0.514293 0.154994 0.8 0 0
0.094790 0.371287 0.234705 0.8 0 0
0.349249 0.812242 0.123273 0.8 0 0
0.526997 0.971202 0.046085 0.8 0 0
0.537132 0.847466 0.114259 0.8 0 0
0.036065 0.165482 0.072180 0.8 0 0
0.306213 0.063721 0.194363 0.8 0 0
0.123949 0.802111 0.110032 0.8 0 0
0.455276 0.735867 0.128356 0.8 0 0
0.343034 0.847617 0.164703 0.8 0 0
0.526997 0.399953 0.095655 0.8 0 0
0.537132 0.908477 0.189462 0.8 0 0
0.260346 0.964869 0.157372 0.8 0 0
0.353155 0.494394 0.104983 0.8 0 0
0.419438 0.184144 0.234705 0.8 0 0
0.167220 0.025000 0.065586 0.8 0 0
0.353155 0.719083 0.133336 0.8 0 0
0.417101 0.054014 0.185855 0.8 0 0
0.227495 0.965744 0.238274 0.8 0 0
0.217039 0.080548 0.025000 0.8 0 0
0.279234 0.812242 0.198651 0.8 0 0
0.532842 0.377939 0.253662 0.8 0 0
0.530490 0.215525 0.234705 0.8 0 0
0.332705 0.975000 0.118606 0.8 0 0
0.343034 0.703234 0.112263 0.8 0 0
0.333610 0.514293 0.086173 0.8 0 0
0.305800 0.802111 0.143096 0.8 0 0
0.329890 0.214623 0.234705 0.8 0 0
0.385815 0.583080 0.198075 0.8 0 0
0.085628 0.374244 0.050843 0.8 0 0
0.283263 0.194695 0.239232 0.8 0 0
0.528224 0.964869 0.103224 0.8 0 0
0.247063 0.371675 0.040872 0.8 0 0
0.537132 0.423314 0.052611 0.8 0 0
0.473230 0.290199 0.245194 0.8 0 0
0.052292 0.377298 0.107492 0.8 0 0
0.434886 0.289994 0.235082 0.8 0 0
0.345016 0.660834 0.245446 0.8 0 0
0.355995 0.266760 0.235082 0.8 0 0
0.436689 0.975000 0.100661 0.8 0 0
0.537132 0.880496 0.048541 0.8 0 0
0.516654 0.378147 0.143285 0.8 0 0
0.526997 0.824608 0.034660 0.8 0 0
0.036065 0.146180 0.145151 0.8 0 0
0.065361 0.376179 0.246162 0.8 0 0
0.164636 0.964869 0.229478 0.8 0 0
0.151455 0.270965 0.245344 0.8 0 0
0.203334 0.063721 0.224931 0.8 0 0
0.526997 0.493286 0.083991 0.8 0 0
0.341988 0.668557 0.123582 0.8 0 0
0.343034 0.922176 0.141017 0.8 0 0
0.036065 0.329911 0.202654 0.8 0 0
0.540057 0.322301 0.079565 0.8 0 0
0.116462 0.250997 0.234705 0.8 0 0
0.194859 0.214391 0.234705 0.8 0 0
0.162974 0.054014 0.118656 0.8 0 0
0.036065 0.171997 0.190789 0.8 0 0
0.194092 0.843576 0.243964 0.8 0 0
0.036065 0.359644 0.190399 0.8 0 0
0.096627 0.376926 0.196059 0.8 0 0
0.389626 0.735867 0.089504 0.8 0 0
0.353155 0.691037 0.072353 0.8 0 0
0.274379 0.371675 0.029506 0.8 0 0
0.343755 0.514293 0.102711 0.8 0 0
0.171258 0.349663 0.245446 0.8 0 0
0.378601 0.377428 0.134135 0.8 0 0
0.093137 0.664374 0.244034 0.8 0 0
0.405137 0.372012 0.112333 0.8 0 0
0.213625 0.432298 0.235629 0.8 0 0
0.041187 0.054014 0.191832 0.8 0 0
0.232860 0.812242 0.220861 0.8 0 0
0.319831 0.210668 0.234705 0.8 0 0
0.036065 0.212413 0.218347 0.8 0 0
0.526997 0.764584 0.194361 0.8 0 0
0.537132 0.499322 0.149578 0.8 0 0
0.065288 0.553991 0.235082 0.8 0 0
0.041429 0.540119 0.042851 0.8 0 0
0.145060 0.239349 0.236583 0.8 0 0
0.499097 0.236475 0.025000 0.8 0 0
0.191424 0.658427 0.119940 0.8 0 0
0.228259 0.204204 0.245197 0.8 0 0
0.445889 0.377347 0.156203 0.8 0 0
0.175095 0.524423 0.051351 0.8 0 0
0.093982 0.375976 0.258696 0.8 0 0
0.337470 0.514293 0.037860 0.8 0 0
0.469442 0.054014 0.196728 0.8 0 0
0.079946 0.377794 0.036639 0.8 0 0
0.526997 0.833252 0.057724 0.8 0 0
0.251846 0.183630 0.025000 0.8 0 0
0.537132 0.872299 0.151292 0.8 0 0
0.076811 0.197263 0.245227 0.8 0 0
0.156176 0.371675 0.123821 0.8 0 0
0.503021 0.975000 0.137223 0.8 0 0
0.036065 0.326944 0.159782 0.8 0 0
0.348648 0.802111 0.077195 0.8 0 0
0.540057 0.300197 0.194603 0.8 0 0
0.097641 0.949611 0.245446 0.8 0 0
0.455743 0.964869 0.132305 0.8 0 0
0.203826 0.918542 0.244156 0.8 0 0
0.312867 0.411000 0.235082 0.8 0 0
0.057325 0.795009 0.235082 0.8 0 0
0.379012 0.166931 0.245233 0.8 0 0
0.194820 0.514293 0.057582 0.8 0 0
0.210763 0.371675 0.208081 0.8 0 0
0.115569 0.129994 0.245405 0.8 0 0
0.353746 0.226906 0.234705 0.8 0 0
0.213532 0.194808 0.234705 0.8 0 0
0.267208 0.964869 0.185210 0.8 0 0
0.422800 0.063721 0.221968 0.8 0 0
0.526997 0.523222 0.213694 0.8 0 0
0.188100 0.658427 0.191884 0.8 0 0
0.526997 0.892605 0.200523 0.8 0 0
0.526997 0.888656 0.213883 0.8 0 0
0.308424 0.964869 0.058314 0.8 0 0
0.129474 0.054014 0.149023 0.8 0 0
0.041429 0.754450 0.176303 0.8 0 0
0.323514 0.581605 0.245006 0.8 0 0
0.353155 0.503664 0.163955 0.8 0 0
0.290828 0.375632 0.089919 0.8 0 0
0.405319 0.054014 0.130400 0.8 0 0
0.421270 0.583080 0.216083 0.8 0 0
0.168625 0.378147 0.139957 0.8 0 0
0.202425 0.025000 0.148136 0.8 0 0
0.445672 0.076171 0.235082 0.8 0 0
0.526997 0.656012 0.230044 0.8 0 0
0.225707 0.975000 0.043077 0.8 0 0
0.537132 0.721290 0.179871 0.8 0 0
0.379763 0.082722 0.235082 0.8 0 0
0.466335 0.745997 0.154539 0.8 0 0
0.142100 0.376192 0.212121 0.8 0 0
0.353155 0.700379 0.167454 0.8 0 0
0.051564 0.968168 0.162397 0.8 0 0
0.103474 0.802111 0.102181 0.8 0 0
0.075526 0.810652 0.240858 0.8 0 0
0.403488 0.054014 0.154969 0.8 0 0
0.439265 0.054014 0.034152 0.8 0 0
0.353155 0.455867 0.210598 0.8 0 0
0.455953 0.371675 0.037678 0.8 0 0
0.537132 0.647183 0.132694 0.8 0 0
0.051564 0.869747 0.035495 0.8 0 0
0.243719 0.352858 0.235511 0.8 0 0
0.513960 0.377961 0.133787 0.8 0 0
0.097365 0.802111 0.147115 0.8 0 0
0.041429 0.765162 0.155444 0.8 0 0
0.131408 0.975000 0.061543 0.8 0 0
0.292899 0.658427 0.038644 0.8 0 0
0.489561 0.371675 0.140076 0.8 0 0
0.537132 0.399543 0.193363 0.8 0 0
0.526997 0.445780 0.229767 0.8 0 0
0.343034 0.451168 0.154088 0.8 0 0
0.383539 0.291113 0.025000 0.8 0 0
0.051564 0.729526 0.131608 0.8 0 0
0.158016 0.025000 0.035705 0.8 0 0
0.064885 0.584440 0.245199 0.8 0 0
0.343034 0.477913 0.064647 0.8 0 0
0.042096 0.975000 0.190800 0.8 0 0
0.386716 0.377046 0.099997 0.8 0 0
0.540057 0.289785 0.190053 0.8 0 0
0.540057 0.104261 0.095386 0.8 0 0
0.332128 0.372989 0.227677 0.8 0 0
0.185965 0.063721 0.216658 0.8 0 0
0.378461 0.196866 0.235082 0.8 0 0
0.353155 0.641325 0.092942 0.8 0 0
0.128455 0.373611 0.102167 0.8 0 0
0.207534 0.373283 0.142189 0.8 0 0
0.061683 0.374545 0.090830 0.8 0 0
0.269904 0.063721 0.192194 0.8 0 0
0.537132 0.745862 0.083244 0.8 0 0
0.537132 0.972171 0.208695 0.8 0 0
0.251765 0.524423 0.170716 0.8 0 0
0.384757 0.374787 0.239217 0.8 0 0
0.221145 0.112976 0.025000 0.8 0 0
0.041429 0.512455 0.077082 0.8 0 0
0.397932 0.372047 0.051848 0.8 0 0
0.133889 0.375724 0.264547 0.8 0 0
0.157375 0.353284 0.234705 0.8 0 0
0.353155 0.413185 0.121257 0.8 0 0
0.048667 0.140847 0.245377 0.8 0 0
0.326735 0.138916 0.235082 0.8 0 0
0.041429 0.501333 0.072026 0.8 0 0
0.083799 0.341401 0.244466 0.8 0 0
0.059617 0.072721 0.245446 0.8 0 0
0.365487 0.372202 0.156196 0.8 0 0
0.460475 0.054014 0.218628 0.8 0 0
0.353155 0.796858 0.159270 0.8 0 0
0.206056 0.373838 0.196593 0.8 0 0
0.534971 0.377626 0.223735 0.8 0 0
0.526997 0.371506 0.102187 0.8 0 0
0.343599 0.864477 0.236187 0.8 0 0
0.137026 0.639207 0.243650 0.8 0 0
0.526932 0.379533 0.212063 0.8 0 0
0.353155 0.699079 0.052932 0.8 0 0
0.147332 0.054014 0.063143 0.8 0 0
0.284593 0.802111 0.166813 0.8 0 0
0.336874 0.063372 0.243419 0.8 0 0
0.537132 0.904621 0.118235 0.8 0 0
0.125598 0.371675 0.216414 0.8 0 0
0.445508 0.971599 0.030364 0.8 0 0
0.478285 0.374696 0.204955 0.8 0 0
0.316610 0.975000 0.093840 0.8 0 0
0.459979 0.975000 0.125377 0.8 0 0
0.478582 0.745997 0.221490 0.8 0 0
0.036065 0.096350 0.066970 0.8 0 0
0.196229 0.374368 0.240760 0.8 0 0
0.450370 0.260459 0.025000 0.8 0 0
0.051564 0.655509 0.035251 0.8 0 0
0.041429 0.412080 0.076178 0.8 0 0
0.216854 0.111086 0.025000 0.8 0 0
0.161467 0.054014 0.046075 0.8 0 0
0.547631 0.376632 0.100080 0.8 0 0
0.108997 0.025000 0.167326 0.8 0 0
0.262711 0.812242 0.189368 0.8 0 0
0.245863 0.371675 0.177528 0.8 0 0
0.198083 0.118056 0.245212 0.8 0 0
0.059736 0.371675 0.050612 0.8 0 0
0.381447 0.054014 0.188229 0.8 0 0
0.526997 0.565959 0.043152 0.8 0 0
0.346334 0.593210 0.118558 0.8 0 0
0.075526 0.812926 0.236806 0.8 0 0
0.227900 0.385188 0.239319 0.8 0 0
0.457333 0.583080 0.175847 0.8 0 0
0.088214 0.917993 0.244938 0.8 0 0
0.477070 0.071141 0.245313 0.8 0 0
0.238234 0.245976 0.234705 0.8 0 0
0.094836 0.371675 0.027822 0.8 0 0
0.155157 0.377697 0.114065 0.8 0 0
0.233015 0.975000 0.117105 0.8 0 0
0.100693 0.975000 0.059885 0.8 0 0
0.526997 0.722799 0.146996 0.8 0 0
0.095796 0.668558 0.172627 0.8 0 0
0.051564 0.795082 0.116037 0.8 0 0
0.091684 0.975000 0.218135 0.8 0 0
0.284105 0.063720 0.101785 0.8 0 0
0.493596 0.593210 0.049622 0.8 0 0
0.320951 0.372416 0.150818 0.8 0 0
0.294611 0.668558 0.047876 0.8 0 0
0.164607 0.282163 0.245319 0.8 0 0
0.330324 0.401147 0.245361 0.8 0 0
0.357918 0.377163 0.263410 0.8 0 0
0.100248 0.784164 0.244397 0.8 0 0
0.081787 0.594637 0.243872 0.8 0 0
0.320700 0.132409 0.245398 0.8 0 0
0.358351 0.583080 0.134863 0.8 0 0
0.095125 0.964869 0.121351 0.8 0 0
0.496113 0.266276 0.025000 0.8 0 0
0.128253 0.812242 0.051971 0.8 0 0
0.310771 0.224289 0.234705 0.8 0 0
0.273433 0.222861 0.246120 0.8 0 0
0.312524 0.514293 0.232829 0.8 0 0
0.089694 0.377963 0.085604 0.8 0 0
0.198516 0.101099 0.245211 0.8 0 0
0.414332 0.371675 0.231313 0.8 0 0
0.528906 0.371675 0.086010 0.8 0 0
0.199225 0.374959 0.264385 0.8 0 0
0.444879 0.371675 0.218449 0.8 0 0
0.083486 0.525643 0.243623 0.8 0 0
0.406728 0.266874 0.245321 0.8 0 0
0.303350 0.931727 0.235082 0.8 0 0
0.149358 0.802111 0.233762 0.8 0 0
0.108313 0.678756 0.243981 0.8 0 0
0.454385 0.283516 0.235082 0.8 0 0
0.313394 0.514293 0.054341 0.8 0 0
0.041429 0.945550 0.060042 0.8 0 0
0.134488 0.321021 0.025000 0.8 0 0
0.123627 0.374440 0.180957 0.8 0 0
0.282817 0.378509 0.111363 0.8 0 0
0.108647 0.025000 0.225743 0.8 0 0
0.108914 0.975000 0.178401 0.8 0 0
0.318915 0.375452 0.205582 0.8 0 0
0.465862 0.334124 0.235082 0.8 0 0
0.118551 0.548864 0.243465 0.8 0 0
0.334837 0.025000 0.133397 0.8 0 0
0.382638 0.742185 0.030391 0.8 0 0
0.109024 0.377755 0.038465 0.8 0 0
0.051564 0.428809 0.214737 0.8 0 0
0.138041 0.617591 0.243569 0.8 0 0
0.208445 0.063372 0.243883 0.8 0 0
0.371663 0.745997 0.107454 0.8 0 0
0.195219 0.144503 0.245218 0.8 0 0
0.159006 0.054014 0.191826 0.8 0 0
0.147713 0.375987 0.232943 0.8 0 0
0.046200 0.514945 0.122371 0.8 0 0
0.343034 0.881626 0.174840 0.8 0 0
0.227496 0.843709 0.243738 0.8 0 0
0.343034 0.746025 0.206999 0.8 0 0
0.051564 0.562662 0.123788 0.8 0 0
0.309908 0.378662 0.218543 0.8 0 0
0.199471 0.377757 0.128007 0.8 0 0
0.196207 0.373014 0.076263 0.8 0 0
0.394501 0.745997 0.053139 0.8 0 0
0.225338 0.025000 0.224985 0.8 0 0
0.480009 0.153267 0.025000 0.8 0 0
0.173870 0.327596 0.245291 0.8 0 0
0.343034 0.757518 0.229799 0.8 0 0
0.098242 0.975000 0.199933 0.8 0 0
0.314480 0.377546 0.200363 0.8 0 0
0.530859 0.682895 0.236174 0.8 0 0
0.389150 0.975000 0.049132 0.8 0 0
0.075240 0.428172 0.235082 0.8 0 0
0.091811 0.975000 0.058610 0.8 0 0
0.059341 0.658427 0.041495 0.8 0 0
0.537132 0.574267 0.133819 0.8 0 0
0.362821 0.212956 0.234705 0.8 0 0
0.102071 0.514293 0.102937 0.8 0 0
0.140213 0.086124 0.243720 0.8 0 0
0.540057 0.151522 0.133888 0.8 0 0
0.249616 0.054014 0.057204 0.8 0 0
0.131665 0.975000 0.045501 0.8 0 0
0.343034 0.838293 0.038034 0.8 0 0
0.533441 0.768404 0.030364 0.8 0 0
0.537132 0.431269 0.065004 0.8 0 0
0.417815 0.025000 0.107617 0.8 0 0
0.041429 0.803967 0.033027 0.8 0 0
0.104379 0.377910 0.070327 0.8 0 0
0.302314 0.524422 0.214256 0.8 0 0
0.523381 0.964869 0.167862 0.8 0 0
0.489001 0.149415 0.245164 0.8 0 0
0.055953 0.111755 0.234705 0.8 0 0
0.168456 0.378321 0.078209 0.8 0 0
0.311033 0.144988 0.234705 0.8 0 0
0.297351 0.378237 0.249666 0.8 0 0
0.268978 0.812242 0.157071 0.8 0 0
0.196798 0.377598 0.221031 0.8 0 0
0.036065 0.178647 0.109811 0.8 0 0
0.353155 0.831788 0.195310 0.8 0 0
0.429273 0.735867 0.107297 0.8 0 0
0.220378 0.768965 0.243530 0.8 0 0
0.206610 0.054014 0.066094 0.8 0 0
0.051564 0.457275 0.175581 0.8 0 0
0.463636 0.281344 0.235082 0.8 0 0
0.384082 0.964869 0.211854 0.8 0 0
0.502804 0.150271 0.234705 0.8 0 0
0.102343 0.658427 0.191482 0.8 0 0
0.041429 0.782264 0.104706 0.8 0 0
0.540057 0.327953 0.069505 0.8 0 0
0.141994 0.371675 0.203198 0.8 0 0
0.526997 0.718160 0.078985 0.8 0 0
0.112186 0.371675 0.095796 0.8 0 0
0.483830 0.593210 0.111926 0.8 0 0
0.308660 0.802111 0.155821 0.8 0 0
0.498240 0.583080 0.069503 0.8 0 0
0.217267 0.524423 0.036604 0.8 0 0
0.365389 0.284628 0.234705 0.8 0 0
0.167096 0.054014 0.093850 0.8 0 0
0.133636 0.045245 0.035687 0.8 0 0
0.537132 0.752271 0.201811 0.8 0 0
0.345405 0.735867 0.156769 0.8 0 0
0.111828 0.668558 0.101650 0.8 0 0
0.343034 0.570145 0.185179 0.8 0 0
0.047251 0.812242 0.040640 0.8 0 0
0.125964 0.063720 0.112826 0.8 0 0
0.056500 0.964869 0.135213 0.8 0 0
0.125089 0.283031 0.245382 0.8 0 0
0.051032 0.975000 0.100686 0.8 0 0
0.044542 0.630188 0.238733 0.8 0 0
0.342887 0.971034 0.030364 0.8 0 0
0.537132 0.750948 0.184802 0.8 0 0
0.489985 0.371605 0.161243 0.8 0 0
0.374126 0.054014 0.197458 0.8 0 0
0.316647 0.054014 0.033192 0.8 0 0
0.526997 0.820659 0.118688 0.8 0 0
0.343034 0.842937 0.169125 0.8 0 0
0.051564 0.542114 0.116948 0.8 0 0
0.147574 0.658427 0.222816 0.8 0 0
0.248272 0.198716 0.235462 0.8 0 0
0.334078 0.375964 0.149436 0.8 0 0
0.122045 0.265937 0.025000 0.8 0 0
0.488765 0.163364 0.235082 0.8 0 0
0.051999 0.768686 0.235082 0.8 0 0
0.460826 0.735867 0.230227 0.8 0 0
0.209587 0.127046 0.235544 0.8 0 0
0.537132 0.783288 0.124378 0.8 0 0
0.036065 0.323076 0.232855 0.8 0 0
0.109020 0.806909 0.244416 0.8 0 0
0.490239 0.025000 0.065130 0.8 0 0
0.041429 0.521956 0.144433 0.8 0 0
0.254527 0.964869 0.082101 0.8 0 0
0.461167 0.054014 0.037640 0.8 0 0
0.083809 0.641554 0.244019 0.8 0 0
0.043740 0.210377 0.025000 0.8 0 0
0.343034 0.685796 0.131922 0.8 0 0
0.485528 0.745997 0.161718 0.8 0 0
0.522698 0.975000 0.168345 0.8 0 0
0.041429 0.743198 0.189682 0.8 0 0
0.037080 0.369077 0.234705 0.8 0 0
0.448127 0.063720 0.081292 0.8 0 0
0.148884 0.377077 0.172639 0.8 0 0
0.036065 0.187896 0.197458 0.8 0 0
0.036065 0.173044 0.035643 0.8 0 0
0.531355 0.364463 0.218750 0.8 0 0
0.094462 0.524423 0.120342 0.8 0 0
0.473096 0.376248 0.042874 0.8 0 0
0.041429 0.688949 0.232047 0.8 0 0
0.179967 0.031834 0.035687 0.8 0 0
0.133792 0.420253 0.244991 0.8 0 0
0.051564 0.373070 0.117381 0.8 0 0
0.419844 0.593210 0.102473 0.8 0 0
0.241721 0.025000 0.075478 0.8 0 0
0.211871 0.245481 0.234705 0.8 0 0
0.173526 0.371675 0.050638 0.8 0 0
0.488806 0.374446 0.224143 0.8 0 0
0.308062 0.524423 0.071853 0.8 0 0
0.213159 0.975000 0.229987 0.8 0 0
0.050274 0.975000 0.114844 0.8 0 0
0.073141 0.812242 0.168019 0.8 0 0
0.051400 0.203552 0.025000 0.8 0 0
0.476154 0.063720 0.063868 0.8 0 0
0.343034 0.468642 0.104619 0.8 0 0
0.269704 0.514293 0.111322 0.8 0 0
0.051564 0.623858 0.036714 0.8 0 0
0.118254 0.377902 0.118127 0.8 0 0
0.440972 0.583080 0.231327 0.8 0 0
0.144165 0.084875 0.243384 0.8 0 0
0.540057 0.205423 0.185080 0.8 0 0
0.537132 0.455207 0.129051 0.8 0 0
0.223175 0.373987 0.227352 0.8 0 0
0.129808 0.812242 0.129717 0.8 0 0
0.353155 0.905787 0.084256 0.8 0 0
0.041760 0.975000 0.168584 0.8 0 0
0.343034 0.412551 0.079633 0.8 0 0
0.088162 0.025000 0.165613 0.8 0 0
0.324104 0.137898 0.245370 0.8 0 0
0.087316 0.524423 0.110022 0.8 0 0
0.526997 0.545708 0.154320 0.8 0 0
0.451186 0.583080 0.121723 0.8 0 0
0.344779 0.255534 0.025000 0.8 0 0
0.224598 0.045542 0.229880 0.8 0 0
0.129588 0.377866 0.065973 0.8 0 0
0.151777 0.064872 0.234705 0.8 0 0
0.284820 0.975000 0.133856 0.8 0 0
0.205272 0.281671 0.234705 0.8 0 0
0.498989 0.159151 0.025000 0.8 0 0
0.134237 0.524423 0.179132 0.8 0 0
0.526997 0.627566 0.082283 0.8 0 0
0.341214 0.372319 0.129960 0.8 0 0
0.518308 0.371675 0.073486 0.8 0 0
0.477660 0.063721 0.176026 0.8 0 0
0.308049 0.812242 0.033567 0.8 0 0
0.470136 0.975000 0.082082 0.8 0 0
0.162790 0.183582 0.234705 0.8 0 0
0.051564 0.720193 0.138611 0.8 0 0
0.211237 0.802111 0.095372 0.8 0 0
0.343034 0.502832 0.168157 0.8 0 0
0.353155 0.683718 0.233260 0.8 0 0
0.349905 0.377333 0.050250 0.8 0 0
0.093693 0.829402 0.244597 0.8 0 0
0.196208 0.524423 0.105613 0.8 0 0
0.511064 0.183312 0.235082 0.8 0 0
0.072724 0.337942 0.245192 0.8 0 0
0.173379 0.376681 0.222676 0.8 0 0
0.213584 0.974954 0.236174 0.8 0 0
0.427983 0.583080 0.096235 0.8 0 0
0.280561 0.063721 0.220866 0.8 0 0
0.355442 0.101328 0.235082 0.8 0 0
0.133519 0.055429 0.025000 0.8 0 0
0.254791 0.373559 0.213573 0.8 0 0
0.543137 0.373694 0.250328 0.8 0 0
0.106243 0.373446 0.061536 0.8 0 0
0.051564 0.387526 0.091051 0.8 0 0
0.036065 0.248535 0.154604 0.8 0 0
0.275687 0.371675 0.176959 0.8 0 0
0.516701 0.975000 0.041488 0.8 0 0
0.119797 0.524423 0.197649 0.8 0 0
0.356307 0.378683 0.135240 0.8 0 0
0.343034 0.592660 0.196347 0.8 0 0
0.114011 0.573199 0.243580 0.8 0 0
0.537132 0.423780 0.217256 0.8 0 0
0.388767 0.372113 0.191944 0.8 0 0
0.538152 0.379635 0.219318 0.8 0 0
0.070645 0.958779 0.245446 0.8 0 0
0.435721 0.593210 0.158615 0.8 0 0
0.236774 0.974825 0.030364 0.8 0 0
0.064214 0.964869 0.152574 0.8 0 0
0.036065 0.238016 0.199230 0.8 0 0
0.407757 0.262620 0.235082 0.8 0 0
0.353155 0.466474 0.198733 0.8 0 0
0.346546 0.271977 0.245362 0.8 0 0
0.123504 0.729045 0.244050 0.8 0 0
0.343034 0.435899 0.180330 0.8 0 0
0.348599 0.408993 0.030377 0.8 0 0
0.522922 0.371447 0.165574 0.8 0 0
0.282446 0.812242 0.032104 0.8 0 0
0.153223 0.132966 0.025000 0.8 0 0
0.115757 0.377504 0.155727 0.8 0 0
0.526997 0.424506 0.037933 0.8 0 0
0.051564 0.724049 0.229102 0.8 0 0
0.194429 0.114692 0.025000 0.8 0 0
0.526660 0.745997 0.109212 0.8 0 0
0.279703 0.975000 0.144320 0.8 0 0
0.487422 0.025000 0.043184 0.8 0 0
0.264326 0.668558 0.084115 0.8 0 0
0.245134 0.288514 0.245165 0.8 0 0
0.041429 0.721308 0.068069 0.8 0 0
0.102691 0.555995 0.243597 0.8 0 0
0.067761 0.374943 0.126237 0.8 0 0
0.340015 0.524423 0.083297 0.8 0 0
0.240915 0.378618 0.159385 0.8 0 0
0.298297 0.514293 0.136271 0.8 0 0
0.327528 0.378901 0.139629 0.8 0 0
0.176929 0.199754 0.245274 0.8 0 0
0.114816 0.237939 0.025000 0.8 0 0
0.105422 0.219106 0.236221 0.8 0 0
0.322480 0.378632 0.233155 0.8 0 0
0.102187 0.811459 0.236174 0.8 0 0
0.046373 0.685735 0.235082 0.8 0 0
0.526997 0.767174 0.233913 0.8 0 0
0.174953 0.377949 0.165643 0.8 0 0
0.353155 0.614075 0.176989 0.8 0 0
0.343034 0.738417 0.196397 0.8 0 0
0.540129 0.376357 0.062293 0.8 0 0
0.469412 0.198414 0.025000 0.8 0 0
0.151491 0.377822 0.071487 0.8 0 0
0.076548 0.208384 0.235993 0.8 0 0
0.479245 0.583080 0.081085 0.8 0 0
0.233076 0.524423 0.172556 0.8 0 0
0.273614 0.316284 0.245267 0.8 0 0
0.376047 0.375082 0.214875 0.8 0 0
0.389400 0.139302 0.235082 0.8 0 0
0.036065 0.246557 0.220939 0.8 0 0
0.080523 0.396421 0.235082 0.8 0 0
0.036065 0.097678 0.045563 0.8 0 0
0.427367 0.964869 0.211848 0.8 0 0
0.041429 0.924033 0.135891 0.8 0 0
0.363565 0.063721 0.214785 0.8 0 0
0.207891 0.025000 0.066387 0.8 0 0
0.430752 0.735867 0.058427 0.8 0 0
0.333736 0.802111 0.052492 0.8 0 0
0.172591 0.802111 0.113053 0.8 0 0
0.540057 0.318646 0.076468 0.8 0 0
0.183308 0.371675 0.105536 0.8 0 0
0.046681 0.524423 0.232326 0.8 0 0
0.051329 0.975000 0.222821 0.8 0 0
0.526997 0.670805 0.085844 0.8 0 0
0.328813 0.067042 0.245383 0.8 0 0
0.381467 0.063720 0.073344 0.8 0 0
0.526997 0.820268 0.154025 0.8 0 0
0.537132 0.505898 0.070701 0.8 0 0
0.409673 0.375430 0.165958 0.8 0 0
0.314374 0.964869 0.034497 0.8 0 0
0.537132 0.569368 0.185945 0.8 0 0
0.518735 0.975000 0.210296 0.8 0 0
0.112447 0.666781 0.243911 0.8 0 0
0.337123 0.975000 0.180813 0.8 0 0
0.365632 0.377157 0.101500 0.8 0 0
0.051564 0.412862 0.073351 0.8 0 0
0.439105 0.063721 0.189699 0.8 0 0
0.283263 0.128343 0.236745 0.8 0 0
0.510537 0.745997 0.181596 0.8 0 0
0.109546 0.376862 0.176197 0.8 0 0
0.041429 0.517615 0.161386 0.8 0 0
0.041429 0.582687 0.232581 0.8 0 0
0.162150 0.376536 0.232049 0.8 0 0
0.403060 0.376676 0.070700 0.8 0 0
0.067051 0.975000 0.111094 0.8 0 0
0.248062 0.210348 0.025000 0.8 0 0
0.537132 0.962409 0.030420 0.8 0 0
0.435082 0.377052 0.122242 0.8 0 0
0.383126 0.975000 0.230333 0.8 0 0
0.345871 0.377047 0.263726 0.8 0 0
0.526997 0.508059 0.036727 0.8 0 0
0.205953 0.828986 0.243834 0.8 0 0
0.135781 0.349223 0.245446 0.8 0 0
0.068808 0.377064 0.138008 0.8 0 0
0.200370 0.812242 0.037399 0.8 0 0
0.356487 0.221274 0.245300 0.8 0 0
0.343034 0.679056 0.186435 0.8 0 0
0.526997 0.467819 0.119894 0.8 0 0
0.528871 0.377366 0.108347 0.8 0 0
0.152311 0.802111 0.173979 0.8 0 0
0.507713 0.964869 0.079890 0.8 0 0
0.526997 0.795584 0.038655 0.8 0 0
0.323115 0.725814 0.245446 0.8 0 0
0.353155 0.803381 0.053328 0.8 0 0
0.302887 0.243048 0.235082 0.8 0 0
0.522926 0.964869 0.139321 0.8 0 0
0.458703 0.377153 0.142770 0.8 0 0
0.208554 0.921193 0.235082 0.8 0 0
0.343034 0.618863 0.094789 0.8 0 0
0.047437 0.974893 0.153258 0.8 0 0
0.033272 0.373897 0.041575 0.8 0 0
0.267135 0.175448 0.234705 0.8 0 0
0.537132 0.821199 0.099719 0.8 0 0
0.334892 0.376989 0.071158 0.8 0 0
0.343034 0.497790 0.205699 0.8 0 0
0.155673 0.377608 0.123152 0.8 0 0
0.319193 0.086578 0.235082 0.8 0 0
0.190460 0.054014 0.142150 0.8 0 0
0.403895 0.300125 0.235082 0.8 0 0
0.512940 0.371675 0.077300 0.8 0 0
0.433994 0.593210 0.036697 0.8 0 0
0.253704 0.376191 0.164589 0.8 0 0
0.526228 0.351579 0.235082 0.8 0 0
0.046494 0.602360 0.236174 0.8 0 0
0.353155 0.541631 0.081725 0.8 0 0
0.154656 0.514293 0.124745 0.8 0 0
0.125183 0.260756 0.236769 0.8 0 0
0.359171 0.376699 0.053358 0.8 0 0
0.527967 0.282805 0.234705 0.8 0 0
0.213417 0.911352 0.244066 0.8 0 0
0.277459 0.376140 0.144866 0.8 0 0
0.308809 0.025000 0.112921 0.8 0 0
0.041429 0.900802 0.135075 0.8 0 0
0.041429 0.648989 0.123021 0.8 0 0
0.288065 0.812242 0.098105 0.8 0 0
0.166313 0.668558 0.057950 0.8 0 0
0.537132 0.615755 0.200360 0.8 0 0
0.051564 0.483338 0.228191 0.8 0 0
0.149425 0.375162 0.109825 0.8 0 0
0.071749 0.054014 0.173490 0.8 0 0
0.353155 0.399523 0.209788 0.8 0 0
0.041429 0.450661 0.044540 0.8 0 0
0.254507 0.375060 0.264660 0.8 0 0
0.427806 0.074159 0.234705 0.8 0 0
0.506190 0.583080 0.044567 0.8 0 0
0.530317 0.943687 0.236174 0.8 0 0
0.274579 0.054014 0.039515 0.8 0 0
0.526997 0.392612 0.155369 0.8 0 0
0.465765 0.377453 0.175616 0.8 0 0
0.173153 0.376190 0.197631 0.8 0 0
0.365818 0.745997 0.097876 0.8 0 0
0.165835 0.371675 0.111840 0.8 0 0
0.257599 0.054014 0.227761 0.8 0 0
0.168934 0.713208 0.243688 0.8 0 0
0.084008 0.975000 0.085631 0.8 0 0
0.177763 0.113491 0.245259 0.8 0 0
0.329709 0.802111 0.170927 0.8 0 0
0.131821 0.378219 0.098758 0.8 0 0
0.310808 0.802111 0.055042 0.8 0 0
0.294035 0.802111 0.156838 0.8 0 0
0.410348 0.975000 0.167535 0.8 0 0
0.401550 0.182893 0.025000 0.8 0 0
0.481670 0.745997 0.168375 0.8 0 0
0.537132 0.485704 0.093545 0.8 0 0
0.104188 0.070505 0.025000 0.8 0 0
0.056511 0.777763 0.245335 0.8 0 0
0.343034 0.632777 0.222852 0.8 0 0
0.359593 0.745997 0.151525 0.8 0 0
0.537132 0.702959 0.115604 0.8 0 0
0.482699 0.374131 0.257285 0.8 0 0
0.540057 0.246266 0.130528 0.8 0 0
0.354685 0.260865 0.245348 0.8 0 0
0.051652 0.665517 0.030391 0.8 0 0
0.267459 0.149000 0.235254 0.8 0 0
0.283042 0.514293 0.085960 0.8 0 0
0.485514 0.025000 0.072153 0.8 0 0
0.537132 0.591220 0.097426 0.8 0 0
0.072190 0.376171 0.249326 0.8 0 0
0.421913 0.583080 0.089822 0.8 0 0
0.526997 0.906112 0.182509 0.8 0 0
0.072826 0.104319 0.245194 0.8 0 0
0.058890 0.668558 0.157780 0.8 0 0
0.301955 0.025000 0.128496 0.8 0 0
0.108076 0.252792 0.236616 0.8 0 0
0.407841 0.109418 0.025000 0.8 0 0
0.161662 0.334980 0.245306 0.8 0 0
0.229296 0.802111 0.062881 0.8 0 0
0.540057 0.190436 0.094669 0.8 0 0
0.353155 0.841492 0.187013 0.8 0 0
0.163041 0.964869 0.170512 0.8 0 0
0.103545 0.970496 0.030364 0.8 0 0
0.432514 0.371881 0.040780 0.8 0 0
0.109636 0.668558 0.059922 0.8 0 0
0.077076 0.026764 0.105756 0.8 0 0
0.036065 0.075885 0.143942 0.8 0 0
0.350384 0.559068 0.030377 0.8 0 0
0.239280 0.371675 0.077313 0.8 0 0
0.041429 0.766503 0.068735 0.8 0 0
0.526997 0.480543 0.176171 0.8 0 0
0.122732 0.376636 0.249271 0.8 0 0
0.130212 0.262253 0.025000 0.8 0 0
0.386646 0.371045 0.025000 0.8 0 0
0.205465 0.514293 0.194452 0.8 0 0
0.398792 0.583080 0.210556 0.8 0 0
0.526997 0.794652 0.196334 0.8 0 0
0.090767 0.074920 0.235929 0.8 0 0
0.313019 0.658427 0.187789 0.8 0 0
0.151737 0.812242 0.204876 0.8 0 0
0.353061 0.616457 0.236035 0.8 0 0
0.476770 0.593210 0.054967 0.8 0 0
0.540057 0.097562 0.033320 0.8 0 0
0.383970 0.371675 0.216273 0.8 0 0
0.343034 0.909654 0.134887 0.8 0 0
0.343034 0.817602 0.179162 0.8 0 0
0.051564 0.878391 0.034308 0.8 0 0
0.239357 0.054014 0.139827 0.8 0 0
0.210278 0.063372 0.236497 0.8 0 0
0.407534 0.025000 0.178794 0.8 0 0
0.036941 0.375854 0.248607 0.8 0 0
0.519206 0.964869 0.142467 0.8 0 0
0.269082 0.376016 0.174349 0.8 0 0
0.312070 0.668557 0.175303 0.8 0 0
0.079644 0.376100 0.238229 0.8 0 0
0.179928 0.063720 0.101264 0.8 0 0
0.357194 0.376908 0.073106 0.8 0 0
0.161974 0.307332 0.234705 0.8 0 0
0.054599 0.722015 0.245302 0.8 0 0
0.237313 0.211956 0.245180 0.8 0 0
0.299185 0.524422 0.213326 0.8 0 0
0.477186 0.745997 0.088719 0.8 0 0
