0.185552 0.975000 0.090075 0.8 0 0
0.460695 0.914986 0.025000 0.8 0 0
0.079631 0.097333 0.025000 0.8 0 0
0.718243 0.385844 0.128508 0.8 0 0
0.524240 0.652978 0.050676 0.8 0 0
0.239337 0.512838 0.165136 0.8 0 0
0.394912 0.562204 0.050676 0.8 0 0
0.637998 0.133862 0.050676 0.8 0 0
0.364671 0.447940 0.025000 0.8 0 0
0.676656 0.052694 0.025000 0.8 0 0
0.605915 0.446212 0.050676 0.8 0 0
0.617274 0.265128 0.050676 0.8 0 0
0.076351 0.509559 0.080847 0.8 0 0
0.718243 0.211267 0.176833 0.8 0 0
0.183535 0.076351 0.181378 0.8 0 0
0.410736 0.294595 0.105327 0.8 0 0
0.791133 0.025000 0.170637 0.8 0 0
0.025000 0.032051 0.074828 0.8 0 0
0.718243 0.811518 0.095328 0.8 0 0
0.158679 0.076351 0.057421 0.8 0 0
0.543807 0.050676 0.196722 0.8 0 0
0.300864 0.949324 0.171643 0.8 0 0
0.577705 0.050676 0.156186 0.8 0 0
0.471903 0.538514 0.033921 0.8 0 0
0.647472 0.102027 0.025332 0.8 0 0
0.532503 0.050676 0.232007 0.8 0 0
0.445656 0.076351 0.206659 0.8 0 0
0.375097 0.025000 0.252545 0.8 0 0
0.381134 0.731081 0.165938 0.8 0 0
0.303329 0.050676 0.169626 0.8 0 0
0.449148 0.675169 0.025000 0.8 0 0
0.150082 0.102027 0.143697 0.8 0 0
0.183290 0.525782 0.230405 0.8 0 0
0.076351 0.973069 0.167913 0.8 0 0
0.420414 0.067726 0.256081 0.8 0 0
0.743919 0.949375 0.118961 0.8 0 0
0.795270 0.027424 0.121240 0.8 0 0
0.122069 0.320270 0.034948 0.8 0 0
0.399463 0.949324 0.043229 0.8 0 0
0.469737 0.731081 0.104555 0.8 0 0
0.743919 0.528350 0.036453 0.8 0 0
0.102027 0.435392 0.072767 0.8 0 0
0.743919 0.829013 0.195238 0.8 0 0
0.450653 0.610752 0.050676 0.8 0 0
0.581171 0.076351 0.127801 0.8 0 0
0.251685 0.793141 0.050676 0.8 0 0
0.265353 0.538514 0.168477 0.8 0 0
0.406722 0.117507 0.050676 0.8 0 0
0.575017 0.656374 0.050676 0.8 0 0
0.130593 0.567228 0.025000 0.8 0 0
0.135393 0.512838 0.203237 0.8 0 0
0.258141 0.538514 0.033876 0.8 0 0
0.743316 0.731081 0.165700 0.8 0 0
0.192458 0.512838 0.167587 0.8 0 0
0.157635 0.050676 0.225820 0.8 0 0
0.422288 0.739475 0.025000 0.8 0 0
0.736266 0.050676 0.189576 0.8 0 0
0.076351 0.758038 0.117074 0.8 0 0
0.544486 0.294595 0.073413 0.8 0 0
0.425114 0.382477 0.025000 0.8 0 0
0.631623 0.598957 0.050676 0.8 0 0
0.659370 0.949324 0.147910 0.8 0 0
0.742481 0.294595 0.204271 0.8 0 0
0.263437 0.050676 0.226546 0.8 0 0
0.095298 0.538514 0.221391 0.8 0 0
0.116827 0.818787 0.025000 0.8 0 0
0.243246 0.056506 0.025000 0.8 0 0
0.718243 0.192754 0.117193 0.8 0 0
0.718243 0.636234 0.206879 0.8 0 0
0.214298 0.294595 0.127047 0.8 0 0
0.526083 0.393902 0.025000 0.8 0 0
0.344643 0.436738 0.050676 0.8 0 0
0.102504 0.025000 0.100005 0.8 0 0
0.652627 0.538514 0.129448 0.8 0 0
0.330099 0.731081 0.128339 0.8 0 0
0.136493 0.756757 0.116855 0.8 0 0
0.322785 0.949324 0.064555 0.8 0 0
0.641157 0.269248 0.050676 0.8 0 0
0.335376 0.949324 0.098983 0.8 0 0
0.324351 0.283829 0.025000 0.8 0 0
0.659652 0.050676 0.189388 0.8 0 0
0.460610 0.538514 0.173229 0.8 0 0
0.570280 0.025000 0.249285 0.8 0 0
0.598679 0.538514 0.038547 0.8 0 0
0.320915 0.076351 0.103795 0.8 0 0
0.119629 0.167307 0.025000 0.8 0 0
0.614998 0.756757 0.122252 0.8 0 0
0.542836 0.538514 0.188950 0.8 0 0
0.503722 0.050676 0.032532 0.8 0 0
0.652769 0.102027 0.200660 0.8 0 0
0.025893 0.050676 0.134843 0.8 0 0
0.743919 0.145463 0.117832 0.8 0 0
0.152145 0.257629 0.025000 0.8 0 0
0.255028 0.050676 0.041721 0.8 0 0
0.430737 0.949324 0.045274 0.8 0 0
0.317427 0.538514 0.054444 0.8 0 0
0.138449 0.102027 0.202384 0.8 0 0
0.438444 0.102027 0.028116 0.8 0 0
0.328411 0.050676 0.260851 0.8 0 0
0.507957 0.320270 0.210960 0.8 0 0
0.574810 0.756757 0.040937 0.8 0 0
0.712002 0.050676 0.240284 0.8 0 0
0.750042 0.025000 0.180306 0.8 0 0
0.614340 0.872566 0.050676 0.8 0 0
0.387287 0.949324 0.196962 0.8 0 0
0.718243 0.774323 0.148718 0.8 0 0
0.741026 0.102027 0.132959 0.8 0 0
0.477764 0.949324 0.098989 0.8 0 0
0.573599 0.512838 0.037500 0.8 0 0
0.149634 0.949324 0.114454 0.8 0 0
0.331914 0.025000 0.266602 0.8 0 0
0.263866 0.756757 0.111953 0.8 0 0
0.488236 0.076351 0.150856 0.8 0 0
0.248464 0.320270 0.213511 0.8 0 0
0.743919 0.912940 0.217084 0.8 0 0
0.718243 0.633678 0.065527 0.8 0 0
0.295748 0.512838 0.028666 0.8 0 0
0.413605 0.581315 0.025000 0.8 0 0
0.694117 0.025000 0.156768 0.8 0 0
0.442171 0.538514 0.048482 0.8 0 0
0.704680 0.949324 0.161851 0.8 0 0
0.756497 0.050676 0.164056 0.8 0 0
0.718243 0.157875 0.154912 0.8 0 0
0.622163 0.688979 0.025000 0.8 0 0
0.359212 0.102027 0.132106 0.8 0 0
0.368240 0.073852 0.025000 0.8 0 0
0.192844 0.050676 0.069108 0.8 0 0
0.507774 0.975000 0.184368 0.8 0 0
0.078857 0.076351 0.136613 0.8 0 0
0.346520 0.731081 0.206979 0.8 0 0
0.121247 0.287167 0.025000 0.8 0 0
0.617565 0.102027 0.075876 0.8 0 0
0.414227 0.076351 0.168344 0.8 0 0
0.596825 0.949324 0.190217 0.8 0 0
0.102027 0.556009 0.159901 0.8 0 0
0.076351 0.433012 0.093980 0.8 0 0
0.198685 0.076351 0.172046 0.8 0 0
0.399185 0.320270 0.218701 0.8 0 0
0.246773 0.512838 0.120215 0.8 0 0
0.510096 0.294595 0.150937 0.8 0 0
0.612736 0.756757 0.039437 0.8 0 0
0.123699 0.294595 0.109063 0.8 0 0
0.506490 0.076351 0.198385 0.8 0 0
0.076351 0.378357 0.087166 0.8 0 0
0.533281 0.320270 0.148956 0.8 0 0
0.102027 0.835284 0.067765 0.8 0 0
0.661143 0.949324 0.079989 0.8 0 0
0.200057 0.975000 0.046420 0.8 0 0
0.325128 0.512838 0.115801 0.8 0 0
0.687664 0.538514 0.042070 0.8 0 0
0.743919 0.079039 0.108730 0.8 0 0
0.102027 0.711064 0.043703 0.8 0 0
0.140527 0.294595 0.106630 0.8 0 0
0.743919 0.219859 0.033488 0.8 0 0
0.266128 0.151064 0.050676 0.8 0 0
0.643527 0.588691 0.050676 0.8 0 0
0.530592 0.076351 0.174413 0.8 0 0
0.328696 0.856440 0.050676 0.8 0 0
0.623604 0.050676 0.234692 0.8 0 0
0.372250 0.446370 0.025000 0.8 0 0
0.613494 0.553835 0.025000 0.8 0 0
0.773855 0.050676 0.116170 0.8 0 0
0.743919 0.160320 0.057873 0.8 0 0
0.698629 0.294595 0.077669 0.8 0 0
0.224473 0.672160 0.050676 0.8 0 0
0.513539 0.538514 0.118666 0.8 0 0
0.795270 0.036673 0.128989 0.8 0 0
0.366078 0.975000 0.120315 0.8 0 0
0.391056 0.600151 0.050676 0.8 0 0
0.478767 0.659424 0.025000 0.8 0 0
0.171522 0.025000 0.030305 0.8 0 0
0.098202 0.050676 0.104738 0.8 0 0
0.529023 0.076351 0.064731 0.8 0 0
0.416188 0.025000 0.168819 0.8 0 0
0.182903 0.538514 0.180807 0.8 0 0
0.198991 0.113134 0.050676 0.8 0 0
0.742106 0.538514 0.219422 0.8 0 0
0.485730 0.512838 0.202378 0.8 0 0
0.743919 0.239864 0.166540 0.8 0 0
0.482776 0.538514 0.028824 0.8 0 0
0.376014 0.025000 0.105529 0.8 0 0
0.258406 0.949324 0.107552 0.8 0 0
0.615996 0.538514 0.050589 0.8 0 0
0.346703 0.512838 0.091955 0.8 0 0
0.111617 0.756757 0.119939 0.8 0 0
0.456331 0.512838 0.104135 0.8 0 0
0.743919 0.664919 0.157732 0.8 0 0
0.076351 0.184127 0.072673 0.8 0 0
0.324517 0.731081 0.074629 0.8 0 0
0.317448 0.050676 0.192667 0.8 0 0
0.102027 0.846191 0.045977 0.8 0 0
0.237543 0.763457 0.050676 0.8 0 0
0.211589 0.076351 0.210182 0.8 0 0
0.642990 0.949324 0.176827 0.8 0 0
0.200159 0.528678 0.230405 0.8 0 0
0.076792 0.243025 0.025000 0.8 0 0
0.153240 0.756757 0.195294 0.8 0 0
0.718243 0.357524 0.213668 0.8 0 0
0.743919 0.815966 0.204804 0.8 0 0
0.235201 0.512838 0.122152 0.8 0 0
0.558870 0.076479 0.025000 0.8 0 0
0.262520 0.025000 0.191284 0.8 0 0
0.717750 0.076351 0.088541 0.8 0 0
0.743919 0.700063 0.106254 0.8 0 0
0.710833 0.252134 0.050676 0.8 0 0
0.076351 0.647071 0.067025 0.8 0 0
0.540554 0.975000 0.172533 0.8 0 0
0.642563 0.731081 0.189571 0.8 0 0
0.520961 0.025000 0.192256 0.8 0 0
0.206118 0.294595 0.040031 0.8 0 0
0.444938 0.050676 0.102214 0.8 0 0
0.641985 0.228645 0.025000 0.8 0 0
0.453285 0.330666 0.050676 0.8 0 0
0.102027 0.402458 0.177002 0.8 0 0
0.364521 0.773594 0.025000 0.8 0 0
0.224240 0.512838 0.170715 0.8 0 0
0.190490 0.892900 0.025000 0.8 0 0
0.343440 0.805506 0.025000 0.8 0 0
0.096009 0.949324 0.051310 0.8 0 0
0.155925 0.848812 0.050676 0.8 0 0
0.672063 0.320270 0.097716 0.8 0 0
0.076351 0.834255 0.059885 0.8 0 0
0.356996 0.030814 0.025000 0.8 0 0
0.429023 0.050676 0.258696 0.8 0 0
0.125629 0.568186 0.025000 0.8 0 0
0.734754 0.050676 0.164895 0.8 0 0
0.296418 0.025000 0.276217 0.8 0 0
0.449898 0.050676 0.259715 0.8 0 0
0.729862 0.320270 0.074830 0.8 0 0
0.221958 0.294595 0.159337 0.8 0 0
0.131630 0.025000 0.069664 0.8 0 0
0.090483 0.538514 0.134664 0.8 0 0
0.102027 0.378175 0.186286 0.8 0 0
0.194414 0.756757 0.160046 0.8 0 0
0.134395 0.538514 0.046056 0.8 0 0
0.381032 0.731081 0.199413 0.8 0 0
0.579135 0.731081 0.050644 0.8 0 0
0.076351 0.720702 0.152598 0.8 0 0
0.190171 0.647730 0.025000 0.8 0 0
0.718243 0.152210 0.084082 0.8 0 0
0.441296 0.102027 0.129216 0.8 0 0
0.523502 0.949324 0.114347 0.8 0 0
0.373922 0.538514 0.066336 0.8 0 0
0.212953 0.756473 0.025000 0.8 0 0
0.136554 0.523332 0.230405 0.8 0 0
0.715121 0.851974 0.050676 0.8 0 0
0.100497 0.491528 0.025000 0.8 0 0
0.588456 0.076351 0.071912 0.8 0 0
0.369335 0.719745 0.050676 0.8 0 0
0.301260 0.025000 0.108224 0.8 0 0
0.712582 0.407988 0.050676 0.8 0 0
0.120346 0.050676 0.280738 0.8 0 0
0.594950 0.538514 0.220062 0.8 0 0
0.718243 0.606221 0.089899 0.8 0 0
0.102027 0.652026 0.058268 0.8 0 0
0.290962 0.076351 0.056845 0.8 0 0
0.293284 0.358258 0.025000 0.8 0 0
0.740904 0.320270 0.094733 0.8 0 0
0.105791 0.315837 0.025000 0.8 0 0
0.388894 0.710118 0.050676 0.8 0 0
0.102027 0.637586 0.076033 0.8 0 0
0.457630 0.722818 0.050676 0.8 0 0
0.707862 0.123630 0.050676 0.8 0 0
0.076351 0.840820 0.047323 0.8 0 0
0.224962 0.764291 0.025000 0.8 0 0
0.078939 0.320270 0.217285 0.8 0 0
0.533649 0.076351 0.207258 0.8 0 0
0.664912 0.512838 0.079098 0.8 0 0
0.537172 0.512838 0.111652 0.8 0 0
0.698666 0.820356 0.050676 0.8 0 0
0.328816 0.756757 0.025514 0.8 0 0
0.607460 0.731081 0.153382 0.8 0 0
0.464195 0.294595 0.193182 0.8 0 0
0.616913 0.076351 0.222218 0.8 0 0
0.157009 0.294595 0.167963 0.8 0 0
0.591161 0.076351 0.220908 0.8 0 0
0.077533 0.731081 0.049435 0.8 0 0
0.082203 0.358487 0.025000 0.8 0 0
0.102027 0.368531 0.126646 0.8 0 0
0.308565 0.102027 0.115501 0.8 0 0
0.255559 0.928878 0.050676 0.8 0 0
0.119688 0.050676 0.151039 0.8 0 0
0.573192 0.731081 0.180300 0.8 0 0
0.590061 0.795198 0.050676 0.8 0 0
0.455373 0.502971 0.050676 0.8 0 0
0.257795 0.756757 0.085768 0.8 0 0
0.430116 0.645073 0.050676 0.8 0 0
0.165102 0.890508 0.025000 0.8 0 0
0.422227 0.294595 0.120622 0.8 0 0
0.102027 0.730916 0.072360 0.8 0 0
0.179664 0.731081 0.185271 0.8 0 0
0.253540 0.050676 0.109572 0.8 0 0
0.532064 0.294595 0.030183 0.8 0 0
0.731716 0.320270 0.099860 0.8 0 0
0.718243 0.270400 0.122973 0.8 0 0
0.717484 0.050676 0.061774 0.8 0 0
0.710641 0.050676 0.077391 0.8 0 0
0.632262 0.137876 0.050676 0.8 0 0
0.583704 0.733703 0.230405 0.8 0 0
0.564105 0.102027 0.067727 0.8 0 0
0.557667 0.102027 0.198805 0.8 0 0
0.477470 0.919434 0.025000 0.8 0 0
0.661606 0.025000 0.190023 0.8 0 0
0.378870 0.137664 0.050676 0.8 0 0
0.206400 0.949324 0.040997 0.8 0 0
0.396209 0.808626 0.050676 0.8 0 0
0.185328 0.974213 0.230405 0.8 0 0
0.734306 0.921080 0.025000 0.8 0 0
0.102027 0.134949 0.054726 0.8 0 0
0.562642 0.593087 0.050676 0.8 0 0
0.097218 0.731081 0.079243 0.8 0 0
0.098827 0.756757 0.057139 0.8 0 0
0.453703 0.296766 0.025000 0.8 0 0
0.578665 0.756757 0.049850 0.8 0 0
0.095963 0.364294 0.025000 0.8 0 0
0.126836 0.320270 0.057164 0.8 0 0
0.103663 0.465558 0.025000 0.8 0 0
0.233575 0.762939 0.050676 0.8 0 0
0.591548 0.731081 0.069194 0.8 0 0
0.645130 0.756757 0.162290 0.8 0 0
0.107086 0.345429 0.050676 0.8 0 0
0.102027 0.574563 0.071777 0.8 0 0
0.349664 0.223943 0.050676 0.8 0 0
0.663954 0.528298 0.025000 0.8 0 0
0.226184 0.275148 0.025000 0.8 0 0
0.643337 0.949324 0.204716 0.8 0 0
0.102027 0.906552 0.039235 0.8 0 0
0.090732 0.538514 0.062819 0.8 0 0
0.156051 0.320270 0.227020 0.8 0 0
0.577354 0.050676 0.126820 0.8 0 0
0.422632 0.546442 0.025000 0.8 0 0
0.217171 0.538514 0.186907 0.8 0 0
0.083041 0.756757 0.050626 0.8 0 0
0.713936 0.508971 0.025000 0.8 0 0
0.141688 0.731081 0.093579 0.8 0 0
0.102027 0.329996 0.072673 0.8 0 0
0.548051 0.537893 0.230405 0.8 0 0
0.214420 0.975000 0.127793 0.8 0 0
0.092954 0.260386 0.025000 0.8 0 0
0.148350 0.538514 0.079149 0.8 0 0
0.076351 0.387978 0.178676 0.8 0 0
0.312708 0.025000 0.147357 0.8 0 0
0.487828 0.294595 0.145935 0.8 0 0
0.740937 0.216961 0.025000 0.8 0 0
0.698222 0.320270 0.151740 0.8 0 0
0.108233 0.507878 0.050676 0.8 0 0
0.186485 0.814597 0.025000 0.8 0 0
0.409242 0.218019 0.025000 0.8 0 0
0.465397 0.522549 0.025000 0.8 0 0
0.608315 0.102027 0.217535 0.8 0 0
0.205049 0.975000 0.150053 0.8 0 0
0.481751 0.050676 0.103390 0.8 0 0
0.129860 0.488725 0.025000 0.8 0 0
0.743919 0.114950 0.185528 0.8 0 0
0.599575 0.512838 0.128621 0.8 0 0
0.159454 0.532093 0.025000 0.8 0 0
0.743919 0.127715 0.174357 0.8 0 0
0.318344 0.102027 0.191232 0.8 0 0
0.119761 0.756757 0.035929 0.8 0 0
0.743919 0.965222 0.218238 0.8 0 0
0.630542 0.102027 0.048852 0.8 0 0
0.379891 0.102027 0.126653 0.8 0 0
0.733939 0.025000 0.174618 0.8 0 0
0.102027 0.200130 0.130896 0.8 0 0
0.427340 0.320270 0.214940 0.8 0 0
0.718243 0.125634 0.107502 0.8 0 0
0.442416 0.949324 0.103728 0.8 0 0
0.339715 0.756757 0.189665 0.8 0 0
0.260543 0.768470 0.025000 0.8 0 0
0.076351 0.229526 0.082766 0.8 0 0
0.607763 0.050676 0.082257 0.8 0 0
0.750419 0.076351 0.034619 0.8 0 0
0.076351 0.320576 0.052958 0.8 0 0
0.164776 0.025000 0.079631 0.8 0 0
0.596825 0.756757 0.095146 0.8 0 0
0.718243 0.279480 0.185509 0.8 0 0
0.718243 0.806558 0.127449 0.8 0 0
0.048790 0.025000 0.262316 0.8 0 0
0.277449 0.215680 0.050676 0.8 0 0
0.555413 0.076351 0.067081 0.8 0 0
0.705047 0.753297 0.025000 0.8 0 0
0.102027 0.352158 0.029962 0.8 0 0
0.073450 0.076351 0.232943 0.8 0 0
0.655518 0.025000 0.025125 0.8 0 0
0.362941 0.102027 0.096256 0.8 0 0
0.308517 0.345159 0.050676 0.8 0 0
0.673693 0.949324 0.219165 0.8 0 0
0.308212 0.076351 0.153936 0.8 0 0
0.136028 0.949324 0.048814 0.8 0 0
0.076351 0.768875 0.137723 0.8 0 0
0.743919 0.592699 0.137779 0.8 0 0
0.732001 0.949324 0.170878 0.8 0 0
0.076351 0.528132 0.052106 0.8 0 0
0.418580 0.076351 0.148348 0.8 0 0
0.243711 0.194159 0.050676 0.8 0 0
0.483638 0.601843 0.025000 0.8 0 0
0.585355 0.975000 0.130489 0.8 0 0
0.331627 0.102027 0.209461 0.8 0 0
0.453755 0.205531 0.025000 0.8 0 0
0.613964 0.227551 0.025000 0.8 0 0
0.718243 0.129390 0.040853 0.8 0 0
0.436360 0.693916 0.050676 0.8 0 0
0.124801 0.583407 0.025000 0.8 0 0
0.472395 0.050676 0.210318 0.8 0 0
0.690899 0.102027 0.037102 0.8 0 0
0.318844 0.025000 0.240211 0.8 0 0
0.346016 0.403328 0.050676 0.8 0 0
0.503618 0.731081 0.094175 0.8 0 0
0.638447 0.731081 0.203293 0.8 0 0
0.204600 0.320270 0.068862 0.8 0 0
0.715784 0.320270 0.128997 0.8 0 0
0.076351 0.234298 0.075293 0.8 0 0
0.414444 0.975000 0.103973 0.8 0 0
0.273827 0.050676 0.119359 0.8 0 0
0.743919 0.884338 0.111401 0.8 0 0
0.719552 0.102027 0.033970 0.8 0 0
0.720054 0.076351 0.075868 0.8 0 0
0.743919 0.169500 0.186625 0.8 0 0
0.592871 0.050676 0.060042 0.8 0 0
0.368360 0.076351 0.078233 0.8 0 0
0.450607 0.535769 0.230405 0.8 0 0
0.114673 0.731081 0.161838 0.8 0 0
0.102027 0.235726 0.141578 0.8 0 0
0.130564 0.512838 0.052012 0.8 0 0
0.743695 0.756757 0.099973 0.8 0 0
0.473404 0.538514 0.108574 0.8 0 0
0.230902 0.101485 0.025000 0.8 0 0
0.611136 0.025000 0.154871 0.8 0 0
0.607032 0.294595 0.038847 0.8 0 0
0.484428 0.809220 0.050676 0.8 0 0
0.479944 0.076351 0.219529 0.8 0 0
0.495636 0.165938 0.050676 0.8 0 0
0.156072 0.975000 0.070937 0.8 0 0
0.718243 0.166514 0.049482 0.8 0 0
0.313638 0.076351 0.172407 0.8 0 0
0.281342 0.362631 0.050676 0.8 0 0
0.107206 0.043213 0.281757 0.8 0 0
0.718243 0.851310 0.062148 0.8 0 0
0.329540 0.025000 0.151157 0.8 0 0
0.480779 0.949324 0.170709 0.8 0 0
0.134945 0.731081 0.204490 0.8 0 0
0.102027 0.815467 0.105947 0.8 0 0
0.281468 0.756757 0.199569 0.8 0 0
0.341014 0.539825 0.025000 0.8 0 0
0.363179 0.040108 0.281757 0.8 0 0
0.454564 0.571060 0.025000 0.8 0 0
0.110538 0.102027 0.063822 0.8 0 0
0.712137 0.731081 0.121368 0.8 0 0
0.060614 0.050676 0.271805 0.8 0 0
0.360802 0.512838 0.222713 0.8 0 0
0.469816 0.870621 0.025000 0.8 0 0
0.398044 0.320270 0.160265 0.8 0 0
0.077839 0.949324 0.172251 0.8 0 0
0.710914 0.538514 0.159757 0.8 0 0
0.449160 0.320270 0.221058 0.8 0 0
0.303696 0.076351 0.145289 0.8 0 0
0.204254 0.538514 0.025997 0.8 0 0
0.286995 0.057784 0.025000 0.8 0 0
0.519670 0.130236 0.025000 0.8 0 0
0.248469 0.210767 0.025000 0.8 0 0
0.102027 0.511898 0.112987 0.8 0 0
0.597245 0.213952 0.050676 0.8 0 0
0.662304 0.512838 0.069194 0.8 0 0
0.404033 0.294595 0.220350 0.8 0 0
0.333400 0.320270 0.149947 0.8 0 0
0.678814 0.050676 0.078386 0.8 0 0
0.550886 0.050676 0.146142 0.8 0 0
0.298500 0.514875 0.230405 0.8 0 0
0.648573 0.538514 0.082659 0.8 0 0
0.076351 0.948249 0.115187 0.8 0 0
0.672267 0.076351 0.101753 0.8 0 0
0.465948 0.101838 0.230405 0.8 0 0
0.148126 0.731081 0.040759 0.8 0 0
0.455918 0.276106 0.050676 0.8 0 0
0.541899 0.076351 0.069965 0.8 0 0
0.739319 0.181829 0.230405 0.8 0 0
0.718243 0.792077 0.112805 0.8 0 0
0.554894 0.556115 0.050676 0.8 0 0
0.605071 0.050676 0.064289 0.8 0 0
0.076351 0.570355 0.122572 0.8 0 0
0.475380 0.050676 0.073363 0.8 0 0
0.189964 0.294595 0.048452 0.8 0 0
0.730973 0.264887 0.230405 0.8 0 0
0.573843 0.076351 0.072589 0.8 0 0
0.528558 0.076351 0.040120 0.8 0 0
0.578326 0.357001 0.025000 0.8 0 0
0.134435 0.315667 0.230405 0.8 0 0
0.718243 0.454921 0.121970 0.8 0 0
0.701665 0.102027 0.173417 0.8 0 0
0.734729 0.294595 0.193934 0.8 0 0
0.607113 0.513023 0.230405 0.8 0 0
0.550639 0.077559 0.230405 0.8 0 0
0.743919 0.856399 0.071206 0.8 0 0
0.691214 0.102027 0.129498 0.8 0 0
0.159040 0.050676 0.044691 0.8 0 0
0.102027 0.175947 0.030573 0.8 0 0
0.631529 0.429739 0.025000 0.8 0 0
0.690643 0.975000 0.215078 0.8 0 0
0.615337 0.836030 0.050676 0.8 0 0
0.123803 0.061540 0.256081 0.8 0 0
0.734890 0.640078 0.230405 0.8 0 0
0.102027 0.897043 0.072040 0.8 0 0
0.175841 0.762381 0.025000 0.8 0 0
0.238013 0.333123 0.050676 0.8 0 0
0.205130 0.076351 0.189790 0.8 0 0
0.347722 0.076351 0.221529 0.8 0 0
0.702352 0.674393 0.050676 0.8 0 0
0.643622 0.756757 0.214244 0.8 0 0
0.718243 0.879148 0.046658 0.8 0 0
0.065127 0.050676 0.257051 0.8 0 0
0.323505 0.756757 0.033116 0.8 0 0
0.286928 0.294595 0.093084 0.8 0 0
0.451254 0.876128 0.025000 0.8 0 0
0.743919 0.679647 0.076365 0.8 0 0
0.469402 0.512838 0.045593 0.8 0 0
0.628953 0.743577 0.025000 0.8 0 0
0.326045 0.521752 0.025000 0.8 0 0
0.544281 0.050676 0.258970 0.8 0 0
0.406214 0.240216 0.050676 0.8 0 0
0.174975 0.284939 0.025000 0.8 0 0
0.474341 0.102027 0.054757 0.8 0 0
0.343440 0.798418 0.025000 0.8 0 0
0.235384 0.076351 0.117782 0.8 0 0
0.501234 0.320270 0.065144 0.8 0 0
0.282651 0.076351 0.033505 0.8 0 0
0.102027 0.550150 0.028521 0.8 0 0
0.222792 0.025000 0.081677 0.8 0 0
0.710378 0.050676 0.109331 0.8 0 0
0.222468 0.512838 0.120923 0.8 0 0
0.560642 0.050676 0.041549 0.8 0 0
0.076351 0.313808 0.202942 0.8 0 0
0.076351 0.799605 0.080196 0.8 0 0
0.688198 0.975000 0.205399 0.8 0 0
0.102027 0.238165 0.061540 0.8 0 0
0.718243 0.193477 0.159613 0.8 0 0
0.743919 0.732810 0.124164 0.8 0 0
0.102027 0.776715 0.116529 0.8 0 0
0.547616 0.502571 0.025000 0.8 0 0
0.729831 0.320270 0.101039 0.8 0 0
0.564410 0.390610 0.050676 0.8 0 0
0.718243 0.609777 0.129223 0.8 0 0
0.443540 0.050676 0.191426 0.8 0 0
0.228091 0.756757 0.100832 0.8 0 0
0.194169 0.740316 0.025000 0.8 0 0
0.352775 0.320270 0.102857 0.8 0 0
0.717088 0.527155 0.230405 0.8 0 0
0.102027 0.913563 0.190267 0.8 0 0
0.210116 0.050676 0.246694 0.8 0 0
0.350248 0.102027 0.085060 0.8 0 0
0.655092 0.320270 0.136751 0.8 0 0
0.743919 0.912088 0.030115 0.8 0 0
0.383383 0.888980 0.050676 0.8 0 0
0.099149 0.538514 0.228292 0.8 0 0
0.340431 0.322656 0.050676 0.8 0 0
0.395558 0.102027 0.206929 0.8 0 0
0.372936 0.076351 0.252259 0.8 0 0
0.642568 0.823630 0.050676 0.8 0 0
0.721101 0.294595 0.037920 0.8 0 0
0.406050 0.294595 0.057572 0.8 0 0
0.563714 0.174160 0.025000 0.8 0 0
0.731942 0.102027 0.113777 0.8 0 0
0.718243 0.320799 0.091843 0.8 0 0
0.076467 0.512838 0.110705 0.8 0 0
0.586187 0.926028 0.050676 0.8 0 0
0.511533 0.076351 0.198915 0.8 0 0
0.397852 0.042704 0.281757 0.8 0 0
0.743919 0.407648 0.047016 0.8 0 0
0.250501 0.320270 0.098964 0.8 0 0
0.102027 0.780259 0.100719 0.8 0 0
0.345245 0.505574 0.025000 0.8 0 0
0.329655 0.659037 0.050676 0.8 0 0
0.645496 0.732723 0.230405 0.8 0 0
0.344727 0.737130 0.025000 0.8 0 0
0.076351 0.767858 0.174138 0.8 0 0
0.159291 0.512838 0.194517 0.8 0 0
0.262888 0.731081 0.145408 0.8 0 0
0.378355 0.076351 0.080748 0.8 0 0
0.174054 0.228744 0.025000 0.8 0 0
0.498457 0.667582 0.025000 0.8 0 0
0.242021 0.050676 0.109604 0.8 0 0
0.428255 0.133410 0.025000 0.8 0 0
0.571857 0.155260 0.050676 0.8 0 0
0.152690 0.102027 0.176833 0.8 0 0
0.257265 0.731081 0.110693 0.8 0 0
0.134091 0.731081 0.033676 0.8 0 0
0.309464 0.025000 0.204872 0.8 0 0
0.495758 0.050676 0.191348 0.8 0 0
0.634519 0.320270 0.036710 0.8 0 0
0.285310 0.449632 0.025000 0.8 0 0
0.670288 0.445518 0.050676 0.8 0 0
0.728802 0.731081 0.225622 0.8 0 0
0.699569 0.464324 0.050676 0.8 0 0
0.449547 0.756757 0.196561 0.8 0 0
0.718243 0.216491 0.119763 0.8 0 0
0.399427 0.040678 0.281757 0.8 0 0
0.743919 0.671566 0.197162 0.8 0 0
0.743919 0.560035 0.176695 0.8 0 0
0.253211 0.731081 0.113426 0.8 0 0
0.242303 0.050676 0.086728 0.8 0 0
0.274745 0.975000 0.130188 0.8 0 0
0.334765 0.756757 0.096588 0.8 0 0
0.718243 0.392227 0.230098 0.8 0 0
0.596641 0.949324 0.055629 0.8 0 0
0.123149 0.512838 0.054895 0.8 0 0
0.076351 0.503470 0.098469 0.8 0 0
0.722290 0.557767 0.025000 0.8 0 0
0.102027 0.692646 0.141271 0.8 0 0
0.256913 0.730029 0.050676 0.8 0 0
0.102027 0.841378 0.027779 0.8 0 0
0.308987 0.810695 0.025000 0.8 0 0
0.661637 0.701826 0.050676 0.8 0 0
0.064498 0.076351 0.118527 0.8 0 0
0.206795 0.560458 0.050676 0.8 0 0
0.026246 0.050676 0.180400 0.8 0 0
0.743919 0.366139 0.117713 0.8 0 0
0.519794 0.512838 0.041681 0.8 0 0
0.564034 0.117712 0.050676 0.8 0 0
0.793013 0.050676 0.270340 0.8 0 0
0.671696 0.294595 0.122948 0.8 0 0
0.563861 0.320270 0.118052 0.8 0 0
0.569464 0.076351 0.044909 0.8 0 0
0.643658 0.756757 0.033429 0.8 0 0
0.076351 0.319356 0.072667 0.8 0 0
0.678337 0.604317 0.050676 0.8 0 0
0.420597 0.538514 0.152649 0.8 0 0
0.505999 0.559465 0.025000 0.8 0 0
0.277336 0.403469 0.050676 0.8 0 0
0.378130 0.025000 0.150577 0.8 0 0
0.471570 0.975000 0.207738 0.8 0 0
0.674793 0.102027 0.079776 0.8 0 0
0.102027 0.395994 0.095692 0.8 0 0
0.077574 0.294595 0.048959 0.8 0 0
0.129897 0.723218 0.050676 0.8 0 0
0.510606 0.595008 0.025000 0.8 0 0
0.529145 0.731081 0.201425 0.8 0 0
0.518938 0.538514 0.029927 0.8 0 0
0.617130 0.050676 0.257983 0.8 0 0
0.150449 0.523746 0.230405 0.8 0 0
0.390378 0.076351 0.232653 0.8 0 0
0.610923 0.097521 0.230405 0.8 0 0
0.102027 0.885830 0.133642 0.8 0 0
0.314616 0.319833 0.230405 0.8 0 0
0.682361 0.538514 0.028230 0.8 0 0
0.186265 0.731081 0.225095 0.8 0 0
0.519106 0.141602 0.025000 0.8 0 0
0.718243 0.254209 0.057353 0.8 0 0
0.220492 0.102027 0.052488 0.8 0 0
0.213687 0.320270 0.039637 0.8 0 0
0.326514 0.731081 0.150298 0.8 0 0
0.365894 0.441728 0.050676 0.8 0 0
0.641364 0.680252 0.050676 0.8 0 0
0.343458 0.509030 0.050676 0.8 0 0
0.488603 0.184838 0.025000 0.8 0 0
0.513897 0.632896 0.025000 0.8 0 0
0.076351 0.261873 0.038390 0.8 0 0
0.443232 0.050676 0.109521 0.8 0 0
0.102027 0.679841 0.200986 0.8 0 0
0.078487 0.756757 0.153357 0.8 0 0
0.603731 0.044149 0.281757 0.8 0 0
0.650711 0.595490 0.025000 0.8 0 0
0.445368 0.194805 0.050676 0.8 0 0
0.375097 0.027392 0.281757 0.8 0 0
0.589159 0.383041 0.025000 0.8 0 0
0.076351 0.865355 0.176551 0.8 0 0
0.162284 0.050676 0.073104 0.8 0 0
0.319913 0.320270 0.157162 0.8 0 0
0.198803 0.773059 0.050676 0.8 0 0
0.718243 0.460363 0.123556 0.8 0 0
0.246834 0.731081 0.103866 0.8 0 0
0.076351 0.288583 0.155864 0.8 0 0
0.076351 0.793840 0.141121 0.8 0 0
0.688871 0.076351 0.158886 0.8 0 0
0.588553 0.538514 0.163412 0.8 0 0
0.400101 0.102027 0.075964 0.8 0 0
0.541186 0.521771 0.025000 0.8 0 0
0.293733 0.975000 0.147897 0.8 0 0
0.475834 0.870827 0.025000 0.8 0 0
0.718243 0.256354 0.041206 0.8 0 0
0.413262 0.745885 0.230405 0.8 0 0
0.295832 0.538066 0.230405 0.8 0 0
0.255127 0.429510 0.025000 0.8 0 0
0.177097 0.102027 0.202058 0.8 0 0
0.623717 0.975000 0.147728 0.8 0 0
0.136686 0.167966 0.025000 0.8 0 0
0.558544 0.949324 0.210659 0.8 0 0
0.427300 0.731081 0.123180 0.8 0 0
0.527437 0.825610 0.050676 0.8 0 0
0.689767 0.083763 0.230405 0.8 0 0
0.552309 0.102027 0.097284 0.8 0 0
0.680123 0.914368 0.050676 0.8 0 0
0.219734 0.109502 0.025000 0.8 0 0
0.699587 0.102027 0.062386 0.8 0 0
0.191138 0.056513 0.025000 0.8 0 0
0.090694 0.314804 0.025000 0.8 0 0
0.527682 0.949324 0.026391 0.8 0 0
0.371090 0.731081 0.172746 0.8 0 0
0.396585 0.441857 0.050676 0.8 0 0
0.178763 0.050676 0.083252 0.8 0 0
0.438918 0.129942 0.025000 0.8 0 0
0.102027 0.333352 0.031657 0.8 0 0
0.413751 0.538514 0.144042 0.8 0 0
0.718243 0.594567 0.111006 0.8 0 0
0.556975 0.050676 0.206078 0.8 0 0
0.742208 0.731081 0.143515 0.8 0 0
0.743919 0.203104 0.105095 0.8 0 0
0.379585 0.476783 0.025000 0.8 0 0
0.528513 0.307713 0.025000 0.8 0 0
0.282170 0.612498 0.050676 0.8 0 0
0.244321 0.050676 0.246137 0.8 0 0
0.235463 0.050676 0.223231 0.8 0 0
0.750858 0.050676 0.124507 0.8 0 0
0.334663 0.756757 0.150755 0.8 0 0
0.636695 0.538514 0.171091 0.8 0 0
0.613449 0.971345 0.230405 0.8 0 0
0.101446 0.076351 0.049887 0.8 0 0
0.277801 0.975000 0.110367 0.8 0 0
0.233605 0.050676 0.196785 0.8 0 0
0.566632 0.320270 0.065144 0.8 0 0
0.371273 0.538514 0.205368 0.8 0 0
0.228911 0.800898 0.050676 0.8 0 0
0.453698 0.076351 0.099035 0.8 0 0
0.633598 0.076351 0.152028 0.8 0 0
0.743919 0.842101 0.148643 0.8 0 0
0.712076 0.949324 0.058663 0.8 0 0
0.743919 0.144576 0.123700 0.8 0 0
0.743919 0.571724 0.170903 0.8 0 0
0.296218 0.787029 0.025000 0.8 0 0
0.462688 0.787434 0.050676 0.8 0 0
0.288619 0.299272 0.230405 0.8 0 0
0.720857 0.975000 0.124734 0.8 0 0
0.756201 0.050676 0.173113 0.8 0 0
0.222818 0.833139 0.025000 0.8 0 0
0.265272 0.512838 0.039713 0.8 0 0
0.664117 0.294595 0.206089 0.8 0 0
0.426301 0.975000 0.218545 0.8 0 0
0.496069 0.294595 0.041469 0.8 0 0
0.106089 0.252587 0.025000 0.8 0 0
0.743919 0.501067 0.035243 0.8 0 0
0.455924 0.294595 0.027840 0.8 0 0
0.357694 0.538514 0.039598 0.8 0 0
0.362900 0.538514 0.190242 0.8 0 0
0.681047 0.731081 0.121562 0.8 0 0
0.743919 0.751593 0.178463 0.8 0 0
0.612329 0.731081 0.060512 0.8 0 0
0.610485 0.482666 0.025000 0.8 0 0
0.527607 0.671507 0.050676 0.8 0 0
0.662732 0.294595 0.201889 0.8 0 0
0.257929 0.435821 0.050676 0.8 0 0
0.466506 0.548011 0.025000 0.8 0 0
0.403341 0.531548 0.025000 0.8 0 0
0.630522 0.076351 0.204929 0.8 0 0
0.348033 0.076351 0.191863 0.8 0 0
0.337045 0.440076 0.050676 0.8 0 0
0.669068 0.964683 0.230405 0.8 0 0
0.690090 0.320270 0.028124 0.8 0 0
0.378644 0.756757 0.029927 0.8 0 0
0.165575 0.025000 0.264628 0.8 0 0
0.125777 0.046940 0.281757 0.8 0 0
0.119909 0.294595 0.073820 0.8 0 0
0.671961 0.291480 0.025000 0.8 0 0
0.247679 0.293390 0.050676 0.8 0 0
0.507142 0.512838 0.178325 0.8 0 0
0.667316 0.320270 0.194868 0.8 0 0
0.120215 0.294595 0.090702 0.8 0 0
0.368136 0.538514 0.140926 0.8 0 0
0.586108 0.512838 0.115789 0.8 0 0
0.264742 0.102027 0.153746 0.8 0 0
0.718243 0.588591 0.127781 0.8 0 0
0.459510 0.479034 0.025000 0.8 0 0
0.076753 0.342026 0.230405 0.8 0 0
0.096322 0.025000 0.262943 0.8 0 0
0.121559 0.294595 0.090150 0.8 0 0
0.102027 0.854160 0.142801 0.8 0 0
0.395477 0.294595 0.213918 0.8 0 0
0.469144 0.050676 0.223951 0.8 0 0
0.591161 0.731081 0.229527 0.8 0 0
0.436828 0.025000 0.131881 0.8 0 0
0.508575 0.112817 0.050676 0.8 0 0
0.193525 0.025000 0.266932 0.8 0 0
0.594563 0.731081 0.133247 0.8 0 0
0.714521 0.538514 0.035851 0.8 0 0
0.615337 0.378486 0.050676 0.8 0 0
0.102027 0.242878 0.037638 0.8 0 0
0.404108 0.119076 0.050676 0.8 0 0
0.168927 0.949324 0.214990 0.8 0 0
0.282120 0.512838 0.218024 0.8 0 0
0.743919 0.292844 0.110454 0.8 0 0
0.416115 0.949324 0.149207 0.8 0 0
0.213473 0.076351 0.088639 0.8 0 0
0.273124 0.144311 0.025000 0.8 0 0
0.438473 0.025000 0.241340 0.8 0 0
0.743919 0.189463 0.199325 0.8 0 0
0.102779 0.124465 0.050676 0.8 0 0
0.102027 0.188958 0.117563 0.8 0 0
0.692925 0.731081 0.026241 0.8 0 0
0.604567 0.756757 0.103797 0.8 0 0
0.310602 0.314494 0.230405 0.8 0 0
0.605539 0.860489 0.050676 0.8 0 0
0.485506 0.102027 0.098230 0.8 0 0
0.689714 0.731081 0.036034 0.8 0 0
0.300379 0.050676 0.072546 0.8 0 0
0.076351 0.748612 0.036942 0.8 0 0
0.671289 0.756757 0.049272 0.8 0 0
0.456104 0.025000 0.267010 0.8 0 0
0.208329 0.076351 0.099459 0.8 0 0
0.501936 0.248508 0.025000 0.8 0 0
0.641136 0.949324 0.068530 0.8 0 0
0.465612 0.076351 0.042772 0.8 0 0
0.231860 0.294595 0.180293 0.8 0 0
0.102027 0.870950 0.167142 0.8 0 0
0.271826 0.336355 0.025000 0.8 0 0
0.102027 0.259486 0.145377 0.8 0 0
0.098171 0.538514 0.029307 0.8 0 0
0.427032 0.290940 0.025000 0.8 0 0
0.036190 0.050676 0.135086 0.8 0 0
0.483559 0.050676 0.128894 0.8 0 0
0.743919 0.112118 0.185509 0.8 0 0
0.087963 0.129766 0.025000 0.8 0 0
0.670551 0.214293 0.025000 0.8 0 0
0.604091 0.726150 0.050676 0.8 0 0
0.076351 0.695591 0.046276 0.8 0 0
0.471471 0.320270 0.025901 0.8 0 0
0.041338 0.025000 0.196307 0.8 0 0
0.464440 0.320270 0.214859 0.8 0 0
0.076351 0.759008 0.044803 0.8 0 0
0.269693 0.512838 0.046094 0.8 0 0
0.715376 0.538514 0.081907 0.8 0 0
0.498809 0.528642 0.025000 0.8 0 0
0.087970 0.825099 0.230405 0.8 0 0
0.526680 0.512838 0.221999 0.8 0 0
0.025000 0.045407 0.112699 0.8 0 0
0.135311 0.756757 0.198642 0.8 0 0
0.448960 0.850798 0.025000 0.8 0 0
0.729984 0.731081 0.075569 0.8 0 0
0.102027 0.402505 0.170809 0.8 0 0
0.102027 0.553253 0.043455 0.8 0 0
0.604295 0.025000 0.226452 0.8 0 0
0.302819 0.320969 0.050676 0.8 0 0
0.535336 0.809008 0.050676 0.8 0 0
0.710853 0.731081 0.176883 0.8 0 0
0.378648 0.102027 0.030272 0.8 0 0
0.383116 0.050676 0.043449 0.8 0 0
0.076351 0.508724 0.056393 0.8 0 0
0.640158 0.294595 0.046520 0.8 0 0
0.336124 0.132745 0.050676 0.8 0 0
0.407135 0.162700 0.050676 0.8 0 0
0.563075 0.208593 0.050676 0.8 0 0
0.076351 0.472511 0.154115 0.8 0 0
0.743919 0.971016 0.123882 0.8 0 0
0.076351 0.327563 0.060618 0.8 0 0
0.535016 0.949324 0.039554 0.8 0 0
0.421766 0.675768 0.025000 0.8 0 0
0.431560 0.076351 0.100297 0.8 0 0
0.428257 0.320270 0.225992 0.8 0 0
0.735385 0.294595 0.028893 0.8 0 0
0.339171 0.483260 0.050676 0.8 0 0
0.443028 0.538514 0.091955 0.8 0 0
0.346866 0.975000 0.122923 0.8 0 0
0.343928 0.588544 0.025000 0.8 0 0
0.442566 0.832727 0.050676 0.8 0 0
0.206047 0.294595 0.066994 0.8 0 0
0.102027 0.176076 0.215122 0.8 0 0
0.675177 0.210450 0.025000 0.8 0 0
0.076351 0.497817 0.127981 0.8 0 0
0.211976 0.756757 0.201369 0.8 0 0
0.091224 0.756757 0.098600 0.8 0 0
0.743919 0.903796 0.044307 0.8 0 0
0.748537 0.050676 0.083306 0.8 0 0
0.360891 0.432665 0.025000 0.8 0 0
0.314215 0.430879 0.025000 0.8 0 0
0.453438 0.076351 0.122634 0.8 0 0
0.473652 0.358664 0.050676 0.8 0 0
0.572336 0.524438 0.230405 0.8 0 0
0.743919 0.212759 0.045906 0.8 0 0
0.743919 0.724340 0.045035 0.8 0 0
0.718243 0.286955 0.025708 0.8 0 0
0.650386 0.294595 0.164427 0.8 0 0
0.730554 0.538514 0.211561 0.8 0 0
0.655173 0.731081 0.072661 0.8 0 0
0.114420 0.398844 0.025000 0.8 0 0
0.631724 0.756757 0.075193 0.8 0 0
0.512299 0.377076 0.050676 0.8 0 0
0.584825 0.320270 0.133611 0.8 0 0
0.369573 0.050676 0.158311 0.8 0 0
0.076351 0.347386 0.069464 0.8 0 0
0.593871 0.102027 0.025570 0.8 0 0
0.466049 0.320270 0.184186 0.8 0 0
0.718243 0.780476 0.095453 0.8 0 0
0.153562 0.025000 0.197436 0.8 0 0
0.743145 0.975000 0.123167 0.8 0 0
0.727931 0.949324 0.215041 0.8 0 0
0.164501 0.869875 0.025000 0.8 0 0
0.553226 0.512838 0.107333 0.8 0 0
0.740528 0.102027 0.125650 0.8 0 0
0.512521 0.320270 0.051078 0.8 0 0
0.286909 0.487215 0.050676 0.8 0 0
0.490446 0.102027 0.038974 0.8 0 0
0.445124 0.169835 0.050676 0.8 0 0
0.445478 0.025000 0.228740 0.8 0 0
0.217402 0.905424 0.050676 0.8 0 0
0.149267 0.756757 0.100857 0.8 0 0
0.577674 0.076351 0.069219 0.8 0 0
0.102001 0.731081 0.060581 0.8 0 0
0.721916 0.731081 0.047247 0.8 0 0
0.438614 0.033402 0.025000 0.8 0 0
0.594889 0.305085 0.025000 0.8 0 0
0.741179 0.050676 0.189035 0.8 0 0
0.718243 0.907387 0.193746 0.8 0 0
0.218780 0.076351 0.158315 0.8 0 0
0.076351 0.634424 0.177416 0.8 0 0
0.565450 0.294595 0.073325 0.8 0 0
0.658007 0.673946 0.050676 0.8 0 0
0.595872 0.847631 0.025000 0.8 0 0
0.160635 0.949324 0.111464 0.8 0 0
0.104690 0.512838 0.169449 0.8 0 0
0.415076 0.731081 0.031118 0.8 0 0
0.509724 0.025000 0.040860 0.8 0 0
0.091360 0.756757 0.174213 0.8 0 0
0.119196 0.512838 0.117105 0.8 0 0
0.346505 0.610282 0.050676 0.8 0 0
0.076555 0.731081 0.072335 0.8 0 0
0.379708 0.093452 0.025000 0.8 0 0
0.300467 0.050676 0.253535 0.8 0 0
0.510972 0.102027 0.119933 0.8 0 0
0.237505 0.864086 0.050676 0.8 0 0
0.563026 0.294595 0.096644 0.8 0 0
0.225263 0.286191 0.050676 0.8 0 0
0.164893 0.076351 0.204866 0.8 0 0
0.187752 0.320270 0.217987 0.8 0 0
0.743919 0.743847 0.031996 0.8 0 0
0.627838 0.050676 0.216278 0.8 0 0
0.615995 0.505163 0.025000 0.8 0 0
0.137627 0.847707 0.025000 0.8 0 0
0.365223 0.102027 0.079224 0.8 0 0
0.289647 0.050676 0.125714 0.8 0 0
0.655730 0.025000 0.063897 0.8 0 0
0.717149 0.076351 0.191715 0.8 0 0
0.143237 0.320270 0.117688 0.8 0 0
0.605056 0.756757 0.036804 0.8 0 0
0.186061 0.731081 0.031394 0.8 0 0
0.337458 0.076351 0.145995 0.8 0 0
0.718243 0.453035 0.036697 0.8 0 0
0.126962 0.050676 0.163196 0.8 0 0
0.743858 0.949324 0.064085 0.8 0 0
0.718243 0.783820 0.188706 0.8 0 0
0.649889 0.050676 0.216828 0.8 0 0
0.794024 0.025000 0.225151 0.8 0 0
0.743919 0.530657 0.103377 0.8 0 0
0.429683 0.320270 0.177454 0.8 0 0
0.519855 0.294595 0.057490 0.8 0 0
0.718243 0.589331 0.148060 0.8 0 0
0.560498 0.792941 0.050676 0.8 0 0
0.371925 0.512838 0.193746 0.8 0 0
0.371202 0.076351 0.057779 0.8 0 0
0.721182 0.575538 0.025000 0.8 0 0
0.102027 0.632038 0.052933 0.8 0 0
0.076351 0.671519 0.037293 0.8 0 0
0.438899 0.806681 0.050676 0.8 0 0
0.493451 0.756757 0.100562 0.8 0 0
0.740945 0.756757 0.051510 0.8 0 0
0.323562 0.164081 0.025000 0.8 0 0
0.465773 0.597747 0.025000 0.8 0 0
0.213941 0.356013 0.025000 0.8 0 0
0.608527 0.050676 0.223474 0.8 0 0
0.549328 0.718105 0.025000 0.8 0 0
0.743919 0.729547 0.066480 0.8 0 0
0.286025 0.283447 0.050676 0.8 0 0
0.116772 0.076351 0.115701 0.8 0 0
0.530710 0.362971 0.050676 0.8 0 0
0.243615 0.512838 0.109683 0.8 0 0
0.622560 0.050676 0.229782 0.8 0 0
0.381315 0.440799 0.050676 0.8 0 0
0.310285 0.416069 0.050676 0.8 0 0
0.509609 0.624475 0.025000 0.8 0 0
0.638508 0.294595 0.182224 0.8 0 0
0.769595 0.052787 0.188725 0.8 0 0
0.718243 0.663644 0.172263 0.8 0 0
0.183046 0.538514 0.028843 0.8 0 0
0.518653 0.731081 0.158723 0.8 0 0
0.178127 0.076351 0.053075 0.8 0 0
0.193395 0.975000 0.112304 0.8 0 0
0.116056 0.788339 0.025000 0.8 0 0
0.149511 0.087489 0.025000 0.8 0 0
0.475115 0.294595 0.193044 0.8 0 0
0.096533 0.208128 0.025000 0.8 0 0
0.476969 0.512838 0.188449 0.8 0 0
0.667071 0.756757 0.119061 0.8 0 0
0.625327 0.320270 0.042916 0.8 0 0
0.536711 0.025000 0.147435 0.8 0 0
0.489017 0.563403 0.025000 0.8 0 0
0.368985 0.025000 0.104189 0.8 0 0
0.258594 0.050676 0.143533 0.8 0 0
0.146033 0.598117 0.050676 0.8 0 0
0.098605 0.512838 0.189295 0.8 0 0
0.732879 0.602777 0.025000 0.8 0 0
0.208112 0.445418 0.025000 0.8 0 0
0.376380 0.050676 0.135177 0.8 0 0
0.683892 0.050676 0.045028 0.8 0 0
0.212362 0.354867 0.025000 0.8 0 0
0.564918 0.275242 0.050676 0.8 0 0
0.097138 0.538514 0.051353 0.8 0 0
0.241293 0.949324 0.091166 0.8 0 0
0.102027 0.250800 0.124922 0.8 0 0
0.354241 0.301595 0.230405 0.8 0 0
0.642022 0.367203 0.050676 0.8 0 0
0.712565 0.320270 0.205318 0.8 0 0
0.224301 0.294595 0.165763 0.8 0 0
0.702439 0.731081 0.162603 0.8 0 0
0.453642 0.731081 0.229089 0.8 0 0
0.481344 0.788786 0.050676 0.8 0 0
0.102027 0.834878 0.184638 0.8 0 0
0.537536 0.675633 0.050676 0.8 0 0
0.742391 0.975000 0.219353 0.8 0 0
0.437792 0.512838 0.048037 0.8 0 0
0.345866 0.179273 0.050676 0.8 0 0
0.666073 0.320270 0.227641 0.8 0 0
0.508059 0.538514 0.180770 0.8 0 0
0.498417 0.025000 0.133213 0.8 0 0
0.703285 0.025000 0.061828 0.8 0 0
0.089920 0.731081 0.114002 0.8 0 0
0.537743 0.102027 0.197871 0.8 0 0
0.349942 0.058100 0.025000 0.8 0 0
0.035508 0.050676 0.259252 0.8 0 0
0.611688 0.883779 0.050676 0.8 0 0
0.138734 0.734613 0.025000 0.8 0 0
0.455091 0.628759 0.025000 0.8 0 0
0.133070 0.102027 0.062524 0.8 0 0
0.251328 0.352658 0.050676 0.8 0 0
0.718243 0.790719 0.137980 0.8 0 0
0.092221 0.538514 0.156968 0.8 0 0
0.491862 0.975000 0.173467 0.8 0 0
0.298969 0.975000 0.030222 0.8 0 0
0.624390 0.512838 0.056976 0.8 0 0
0.675948 0.633331 0.050676 0.8 0 0
0.371383 0.025000 0.168247 0.8 0 0
0.252757 0.448944 0.025000 0.8 0 0
0.076351 0.174348 0.174827 0.8 0 0
0.712676 0.206988 0.025000 0.8 0 0
0.236245 0.805788 0.050676 0.8 0 0
0.718243 0.271117 0.053422 0.8 0 0
0.173960 0.756757 0.030958 0.8 0 0
0.602661 0.366574 0.050676 0.8 0 0
0.242882 0.320270 0.028322 0.8 0 0
0.549702 0.320270 0.166101 0.8 0 0
0.743919 0.569021 0.193382 0.8 0 0
0.202421 0.320270 0.040922 0.8 0 0
0.722344 0.954247 0.230405 0.8 0 0
0.696409 0.512838 0.093278 0.8 0 0
0.743919 0.928273 0.152367 0.8 0 0
0.736096 0.093594 0.230405 0.8 0 0
0.405949 0.958905 0.230405 0.8 0 0
0.551960 0.454557 0.050676 0.8 0 0
0.718243 0.271669 0.025564 0.8 0 0
0.062024 0.050676 0.244733 0.8 0 0
0.718243 0.388583 0.197651 0.8 0 0
0.718243 0.625868 0.063565 0.8 0 0
0.635515 0.880206 0.025000 0.8 0 0
0.111678 0.975000 0.040245 0.8 0 0
0.690568 0.025000 0.209683 0.8 0 0
0.295879 0.622612 0.025000 0.8 0 0
0.314330 0.531980 0.025000 0.8 0 0
0.236199 0.975000 0.060882 0.8 0 0
0.076351 0.952126 0.127054 0.8 0 0
0.222555 0.573305 0.050676 0.8 0 0
0.645407 0.943506 0.025000 0.8 0 0
0.694713 0.050676 0.207653 0.8 0 0
0.161002 0.975000 0.103183 0.8 0 0
0.102027 0.479657 0.047039 0.8 0 0
0.187669 0.632209 0.050676 0.8 0 0
0.693212 0.371370 0.050676 0.8 0 0
0.212852 0.294595 0.075105 0.8 0 0
0.743919 0.703812 0.044107 0.8 0 0
0.743919 0.188076 0.038214 0.8 0 0
0.157306 0.076351 0.093879 0.8 0 0
0.743919 0.971023 0.151740 0.8 0 0
0.152632 0.076351 0.201659 0.8 0 0
0.284099 0.050676 0.129895 0.8 0 0
0.553897 0.914991 0.025000 0.8 0 0
0.466885 0.538514 0.163030 0.8 0 0
0.302386 0.693922 0.025000 0.8 0 0
0.260261 0.660347 0.050676 0.8 0 0
0.076351 0.974353 0.096594 0.8 0 0
0.743919 0.489895 0.141754 0.8 0 0
0.212625 0.416428 0.050676 0.8 0 0
0.072989 0.076351 0.180544 0.8 0 0
0.707093 0.025000 0.236544 0.8 0 0
0.257347 0.538514 0.116529 0.8 0 0
0.330751 0.756757 0.123255 0.8 0 0
0.256666 0.025000 0.048413 0.8 0 0
0.658195 0.773624 0.025000 0.8 0 0
0.717037 0.025000 0.060238 0.8 0 0
0.707899 0.076351 0.032717 0.8 0 0
0.408353 0.739906 0.230405 0.8 0 0
0.627053 0.226876 0.025000 0.8 0 0
0.718243 0.137500 0.120177 0.8 0 0
0.505284 0.448286 0.050676 0.8 0 0
0.397290 0.294595 0.088050 0.8 0 0
0.358540 0.294595 0.198861 0.8 0 0
0.655330 0.025000 0.043884 0.8 0 0
0.742850 0.050676 0.076185 0.8 0 0
0.500806 0.756757 0.160923 0.8 0 0
0.743919 0.733891 0.059572 0.8 0 0
0.611106 0.949324 0.060217 0.8 0 0
0.240681 0.050676 0.278435 0.8 0 0
0.634047 0.538514 0.201450 0.8 0 0
0.556624 0.131987 0.025000 0.8 0 0
0.048837 0.025000 0.118168 0.8 0 0
0.734058 0.512838 0.208922 0.8 0 0
0.606234 0.109626 0.050676 0.8 0 0
0.680819 0.909373 0.025000 0.8 0 0
0.438222 0.294595 0.031655 0.8 0 0
0.459209 0.940221 0.025000 0.8 0 0
0.102027 0.220581 0.096933 0.8 0 0
0.607250 0.756757 0.033565 0.8 0 0
0.102027 0.434957 0.149815 0.8 0 0
0.588716 0.076351 0.189609 0.8 0 0
0.601063 0.659119 0.025000 0.8 0 0
0.145416 0.975000 0.167054 0.8 0 0
0.433065 0.315239 0.025000 0.8 0 0
0.557936 0.050676 0.152914 0.8 0 0
0.547522 0.462032 0.050676 0.8 0 0
0.355539 0.025000 0.055340 0.8 0 0
0.672695 0.102027 0.032780 0.8 0 0
0.221368 0.076351 0.061991 0.8 0 0
0.268067 0.050676 0.189012 0.8 0 0
0.652036 0.294595 0.040321 0.8 0 0
0.316959 0.314874 0.230405 0.8 0 0
0.305448 0.731081 0.181879 0.8 0 0
0.177178 0.311602 0.230405 0.8 0 0
0.264335 0.731081 0.106380 0.8 0 0
0.483285 0.089832 0.230405 0.8 0 0
0.229569 0.694486 0.050676 0.8 0 0
0.743919 0.185984 0.031187 0.8 0 0
0.270886 0.227857 0.050676 0.8 0 0
0.351185 0.294595 0.162967 0.8 0 0
0.394886 0.949324 0.203092 0.8 0 0
0.076351 0.826985 0.196109 0.8 0 0
0.482623 0.612827 0.025000 0.8 0 0
0.307505 0.102027 0.186957 0.8 0 0
0.462957 0.076351 0.100247 0.8 0 0
0.101937 0.294595 0.219429 0.8 0 0
0.402017 0.952275 0.025000 0.8 0 0
0.379305 0.025000 0.150953 0.8 0 0
0.704646 0.473369 0.050676 0.8 0 0
0.780178 0.025000 0.112730 0.8 0 0
0.102027 0.824599 0.111683 0.8 0 0
0.493763 0.025000 0.080156 0.8 0 0
0.079362 0.878678 0.025000 0.8 0 0
0.311112 0.556086 0.025000 0.8 0 0
0.194923 0.294595 0.162779 0.8 0 0
0.346194 0.294595 0.222381 0.8 0 0
0.457432 0.731081 0.076898 0.8 0 0
0.284933 0.050676 0.074373 0.8 0 0
0.259899 0.050676 0.122215 0.8 0 0
0.566998 0.076351 0.038346 0.8 0 0
0.627767 0.406713 0.025000 0.8 0 0
0.165159 0.617646 0.025000 0.8 0 0
0.743919 0.415887 0.162033 0.8 0 0
0.522524 0.517286 0.025000 0.8 0 0
0.743919 0.803102 0.098732 0.8 0 0
0.367041 0.731081 0.035299 0.8 0 0
0.292532 0.512838 0.028354 0.8 0 0
0.534381 0.756757 0.072103 0.8 0 0
0.076351 0.511140 0.056425 0.8 0 0
0.590061 0.975000 0.155131 0.8 0 0
0.724768 0.949324 0.050250 0.8 0 0
0.567083 0.050676 0.091244 0.8 0 0
0.271476 0.025000 0.217213 0.8 0 0
0.140608 0.294595 0.218024 0.8 0 0
0.743919 0.959497 0.113294 0.8 0 0
0.102027 0.415058 0.028128 0.8 0 0
0.395073 0.076351 0.142067 0.8 0 0
0.325010 0.591218 0.050676 0.8 0 0
0.516518 0.050676 0.197138 0.8 0 0
0.676910 0.050676 0.184303 0.8 0 0
0.107067 0.102415 0.050676 0.8 0 0
0.180711 0.777391 0.050676 0.8 0 0
0.342018 0.538514 0.182512 0.8 0 0
0.076351 0.478635 0.143835 0.8 0 0
0.076351 0.440682 0.091542 0.8 0 0
0.306894 0.756757 0.113325 0.8 0 0
0.743919 0.263953 0.114761 0.8 0 0
0.236358 0.935890 0.025000 0.8 0 0
0.449898 0.050676 0.161485 0.8 0 0
0.120011 0.949324 0.194153 0.8 0 0
0.718243 0.926140 0.065771 0.8 0 0
0.060812 0.050676 0.122702 0.8 0 0
0.251703 0.731081 0.150900 0.8 0 0
0.607134 0.949324 0.104505 0.8 0 0
0.346825 0.169200 0.050676 0.8 0 0
0.561844 0.320270 0.205293 0.8 0 0
0.722366 0.559265 0.230405 0.8 0 0
0.141933 0.128338 0.025000 0.8 0 0
0.267950 0.050676 0.274039 0.8 0 0
0.781354 0.025000 0.130392 0.8 0 0
0.076351 0.247938 0.212151 0.8 0 0
0.102027 0.410921 0.031250 0.8 0 0
0.140109 0.772801 0.050676 0.8 0 0
0.621125 0.076351 0.060635 0.8 0 0
0.718243 0.243930 0.203688 0.8 0 0
0.333991 0.050676 0.123195 0.8 0 0
0.488076 0.795315 0.050676 0.8 0 0
0.703650 0.640037 0.050676 0.8 0 0
0.317111 0.502665 0.050676 0.8 0 0
0.236566 0.320270 0.122904 0.8 0 0
0.523053 0.743393 0.230405 0.8 0 0
0.743919 0.612780 0.199526 0.8 0 0
0.094948 0.294595 0.074616 0.8 0 0
0.251112 0.092545 0.025000 0.8 0 0
0.794541 0.025000 0.197436 0.8 0 0
0.597539 0.076351 0.214522 0.8 0 0
0.279879 0.949324 0.092977 0.8 0 0
0.610128 0.512838 0.075293 0.8 0 0
0.340412 0.193994 0.025000 0.8 0 0
0.341855 0.756757 0.167681 0.8 0 0
0.379716 0.645626 0.050676 0.8 0 0
0.718243 0.438225 0.029488 0.8 0 0
0.662019 0.961379 0.025000 0.8 0 0
0.645496 0.538514 0.191514 0.8 0 0
0.597828 0.146239 0.025000 0.8 0 0
0.418210 0.025000 0.154111 0.8 0 0
0.276622 0.166679 0.050676 0.8 0 0
0.743919 0.497147 0.145684 0.8 0 0
0.109982 0.238700 0.025000 0.8 0 0
0.575514 0.731081 0.141873 0.8 0 0
0.479896 0.647636 0.025000 0.8 0 0
0.589572 0.320270 0.174050 0.8 0 0
0.137928 0.884702 0.050676 0.8 0 0
0.076351 0.271281 0.053065 0.8 0 0
0.112283 0.050676 0.089520 0.8 0 0
0.466901 0.150447 0.050676 0.8 0 0
0.428796 0.052134 0.025000 0.8 0 0
0.533057 0.102027 0.053748 0.8 0 0
0.288312 0.076351 0.150361 0.8 0 0
0.421778 0.076351 0.227484 0.8 0 0
0.700176 0.076351 0.076883 0.8 0 0
0.620906 0.975000 0.177404 0.8 0 0
0.743919 0.199354 0.100061 0.8 0 0
0.347163 0.500355 0.050676 0.8 0 0
0.263495 0.497282 0.050676 0.8 0 0
0.199100 0.538514 0.172169 0.8 0 0
0.791767 0.025000 0.191668 0.8 0 0
0.453755 0.669474 0.050676 0.8 0 0
0.689639 0.848877 0.050676 0.8 0 0
0.160391 0.512838 0.108818 0.8 0 0
0.218436 0.321128 0.025000 0.8 0 0
0.732449 0.691512 0.025000 0.8 0 0
0.102027 0.722642 0.042941 0.8 0 0
0.192258 0.706028 0.025000 0.8 0 0
0.262663 0.050676 0.084408 0.8 0 0
0.076351 0.439283 0.104624 0.8 0 0
0.426525 0.320270 0.081562 0.8 0 0
0.032452 0.050676 0.038877 0.8 0 0
0.136085 0.247868 0.025000 0.8 0 0
0.325047 0.789603 0.025000 0.8 0 0
0.451284 0.076351 0.109035 0.8 0 0
0.269571 0.975000 0.052356 0.8 0 0
0.076351 0.930612 0.211524 0.8 0 0
0.718243 0.594779 0.172320 0.8 0 0
0.623216 0.786488 0.025000 0.8 0 0
0.718243 0.770568 0.051610 0.8 0 0
0.430641 0.731081 0.152981 0.8 0 0
0.781988 0.025000 0.121467 0.8 0 0
0.517882 0.035430 0.025000 0.8 0 0
0.076351 0.480262 0.111426 0.8 0 0
0.509252 0.416880 0.050676 0.8 0 0
0.176852 0.076351 0.193025 0.8 0 0
0.716904 0.512838 0.072303 0.8 0 0
0.336985 0.959974 0.230405 0.8 0 0
0.245791 0.076351 0.110572 0.8 0 0
0.445997 0.076351 0.037356 0.8 0 0
0.702333 0.617940 0.025000 0.8 0 0
0.076351 0.253657 0.070404 0.8 0 0
0.718243 0.365034 0.028304 0.8 0 0
0.207247 0.949324 0.038690 0.8 0 0
0.719369 0.731081 0.210201 0.8 0 0
0.744890 0.050676 0.112018 0.8 0 0
0.740756 0.380778 0.230405 0.8 0 0
0.482228 0.550362 0.050676 0.8 0 0
0.050365 0.050676 0.167166 0.8 0 0
0.720347 0.949324 0.025677 0.8 0 0
0.250623 0.102027 0.083142 0.8 0 0
0.158031 0.477306 0.050676 0.8 0 0
0.344984 0.050676 0.234718 0.8 0 0
0.172350 0.975000 0.077193 0.8 0 0
0.102027 0.552718 0.148173 0.8 0 0
0.241116 0.108051 0.025000 0.8 0 0
0.628068 0.865073 0.025000 0.8 0 0
0.718243 0.262084 0.159425 0.8 0 0
0.657876 0.855905 0.025000 0.8 0 0
0.209071 0.405779 0.050676 0.8 0 0
0.102027 0.431766 0.057096 0.8 0 0
0.561871 0.512838 0.032864 0.8 0 0
0.459773 0.949324 0.047729 0.8 0 0
0.081092 0.102027 0.214520 0.8 0 0
0.743919 0.850558 0.112918 0.8 0 0
0.083686 0.756757 0.162766 0.8 0 0
0.283524 0.756757 0.039940 0.8 0 0
0.477010 0.094642 0.025000 0.8 0 0
0.628080 0.076351 0.165918 0.8 0 0
0.112107 0.915655 0.025000 0.8 0 0
0.438128 0.485845 0.025000 0.8 0 0
0.629055 0.538514 0.182763 0.8 0 0
0.183739 0.419490 0.050676 0.8 0 0
0.253810 0.549880 0.050676 0.8 0 0
0.291102 0.175947 0.025000 0.8 0 0
0.338682 0.431637 0.050676 0.8 0 0
0.743919 0.691395 0.121130 0.8 0 0
0.244471 0.512838 0.163957 0.8 0 0
0.102027 0.332911 0.105903 0.8 0 0
0.177420 0.903408 0.025000 0.8 0 0
0.076351 0.486369 0.033093 0.8 0 0
0.197498 0.025000 0.112848 0.8 0 0
0.089175 0.050676 0.150107 0.8 0 0
0.670344 0.886453 0.050676 0.8 0 0
0.638386 0.949324 0.088169 0.8 0 0
0.360835 0.538514 0.047178 0.8 0 0
0.743919 0.077685 0.218990 0.8 0 0
0.475706 0.102027 0.062273 0.8 0 0
0.128751 0.320270 0.196115 0.8 0 0
0.548887 0.320270 0.151520 0.8 0 0
0.706602 0.105359 0.025000 0.8 0 0
0.779732 0.025000 0.265098 0.8 0 0
0.231412 0.731081 0.175034 0.8 0 0
0.735464 0.512838 0.186148 0.8 0 0
0.662483 0.911982 0.050676 0.8 0 0
0.173715 0.731081 0.106988 0.8 0 0
0.231025 0.756757 0.032334 0.8 0 0
0.728829 0.589361 0.230405 0.8 0 0
0.447829 0.036066 0.025000 0.8 0 0
0.076351 0.837687 0.093949 0.8 0 0
0.667389 0.050676 0.249473 0.8 0 0
0.297828 0.975000 0.123938 0.8 0 0
0.275848 0.050676 0.212692 0.8 0 0
0.092963 0.671143 0.025000 0.8 0 0
0.200835 0.050676 0.054944 0.8 0 0
0.193781 0.880806 0.050676 0.8 0 0
0.619342 0.320270 0.026412 0.8 0 0
0.265489 0.566376 0.050676 0.8 0 0
0.638793 0.538514 0.118986 0.8 0 0
0.498159 0.050676 0.089418 0.8 0 0
0.313813 0.050676 0.116789 0.8 0 0
0.568730 0.538514 0.146794 0.8 0 0
0.622210 0.538514 0.083067 0.8 0 0
0.755378 0.025000 0.125714 0.8 0 0
0.743919 0.334040 0.126088 0.8 0 0
0.730269 0.756757 0.226149 0.8 0 0
0.086084 0.580440 0.025000 0.8 0 0
0.532409 0.050676 0.274470 0.8 0 0
0.076351 0.538514 0.103283 0.8 0 0
0.212750 0.731081 0.224055 0.8 0 0
0.620335 0.975000 0.133774 0.8 0 0
0.510324 0.487973 0.050676 0.8 0 0
0.443211 0.538514 0.214689 0.8 0 0
0.076351 0.206500 0.125988 0.8 0 0
0.666786 0.512838 0.098099 0.8 0 0
0.224465 0.076351 0.198612 0.8 0 0
0.453520 0.756757 0.175830 0.8 0 0
0.343364 0.880112 0.025000 0.8 0 0
0.542184 0.100802 0.230405 0.8 0 0
0.073096 0.025000 0.236004 0.8 0 0
0.520935 0.731081 0.222130 0.8 0 0
0.513107 0.807803 0.025000 0.8 0 0
0.567963 0.076351 0.165502 0.8 0 0
0.474178 0.512838 0.160071 0.8 0 0
0.049542 0.025000 0.154009 0.8 0 0
0.415626 0.538514 0.060098 0.8 0 0
0.743919 0.859673 0.125587 0.8 0 0
0.476340 0.076351 0.183760 0.8 0 0
0.338660 0.040332 0.281757 0.8 0 0
0.102027 0.538896 0.222500 0.8 0 0
