0.319072 0.500000 0.099572 0.8 0 0
0.975000 0.045846 0.113135 0.8 0 0
0.353834 0.215000 0.055602 0.8 0 0
0.975000 0.372766 0.072020 0.8 0 0
0.472587 0.310000 0.112398 0.8 0 0
0.133809 0.025000 0.071791 0.8 0 0
0.215000 0.444868 0.072197 0.8 0 0
0.388248 0.500000 0.054625 0.8 0 0
0.600967 0.500000 0.082457 0.8 0 0
0.206928 0.500000 0.052752 0.8 0 0
0.154916 0.025000 0.073307 0.8 0 0
0.502943 0.310000 0.061110 0.8 0 0
0.449828 0.310000 0.058924 0.8 0 0
0.405000 0.144861 0.041775 0.8 0 0
0.143841 0.215000 0.107495 0.8 0 0
0.215000 0.141278 0.027644 0.8 0 0
0.314636 0.215000 0.114689 0.8 0 0
0.299183 0.025000 0.105472 0.8 0 0
0.975000 0.157221 0.038873 0.8 0 0
0.182343 0.500000 0.107985 0.8 0 0
0.231688 0.025000 0.031265 0.8 0 0
0.941833 0.025000 0.060710 0.8 0 0
0.052137 0.215000 0.059919 0.8 0 0
0.791535 0.310000 0.069979 0.8 0 0
0.975000 0.120864 0.034443 0.8 0 0
0.944036 0.025000 0.084867 0.8 0 0
0.032857 0.310000 0.107029 0.8 0 0
0.026102 0.500000 0.065642 0.8 0 0
0.240067 0.310000 0.067935 0.8 0 0
0.102265 0.215000 0.109490 0.8 0 0
0.906259 0.025000 0.052004 0.8 0 0
0.405000 0.349969 0.049339 0.8 0 0
0.631931 0.025000 0.038618 0.8 0 0
0.113369 0.310000 0.107040 0.8 0 0
0.525876 0.310000 0.076529 0.8 0 0
0.399207 0.500000 0.112265 0.8 0 0
0.785000 0.377158 0.111006 0.8 0 0
0.215000 0.354225 0.038922 0.8 0 0
0.963838 0.025000 0.113506 0.8 0 0
0.599633 0.500000 0.114422 0.8 0 0
0.595000 0.385734 0.066114 0.8 0 0
0.215000 0.055935 0.069248 0.8 0 0
0.683856 0.215000 0.082220 0.8 0 0
0.471573 0.310000 0.119588 0.8 0 0
0.405000 0.100752 0.047904 0.8 0 0
0.975000 0.146189 0.089981 0.8 0 0
0.215000 0.132255 0.035429 0.8 0 0
0.540401 0.500000 0.114393 0.8 0 0
0.427156 0.310000 0.038531 0.8 0 0
0.025000 0.316042 0.083614 0.8 0 0
0.595000 0.451014 0.112186 0.8 0 0
0.913391 0.215000 0.102051 0.8 0 0
0.318086 0.025000 0.043744 0.8 0 0
0.323653 0.500000 0.038563 0.8 0 0
0.025000 0.370751 0.046115 0.8 0 0
0.512539 0.500000 0.107524 0.8 0 0
0.025000 0.459410 0.077439 0.8 0 0
0.215000 0.036168 0.051122 0.8 0 0
0.403324 0.025000 0.118269 0.8 0 0
0.300517 0.310000 0.112636 0.8 0 0
0.025000 0.396149 0.039812 0.8 0 0
0.427533 0.310000 0.074537 0.8 0 0
0.975000 0.336424 0.110751 0.8 0 0
0.975000 0.478096 0.045701 0.8 0 0
0.595000 0.067584 0.037313 0.8 0 0
0.025000 0.281323 0.076621 0.8 0 0
0.866655 0.310000 0.063447 0.8 0 0
0.054630 0.215000 0.119298 0.8 0 0
0.559884 0.310000 0.102019 0.8 0 0
0.494593 0.025000 0.083930 0.8 0 0
0.785000 0.347174 0.099067 0.8 0 0
0.351080 0.025000 0.033631 0.8 0 0
0.405000 0.103761 0.112523 0.8 0 0
0.779416 0.025000 0.085452 0.8 0 0
0.595000 0.408117 0.114587 0.8 0 0
0.975000 0.279816 0.049252 0.8 0 0
0.405000 0.383508 0.086725 0.8 0 0
0.788317 0.310000 0.031677 0.8 0 0
0.215000 0.435718 0.063879 0.8 0 0
0.025000 0.119893 0.105191 0.8 0 0
0.215000 0.157687 0.082408 0.8 0 0
0.215000 0.199611 0.090025 0.8 0 0
0.412399 0.215000 0.043961 0.8 0 0
0.215000 0.048559 0.082788 0.8 0 0
0.785000 0.179791 0.034907 0.8 0 0
0.444958 0.500000 0.060403 0.8 0 0
0.025000 0.476429 0.052128 0.8 0 0
0.312809 0.310000 0.063725 0.8 0 0
0.025000 0.371012 0.034875 0.8 0 0
0.215000 0.442757 0.062754 0.8 0 0
0.064256 0.215000 0.083130 0.8 0 0
0.480097 0.215000 0.094701 0.8 0 0
0.272539 0.310000 0.038235 0.8 0 0
0.025000 0.047310 0.094104 0.8 0 0
0.595000 0.379890 0.074177 0.8 0 0
0.975000 0.447509 0.111207 0.8 0 0
0.647094 0.500000 0.078341 0.8 0 0
0.110905 0.025000 0.032558 0.8 0 0
0.975000 0.206870 0.117359 0.8 0 0
0.177037 0.215000 0.053758 0.8 0 0
0.405000 0.451281 0.113555 0.8 0 0
0.025000 0.405615 0.090932 0.8 0 0
0.352848 0.025000 0.068321 0.8 0 0
0.975000 0.307620 0.068190 0.8 0 0
0.595000 0.126834 0.027853 0.8 0 0
0.529413 0.310000 0.055407 0.8 0 0
0.025000 0.323247 0.061919 0.8 0 0
0.044628 0.500000 0.043071 0.8 0 0
0.115283 0.500000 0.054503 0.8 0 0
0.025000 0.116877 0.089419 0.8 0 0
0.074664 0.500000 0.078213 0.8 0 0
0.975000 0.139695 0.081898 0.8 0 0
0.770718 0.215000 0.105051 0.8 0 0
0.027580 0.025000 0.114920 0.8 0 0
0.845374 0.500000 0.083258 0.8 0 0
0.679624 0.215000 0.092999 0.8 0 0
0.975000 0.210813 0.026769 0.8 0 0
0.322957 0.500000 0.068292 0.8 0 0
0.785000 0.423639 0.050908 0.8 0 0
0.975000 0.116022 0.036835 0.8 0 0
0.975000 0.307634 0.032506 0.8 0 0
0.464093 0.310000 0.063891 0.8 0 0
0.975000 0.229630 0.042474 0.8 0 0
0.351399 0.025000 0.025971 0.8 0 0
0.430026 0.310000 0.087551 0.8 0 0
0.378159 0.310000 0.037362 0.8 0 0
0.638222 0.025000 0.093930 0.8 0 0
0.405000 0.344774 0.075879 0.8 0 0
0.405000 0.351784 0.028305 0.8 0 0
0.025000 0.357009 0.110647 0.8 0 0
0.215000 0.053726 0.035417 0.8 0 0
0.201188 0.025000 0.083609 0.8 0 0
0.041294 0.310000 0.096188 0.8 0 0
0.812613 0.310000 0.092819 0.8 0 0
0.595000 0.193725 0.112259 0.8 0 0
0.856594 0.215000 0.054210 0.8 0 0
0.474327 0.500000 0.047606 0.8 0 0
0.025000 0.368330 0.094139 0.8 0 0
0.347311 0.500000 0.086525 0.8 0 0
0.354733 0.025000 0.113149 0.8 0 0
0.178023 0.025000 0.067118 0.8 0 0
0.036423 0.215000 0.099053 0.8 0 0
0.245083 0.025000 0.044437 0.8 0 0
0.595000 0.078532 0.027174 0.8 0 0
0.830762 0.310000 0.029462 0.8 0 0
0.032161 0.500000 0.086885 0.8 0 0
0.185474 0.215000 0.080616 0.8 0 0
0.975000 0.383885 0.076792 0.8 0 0
0.532080 0.215000 0.087465 0.8 0 0
0.433477 0.500000 0.030129 0.8 0 0
0.405000 0.155490 0.095301 0.8 0 0
0.512742 0.215000 0.033306 0.8 0 0
0.698933 0.500000 0.046046 0.8 0 0
0.833023 0.215000 0.092164 0.8 0 0
0.637671 0.215000 0.049049 0.8 0 0
0.752337 0.215000 0.037168 0.8 0 0
0.405000 0.326619 0.070414 0.8 0 0
0.215000 0.112714 0.109774 0.8 0 0
0.568669 0.215000 0.041134 0.8 0 0
0.434462 0.500000 0.087459 0.8 0 0
0.523296 0.500000 0.111467 0.8 0 0
0.792231 0.025000 0.039638 0.8 0 0
0.399874 0.025000 0.115396 0.8 0 0
0.619754 0.500000 0.117950 0.8 0 0
0.549041 0.500000 0.111844 0.8 0 0
0.785000 0.360093 0.118000 0.8 0 0
0.215000 0.417180 0.087131 0.8 0 0
0.058747 0.500000 0.041526 0.8 0 0
0.452119 0.025000 0.026568 0.8 0 0
0.405000 0.122943 0.099595 0.8 0 0
0.649587 0.310000 0.070658 0.8 0 0
0.975000 0.451307 0.026479 0.8 0 0
0.831661 0.310000 0.068358 0.8 0 0
0.025000 0.499406 0.046327 0.8 0 0
0.384856 0.025000 0.030120 0.8 0 0
0.300314 0.025000 0.078880 0.8 0 0
0.272568 0.310000 0.077082 0.8 0 0
0.062342 0.310000 0.076934 0.8 0 0
0.215000 0.087734 0.047310 0.8 0 0
0.551534 0.025000 0.044118 0.8 0 0
0.964476 0.310000 0.100560 0.8 0 0
0.110673 0.025000 0.063827 0.8 0 0
0.595000 0.406052 0.071493 0.8 0 0
0.215000 0.057350 0.109487 0.8 0 0
0.457221 0.025000 0.096064 0.8 0 0
0.919073 0.310000 0.060617 0.8 0 0
0.332930 0.500000 0.059072 0.8 0 0
0.457743 0.500000 0.067402 0.8 0 0
0.142594 0.500000 0.119623 0.8 0 0
0.975000 0.048919 0.041416 0.8 0 0
0.340816 0.025000 0.055016 0.8 0 0
0.415008 0.025000 0.065613 0.8 0 0
0.025000 0.098641 0.055541 0.8 0 0
0.785000 0.156029 0.073226 0.8 0 0
0.785000 0.375361 0.119571 0.8 0 0
0.066894 0.215000 0.107785 0.8 0 0
0.871583 0.310000 0.058884 0.8 0 0
0.486243 0.025000 0.050273 0.8 0 0
0.934236 0.310000 0.075746 0.8 0 0
0.041004 0.215000 0.035658 0.8 0 0
0.542953 0.215000 0.035324 0.8 0 0
0.251693 0.215000 0.028717 0.8 0 0
0.595000 0.499264 0.113932 0.8 0 0
0.336786 0.025000 0.099928 0.8 0 0
0.975000 0.081217 0.083736 0.8 0 0
0.975000 0.172108 0.050502 0.8 0 0
0.595000 0.437248 0.053358 0.8 0 0
0.384276 0.215000 0.025238 0.8 0 0
0.780808 0.310000 0.041204 0.8 0 0
0.215000 0.454818 0.102784 0.8 0 0
0.025000 0.096438 0.116214 0.8 0 0
0.215000 0.390715 0.091120 0.8 0 0
0.025000 0.111731 0.115608 0.8 0 0
0.138013 0.310000 0.025168 0.8 0 0
0.215000 0.171697 0.065506 0.8 0 0
0.405000 0.168594 0.072011 0.8 0 0
0.355458 0.310000 0.066857 0.8 0 0
0.595000 0.330173 0.038583 0.8 0 0
0.141782 0.500000 0.071635 0.8 0 0
0.743262 0.310000 0.095704 0.8 0 0
0.595000 0.460477 0.043964 0.8 0 0
0.926321 0.500000 0.074606 0.8 0 0
0.306054 0.310000 0.027285 0.8 0 0
0.550694 0.310000 0.033150 0.8 0 0
0.782083 0.215000 0.090984 0.8 0 0
0.405000 0.411549 0.074221 0.8 0 0
0.025812 0.025000 0.098015 0.8 0 0
0.766253 0.310000 0.039702 0.8 0 0
0.306866 0.500000 0.056292 0.8 0 0
0.496216 0.215000 0.091297 0.8 0 0
0.785000 0.382719 0.118263 0.8 0 0
0.358763 0.310000 0.070313 0.8 0 0
0.975000 0.140999 0.110406 0.8 0 0
0.759614 0.025000 0.112210 0.8 0 0
0.157554 0.215000 0.042685 0.8 0 0
0.252998 0.215000 0.034701 0.8 0 0
0.521498 0.310000 0.094411 0.8 0 0
0.709950 0.310000 0.105385 0.8 0 0
0.215000 0.339491 0.062119 0.8 0 0
0.635584 0.500000 0.103515 0.8 0 0
0.372389 0.215000 0.077320 0.8 0 0
0.405000 0.381623 0.068097 0.8 0 0
0.595000 0.400706 0.050589 0.8 0 0
0.785000 0.030828 0.037594 0.8 0 0
0.835662 0.215000 0.060568 0.8 0 0
0.162483 0.310000 0.041242 0.8 0 0
0.294225 0.310000 0.027934 0.8 0 0
0.202928 0.025000 0.050087 0.8 0 0
0.856594 0.215000 0.093295 0.8 0 0
0.562001 0.215000 0.086734 0.8 0 0
0.215000 0.316112 0.098482 0.8 0 0
0.215000 0.069875 0.119281 0.8 0 0
0.595000 0.485631 0.039876 0.8 0 0
0.744277 0.500000 0.096675 0.8 0 0
0.405000 0.350561 0.028050 0.8 0 0
0.758164 0.310000 0.077877 0.8 0 0
0.834415 0.215000 0.088497 0.8 0 0
0.967201 0.500000 0.037412 0.8 0 0
0.758657 0.025000 0.042784 0.8 0 0
0.593226 0.215000 0.085145 0.8 0 0
0.597024 0.500000 0.036380 0.8 0 0
0.120473 0.215000 0.110406 0.8 0 0
0.215000 0.048762 0.105686 0.8 0 0
0.405000 0.394658 0.046101 0.8 0 0
0.442928 0.025000 0.060716 0.8 0 0
0.595000 0.477316 0.118434 0.8 0 0
0.556405 0.025000 0.094597 0.8 0 0
0.441623 0.025000 0.028911 0.8 0 0
0.975000 0.125590 0.079842 0.8 0 0
0.272510 0.215000 0.037899 0.8 0 0
0.955923 0.500000 0.025664 0.8 0 0
0.342179 0.310000 0.034298 0.8 0 0
0.405000 0.180499 0.047049 0.8 0 0
0.047962 0.025000 0.089830 0.8 0 0
0.405000 0.119916 0.052894 0.8 0 0
0.470529 0.310000 0.103123 0.8 0 0
0.975000 0.374781 0.039798 0.8 0 0
0.405000 0.196045 0.096075 0.8 0 0
0.122879 0.500000 0.070272 0.8 0 0
0.405000 0.388135 0.083556 0.8 0 0
0.481691 0.310000 0.081701 0.8 0 0
0.785000 0.440240 0.113497 0.8 0 0
0.965432 0.500000 0.117553 0.8 0 0
0.440551 0.215000 0.053535 0.8 0 0
0.120849 0.215000 0.082223 0.8 0 0
0.937948 0.500000 0.060931 0.8 0 0
0.782025 0.310000 0.114048 0.8 0 0
0.405000 0.099325 0.064523 0.8 0 0
0.975000 0.363358 0.081333 0.8 0 0
0.785000 0.206418 0.112395 0.8 0 0
0.703687 0.215000 0.099244 0.8 0 0
0.975000 0.127706 0.051534 0.8 0 0
0.855696 0.500000 0.096243 0.8 0 0
0.589051 0.310000 0.094078 0.8 0 0
0.369374 0.310000 0.101883 0.8 0 0
0.215000 0.419122 0.027734 0.8 0 0
0.785000 0.036255 0.083823 0.8 0 0
0.703340 0.310000 0.103866 0.8 0 0
0.456960 0.310000 0.072014 0.8 0 0
0.578584 0.500000 0.112436 0.8 0 0
0.030799 0.310000 0.073977 0.8 0 0
0.595000 0.400103 0.112848 0.8 0 0
0.141463 0.310000 0.074803 0.8 0 0
0.215000 0.110812 0.040682 0.8 0 0
0.786577 0.310000 0.063679 0.8 0 0
0.327161 0.215000 0.030778 0.8 0 0
0.653994 0.310000 0.114616 0.8 0 0
0.739609 0.025000 0.098615 0.8 0 0
0.089885 0.025000 0.117466 0.8 0 0
0.405000 0.214698 0.038081 0.8 0 0
0.054746 0.500000 0.045214 0.8 0 0
0.765674 0.310000 0.057443 0.8 0 0
0.692786 0.310000 0.099236 0.8 0 0
0.744509 0.215000 0.072383 0.8 0 0
0.873729 0.500000 0.112807 0.8 0 0
0.143870 0.215000 0.092956 0.8 0 0
0.481024 0.025000 0.091697 0.8 0 0
0.846998 0.310000 0.030532 0.8 0 0
0.365924 0.500000 0.043361 0.8 0 0
0.944906 0.025000 0.110488 0.8 0 0
0.025464 0.500000 0.102764 0.8 0 0
0.103280 0.310000 0.065784 0.8 0 0
0.656661 0.500000 0.037278 0.8 0 0
0.785000 0.320397 0.110006 0.8 0 0
0.634685 0.025000 0.078007 0.8 0 0
0.405000 0.323777 0.107870 0.8 0 0
0.606127 0.215000 0.077134 0.8 0 0
0.453394 0.025000 0.051731 0.8 0 0
0.215000 0.028392 0.050835 0.8 0 0
0.975000 0.154379 0.037536 0.8 0 0
0.025000 0.066735 0.082049 0.8 0 0
0.302053 0.215000 0.098157 0.8 0 0
0.025000 0.475371 0.056242 0.8 0 0
0.595000 0.070130 0.073789 0.8 0 0
0.388277 0.310000 0.110314 0.8 0 0
0.127866 0.215000 0.076062 0.8 0 0
0.483489 0.215000 0.086925 0.8 0 0
0.159989 0.310000 0.045831 0.8 0 0
0.791651 0.310000 0.058208 0.8 0 0
0.718416 0.025000 0.047147 0.8 0 0
0.576787 0.500000 0.093567 0.8 0 0
0.472761 0.215000 0.115784 0.8 0 0
0.458874 0.500000 0.104628 0.8 0 0
0.598850 0.500000 0.065975 0.8 0 0
0.633033 0.310000 0.053810 0.8 0 0
0.849607 0.310000 0.104991 0.8 0 0
0.595000 0.463498 0.045286 0.8 0 0
0.785000 0.414205 0.115996 0.8 0 0
0.677536 0.310000 0.113514 0.8 0 0
0.595000 0.118774 0.061525 0.8 0 0
0.331887 0.500000 0.059913 0.8 0 0
0.654400 0.215000 0.047980 0.8 0 0
0.066488 0.310000 0.029842 0.8 0 0
0.299589 0.025000 0.113453 0.8 0 0
0.439652 0.310000 0.099752 0.8 0 0
0.975000 0.214640 0.095037 0.8 0 0
0.025000 0.148103 0.066555 0.8 0 0
0.126561 0.025000 0.068103 0.8 0 0
0.657879 0.310000 0.030454 0.8 0 0
0.564175 0.310000 0.090958 0.8 0 0
0.149929 0.500000 0.032715 0.8 0 0
0.974681 0.310000 0.059675 0.8 0 0
0.409964 0.025000 0.063653 0.8 0 0
0.025000 0.124937 0.117994 0.8 0 0
0.505523 0.500000 0.097290 0.8 0 0
0.405000 0.487191 0.100520 0.8 0 0
0.405000 0.427907 0.050882 0.8 0 0
0.025000 0.187677 0.114970 0.8 0 0
0.052891 0.215000 0.059319 0.8 0 0
0.595000 0.172508 0.034901 0.8 0 0
0.612709 0.215000 0.115584 0.8 0 0
0.025000 0.197042 0.093176 0.8 0 0
0.698556 0.500000 0.045898 0.8 0 0
0.975000 0.412631 0.109861 0.8 0 0
0.663272 0.215000 0.042181 0.8 0 0
0.116182 0.500000 0.071678 0.8 0 0
0.785000 0.365219 0.082553 0.8 0 0
0.855145 0.310000 0.033338 0.8 0 0
0.399381 0.215000 0.053964 0.8 0 0
0.832385 0.310000 0.076549 0.8 0 0
0.600097 0.025000 0.025647 0.8 0 0
0.975000 0.233544 0.080898 0.8 0 0
0.270944 0.025000 0.041056 0.8 0 0
0.073650 0.310000 0.042955 0.8 0 0
0.929772 0.310000 0.070907 0.8 0 0
0.068924 0.500000 0.116318 0.8 0 0
0.939426 0.500000 0.065479 0.8 0 0
0.586731 0.215000 0.063299 0.8 0 0
0.595000 0.408441 0.087560 0.8 0 0
0.215000 0.078793 0.025212 0.8 0 0
0.071968 0.025000 0.087325 0.8 0 0
0.595000 0.393893 0.115677 0.8 0 0
0.025000 0.141405 0.080634 0.8 0 0
0.792985 0.025000 0.025461 0.8 0 0
0.975000 0.343860 0.082530 0.8 0 0
0.668867 0.215000 0.103303 0.8 0 0
0.250765 0.215000 0.101222 0.8 0 0
0.405000 0.133612 0.119536 0.8 0 0
0.211538 0.215000 0.080216 0.8 0 0
0.975000 0.083072 0.087946 0.8 0 0
0.215000 0.412564 0.115350 0.8 0 0
0.595000 0.426840 0.082788 0.8 0 0
0.975000 0.195578 0.105637 0.8 0 0
0.975000 0.399816 0.089859 0.8 0 0
0.341135 0.025000 0.032535 0.8 0 0
0.160685 0.025000 0.051667 0.8 0 0
0.442116 0.215000 0.025531 0.8 0 0
0.025000 0.202493 0.109803 0.8 0 0
0.420575 0.310000 0.119301 0.8 0 0
0.127141 0.310000 0.027925 0.8 0 0
0.429418 0.215000 0.110879 0.8 0 0
0.025000 0.128982 0.091251 0.8 0 0
0.195186 0.215000 0.064369 0.8 0 0
0.605345 0.215000 0.065610 0.8 0 0
0.025000 0.150915 0.033683 0.8 0 0
0.975000 0.214974 0.096542 0.8 0 0
0.366649 0.025000 0.070127 0.8 0 0
0.975000 0.311737 0.080547 0.8 0 0
0.160569 0.215000 0.111772 0.8 0 0
0.503986 0.215000 0.105344 0.8 0 0
0.479314 0.025000 0.094133 0.8 0 0
0.405673 0.025000 0.088149 0.8 0 0
0.940499 0.500000 0.043120 0.8 0 0
0.215000 0.197471 0.111734 0.8 0 0
0.595000 0.182447 0.069849 0.8 0 0
0.228441 0.310000 0.113987 0.8 0 0
0.634975 0.310000 0.103132 0.8 0 0
0.780315 0.025000 0.025684 0.8 0 0
0.255375 0.310000 0.052505 0.8 0 0
0.516569 0.215000 0.052786 0.8 0 0
0.416690 0.310000 0.112500 0.8 0 0
0.975000 0.453771 0.041532 0.8 0 0
0.050774 0.310000 0.061467 0.8 0 0
0.565045 0.500000 0.038368 0.8 0 0
0.595000 0.039177 0.025493 0.8 0 0
0.595000 0.421784 0.048243 0.8 0 0
0.523614 0.025000 0.110337 0.8 0 0
0.473950 0.025000 0.041700 0.8 0 0
0.717082 0.215000 0.072452 0.8 0 0
0.166542 0.215000 0.027775 0.8 0 0
0.765355 0.500000 0.031341 0.8 0 0
0.025000 0.314447 0.101216 0.8 0 0
0.025000 0.286383 0.115895 0.8 0 0
0.695338 0.310000 0.089584 0.8 0 0
0.900257 0.310000 0.031799 0.8 0 0
0.728969 0.215000 0.035017 0.8 0 0
0.074490 0.500000 0.110859 0.8 0 0
0.215000 0.431711 0.029114 0.8 0 0
0.215000 0.496956 0.056489 0.8 0 0
0.215000 0.382221 0.066161 0.8 0 0
0.278743 0.025000 0.070869 0.8 0 0
0.786954 0.500000 0.044558 0.8 0 0
0.487345 0.310000 0.041361 0.8 0 0
0.710153 0.500000 0.057982 0.8 0 0
0.665446 0.500000 0.111569 0.8 0 0
0.506045 0.215000 0.093173 0.8 0 0
0.089827 0.215000 0.115237 0.8 0 0
0.453742 0.310000 0.081637 0.8 0 0
0.602706 0.215000 0.045553 0.8 0 0
0.025000 0.126402 0.067912 0.8 0 0
0.785000 0.416206 0.085464 0.8 0 0
0.703426 0.025000 0.055654 0.8 0 0
0.025000 0.118835 0.038026 0.8 0 0
0.234703 0.500000 0.049394 0.8 0 0
0.628307 0.025000 0.112175 0.8 0 0
0.468645 0.500000 0.045793 0.8 0 0
0.975000 0.200304 0.091063 0.8 0 0
0.595000 0.383224 0.107298 0.8 0 0
0.491665 0.215000 0.050528 0.8 0 0
0.785000 0.040859 0.108435 0.8 0 0
0.193998 0.310000 0.092161 0.8 0 0
0.148740 0.310000 0.087259 0.8 0 0
0.483634 0.215000 0.031396 0.8 0 0
0.448321 0.215000 0.034846 0.8 0 0
0.924350 0.500000 0.051305 0.8 0 0
0.595000 0.144664 0.067874 0.8 0 0
0.372012 0.500000 0.035985 0.8 0 0
0.141405 0.025000 0.073203 0.8 0 0
0.975000 0.417473 0.093420 0.8 0 0
0.375723 0.310000 0.038479 0.8 0 0
0.534342 0.310000 0.059168 0.8 0 0
0.215000 0.208343 0.064337 0.8 0 0
0.445277 0.025000 0.074154 0.8 0 0
0.798580 0.215000 0.025922 0.8 0 0
0.975000 0.149639 0.116141 0.8 0 0
0.136998 0.310000 0.063978 0.8 0 0
0.215000 0.153652 0.107359 0.8 0 0
0.791303 0.215000 0.099265 0.8 0 0
0.595000 0.369539 0.038606 0.8 0 0
0.975000 0.029885 0.115779 0.8 0 0
0.607461 0.500000 0.026177 0.8 0 0
0.479256 0.310000 0.109142 0.8 0 0
0.549157 0.025000 0.118429 0.8 0 0
0.595000 0.434019 0.046324 0.8 0 0
0.405000 0.488049 0.116753 0.8 0 0
0.405000 0.469871 0.071919 0.8 0 0
0.142623 0.215000 0.060585 0.8 0 0
0.435593 0.310000 0.075685 0.8 0 0
0.595000 0.214478 0.056176 0.8 0 0
0.405000 0.214148 0.064639 0.8 0 0
0.595000 0.332985 0.088149 0.8 0 0
0.366011 0.025000 0.096499 0.8 0 0
0.975000 0.254926 0.090503 0.8 0 0
0.785000 0.194636 0.068106 0.8 0 0
0.595000 0.450434 0.059208 0.8 0 0
0.375201 0.215000 0.036594 0.8 0 0
0.939165 0.500000 0.082504 0.8 0 0
0.025000 0.324537 0.084458 0.8 0 0
0.165063 0.215000 0.031074 0.8 0 0
0.630742 0.310000 0.047382 0.8 0 0
0.769530 0.215000 0.093976 0.8 0 0
0.809017 0.500000 0.036803 0.8 0 0
0.581890 0.310000 0.051546 0.8 0 0
0.771182 0.025000 0.068300 0.8 0 0
0.136042 0.215000 0.098618 0.8 0 0
0.025000 0.343368 0.058884 0.8 0 0
0.292660 0.500000 0.056303 0.8 0 0
0.527934 0.215000 0.090775 0.8 0 0
0.250678 0.215000 0.051261 0.8 0 0
0.133635 0.310000 0.095223 0.8 0 0
0.421329 0.310000 0.050745 0.8 0 0
0.025000 0.185503 0.052157 0.8 0 0
0.339686 0.500000 0.091552 0.8 0 0
0.879267 0.025000 0.093388 0.8 0 0
0.845925 0.500000 0.063766 0.8 0 0
0.785000 0.158488 0.117075 0.8 0 0
0.642890 0.500000 0.079396 0.8 0 0
0.953488 0.310000 0.025061 0.8 0 0
0.735666 0.500000 0.093188 0.8 0 0
0.818469 0.310000 0.051238 0.8 0 0
0.077969 0.310000 0.068828 0.8 0 0
0.975000 0.255897 0.083008 0.8 0 0
0.178748 0.025000 0.090639 0.8 0 0
0.273408 0.025000 0.035617 0.8 0 0
0.433969 0.310000 0.050168 0.8 0 0
0.975000 0.499725 0.050377 0.8 0 0
0.595000 0.117701 0.045417 0.8 0 0
0.392742 0.310000 0.058110 0.8 0 0
0.595000 0.144287 0.119858 0.8 0 0
0.215000 0.066917 0.084875 0.8 0 0
0.163266 0.500000 0.031660 0.8 0 0
0.405000 0.156284 0.058979 0.8 0 0
0.730274 0.025000 0.034498 0.8 0 0
0.214612 0.025000 0.047263 0.8 0 0
0.969810 0.310000 0.048359 0.8 0 0
0.215000 0.395946 0.035281 0.8 0 0
0.610157 0.215000 0.051609 0.8 0 0
0.830675 0.310000 0.096841 0.8 0 0
0.956735 0.025000 0.063450 0.8 0 0
0.025000 0.419241 0.035826 0.8 0 0
0.026537 0.500000 0.082498 0.8 0 0
0.785000 0.174497 0.067880 0.8 0 0
0.975000 0.184474 0.080390 0.8 0 0
0.185358 0.215000 0.048774 0.8 0 0
0.975000 0.480271 0.119722 0.8 0 0
0.405000 0.409398 0.109722 0.8 0 0
0.785000 0.447320 0.094376 0.8 0 0
0.025000 0.071040 0.095174 0.8 0 0
0.215000 0.332997 0.077314 0.8 0 0
0.595000 0.462669 0.047046 0.8 0 0
0.349630 0.310000 0.051311 0.8 0 0
0.975000 0.204812 0.035049 0.8 0 0
0.248852 0.025000 0.035336 0.8 0 0
0.704731 0.500000 0.066045 0.8 0 0
0.054109 0.500000 0.071464 0.8 0 0
0.595000 0.045967 0.053274 0.8 0 0
0.623291 0.310000 0.110163 0.8 0 0
0.405000 0.149610 0.062357 0.8 0 0
0.215000 0.478186 0.036081 0.8 0 0
0.936208 0.310000 0.025417 0.8 0 0
0.066401 0.025000 0.052871 0.8 0 0
0.840967 0.310000 0.089436 0.8 0 0
0.975000 0.185083 0.027279 0.8 0 0
0.755294 0.500000 0.111204 0.8 0 0
0.130446 0.025000 0.065361 0.8 0 0
0.526108 0.025000 0.110369 0.8 0 0
0.214264 0.310000 0.103329 0.8 0 0
0.661764 0.215000 0.038429 0.8 0 0
0.215000 0.092814 0.118382 0.8 0 0
0.025000 0.472341 0.102517 0.8 0 0
0.950443 0.310000 0.040641 0.8 0 0
0.667998 0.215000 0.108823 0.8 0 0
0.775763 0.310000 0.115039 0.8 0 0
0.102990 0.310000 0.045512 0.8 0 0
0.785000 0.474452 0.044544 0.8 0 0
0.604504 0.310000 0.060600 0.8 0 0
0.624190 0.500000 0.030598 0.8 0 0
0.724243 0.310000 0.083072 0.8 0 0
0.956213 0.500000 0.060342 0.8 0 0
0.079506 0.215000 0.065853 0.8 0 0
0.025000 0.257810 0.056503 0.8 0 0
0.813569 0.310000 0.110050 0.8 0 0
0.627524 0.025000 0.076874 0.8 0 0
0.161062 0.025000 0.094721 0.8 0 0
0.618652 0.215000 0.032903 0.8 0 0
0.975000 0.381884 0.095852 0.8 0 0
0.025000 0.165542 0.035411 0.8 0 0
0.445682 0.215000 0.070771 0.8 0 0
0.975000 0.285150 0.076821 0.8 0 0
0.334670 0.500000 0.044901 0.8 0 0
0.725925 0.215000 0.066425 0.8 0 0
0.194317 0.500000 0.042799 0.8 0 0
0.785000 0.430679 0.086125 0.8 0 0
0.405000 0.339839 0.033043 0.8 0 0
0.595000 0.175611 0.070582 0.8 0 0
0.389756 0.310000 0.049261 0.8 0 0
0.600590 0.310000 0.085525 0.8 0 0
0.745002 0.215000 0.078706 0.8 0 0
0.025000 0.334612 0.112166 0.8 0 0
0.246097 0.025000 0.089016 0.8 0 0
0.250011 0.310000 0.071072 0.8 0 0
0.355515 0.500000 0.053851 0.8 0 0
0.405000 0.101320 0.050905 0.8 0 0
0.215000 0.387451 0.062371 0.8 0 0
0.624625 0.215000 0.101135 0.8 0 0
0.572757 0.215000 0.032721 0.8 0 0
0.041584 0.025000 0.054575 0.8 0 0
0.785000 0.167794 0.102494 0.8 0 0
0.168368 0.310000 0.106890 0.8 0 0
0.785000 0.059211 0.081762 0.8 0 0
0.078433 0.215000 0.062873 0.8 0 0
0.785000 0.328265 0.093620 0.8 0 0
0.524426 0.310000 0.029534 0.8 0 0
0.595000 0.432065 0.029552 0.8 0 0
0.102062 0.310000 0.052421 0.8 0 0
0.368011 0.310000 0.092732 0.8 0 0
0.595000 0.344490 0.096878 0.8 0 0
0.206465 0.215000 0.046834 0.8 0 0
0.739000 0.310000 0.113691 0.8 0 0
0.975000 0.407195 0.065161 0.8 0 0
0.045411 0.215000 0.101816 0.8 0 0
0.405000 0.368756 0.030146 0.8 0 0
0.708326 0.310000 0.066944 0.8 0 0
0.624828 0.500000 0.035394 0.8 0 0
0.214640 0.500000 0.046553 0.8 0 0
0.544373 0.215000 0.090709 0.8 0 0
0.335858 0.500000 0.049632 0.8 0 0
0.975000 0.224715 0.032042 0.8 0 0
0.300691 0.025000 0.064778 0.8 0 0
0.681102 0.500000 0.091999 0.8 0 0
0.972565 0.310000 0.064943 0.8 0 0
0.395438 0.215000 0.074864 0.8 0 0
0.797131 0.500000 0.077210 0.8 0 0
0.203855 0.215000 0.073539 0.8 0 0
0.025000 0.361140 0.061499 0.8 0 0
0.321768 0.025000 0.115912 0.8 0 0
0.284571 0.500000 0.098345 0.8 0 0
0.565915 0.025000 0.117524 0.8 0 0
0.606620 0.310000 0.046402 0.8 0 0
0.975000 0.101294 0.092567 0.8 0 0
0.785000 0.052050 0.087908 0.8 0 0
0.907911 0.025000 0.035231 0.8 0 0
0.595000 0.136036 0.035814 0.8 0 0
0.282280 0.500000 0.088560 0.8 0 0
0.785000 0.397592 0.094771 0.8 0 0
0.975000 0.082898 0.066451 0.8 0 0
0.405000 0.349123 0.046776 0.8 0 0
0.746799 0.025000 0.078256 0.8 0 0
0.025000 0.318753 0.104301 0.8 0 0
0.596850 0.215000 0.067103 0.8 0 0
0.215000 0.034063 0.099899 0.8 0 0
0.271582 0.310000 0.070649 0.8 0 0
0.300198 0.025000 0.041384 0.8 0 0
0.473718 0.215000 0.039934 0.8 0 0
0.595000 0.421204 0.040134 0.8 0 0
0.215000 0.120026 0.089793 0.8 0 0
0.595000 0.031564 0.071127 0.8 0 0
0.975000 0.323102 0.115181 0.8 0 0
0.588036 0.215000 0.062682 0.8 0 0
0.975000 0.365576 0.045080 0.8 0 0
0.215000 0.499780 0.108754 0.8 0 0
0.405000 0.035971 0.064714 0.8 0 0
0.632482 0.215000 0.085937 0.8 0 0
0.031262 0.215000 0.099902 0.8 0 0
0.785000 0.205525 0.114193 0.8 0 0
0.405000 0.497373 0.079016 0.8 0 0
0.025000 0.295066 0.064415 0.8 0 0
0.975000 0.117878 0.060646 0.8 0 0
0.885529 0.310000 0.066393 0.8 0 0
0.783939 0.215000 0.029917 0.8 0 0
0.787737 0.310000 0.084849 0.8 0 0
0.826152 0.500000 0.041613 0.8 0 0
0.681102 0.310000 0.061220 0.8 0 0
0.405000 0.336377 0.108446 0.8 0 0
0.734652 0.500000 0.082005 0.8 0 0
0.366243 0.025000 0.029685 0.8 0 0
0.717256 0.500000 0.073467 0.8 0 0
0.025000 0.046773 0.108217 0.8 0 0
0.582063 0.025000 0.093599 0.8 0 0
0.616043 0.500000 0.025336 0.8 0 0
0.785000 0.101343 0.071176 0.8 0 0
0.931598 0.500000 0.104100 0.8 0 0
0.215000 0.414710 0.049415 0.8 0 0
0.738247 0.500000 0.113662 0.8 0 0
0.975000 0.493027 0.107571 0.8 0 0
0.215000 0.467238 0.047579 0.8 0 0
0.888283 0.215000 0.118463 0.8 0 0
0.750452 0.215000 0.119406 0.8 0 0
0.734130 0.500000 0.086305 0.8 0 0
0.215000 0.203931 0.109099 0.8 0 0
0.405000 0.451710 0.055387 0.8 0 0
0.975000 0.231920 0.037093 0.8 0 0
0.975000 0.137288 0.055552 0.8 0 0
0.293094 0.310000 0.084545 0.8 0 0
0.252592 0.025000 0.072536 0.8 0 0
0.808235 0.500000 0.064888 0.8 0 0
0.595000 0.049435 0.118516 0.8 0 0
0.817425 0.500000 0.113039 0.8 0 0
0.215000 0.452603 0.055132 0.8 0 0
0.569829 0.215000 0.073052 0.8 0 0
0.405000 0.416078 0.112375 0.8 0 0
0.975000 0.367533 0.106791 0.8 0 0
0.970941 0.310000 0.098261 0.8 0 0
0.420459 0.500000 0.075792 0.8 0 0
0.295008 0.215000 0.057324 0.8 0 0
0.712298 0.500000 0.114515 0.8 0 0
0.762455 0.310000 0.048681 0.8 0 0
0.066836 0.025000 0.030019 0.8 0 0
0.312201 0.500000 0.037855 0.8 0 0
0.083449 0.310000 0.094487 0.8 0 0
0.425185 0.215000 0.073429 0.8 0 0
0.215000 0.039259 0.038174 0.8 0 0
0.917740 0.500000 0.054283 0.8 0 0
0.420227 0.215000 0.119136 0.8 0 0
0.215000 0.100108 0.073351 0.8 0 0
0.759875 0.025000 0.051163 0.8 0 0
0.288775 0.215000 0.072238 0.8 0 0
0.315506 0.500000 0.105046 0.8 0 0
0.399903 0.310000 0.105625 0.8 0 0
0.863147 0.215000 0.119884 0.8 0 0
0.453104 0.310000 0.067886 0.8 0 0
0.902432 0.310000 0.112169 0.8 0 0
0.776691 0.215000 0.061444 0.8 0 0
0.215000 0.091671 0.098627 0.8 0 0
0.595000 0.397650 0.058800 0.8 0 0
0.268567 0.310000 0.083226 0.8 0 0
0.025000 0.478009 0.065824 0.8 0 0
0.779532 0.025000 0.057996 0.8 0 0
0.728853 0.310000 0.030523 0.8 0 0
0.871641 0.215000 0.036226 0.8 0 0
0.388741 0.500000 0.114544 0.8 0 0
0.025000 0.103280 0.059437 0.8 0 0
0.414167 0.215000 0.097264 0.8 0 0
0.215000 0.054254 0.085241 0.8 0 0
0.499754 0.025000 0.079831 0.8 0 0
0.405000 0.400613 0.096823 0.8 0 0
0.682407 0.215000 0.081335 0.8 0 0
0.785000 0.162645 0.059113 0.8 0 0
0.581745 0.310000 0.102680 0.8 0 0
0.943949 0.025000 0.026992 0.8 0 0
0.508016 0.215000 0.118197 0.8 0 0
0.038801 0.500000 0.065732 0.8 0 0
0.547881 0.025000 0.082202 0.8 0 0
0.717575 0.310000 0.099236 0.8 0 0
0.454641 0.310000 0.081649 0.8 0 0
0.505320 0.215000 0.080385 0.8 0 0
0.950675 0.310000 0.099969 0.8 0 0
0.101685 0.025000 0.034840 0.8 0 0
0.594559 0.500000 0.078622 0.8 0 0
0.638686 0.500000 0.088384 0.8 0 0
0.595000 0.389544 0.112810 0.8 0 0
0.127692 0.215000 0.034159 0.8 0 0
0.975000 0.362430 0.042758 0.8 0 0
0.065619 0.025000 0.051319 0.8 0 0
0.609751 0.500000 0.059881 0.8 0 0
0.545098 0.215000 0.058715 0.8 0 0
0.936121 0.500000 0.089085 0.8 0 0
0.154539 0.500000 0.057448 0.8 0 0
0.828095 0.310000 0.096919 0.8 0 0
0.215000 0.407212 0.066514 0.8 0 0
0.955169 0.310000 0.094629 0.8 0 0
0.405000 0.161265 0.092437 0.8 0 0
0.889646 0.025000 0.032271 0.8 0 0
0.055906 0.500000 0.099537 0.8 0 0
0.665446 0.500000 0.025345 0.8 0 0
0.595000 0.443604 0.050777 0.8 0 0
0.927945 0.310000 0.045048 0.8 0 0
0.430809 0.310000 0.068019 0.8 0 0
0.899155 0.025000 0.068930 0.8 0 0
0.405000 0.190020 0.039519 0.8 0 0
0.595000 0.480094 0.105234 0.8 0 0
0.462556 0.215000 0.083910 0.8 0 0
0.205305 0.215000 0.072962 0.8 0 0
0.264218 0.215000 0.077572 0.8 0 0
0.405000 0.135357 0.084716 0.8 0 0
0.785000 0.054480 0.059527 0.8 0 0
0.215000 0.207804 0.045072 0.8 0 0
0.405000 0.366495 0.078851 0.8 0 0
0.025000 0.363561 0.070707 0.8 0 0
0.781243 0.025000 0.075331 0.8 0 0
0.595000 0.399842 0.117959 0.8 0 0
0.641237 0.310000 0.088424 0.8 0 0
0.829080 0.500000 0.046968 0.8 0 0
0.453191 0.025000 0.055967 0.8 0 0
0.595000 0.124421 0.031793 0.8 0 0
0.025000 0.334873 0.049681 0.8 0 0
0.405000 0.415000 0.062479 0.8 0 0
0.215000 0.498069 0.044422 0.8 0 0
0.539010 0.310000 0.112932 0.8 0 0
0.493491 0.215000 0.078488 0.8 0 0
0.405000 0.134563 0.072629 0.8 0 0
0.840706 0.310000 0.087270 0.8 0 0
0.575279 0.215000 0.045988 0.8 0 0
0.750394 0.215000 0.088610 0.8 0 0
0.975000 0.161686 0.114236 0.8 0 0
0.579483 0.500000 0.080092 0.8 0 0
0.785000 0.149575 0.112279 0.8 0 0
0.025000 0.250780 0.078662 0.8 0 0
0.402078 0.500000 0.043941 0.8 0 0
0.545794 0.025000 0.043503 0.8 0 0
0.121690 0.215000 0.079628 0.8 0 0
0.058254 0.025000 0.107409 0.8 0 0
0.937310 0.310000 0.116559 0.8 0 0
0.405000 0.371029 0.106690 0.8 0 0
0.044019 0.025000 0.111285 0.8 0 0
0.848708 0.310000 0.085328 0.8 0 0
0.785000 0.211179 0.065674 0.8 0 0
0.815338 0.310000 0.048214 0.8 0 0
0.342498 0.500000 0.053024 0.8 0 0
0.215000 0.170746 0.097360 0.8 0 0
0.449973 0.500000 0.074325 0.8 0 0
0.215000 0.188246 0.058942 0.8 0 0
0.758831 0.310000 0.098647 0.8 0 0
0.595000 0.389086 0.098624 0.8 0 0
0.467862 0.215000 0.057585 0.8 0 0
0.504450 0.500000 0.088801 0.8 0 0
0.785000 0.025220 0.070402 0.8 0 0
0.903939 0.215000 0.077050 0.8 0 0
0.679363 0.215000 0.080805 0.8 0 0
0.975000 0.160685 0.054784 0.8 0 0
0.490505 0.310000 0.107455 0.8 0 0
0.785000 0.399981 0.087070 0.8 0 0
0.848592 0.500000 0.040862 0.8 0 0
0.542054 0.215000 0.084881 0.8 0 0
0.111543 0.215000 0.067106 0.8 0 0
0.260246 0.500000 0.100384 0.8 0 0
0.405000 0.345574 0.098343 0.8 0 0
0.375839 0.310000 0.049707 0.8 0 0
0.025000 0.127257 0.096342 0.8 0 0
0.189562 0.310000 0.028650 0.8 0 0
0.943688 0.310000 0.106579 0.8 0 0
0.535124 0.500000 0.107098 0.8 0 0
0.201072 0.215000 0.063815 0.8 0 0
0.975000 0.361821 0.113329 0.8 0 0
0.805451 0.215000 0.045689 0.8 0 0
0.025000 0.231949 0.086659 0.8 0 0
0.270074 0.025000 0.072684 0.8 0 0
0.405000 0.455299 0.094602 0.8 0 0
0.693134 0.310000 0.082527 0.8 0 0
0.215000 0.410338 0.043865 0.8 0 0
0.215000 0.135021 0.036994 0.8 0 0
0.693076 0.500000 0.029033 0.8 0 0
0.507031 0.310000 0.070373 0.8 0 0
0.083681 0.500000 0.084783 0.8 0 0
0.715110 0.215000 0.080532 0.8 0 0
0.975000 0.287006 0.031097 0.8 0 0
0.025000 0.311548 0.060406 0.8 0 0
0.756077 0.025000 0.046138 0.8 0 0
0.025000 0.082217 0.088273 0.8 0 0
0.365547 0.025000 0.118953 0.8 0 0
0.204435 0.310000 0.086850 0.8 0 0
0.405000 0.351773 0.077949 0.8 0 0
0.405000 0.433729 0.094257 0.8 0 0
0.785012 0.215000 0.115854 0.8 0 0
0.025000 0.377941 0.108188 0.8 0 0
0.595000 0.468294 0.114257 0.8 0 0
0.497347 0.215000 0.068999 0.8 0 0
0.951313 0.025000 0.103637 0.8 0 0
0.937136 0.500000 0.040763 0.8 0 0
0.528572 0.215000 0.069869 0.8 0 0
0.185300 0.310000 0.066109 0.8 0 0
0.351399 0.500000 0.062264 0.8 0 0
0.168919 0.500000 0.102790 0.8 0 0
0.025000 0.410529 0.116190 0.8 0 0
0.785000 0.480963 0.067868 0.8 0 0
0.777387 0.215000 0.030459 0.8 0 0
0.181125 0.310000 0.037655 0.8 0 0
0.596038 0.025000 0.074743 0.8 0 0
0.595000 0.084006 0.095907 0.8 0 0
0.975000 0.266334 0.081814 0.8 0 0
0.215000 0.025017 0.101914 0.8 0 0
0.915652 0.215000 0.100714 0.8 0 0
0.186373 0.025000 0.104182 0.8 0 0
0.765558 0.500000 0.119846 0.8 0 0
0.315709 0.025000 0.054680 0.8 0 0
0.595000 0.399436 0.095510 0.8 0 0
0.405000 0.469946 0.088114 0.8 0 0
0.155148 0.025000 0.081915 0.8 0 0
0.405000 0.451362 0.042851 0.8 0 0
0.805451 0.500000 0.067062 0.8 0 0
0.686205 0.025000 0.067355 0.8 0 0
0.683596 0.025000 0.043265 0.8 0 0
0.513612 0.025000 0.058220 0.8 0 0
0.261985 0.025000 0.030685 0.8 0 0
0.595000 0.413869 0.049629 0.8 0 0
0.618565 0.310000 0.059948 0.8 0 0
0.970767 0.215000 0.037261 0.8 0 0
0.366533 0.215000 0.089767 0.8 0 0
0.122009 0.025000 0.054222 0.8 0 0
0.785000 0.180493 0.059887 0.8 0 0
0.744683 0.500000 0.098435 0.8 0 0
0.025000 0.467992 0.051041 0.8 0 0
0.032567 0.025000 0.100059 0.8 0 0
0.691337 0.215000 0.114500 0.8 0 0
0.025000 0.205986 0.066949 0.8 0 0
0.314114 0.500000 0.046066 0.8 0 0
0.416661 0.500000 0.048803 0.8 0 0
0.761992 0.500000 0.100769 0.8 0 0
0.619609 0.500000 0.032518 0.8 0 0
0.653936 0.500000 0.072261 0.8 0 0
0.025000 0.237037 0.057164 0.8 0 0
0.405000 0.354567 0.104999 0.8 0 0
0.380043 0.025000 0.092309 0.8 0 0
0.293906 0.025000 0.058269 0.8 0 0
0.823166 0.025000 0.026777 0.8 0 0
0.654429 0.310000 0.026096 0.8 0 0
0.922002 0.025000 0.041842 0.8 0 0
0.405000 0.134244 0.048722 0.8 0 0
0.202435 0.215000 0.040581 0.8 0 0
0.025000 0.077056 0.076621 0.8 0 0
0.215000 0.458054 0.102720 0.8 0 0
0.345165 0.310000 0.077343 0.8 0 0
0.975000 0.122024 0.082011 0.8 0 0
0.865640 0.310000 0.068503 0.8 0 0
0.785000 0.360325 0.103123 0.8 0 0
0.478009 0.500000 0.088111 0.8 0 0
0.255607 0.025000 0.037278 0.8 0 0
0.317999 0.500000 0.067425 0.8 0 0
0.313099 0.500000 0.068857 0.8 0 0
0.025000 0.466079 0.054404 0.8 0 0
0.405000 0.202295 0.107339 0.8 0 0
0.116443 0.025000 0.056703 0.8 0 0
0.805944 0.500000 0.086740 0.8 0 0
0.975000 0.488722 0.070295 0.8 0 0
0.975000 0.130736 0.106263 0.8 0 0
0.785000 0.180980 0.059078 0.8 0 0
0.261377 0.215000 0.110453 0.8 0 0
0.205885 0.025000 0.089723 0.8 0 0
0.215000 0.153797 0.048472 0.8 0 0
0.487142 0.310000 0.098395 0.8 0 0
0.215000 0.155896 0.080454 0.8 0 0
0.256535 0.500000 0.036403 0.8 0 0
0.785000 0.485718 0.115538 0.8 0 0
0.215000 0.411903 0.090103 0.8 0 0
0.915971 0.310000 0.050455 0.8 0 0
0.968912 0.310000 0.078691 0.8 0 0
0.405000 0.426956 0.040801 0.8 0 0
0.763325 0.215000 0.063540 0.8 0 0
0.701455 0.310000 0.064787 0.8 0 0
0.785000 0.025435 0.114889 0.8 0 0
0.975000 0.242821 0.065781 0.8 0 0
0.218004 0.215000 0.082408 0.8 0 0
0.595000 0.332156 0.118721 0.8 0 0
0.975000 0.139782 0.035608 0.8 0 0
0.425388 0.500000 0.083388 0.8 0 0
0.161265 0.500000 0.108655 0.8 0 0
0.436637 0.310000 0.026931 0.8 0 0
0.681595 0.310000 0.104953 0.8 0 0
0.975000 0.302271 0.092016 0.8 0 0
0.037960 0.500000 0.111673 0.8 0 0
0.785000 0.374671 0.071237 0.8 0 0
0.244474 0.310000 0.038070 0.8 0 0
0.025000 0.247605 0.065569 0.8 0 0
0.105715 0.310000 0.042355 0.8 0 0
0.744828 0.500000 0.040978 0.8 0 0
0.715082 0.215000 0.077253 0.8 0 0
0.364648 0.025000 0.083719 0.8 0 0
0.595000 0.077668 0.034536 0.8 0 0
0.595000 0.151640 0.027415 0.8 0 0
0.975000 0.110050 0.088201 0.8 0 0
0.492766 0.310000 0.065256 0.8 0 0
0.127808 0.500000 0.078001 0.8 0 0
0.785000 0.168525 0.111717 0.8 0 0
0.124734 0.310000 0.094295 0.8 0 0
0.534226 0.215000 0.076781 0.8 0 0
0.405000 0.351384 0.049189 0.8 0 0
0.040627 0.310000 0.038145 0.8 0 0
0.215000 0.455914 0.036090 0.8 0 0
0.253433 0.500000 0.030024 0.8 0 0
0.215000 0.170676 0.048699 0.8 0 0
0.785000 0.495796 0.092361 0.8 0 0
0.196230 0.025000 0.040050 0.8 0 0
0.215000 0.193847 0.042941 0.8 0 0
0.785000 0.178568 0.040146 0.8 0 0
0.975000 0.058805 0.081660 0.8 0 0
0.871149 0.215000 0.050708 0.8 0 0
0.036133 0.310000 0.088798 0.8 0 0
0.785000 0.118808 0.060449 0.8 0 0
0.687481 0.500000 0.065613 0.8 0 0
0.861900 0.310000 0.108951 0.8 0 0
0.070663 0.500000 0.106301 0.8 0 0
0.595000 0.177895 0.104851 0.8 0 0
0.365692 0.025000 0.042836 0.8 0 0
0.215000 0.378196 0.037754 0.8 0 0
0.405000 0.200898 0.027024 0.8 0 0
0.708326 0.500000 0.107087 0.8 0 0
0.261261 0.025000 0.066488 0.8 0 0
0.733231 0.500000 0.086134 0.8 0 0
0.595000 0.169505 0.041595 0.8 0 0
0.405000 0.099865 0.072200 0.8 0 0
0.025000 0.407093 0.042164 0.8 0 0
0.215000 0.315741 0.036229 0.8 0 0
0.224092 0.025000 0.110105 0.8 0 0
0.595000 0.142681 0.049113 0.8 0 0
0.840445 0.500000 0.041369 0.8 0 0
0.025000 0.433984 0.071223 0.8 0 0
0.277091 0.500000 0.046350 0.8 0 0
0.215000 0.492503 0.048174 0.8 0 0
0.159526 0.025000 0.097710 0.8 0 0
0.086116 0.215000 0.067451 0.8 0 0
0.834096 0.025000 0.053317 0.8 0 0
0.785000 0.054427 0.046669 0.8 0 0
0.840271 0.025000 0.097626 0.8 0 0
0.852216 0.025000 0.068124 0.8 0 0
0.215000 0.343875 0.050337 0.8 0 0
0.975000 0.180806 0.033263 0.8 0 0
0.025000 0.408340 0.089111 0.8 0 0
0.025000 0.378028 0.085105 0.8 0 0
0.405000 0.148775 0.027395 0.8 0 0
0.785000 0.107003 0.108681 0.8 0 0
0.804495 0.500000 0.072438 0.8 0 0
0.945515 0.025000 0.088946 0.8 0 0
0.807713 0.500000 0.109125 0.8 0 0
0.975000 0.288340 0.041575 0.8 0 0
0.479430 0.310000 0.034240 0.8 0 0
0.111630 0.500000 0.053572 0.8 0 0
0.965635 0.215000 0.033321 0.8 0 0
0.155380 0.500000 0.110351 0.8 0 0
0.025000 0.042845 0.114874 0.8 0 0
0.502537 0.215000 0.057651 0.8 0 0
0.500333 0.215000 0.086592 0.8 0 0
0.199999 0.310000 0.086519 0.8 0 0
0.656545 0.500000 0.055323 0.8 0 0
0.405000 0.441679 0.070672 0.8 0 0
0.215000 0.419493 0.105411 0.8 0 0
0.094872 0.500000 0.102741 0.8 0 0
0.764572 0.025000 0.116466 0.8 0 0
0.653646 0.310000 0.027461 0.8 0 0
0.184894 0.215000 0.035397 0.8 0 0
0.215000 0.062801 0.084812 0.8 0 0
0.291007 0.500000 0.118771 0.8 0 0
0.975000 0.091958 0.027244 0.8 0 0
0.725838 0.215000 0.109864 0.8 0 0
0.340323 0.500000 0.059472 0.8 0 0
0.975000 0.032016 0.033533 0.8 0 0
0.160192 0.215000 0.042268 0.8 0 0
0.215000 0.349418 0.030770 0.8 0 0
0.297066 0.215000 0.076830 0.8 0 0
0.215000 0.318982 0.064934 0.8 0 0
0.357690 0.310000 0.083487 0.8 0 0
0.215000 0.344223 0.071197 0.8 0 0
0.405000 0.212704 0.082727 0.8 0 0
0.025000 0.041091 0.101132 0.8 0 0
0.025000 0.322493 0.043065 0.8 0 0
0.595000 0.083600 0.080872 0.8 0 0
0.346470 0.215000 0.101384 0.8 0 0
0.449133 0.025000 0.092031 0.8 0 0
0.724359 0.500000 0.068616 0.8 0 0
0.137259 0.500000 0.065766 0.8 0 0
0.312867 0.215000 0.112978 0.8 0 0
0.025000 0.110543 0.045637 0.8 0 0
0.324783 0.500000 0.085684 0.8 0 0
0.595000 0.485828 0.106924 0.8 0 0
0.215000 0.093480 0.100033 0.8 0 0
0.750568 0.310000 0.057602 0.8 0 0
0.215000 0.179554 0.105652 0.8 0 0
0.401382 0.310000 0.051751 0.8 0 0
0.395902 0.310000 0.074879 0.8 0 0
0.794463 0.310000 0.026609 0.8 0 0
0.053616 0.215000 0.066419 0.8 0 0
0.093915 0.215000 0.093968 0.8 0 0
0.215000 0.450602 0.088810 0.8 0 0
0.785000 0.335264 0.070330 0.8 0 0
0.816382 0.215000 0.085354 0.8 0 0
0.025000 0.208306 0.061325 0.8 0 0
0.353950 0.310000 0.099905 0.8 0 0
0.739551 0.025000 0.079480 0.8 0 0
0.072432 0.310000 0.119667 0.8 0 0
0.785000 0.385473 0.035919 0.8 0 0
0.054051 0.500000 0.071603 0.8 0 0
0.780286 0.500000 0.098432 0.8 0 0
0.349601 0.500000 0.118139 0.8 0 0
0.425909 0.215000 0.058469 0.8 0 0
0.229079 0.500000 0.082814 0.8 0 0
0.737870 0.215000 0.085148 0.8 0 0
0.565973 0.025000 0.033669 0.8 0 0
0.215000 0.406302 0.088723 0.8 0 0
0.215000 0.394223 0.116289 0.8 0 0
0.567306 0.310000 0.055228 0.8 0 0
0.772023 0.025000 0.055955 0.8 0 0
0.851811 0.025000 0.064966 0.8 0 0
0.025000 0.055863 0.094823 0.8 0 0
0.451452 0.500000 0.038948 0.8 0 0
0.487287 0.025000 0.064039 0.8 0 0
0.785000 0.182586 0.088378 0.8 0 0
0.824529 0.500000 0.041459 0.8 0 0
0.366011 0.215000 0.047864 0.8 0 0
0.025000 0.229282 0.063105 0.8 0 0
0.318695 0.500000 0.037409 0.8 0 0
0.676811 0.215000 0.046785 0.8 0 0
0.405000 0.187608 0.039534 0.8 0 0
0.785000 0.068790 0.085186 0.8 0 0
0.405000 0.030451 0.105596 0.8 0 0
0.975000 0.288267 0.091857 0.8 0 0
0.432201 0.500000 0.096119 0.8 0 0
0.215000 0.339741 0.114274 0.8 0 0
0.785000 0.133328 0.062641 0.8 0 0
0.405000 0.212107 0.071762 0.8 0 0
0.519903 0.025000 0.073128 0.8 0 0
0.025000 0.328117 0.051001 0.8 0 0
0.631206 0.500000 0.088691 0.8 0 0
0.975000 0.392698 0.105402 0.8 0 0
0.965317 0.215000 0.119223 0.8 0 0
0.595000 0.334261 0.035179 0.8 0 0
0.975000 0.135752 0.060043 0.8 0 0
0.405000 0.138825 0.079961 0.8 0 0
0.215000 0.096194 0.115179 0.8 0 0
0.433506 0.310000 0.033043 0.8 0 0
0.440145 0.215000 0.104883 0.8 0 0
0.215000 0.323255 0.099291 0.8 0 0
0.975000 0.490476 0.077404 0.8 0 0
0.785000 0.343533 0.031213 0.8 0 0
0.213568 0.215000 0.036438 0.8 0 0
0.586731 0.025000 0.065166 0.8 0 0
0.607287 0.310000 0.049954 0.8 0 0
0.215000 0.063931 0.063763 0.8 0 0
0.266218 0.215000 0.082260 0.8 0 0
0.785000 0.361821 0.108386 0.8 0 0
0.177559 0.025000 0.035237 0.8 0 0
0.086522 0.215000 0.044132 0.8 0 0
0.324638 0.500000 0.117144 0.8 0 0
0.414950 0.500000 0.118284 0.8 0 0
0.660401 0.310000 0.111557 0.8 0 0
0.405000 0.209219 0.069721 0.8 0 0
0.595000 0.321742 0.032915 0.8 0 0
0.367692 0.025000 0.100381 0.8 0 0
0.601489 0.310000 0.107643 0.8 0 0
0.975000 0.485344 0.065369 0.8 0 0
0.405000 0.429032 0.044022 0.8 0 0
0.525847 0.310000 0.072835 0.8 0 0
0.924814 0.500000 0.053140 0.8 0 0
0.595000 0.454400 0.070281 0.8 0 0
0.480531 0.215000 0.039122 0.8 0 0
0.167817 0.025000 0.061638 0.8 0 0
0.483605 0.310000 0.093808 0.8 0 0
0.025000 0.149349 0.109786 0.8 0 0
0.663011 0.500000 0.119910 0.8 0 0
0.252360 0.025000 0.102915 0.8 0 0
0.215000 0.152121 0.053964 0.8 0 0
0.975000 0.120197 0.077700 0.8 0 0
0.392510 0.215000 0.107121 0.8 0 0
0.684900 0.310000 0.053207 0.8 0 0
0.553419 0.310000 0.025652 0.8 0 0
0.595000 0.098618 0.085267 0.8 0 0
0.785000 0.410796 0.036655 0.8 0 0
0.165063 0.025000 0.102013 0.8 0 0
0.057472 0.215000 0.046811 0.8 0 0
0.502711 0.500000 0.073496 0.8 0 0
0.386885 0.215000 0.093083 0.8 0 0
0.785000 0.103367 0.112259 0.8 0 0
0.037264 0.215000 0.093652 0.8 0 0
0.735347 0.310000 0.041981 0.8 0 0
0.025000 0.294167 0.061745 0.8 0 0
0.785000 0.491801 0.098035 0.8 0 0
0.595000 0.321069 0.088120 0.8 0 0
0.039786 0.310000 0.037980 0.8 0 0
0.132649 0.500000 0.048872 0.8 0 0
0.173616 0.215000 0.063749 0.8 0 0
0.975000 0.250171 0.080361 0.8 0 0
0.541967 0.310000 0.089993 0.8 0 0
0.660981 0.025000 0.076537 0.8 0 0
0.025000 0.247460 0.118649 0.8 0 0
0.330031 0.025000 0.110827 0.8 0 0
0.785000 0.060011 0.095487 0.8 0 0
0.372157 0.215000 0.073015 0.8 0 0
0.913420 0.500000 0.056634 0.8 0 0
0.898257 0.500000 0.042219 0.8 0 0
0.975000 0.159671 0.075598 0.8 0 0
0.641672 0.500000 0.119568 0.8 0 0
0.671071 0.310000 0.048832 0.8 0 0
0.595000 0.409108 0.066036 0.8 0 0
0.412660 0.500000 0.036959 0.8 0 0
0.785000 0.179107 0.043370 0.8 0 0
0.220207 0.025000 0.067439 0.8 0 0
0.066633 0.025000 0.107539 0.8 0 0
0.025000 0.438202 0.106089 0.8 0 0
0.730766 0.025000 0.053013 0.8 0 0
0.405000 0.213921 0.061826 0.8 0 0
0.215000 0.167655 0.074832 0.8 0 0
0.034191 0.500000 0.030135 0.8 0 0
0.077506 0.215000 0.102199 0.8 0 0
0.530863 0.215000 0.041204 0.8 0 0
0.791100 0.025000 0.077938 0.8 0 0
0.785000 0.160007 0.037652 0.8 0 0
0.887674 0.215000 0.034231 0.8 0 0
0.293645 0.025000 0.092243 0.8 0 0
0.171673 0.215000 0.039650 0.8 0 0
0.216206 0.215000 0.037307 0.8 0 0
0.616913 0.310000 0.075418 0.8 0 0
0.381928 0.500000 0.118362 0.8 0 0
0.068779 0.500000 0.063589 0.8 0 0
0.405000 0.167197 0.064972 0.8 0 0
0.501609 0.500000 0.040441 0.8 0 0
0.025000 0.342048 0.102712 0.8 0 0
0.975000 0.044222 0.094278 0.8 0 0
0.785000 0.099180 0.064404 0.8 0 0
0.717169 0.025000 0.060180 0.8 0 0
0.503407 0.025000 0.077239 0.8 0 0
0.025000 0.220917 0.027453 0.8 0 0
0.033031 0.310000 0.045999 0.8 0 0
0.595000 0.170833 0.048612 0.8 0 0
0.405000 0.398694 0.059432 0.8 0 0
0.940064 0.310000 0.030851 0.8 0 0
0.617261 0.025000 0.116735 0.8 0 0
0.785000 0.191591 0.054851 0.8 0 0
0.025000 0.206928 0.030845 0.8 0 0
0.056283 0.500000 0.077601 0.8 0 0
0.405000 0.031709 0.116332 0.8 0 0
0.273003 0.310000 0.051891 0.8 0 0
0.888660 0.500000 0.102471 0.8 0 0
0.419647 0.500000 0.102596 0.8 0 0
0.595000 0.166722 0.035478 0.8 0 0
0.405325 0.025000 0.032008 0.8 0 0
0.239429 0.215000 0.049415 0.8 0 0
0.215000 0.393128 0.038902 0.8 0 0
0.486330 0.310000 0.087172 0.8 0 0
0.215000 0.402173 0.034307 0.8 0 0
0.809974 0.500000 0.067184 0.8 0 0
0.405000 0.185312 0.080005 0.8 0 0
0.733927 0.500000 0.054097 0.8 0 0
0.405000 0.331802 0.053946 0.8 0 0
0.726128 0.310000 0.112653 0.8 0 0
0.487751 0.215000 0.030613 0.8 0 0
0.662170 0.310000 0.087673 0.8 0 0
0.215000 0.389445 0.052981 0.8 0 0
0.025000 0.173457 0.092674 0.8 0 0
0.791332 0.025000 0.101300 0.8 0 0
0.824442 0.215000 0.103390 0.8 0 0
0.841837 0.500000 0.068184 0.8 0 0
0.188460 0.025000 0.097966 0.8 0 0
0.849027 0.500000 0.073948 0.8 0 0
0.741001 0.310000 0.030607 0.8 0 0
0.316491 0.215000 0.090616 0.8 0 0
0.610157 0.500000 0.079941 0.8 0 0
0.220787 0.025000 0.055961 0.8 0 0
0.667679 0.500000 0.048925 0.8 0 0
0.405000 0.152637 0.062418 0.8 0 0
0.864712 0.215000 0.097348 0.8 0 0
0.405000 0.051117 0.110685 0.8 0 0
0.137288 0.500000 0.057504 0.8 0 0
0.104150 0.500000 0.071290 0.8 0 0
0.595000 0.372033 0.081599 0.8 0 0
0.215000 0.055036 0.075766 0.8 0 0
0.025000 0.435289 0.064900 0.8 0 0
0.872859 0.310000 0.114720 0.8 0 0
0.420923 0.310000 0.081831 0.8 0 0
0.595000 0.485086 0.104141 0.8 0 0
0.215000 0.197541 0.092245 0.8 0 0
0.957054 0.215000 0.119849 0.8 0 0
0.913362 0.500000 0.118084 0.8 0 0
0.718909 0.310000 0.047066 0.8 0 0
0.975000 0.031016 0.044266 0.8 0 0
0.595000 0.346844 0.092982 0.8 0 0
0.404194 0.310000 0.038856 0.8 0 0
0.245112 0.215000 0.028392 0.8 0 0
0.416661 0.025000 0.050084 0.8 0 0
0.546490 0.500000 0.118092 0.8 0 0
0.743146 0.215000 0.056889 0.8 0 0
0.817280 0.500000 0.108055 0.8 0 0
0.595000 0.123482 0.039241 0.8 0 0
0.334380 0.500000 0.094446 0.8 0 0
0.320695 0.025000 0.058536 0.8 0 0
0.851898 0.025000 0.044843 0.8 0 0
0.405000 0.338291 0.086198 0.8 0 0
0.822528 0.500000 0.099528 0.8 0 0
0.722996 0.310000 0.038745 0.8 0 0
0.174602 0.025000 0.068469 0.8 0 0
0.975000 0.327393 0.083356 0.8 0 0
0.975000 0.491708 0.060620 0.8 0 0
0.274307 0.025000 0.081330 0.8 0 0
0.198202 0.025000 0.051856 0.8 0 0
0.397642 0.500000 0.115080 0.8 0 0
0.785000 0.135079 0.071753 0.8 0 0
0.955575 0.310000 0.118031 0.8 0 0
0.408050 0.025000 0.045683 0.8 0 0
0.650805 0.500000 0.117304 0.8 0 0
0.975000 0.318970 0.061206 0.8 0 0
0.945631 0.310000 0.044411 0.8 0 0
0.595000 0.060174 0.075308 0.8 0 0
0.852332 0.500000 0.075679 0.8 0 0
0.975000 0.061342 0.060525 0.8 0 0
0.057472 0.310000 0.071707 0.8 0 0
0.975000 0.079883 0.075215 0.8 0 0
0.745350 0.025000 0.096374 0.8 0 0
0.722591 0.310000 0.041085 0.8 0 0
0.633554 0.215000 0.082794 0.8 0 0
0.312085 0.310000 0.115468 0.8 0 0
0.746394 0.500000 0.103071 0.8 0 0
0.936730 0.310000 0.088268 0.8 0 0
0.910578 0.215000 0.050183 0.8 0 0
0.869061 0.025000 0.093356 0.8 0 0
0.649703 0.500000 0.081614 0.8 0 0
0.472066 0.500000 0.072733 0.8 0 0
0.492187 0.025000 0.041233 0.8 0 0
0.532718 0.215000 0.029250 0.8 0 0
0.412515 0.025000 0.090268 0.8 0 0
0.975000 0.218424 0.081727 0.8 0 0
0.061560 0.025000 0.025188 0.8 0 0
0.388161 0.215000 0.068556 0.8 0 0
0.735811 0.310000 0.064068 0.8 0 0
0.196549 0.025000 0.064349 0.8 0 0
0.834270 0.025000 0.058399 0.8 0 0
0.256042 0.025000 0.039134 0.8 0 0
0.221686 0.500000 0.032312 0.8 0 0
0.316028 0.215000 0.066929 0.8 0 0
0.486214 0.500000 0.050719 0.8 0 0
0.785000 0.489777 0.096307 0.8 0 0
0.537676 0.310000 0.073357 0.8 0 0
0.430200 0.025000 0.078683 0.8 0 0
0.973869 0.500000 0.115697 0.8 0 0
0.975000 0.262609 0.082976 0.8 0 0
0.737986 0.025000 0.051360 0.8 0 0
0.364706 0.310000 0.076453 0.8 0 0
0.655154 0.500000 0.026096 0.8 0 0
0.125894 0.025000 0.060003 0.8 0 0
0.709225 0.215000 0.117721 0.8 0 0
0.595000 0.028027 0.078187 0.8 0 0
0.491346 0.025000 0.070556 0.8 0 0
0.215000 0.100566 0.030462 0.8 0 0
0.140304 0.500000 0.071666 0.8 0 0
0.532196 0.500000 0.077230 0.8 0 0
0.145290 0.310000 0.056269 0.8 0 0
0.152219 0.310000 0.082750 0.8 0 0
0.809684 0.215000 0.064108 0.8 0 0
0.246851 0.025000 0.116315 0.8 0 0
0.343223 0.025000 0.046881 0.8 0 0
0.092263 0.215000 0.052731 0.8 0 0
0.025000 0.421271 0.107814 0.8 0 0
0.975000 0.092074 0.113456 0.8 0 0
0.057269 0.025000 0.063873 0.8 0 0
0.085247 0.215000 0.098841 0.8 0 0
0.909564 0.310000 0.034208 0.8 0 0
0.336206 0.310000 0.029856 0.8 0 0
0.474588 0.215000 0.113424 0.8 0 0
0.441797 0.310000 0.029381 0.8 0 0
0.625233 0.025000 0.039746 0.8 0 0
0.699136 0.025000 0.051746 0.8 0 0
0.025000 0.448306 0.078509 0.8 0 0
0.785000 0.470242 0.095539 0.8 0 0
0.215000 0.422775 0.066758 0.8 0 0
0.405000 0.105362 0.061029 0.8 0 0
0.280106 0.500000 0.111841 0.8 0 0
0.402338 0.500000 0.034678 0.8 0 0
0.326175 0.310000 0.061313 0.8 0 0
0.215000 0.444404 0.033927 0.8 0 0
0.853840 0.310000 0.108609 0.8 0 0
0.391205 0.310000 0.078990 0.8 0 0
0.412921 0.500000 0.088317 0.8 0 0
0.713922 0.500000 0.063543 0.8 0 0
0.025000 0.343484 0.052891 0.8 0 0
0.316636 0.215000 0.043868 0.8 0 0
0.153408 0.500000 0.029932 0.8 0 0
0.549882 0.215000 0.059127 0.8 0 0
0.913449 0.025000 0.072139 0.8 0 0
0.025000 0.463556 0.056793 0.8 0 0
0.551795 0.310000 0.038334 0.8 0 0
0.043990 0.025000 0.036162 0.8 0 0
0.595000 0.479398 0.082495 0.8 0 0
0.975000 0.073418 0.090100 0.8 0 0
0.689829 0.310000 0.118852 0.8 0 0
0.294805 0.500000 0.031300 0.8 0 0
