0.030839 0.054124 0.705485 0.8 0 0
0.089213 0.146063 0.132117 0.8 0 0
0.081821 0.075679 0.083167 0.8 0 0
0.062408 0.102943 0.547036 0.8 0 0
0.095685 0.089989 0.929513 0.8 0 0
0.039124 0.104718 0.854454 0.8 0 0
0.113176 0.065626 0.827109 0.8 0 0
0.106201 0.042695 0.304427 0.8 0 0
0.030575 0.059360 0.730531 0.8 0 0
0.070409 0.048159 0.085204 0.8 0 0
0.039660 0.035571 0.676096 0.8 0 0
0.039101 0.035855 0.728461 0.8 0 0
0.039332 0.039200 0.848283 0.8 0 0
0.030184 0.058562 0.637732 0.8 0 0
0.070979 0.155503 0.131477 0.8 0 0
0.029688 0.064425 0.602944 0.8 0 0
0.115456 0.088983 0.558010 0.8 0 0
0.104980 0.141527 0.163935 0.8 0 0
0.112440 0.049560 0.823452 0.8 0 0
0.052570 0.059996 0.165005 0.8 0 0
0.071063 0.025120 0.569187 0.8 0 0
0.066187 0.102943 0.610349 0.8 0 0
0.056000 0.112080 0.117379 0.8 0 0
0.055847 0.102038 0.942201 0.8 0 0
0.112270 0.144015 0.188247 0.8 0 0
0.115671 0.086307 0.752913 0.8 0 0
0.034149 0.053606 0.367902 0.8 0 0
0.073005 0.025233 0.827253 0.8 0 0
0.049055 0.032518 0.304519 0.8 0 0
0.030347 0.057874 0.663069 0.8 0 0
0.107535 0.101400 0.227424 0.8 0 0
0.037289 0.108743 0.881297 0.8 0 0
0.115740 0.094477 0.673832 0.8 0 0
0.075562 0.025132 0.560375 0.8 0 0
0.068204 0.102943 0.718035 0.8 0 0
0.100383 0.102943 0.797211 0.8 0 0
0.111921 0.067940 0.293125 0.8 0 0
0.080165 0.102943 0.489591 0.8 0 0
0.091127 0.127841 0.083571 0.8 0 0
0.063177 0.026226 0.305924 0.8 0 0
0.051499 0.133115 0.069583 0.8 0 0
0.058201 0.026403 0.596940 0.8 0 0
0.051527 0.043481 0.919943 0.8 0 0
0.056000 0.137561 0.120327 0.8 0 0
0.070776 0.106549 0.035092 0.8 0 0
0.068961 0.102943 0.836590 0.8 0 0
0.036867 0.101400 0.410727 0.8 0 0
0.084182 0.102943 0.470361 0.8 0 0
0.031535 0.066485 0.408906 0.8 0 0
0.083369 0.026417 0.914278 0.8 0 0
0.029880 0.064770 0.631325 0.8 0 0
0.077788 0.068121 0.068293 0.8 0 0
0.049335 0.034058 0.161405 0.8 0 0
0.067060 0.079630 0.067561 0.8 0 0
0.116270 0.074789 0.732488 0.8 0 0
0.068858 0.165695 0.097002 0.8 0 0
0.113961 0.093011 0.434975 0.8 0 0
0.033313 0.100482 0.412247 0.8 0 0
0.087292 0.102943 0.285705 0.8 0 0
0.056555 0.026397 0.831604 0.8 0 0
0.035983 0.067489 0.276912 0.8 0 0
0.060755 0.102943 0.607855 0.8 0 0
0.043762 0.031848 0.707930 0.8 0 0
0.038362 0.041485 0.477993 0.8 0 0
0.116327 0.077611 0.623863 0.8 0 0
0.110980 0.084107 0.871791 0.8 0 0
0.106359 0.101400 0.348017 0.8 0 0
0.116943 0.068179 0.514172 0.8 0 0
0.080089 0.106573 0.943445 0.8 0 0
0.115617 0.101400 0.715914 0.8 0 0
0.059009 0.032098 0.089623 0.8 0 0
0.034599 0.042913 0.726534 0.8 0 0
0.092102 0.028544 0.437957 0.8 0 0
0.109778 0.094554 0.211467 0.8 0 0
0.099346 0.056830 0.188219 0.8 0 0
0.095493 0.145994 0.105717 0.8 0 0
0.043306 0.037921 0.887791 0.8 0 0
0.087193 0.106521 0.073694 0.8 0 0
0.105017 0.089224 0.161754 0.8 0 0
0.033262 0.085034 0.413420 0.8 0 0
0.063264 0.102943 0.375072 0.8 0 0
0.098003 0.101400 0.587190 0.8 0 0
0.047938 0.076681 0.916610 0.8 0 0
0.055971 0.107053 0.942405 0.8 0 0
0.080979 0.102943 0.406022 0.8 0 0
0.068802 0.121623 0.195384 0.8 0 0
0.091163 0.145994 0.094113 0.8 0 0
0.097055 0.032735 0.189482 0.8 0 0
0.094534 0.028610 0.663506 0.8 0 0
0.097295 0.068875 0.920433 0.8 0 0
0.115888 0.083745 0.698825 0.8 0 0
0.031616 0.049339 0.694811 0.8 0 0
0.035199 0.049365 0.406091 0.8 0 0
0.078221 0.057615 0.087259 0.8 0 0
0.060475 0.058374 0.136013 0.8 0 0
0.036475 0.101400 0.757125 0.8 0 0
0.101548 0.031017 0.747318 0.8 0 0
0.103036 0.102943 0.490592 0.8 0 0
0.033391 0.092857 0.419504 0.8 0 0
0.073788 0.040398 0.074078 0.8 0 0
0.089970 0.026135 0.818118 0.8 0 0
0.086734 0.030000 0.136526 0.8 0 0
0.114064 0.070211 0.335494 0.8 0 0
0.041826 0.059500 0.214889 0.8 0 0
0.059830 0.101400 0.842241 0.8 0 0
0.107289 0.101400 0.678855 0.8 0 0
0.108412 0.055350 0.249782 0.8 0 0
0.065498 0.066572 0.955105 0.8 0 0
0.100741 0.033496 0.394740 0.8 0 0
0.031160 0.083504 0.746626 0.8 0 0
0.115990 0.101369 0.733552 0.8 0 0
0.107410 0.036708 0.571112 0.8 0 0
0.091817 0.029664 0.150267 0.8 0 0
0.091127 0.142945 0.113294 0.8 0 0
0.067746 0.060165 0.095073 0.8 0 0
0.057929 0.029054 0.210235 0.8 0 0
0.062882 0.122217 0.069862 0.8 0 0
0.111139 0.089696 0.868240 0.8 0 0
0.081328 0.102943 0.360705 0.8 0 0
0.089756 0.037616 0.935087 0.8 0 0
0.083571 0.123703 0.069703 0.8 0 0
0.057913 0.149828 0.149691 0.8 0 0
0.053653 0.148552 0.154545 0.8 0 0
0.099644 0.085135 0.916837 0.8 0 0
0.037754 0.101400 0.597314 0.8 0 0
0.032801 0.101400 0.592957 0.8 0 0
0.056552 0.028423 0.284083 0.8 0 0
0.049130 0.145117 0.072965 0.8 0 0
0.065059 0.102943 0.816975 0.8 0 0
0.085269 0.025521 0.853479 0.8 0 0
0.084629 0.151180 0.146317 0.8 0 0
0.050904 0.133115 0.070323 0.8 0 0
0.037617 0.041906 0.506991 0.8 0 0
0.092621 0.069354 0.147730 0.8 0 0
0.086096 0.102943 0.475628 0.8 0 0
0.095231 0.102943 0.410411 0.8 0 0
0.090272 0.026295 0.856960 0.8 0 0
0.070567 0.102943 0.637129 0.8 0 0
0.095049 0.102943 0.632740 0.8 0 0
0.074524 0.151180 0.138832 0.8 0 0
0.031443 0.049666 0.613356 0.8 0 0
0.080771 0.025658 0.158577 0.8 0 0
0.095274 0.113795 0.095365 0.8 0 0
0.095352 0.102943 0.230073 0.8 0 0
0.112484 0.101400 0.715746 0.8 0 0
0.109251 0.043419 0.856837 0.8 0 0
0.038226 0.100357 0.161934 0.8 0 0
0.031189 0.101012 0.711621 0.8 0 0
0.096781 0.033569 0.136132 0.8 0 0
0.032161 0.050528 0.522963 0.8 0 0
0.046664 0.040816 0.194899 0.8 0 0
0.093059 0.102943 0.363837 0.8 0 0
0.032694 0.101400 0.559134 0.8 0 0
0.031773 0.071254 0.391308 0.8 0 0
0.030649 0.076222 0.593638 0.8 0 0
0.067189 0.114156 0.068892 0.8 0 0
0.030769 0.075633 0.690874 0.8 0 0
0.078526 0.025179 0.820223 0.8 0 0
0.089593 0.122017 0.195384 0.8 0 0
0.031205 0.051439 0.736778 0.8 0 0
0.057719 0.123703 0.072930 0.8 0 0
0.094191 0.102943 0.818124 0.8 0 0
0.097888 0.030440 0.585381 0.8 0 0
0.079908 0.025545 0.338703 0.8 0 0
0.064514 0.102943 0.817286 0.8 0 0
0.037763 0.038871 0.791132 0.8 0 0
0.044087 0.148552 0.144316 0.8 0 0
0.033460 0.082670 0.394753 0.8 0 0
0.071931 0.025116 0.668029 0.8 0 0
0.030964 0.059706 0.481630 0.8 0 0
0.097666 0.102943 0.683546 0.8 0 0
0.037312 0.071072 0.239160 0.8 0 0
0.032288 0.047487 0.672296 0.8 0 0
0.046220 0.106569 0.073376 0.8 0 0
0.077867 0.106573 0.881359 0.8 0 0
0.115849 0.088062 0.698667 0.8 0 0
0.115892 0.079838 0.565752 0.8 0 0
0.044039 0.106567 0.107826 0.8 0 0
0.063608 0.177645 0.105956 0.8 0 0
0.048721 0.102943 0.404788 0.8 0 0
0.037576 0.039268 0.645322 0.8 0 0
0.061087 0.053378 0.137109 0.8 0 0
0.090111 0.102943 0.255845 0.8 0 0
0.063567 0.077164 0.093719 0.8 0 0
0.030412 0.073418 0.593970 0.8 0 0
0.077782 0.106507 0.052068 0.8 0 0
0.117306 0.065198 0.621577 0.8 0 0
0.096054 0.031374 0.274048 0.8 0 0
0.103633 0.034407 0.877284 0.8 0 0
0.108706 0.093484 0.885751 0.8 0 0
0.104020 0.106573 0.873970 0.8 0 0
0.062786 0.151180 0.127602 0.8 0 0
0.116486 0.069059 0.737923 0.8 0 0
0.057056 0.102943 0.537198 0.8 0 0
0.036381 0.105256 0.206693 0.8 0 0
0.046941 0.148552 0.138444 0.8 0 0
0.036239 0.096423 0.242263 0.8 0 0
0.071322 0.093285 0.040272 0.8 0 0
0.051509 0.102943 0.438736 0.8 0 0
0.100369 0.106573 0.120559 0.8 0 0
0.106900 0.076596 0.209001 0.8 0 0
0.100004 0.102943 0.809325 0.8 0 0
0.069022 0.026170 0.923371 0.8 0 0
0.049353 0.030811 0.491916 0.8 0 0
0.115672 0.089879 0.642804 0.8 0 0
0.068327 0.025396 0.372082 0.8 0 0
0.113006 0.084540 0.351698 0.8 0 0
0.093575 0.102943 0.683943 0.8 0 0
0.030217 0.063855 0.512343 0.8 0 0
0.035881 0.077926 0.265614 0.8 0 0
0.096495 0.115281 0.080969 0.8 0 0
0.031601 0.070137 0.395788 0.8 0 0
0.056000 0.118120 0.110190 0.8 0 0
0.062829 0.102943 0.451839 0.8 0 0
0.115453 0.093324 0.586151 0.8 0 0
0.054142 0.030038 0.226506 0.8 0 0
0.082902 0.175352 0.120315 0.8 0 0
0.058821 0.102943 0.676389 0.8 0 0
0.058481 0.026291 0.612004 0.8 0 0
0.089126 0.025899 0.758125 0.8 0 0
0.054046 0.102697 0.717579 0.8 0 0
0.051594 0.122217 0.084232 0.8 0 0
0.109936 0.104208 0.165270 0.8 0 0
0.045415 0.101102 0.069003 0.8 0 0
0.042924 0.073701 0.902116 0.8 0 0
0.066110 0.144508 0.068237 0.8 0 0
0.048070 0.102943 0.682238 0.8 0 0
0.061025 0.091386 0.055724 0.8 0 0
0.069250 0.089479 0.969611 0.8 0 0
0.106085 0.131236 0.163014 0.8 0 0
0.038427 0.101925 0.137737 0.8 0 0
0.105547 0.038135 0.409577 0.8 0 0
0.035659 0.095144 0.860556 0.8 0 0
0.096517 0.102943 0.503728 0.8 0 0
0.039210 0.117843 0.176072 0.8 0 0
0.102987 0.102943 0.680918 0.8 0 0
0.034053 0.060459 0.333549 0.8 0 0
0.091736 0.133115 0.128415 0.8 0 0
0.070562 0.025508 0.241886 0.8 0 0
0.108633 0.047161 0.326216 0.8 0 0
0.067927 0.161851 0.128880 0.8 0 0
0.112182 0.043718 0.613280 0.8 0 0
0.102802 0.032376 0.610081 0.8 0 0
0.106369 0.089815 0.174206 0.8 0 0
0.062547 0.102943 0.283985 0.8 0 0
0.082677 0.151180 0.184901 0.8 0 0
0.044625 0.107365 0.137066 0.8 0 0
0.059824 0.086487 0.080183 0.8 0 0
0.049169 0.102277 0.212934 0.8 0 0
0.053033 0.102943 0.504606 0.8 0 0
0.112389 0.049210 0.431679 0.8 0 0
0.031251 0.072056 0.763672 0.8 0 0
0.077048 0.102943 0.245863 0.8 0 0
0.039588 0.101400 0.224542 0.8 0 0
0.087008 0.029908 0.124750 0.8 0 0
0.037123 0.093368 0.218352 0.8 0 0
0.031951 0.071383 0.779759 0.8 0 0
0.114292 0.060211 0.360566 0.8 0 0
0.036876 0.101400 0.768724 0.8 0 0
0.049983 0.030814 0.450514 0.8 0 0
0.060494 0.025704 0.621065 0.8 0 0
0.083453 0.102943 0.632407 0.8 0 0
0.063454 0.038089 0.951664 0.8 0 0
0.034277 0.049427 0.451209 0.8 0 0
0.090035 0.040146 0.125797 0.8 0 0
0.106355 0.036740 0.848445 0.8 0 0
0.112222 0.101400 0.727645 0.8 0 0
0.106969 0.101400 0.851858 0.8 0 0
0.031225 0.083226 0.704074 0.8 0 0
0.088285 0.025632 0.782262 0.8 0 0
0.050566 0.102943 0.314398 0.8 0 0
0.056775 0.027204 0.556521 0.8 0 0
0.037325 0.076639 0.232100 0.8 0 0
0.098890 0.102943 0.458689 0.8 0 0
0.037817 0.040868 0.530757 0.8 0 0
0.036930 0.103245 0.182757 0.8 0 0
0.045000 0.035744 0.330496 0.8 0 0
0.109471 0.089332 0.217847 0.8 0 0
0.068775 0.025081 0.718126 0.8 0 0
0.113391 0.090505 0.392174 0.8 0 0
0.034287 0.059464 0.831182 0.8 0 0
0.076903 0.054477 0.079751 0.8 0 0
0.104980 0.144588 0.159098 0.8 0 0
0.038168 0.105789 0.884954 0.8 0 0
0.036594 0.041371 0.801439 0.8 0 0
0.103621 0.035950 0.400226 0.8 0 0
0.059283 0.102943 0.681104 0.8 0 0
0.034648 0.078779 0.305669 0.8 0 0
0.044346 0.031304 0.768665 0.8 0 0
0.106248 0.073211 0.207247 0.8 0 0
0.075883 0.025116 0.634846 0.8 0 0
0.071491 0.027995 0.073321 0.8 0 0
0.030208 0.062233 0.521083 0.8 0 0
0.067586 0.106573 0.916234 0.8 0 0
0.031729 0.067432 0.390971 0.8 0 0
0.098072 0.106573 0.894617 0.8 0 0
0.057050 0.029664 0.114312 0.8 0 0
0.041383 0.106573 0.205251 0.8 0 0
0.065134 0.026136 0.237329 0.8 0 0
0.043794 0.033765 0.869793 0.8 0 0
0.034369 0.050733 0.418220 0.8 0 0
0.034841 0.086623 0.314349 0.8 0 0
0.111167 0.079722 0.269520 0.8 0 0
0.104980 0.146807 0.188540 0.8 0 0
0.116869 0.064017 0.689846 0.8 0 0
0.114190 0.046427 0.650773 0.8 0 0
0.073537 0.025127 0.773395 0.8 0 0
0.090969 0.101975 0.943037 0.8 0 0
0.115504 0.078925 0.495503 0.8 0 0
0.104176 0.102943 0.616587 0.8 0 0
0.095786 0.036355 0.134204 0.8 0 0
0.081464 0.079397 0.073046 0.8 0 0
0.030874 0.077809 0.599509 0.8 0 0
0.100356 0.109558 0.915870 0.8 0 0
0.113491 0.144018 0.191753 0.8 0 0
0.036178 0.057238 0.300473 0.8 0 0
0.032750 0.052469 0.455245 0.8 0 0
0.068416 0.106544 0.060500 0.8 0 0
0.106876 0.043446 0.322510 0.8 0 0
0.103606 0.031867 0.807078 0.8 0 0
0.117018 0.057280 0.552767 0.8 0 0
0.076836 0.102943 0.754267 0.8 0 0
0.087528 0.138659 0.075976 0.8 0 0
0.105589 0.102680 0.420055 0.8 0 0
0.084347 0.102943 0.693910 0.8 0 0
0.115579 0.098146 0.583015 0.8 0 0
0.107917 0.107445 0.170669 0.8 0 0
0.085787 0.102943 0.487282 0.8 0 0
0.078274 0.101400 0.843873 0.8 0 0
0.030584 0.059220 0.730582 0.8 0 0
0.077582 0.157602 0.096529 0.8 0 0
0.031376 0.090992 0.748444 0.8 0 0
0.087365 0.026267 0.522608 0.8 0 0
0.087697 0.077062 0.116849 0.8 0 0
0.033405 0.047631 0.535814 0.8 0 0
0.065158 0.167067 0.125159 0.8 0 0
0.033896 0.054528 0.817385 0.8 0 0
0.111050 0.042517 0.572574 0.8 0 0
0.056000 0.110683 0.128685 0.8 0 0
0.095403 0.034624 0.912960 0.8 0 0
0.077334 0.025323 0.414571 0.8 0 0
0.042078 0.031998 0.777613 0.8 0 0
0.094337 0.090415 0.933188 0.8 0 0
0.090655 0.102943 0.286053 0.8 0 0
0.030234 0.058513 0.647571 0.8 0 0
0.030666 0.066871 0.745966 0.8 0 0
0.039102 0.101400 0.329663 0.8 0 0
0.064821 0.025974 0.314569 0.8 0 0
0.038271 0.101631 0.145595 0.8 0 0
0.084858 0.025700 0.487756 0.8 0 0
0.036389 0.087388 0.249103 0.8 0 0
0.111025 0.101205 0.244724 0.8 0 0
0.102672 0.036763 0.312541 0.8 0 0
0.081870 0.106573 0.888921 0.8 0 0
0.031592 0.087972 0.573630 0.8 0 0
0.039003 0.036152 0.715754 0.8 0 0
0.044655 0.065807 0.192847 0.8 0 0
0.096624 0.133115 0.077376 0.8 0 0
0.053240 0.028799 0.562797 0.8 0 0
0.078474 0.025126 0.804670 0.8 0 0
0.030481 0.072135 0.634469 0.8 0 0
0.063383 0.026134 0.907863 0.8 0 0
0.034179 0.050575 0.816717 0.8 0 0
0.115230 0.082172 0.766051 0.8 0 0
0.114123 0.055461 0.396983 0.8 0 0
0.072773 0.025180 0.491781 0.8 0 0
0.100592 0.034890 0.287457 0.8 0 0
0.115610 0.085274 0.568280 0.8 0 0
0.048773 0.106561 0.131891 0.8 0 0
0.063894 0.102943 0.598110 0.8 0 0
0.068395 0.051062 0.100385 0.8 0 0
0.071996 0.107692 0.854454 0.8 0 0
0.094166 0.115281 0.127882 0.8 0 0
0.071495 0.025200 0.821598 0.8 0 0
0.092880 0.034496 0.108465 0.8 0 0
0.053248 0.075547 0.931100 0.8 0 0
0.108618 0.059480 0.241134 0.8 0 0
0.033415 0.082108 0.396859 0.8 0 0
0.057220 0.102943 0.436142 0.8 0 0
0.057393 0.027344 0.457901 0.8 0 0
0.111693 0.101400 0.455196 0.8 0 0
0.099207 0.106573 0.131653 0.8 0 0
0.051861 0.060900 0.923844 0.8 0 0
0.084678 0.090057 0.057865 0.8 0 0
0.054275 0.128045 0.193575 0.8 0 0
0.052964 0.029545 0.425569 0.8 0 0
0.090895 0.029796 0.161985 0.8 0 0
0.039891 0.040523 0.423362 0.8 0 0
0.100370 0.102943 0.767674 0.8 0 0
0.056699 0.028530 0.235069 0.8 0 0
0.057162 0.106556 0.070240 0.8 0 0
0.073376 0.151180 0.084598 0.8 0 0
0.036134 0.077925 0.258969 0.8 0 0
0.106363 0.085989 0.894953 0.8 0 0
0.046385 0.036706 0.898656 0.8 0 0
0.097717 0.031689 0.894938 0.8 0 0
0.042062 0.039239 0.345896 0.8 0 0
0.097977 0.030952 0.487726 0.8 0 0
0.091624 0.073545 0.935979 0.8 0 0
0.113251 0.050091 0.458035 0.8 0 0
0.097782 0.074763 0.161222 0.8 0 0
0.115608 0.049453 0.630269 0.8 0 0
0.061408 0.153238 0.119694 0.8 0 0
0.064377 0.025907 0.351334 0.8 0 0
0.080109 0.102943 0.705274 0.8 0 0
0.058321 0.102943 0.601505 0.8 0 0
0.087429 0.102943 0.312055 0.8 0 0
0.031217 0.074208 0.476490 0.8 0 0
0.096952 0.106573 0.127065 0.8 0 0
0.095487 0.089958 0.092159 0.8 0 0
0.087515 0.102943 0.410922 0.8 0 0
0.053923 0.102943 0.816089 0.8 0 0
0.093404 0.123703 0.124513 0.8 0 0
0.086213 0.150859 0.194590 0.8 0 0
0.060533 0.151180 0.116285 0.8 0 0
0.106073 0.041380 0.331676 0.8 0 0
0.030191 0.061942 0.683013 0.8 0 0
0.030853 0.069514 0.461633 0.8 0 0
0.105674 0.037435 0.878224 0.8 0 0
0.053483 0.029300 0.428356 0.8 0 0
0.034173 0.095615 0.359796 0.8 0 0
0.115163 0.056501 0.439238 0.8 0 0
0.063685 0.174716 0.118932 0.8 0 0
0.108754 0.084582 0.216125 0.8 0 0
0.051529 0.113795 0.070895 0.8 0 0
0.031777 0.092334 0.560112 0.8 0 0
0.067940 0.079413 0.065007 0.8 0 0
0.097343 0.106573 0.903413 0.8 0 0
0.030833 0.076835 0.543073 0.8 0 0
0.093705 0.032164 0.088412 0.8 0 0
0.030488 0.054884 0.649071 0.8 0 0
0.063261 0.102943 0.652626 0.8 0 0
0.088833 0.052975 0.149046 0.8 0 0
0.056288 0.102943 0.455568 0.8 0 0
0.082677 0.162059 0.124584 0.8 0 0
0.113328 0.045053 0.639714 0.8 0 0
0.112692 0.048461 0.814360 0.8 0 0
0.039223 0.136675 0.175565 0.8 0 0
0.070883 0.027612 0.948131 0.8 0 0
0.071887 0.062614 0.960170 0.8 0 0
0.114972 0.086516 0.495263 0.8 0 0
0.049807 0.106510 0.050929 0.8 0 0
0.106174 0.036820 0.494226 0.8 0 0
0.061664 0.102943 0.824069 0.8 0 0
0.092264 0.108108 0.194268 0.8 0 0
0.085117 0.025375 0.833410 0.8 0 0
0.060002 0.084556 0.950904 0.8 0 0
0.116716 0.068893 0.703539 0.8 0 0
0.047359 0.102943 0.476970 0.8 0 0
0.076444 0.025117 0.654667 0.8 0 0
0.035578 0.094339 0.858341 0.8 0 0
0.101517 0.133290 0.137066 0.8 0 0
0.059103 0.027500 0.264513 0.8 0 0
0.102867 0.086155 0.159107 0.8 0 0
0.071463 0.025238 0.467289 0.8 0 0
0.039219 0.103836 0.117409 0.8 0 0
0.081106 0.102943 0.612792 0.8 0 0
0.034729 0.051652 0.829063 0.8 0 0
0.089335 0.102943 0.533618 0.8 0 0
0.113931 0.083008 0.414269 0.8 0 0
0.050498 0.038044 0.149487 0.8 0 0
0.115429 0.096984 0.542661 0.8 0 0
0.108207 0.101400 0.383246 0.8 0 0
0.113358 0.088090 0.384354 0.8 0 0
0.094165 0.030363 0.165316 0.8 0 0
0.114724 0.046989 0.724465 0.8 0 0
0.031518 0.101217 0.570246 0.8 0 0
0.050516 0.102943 0.766799 0.8 0 0
0.052558 0.102943 0.220206 0.8 0 0
0.050031 0.102943 0.508368 0.8 0 0
0.094126 0.106573 0.200165 0.8 0 0
0.054625 0.028410 0.508457 0.8 0 0
0.103179 0.102943 0.638337 0.8 0 0
0.052345 0.133115 0.094426 0.8 0 0
0.068738 0.102943 0.673857 0.8 0 0
0.034141 0.066949 0.830581 0.8 0 0
0.035939 0.098390 0.255309 0.8 0 0
0.030628 0.069600 0.735027 0.8 0 0
0.116661 0.074114 0.603885 0.8 0 0
0.089415 0.026040 0.830891 0.8 0 0
0.091059 0.084078 0.107735 0.8 0 0
0.031653 0.088868 0.562926 0.8 0 0
0.104980 0.129303 0.144937 0.8 0 0
0.075804 0.067377 0.053372 0.8 0 0
0.074141 0.075815 0.966386 0.8 0 0
0.047211 0.036132 0.191181 0.8 0 0
0.030249 0.067322 0.500865 0.8 0 0
0.058066 0.026478 0.585327 0.8 0 0
0.036102 0.070485 0.870896 0.8 0 0
0.062990 0.106573 0.912075 0.8 0 0
0.091788 0.102943 0.458945 0.8 0 0
0.110960 0.092927 0.250669 0.8 0 0
0.066012 0.106573 0.206150 0.8 0 0
0.039561 0.101400 0.685281 0.8 0 0
0.094976 0.133115 0.089814 0.8 0 0
0.050342 0.027608 0.086010 0.8 0 0
0.110444 0.107994 0.168911 0.8 0 0
0.073866 0.025303 0.859104 0.8 0 0
0.053000 0.094528 0.934305 0.8 0 0
0.076604 0.025152 0.804910 0.8 0 0
0.082966 0.140059 0.197561 0.8 0 0
0.106638 0.041761 0.348626 0.8 0 0
0.114845 0.090709 0.772190 0.8 0 0
0.095309 0.102943 0.580373 0.8 0 0
0.086812 0.106573 0.200621 0.8 0 0
0.051624 0.102943 0.259689 0.8 0 0
0.074925 0.025377 0.282064 0.8 0 0
0.090803 0.028188 0.378874 0.8 0 0
0.058346 0.102943 0.230499 0.8 0 0
0.049871 0.135486 0.193575 0.8 0 0
0.030493 0.072385 0.635586 0.8 0 0
0.105589 0.102049 0.653375 0.8 0 0
0.033753 0.101400 0.392032 0.8 0 0
0.073243 0.137628 0.197561 0.8 0 0
0.081354 0.025471 0.874306 0.8 0 0
0.081178 0.102943 0.212934 0.8 0 0
0.076112 0.106573 0.941772 0.8 0 0
0.084445 0.171119 0.113686 0.8 0 0
0.083977 0.102943 0.607376 0.8 0 0
0.046438 0.102943 0.279678 0.8 0 0
0.066725 0.033421 0.955967 0.8 0 0
0.064332 0.102943 0.446450 0.8 0 0
0.110555 0.054880 0.300826 0.8 0 0
0.111758 0.101400 0.434297 0.8 0 0
0.108849 0.106068 0.119861 0.8 0 0
0.060255 0.030381 0.177021 0.8 0 0
0.116659 0.074511 0.554189 0.8 0 0
0.052238 0.106573 0.904676 0.8 0 0
0.032543 0.095352 0.474498 0.8 0 0
0.104391 0.049489 0.895921 0.8 0 0
0.101640 0.102943 0.380617 0.8 0 0
0.116385 0.076260 0.546357 0.8 0 0
0.096554 0.128894 0.193575 0.8 0 0
0.115407 0.096555 0.539237 0.8 0 0
0.107835 0.049762 0.274697 0.8 0 0
0.089183 0.027651 0.317073 0.8 0 0
0.089851 0.148376 0.193575 0.8 0 0
0.050454 0.030415 0.473771 0.8 0 0
0.034719 0.101400 0.691972 0.8 0 0
0.052860 0.135495 0.193575 0.8 0 0
0.116220 0.053287 0.537677 0.8 0 0
0.057115 0.102943 0.286780 0.8 0 0
0.097258 0.102943 0.435337 0.8 0 0
0.035042 0.046226 0.505530 0.8 0 0
0.055293 0.102943 0.650658 0.8 0 0
0.046307 0.049154 0.204500 0.8 0 0
0.107762 0.106573 0.880432 0.8 0 0
0.052060 0.131628 0.110437 0.8 0 0
0.044362 0.102943 0.713002 0.8 0 0
0.086907 0.026968 0.318107 0.8 0 0
0.113894 0.049380 0.794672 0.8 0 0
0.064217 0.025210 0.648626 0.8 0 0
0.063102 0.102943 0.544760 0.8 0 0
0.056000 0.141146 0.132490 0.8 0 0
0.049392 0.033064 0.236543 0.8 0 0
0.035475 0.095121 0.283554 0.8 0 0
0.053602 0.145994 0.135437 0.8 0 0
0.032839 0.087649 0.448656 0.8 0 0
0.084840 0.025219 0.678086 0.8 0 0
0.073677 0.025113 0.676641 0.8 0 0
0.068749 0.025119 0.598940 0.8 0 0
0.116586 0.064842 0.730925 0.8 0 0
0.055354 0.107974 0.940750 0.8 0 0
0.102914 0.038352 0.264479 0.8 0 0
0.092892 0.145994 0.118616 0.8 0 0
0.036029 0.048846 0.380027 0.8 0 0
0.102264 0.067166 0.190739 0.8 0 0
0.074501 0.025132 0.558209 0.8 0 0
0.097453 0.115281 0.097029 0.8 0 0
0.047337 0.030149 0.774864 0.8 0 0
0.093840 0.106573 0.110615 0.8 0 0
0.036796 0.101400 0.332769 0.8 0 0
0.036351 0.045410 0.461073 0.8 0 0
0.108929 0.101400 0.288064 0.8 0 0
0.082007 0.102943 0.238798 0.8 0 0
0.051681 0.145994 0.136579 0.8 0 0
0.039210 0.119635 0.187344 0.8 0 0
0.033572 0.071545 0.324481 0.8 0 0
0.035891 0.056209 0.311966 0.8 0 0
0.045060 0.097657 0.085214 0.8 0 0
0.064181 0.075754 0.091267 0.8 0 0
0.086673 0.102943 0.664906 0.8 0 0
0.045859 0.040914 0.200829 0.8 0 0
0.113223 0.085154 0.368248 0.8 0 0
0.094470 0.074012 0.929281 0.8 0 0
0.079391 0.062453 0.082985 0.8 0 0
0.081543 0.025182 0.816596 0.8 0 0
0.059140 0.102943 0.756380 0.8 0 0
0.056000 0.110640 0.129435 0.8 0 0
0.111972 0.081968 0.300086 0.8 0 0
0.096931 0.102943 0.727691 0.8 0 0
0.111275 0.102793 0.866947 0.8 0 0
0.115481 0.056762 0.452906 0.8 0 0
0.039210 0.124291 0.162612 0.8 0 0
0.110236 0.101400 0.726622 0.8 0 0
0.097545 0.133115 0.077044 0.8 0 0
0.070910 0.045077 0.081346 0.8 0 0
0.055168 0.102943 0.448103 0.8 0 0
0.116523 0.071204 0.691802 0.8 0 0
0.059728 0.102943 0.560613 0.8 0 0
0.066431 0.025238 0.519650 0.8 0 0
0.036153 0.083712 0.871914 0.8 0 0
0.038947 0.101400 0.436085 0.8 0 0
0.112641 0.091588 0.342167 0.8 0 0
0.073087 0.106573 0.201601 0.8 0 0
0.050778 0.106573 0.918742 0.8 0 0
0.098008 0.102943 0.600026 0.8 0 0
0.116906 0.061571 0.684531 0.8 0 0
0.033902 0.081931 0.815867 0.8 0 0
0.088622 0.102943 0.515074 0.8 0 0
0.058340 0.102943 0.785988 0.8 0 0
0.061622 0.102943 0.482196 0.8 0 0
0.103243 0.067822 0.903841 0.8 0 0
0.061226 0.027872 0.193635 0.8 0 0
0.100197 0.040107 0.904832 0.8 0 0
0.074365 0.039039 0.066248 0.8 0 0
0.030637 0.075747 0.561760 0.8 0 0
0.085843 0.151180 0.137362 0.8 0 0
0.116963 0.071068 0.579579 0.8 0 0
0.034497 0.088671 0.334789 0.8 0 0
0.029862 0.059208 0.578049 0.8 0 0
0.116123 0.051250 0.627531 0.8 0 0
0.045782 0.075363 0.176936 0.8 0 0
0.083961 0.025102 0.739860 0.8 0 0
0.109157 0.101400 0.365916 0.8 0 0
0.115400 0.091565 0.568402 0.8 0 0
0.072396 0.027606 0.057691 0.8 0 0
0.054194 0.074436 0.933153 0.8 0 0
0.071605 0.025264 0.409485 0.8 0 0
0.053690 0.106557 0.098885 0.8 0 0
0.112556 0.101400 0.377183 0.8 0 0
0.093274 0.102943 0.568445 0.8 0 0
0.115309 0.062075 0.411014 0.8 0 0
0.072422 0.025147 0.789855 0.8 0 0
0.096509 0.081026 0.925442 0.8 0 0
0.102142 0.106573 0.872586 0.8 0 0
0.067099 0.051960 0.955784 0.8 0 0
0.033864 0.069119 0.320207 0.8 0 0
0.106142 0.042770 0.300483 0.8 0 0
0.106531 0.045587 0.269933 0.8 0 0
0.095865 0.028556 0.786042 0.8 0 0
0.035540 0.047447 0.447031 0.8 0 0
0.047832 0.102943 0.537921 0.8 0 0
0.032326 0.086730 0.775411 0.8 0 0
0.112682 0.083081 0.327115 0.8 0 0
0.113643 0.070770 0.813401 0.8 0 0
0.051769 0.144508 0.107813 0.8 0 0
0.113133 0.067296 0.827065 0.8 0 0
0.048174 0.102943 0.227849 0.8 0 0
0.108261 0.104013 0.887831 0.8 0 0
0.056000 0.130548 0.108369 0.8 0 0
0.039382 0.036205 0.658654 0.8 0 0
0.035660 0.083759 0.277921 0.8 0 0
0.076465 0.102943 0.482819 0.8 0 0
0.062056 0.026370 0.333390 0.8 0 0
0.091127 0.108756 0.136295 0.8 0 0
0.076328 0.102943 0.621169 0.8 0 0
0.115507 0.079828 0.504516 0.8 0 0
0.054199 0.106573 0.891536 0.8 0 0
0.115497 0.097960 0.556497 0.8 0 0
0.052113 0.028855 0.651537 0.8 0 0
0.060903 0.025619 0.607427 0.8 0 0
0.033738 0.081833 0.371915 0.8 0 0
0.110862 0.069286 0.266519 0.8 0 0
0.053965 0.029994 0.220626 0.8 0 0
0.111688 0.059321 0.306992 0.8 0 0
0.088788 0.102943 0.386307 0.8 0 0
0.084698 0.151180 0.172732 0.8 0 0
0.101531 0.048524 0.208414 0.8 0 0
0.091549 0.029760 0.091749 0.8 0 0
0.074717 0.102943 0.231092 0.8 0 0
0.040213 0.046776 0.263487 0.8 0 0
0.073639 0.036859 0.965130 0.8 0 0
0.071503 0.025474 0.128380 0.8 0 0
0.096696 0.109205 0.854454 0.8 0 0
0.046993 0.030500 0.732362 0.8 0 0
0.062133 0.025654 0.503511 0.8 0 0
0.033291 0.077978 0.347140 0.8 0 0
0.033072 0.091674 0.441274 0.8 0 0
0.116109 0.054317 0.742687 0.8 0 0
0.095131 0.090999 0.083676 0.8 0 0
0.061750 0.151180 0.124946 0.8 0 0
0.041869 0.083786 0.186215 0.8 0 0
0.037466 0.054011 0.282923 0.8 0 0
0.096533 0.102943 0.771058 0.8 0 0
0.095632 0.106573 0.870520 0.8 0 0
0.093367 0.027362 0.857934 0.8 0 0
0.031471 0.080384 0.523732 0.8 0 0
0.114387 0.077011 0.793791 0.8 0 0
0.046398 0.030826 0.721219 0.8 0 0
0.068307 0.046340 0.104357 0.8 0 0
0.040441 0.136675 0.166997 0.8 0 0
0.102562 0.050855 0.209138 0.8 0 0
0.032175 0.071477 0.784678 0.8 0 0
0.088950 0.106573 0.037991 0.8 0 0
0.079527 0.106573 0.906109 0.8 0 0
0.054598 0.044118 0.928630 0.8 0 0
0.066219 0.026484 0.924162 0.8 0 0
0.049130 0.114075 0.119573 0.8 0 0
0.091127 0.125418 0.119525 0.8 0 0
0.097239 0.120472 0.193575 0.8 0 0
0.043070 0.090985 0.143812 0.8 0 0
0.051165 0.102943 0.479679 0.8 0 0
0.031619 0.092003 0.610662 0.8 0 0
0.062996 0.026372 0.270783 0.8 0 0
0.112447 0.096927 0.322955 0.8 0 0
0.059353 0.102943 0.386396 0.8 0 0
0.071691 0.025364 0.324438 0.8 0 0
0.054572 0.102943 0.585173 0.8 0 0
0.048658 0.029708 0.758436 0.8 0 0
0.047026 0.102943 0.576129 0.8 0 0
0.052493 0.133115 0.083152 0.8 0 0
0.080082 0.160525 0.098641 0.8 0 0
0.078336 0.102943 0.673787 0.8 0 0
0.073507 0.106573 0.928565 0.8 0 0
0.106320 0.045513 0.262141 0.8 0 0
0.061667 0.106573 0.934806 0.8 0 0
0.115592 0.090514 0.622626 0.8 0 0
0.076651 0.153735 0.096097 0.8 0 0
0.033299 0.051851 0.801679 0.8 0 0
0.035711 0.089539 0.280220 0.8 0 0
0.030695 0.074984 0.673287 0.8 0 0
0.111165 0.041735 0.650098 0.8 0 0
0.069149 0.036476 0.100187 0.8 0 0
0.103492 0.062684 0.902379 0.8 0 0
0.112041 0.072489 0.848633 0.8 0 0
0.048988 0.029728 0.726640 0.8 0 0
0.052469 0.030740 0.235930 0.8 0 0
0.106010 0.101400 0.490780 0.8 0 0
0.033300 0.071396 0.809384 0.8 0 0
0.089213 0.151100 0.193566 0.8 0 0
0.032010 0.084744 0.768183 0.8 0 0
0.085510 0.105529 0.207851 0.8 0 0
0.043497 0.092337 0.905633 0.8 0 0
0.036095 0.087571 0.262739 0.8 0 0
0.053420 0.092516 0.067987 0.8 0 0
0.032229 0.101400 0.641851 0.8 0 0
0.040835 0.123542 0.143103 0.8 0 0
0.115226 0.078747 0.468894 0.8 0 0
0.095133 0.042944 0.182072 0.8 0 0
0.103574 0.068665 0.195006 0.8 0 0
0.108076 0.042949 0.389072 0.8 0 0
0.029922 0.067408 0.625001 0.8 0 0
0.108705 0.069799 0.884827 0.8 0 0
0.074180 0.025115 0.689934 0.8 0 0
0.042088 0.079947 0.899969 0.8 0 0
0.055320 0.102943 0.416426 0.8 0 0
0.048808 0.032892 0.283962 0.8 0 0
0.097717 0.102943 0.702450 0.8 0 0
0.048750 0.050847 0.913381 0.8 0 0
0.039296 0.101400 0.308623 0.8 0 0
0.107208 0.140342 0.180955 0.8 0 0
0.081586 0.055718 0.953523 0.8 0 0
0.053330 0.029527 0.393898 0.8 0 0
0.094502 0.102943 0.445008 0.8 0 0
0.108599 0.099484 0.163339 0.8 0 0
0.033611 0.063519 0.819539 0.8 0 0
0.063253 0.102943 0.380773 0.8 0 0
0.055284 0.106573 0.891570 0.8 0 0
0.108213 0.046634 0.314380 0.8 0 0
0.025640 0.139484 0.188832 0.8 0 0
0.091174 0.115281 0.073778 0.8 0 0
0.067904 0.163430 0.097767 0.8 0 0
0.096986 0.102943 0.218553 0.8 0 0
0.030173 0.070606 0.535391 0.8 0 0
0.108139 0.057643 0.236145 0.8 0 0
0.116399 0.062584 0.483531 0.8 0 0
0.044800 0.102943 0.721741 0.8 0 0
0.097741 0.029334 0.825940 0.8 0 0
0.092384 0.101400 0.589312 0.8 0 0
0.109248 0.039647 0.575046 0.8 0 0
0.082721 0.064122 0.952802 0.8 0 0
0.094680 0.144508 0.134997 0.8 0 0
0.094243 0.095001 0.934023 0.8 0 0
0.088257 0.025787 0.735142 0.8 0 0
0.040835 0.144405 0.183742 0.8 0 0
0.092283 0.102943 0.742435 0.8 0 0
0.090351 0.148552 0.143995 0.8 0 0
0.069839 0.081459 0.966721 0.8 0 0
0.108120 0.046761 0.309796 0.8 0 0
0.102199 0.102943 0.576825 0.8 0 0
0.114758 0.083129 0.777827 0.8 0 0
0.076156 0.102943 0.450583 0.8 0 0
0.055697 0.122217 0.089079 0.8 0 0
0.035063 0.101400 0.356411 0.8 0 0
0.037927 0.038480 0.788405 0.8 0 0
0.104096 0.048500 0.220651 0.8 0 0
0.077885 0.151180 0.145470 0.8 0 0
0.081970 0.102943 0.774968 0.8 0 0
0.045569 0.031365 0.692022 0.8 0 0
0.082431 0.102943 0.310224 0.8 0 0
0.070821 0.035312 0.052586 0.8 0 0
0.067866 0.102943 0.271820 0.8 0 0
0.115061 0.053230 0.477656 0.8 0 0
0.093496 0.030159 0.904060 0.8 0 0
0.083096 0.026249 0.265113 0.8 0 0
0.093480 0.027777 0.745981 0.8 0 0
0.034093 0.101400 0.578258 0.8 0 0
0.115638 0.072413 0.430654 0.8 0 0
0.063914 0.116730 0.195384 0.8 0 0
0.062989 0.103864 0.029537 0.8 0 0
0.071502 0.102943 0.314479 0.8 0 0
0.047210 0.085259 0.146369 0.8 0 0
0.112293 0.050532 0.398118 0.8 0 0
0.115552 0.095213 0.754914 0.8 0 0
0.031860 0.067692 0.380692 0.8 0 0
0.088926 0.072770 0.129055 0.8 0 0
0.036654 0.101400 0.566308 0.8 0 0
0.115533 0.099090 0.558094 0.8 0 0
0.060989 0.084233 0.953111 0.8 0 0
0.037247 0.082710 0.229106 0.8 0 0
0.048901 0.029587 0.763944 0.8 0 0
0.099211 0.095687 0.074563 0.8 0 0
0.034781 0.058324 0.325372 0.8 0 0
0.114000 0.092153 0.438469 0.8 0 0
0.060864 0.101736 0.713147 0.8 0 0
0.062640 0.082091 0.084780 0.8 0 0
0.102853 0.037639 0.287418 0.8 0 0
0.029593 0.066687 0.559572 0.8 0 0
0.041082 0.106570 0.113445 0.8 0 0
0.074073 0.131628 0.071891 0.8 0 0
0.087412 0.029558 0.192438 0.8 0 0
0.033538 0.099378 0.397788 0.8 0 0
0.095762 0.102943 0.285357 0.8 0 0
0.102941 0.032897 0.858234 0.8 0 0
0.070954 0.025470 0.258853 0.8 0 0
0.089718 0.026851 0.570115 0.8 0 0
0.037556 0.041208 0.827788 0.8 0 0
0.040741 0.101400 0.292848 0.8 0 0
0.074465 0.102115 0.591694 0.8 0 0
0.108573 0.038402 0.586924 0.8 0 0
0.111542 0.101400 0.704730 0.8 0 0
0.037610 0.096172 0.203095 0.8 0 0
0.100129 0.102943 0.666218 0.8 0 0
0.060141 0.030222 0.162984 0.8 0 0
0.082929 0.102943 0.479731 0.8 0 0
0.085435 0.102943 0.401678 0.8 0 0
0.046896 0.106573 0.196038 0.8 0 0
0.030971 0.078049 0.565626 0.8 0 0
0.047506 0.030026 0.789463 0.8 0 0
0.033464 0.101400 0.674602 0.8 0 0
0.098162 0.029551 0.861351 0.8 0 0
0.106868 0.101400 0.279731 0.8 0 0
0.115800 0.055207 0.489088 0.8 0 0
0.049451 0.115281 0.084413 0.8 0 0
0.080217 0.025032 0.770393 0.8 0 0
0.099449 0.144730 0.137066 0.8 0 0
0.037060 0.048042 0.357009 0.8 0 0
0.091256 0.043302 0.159254 0.8 0 0
0.043823 0.036522 0.358400 0.8 0 0
0.056000 0.112695 0.087964 0.8 0 0
0.066744 0.102943 0.375784 0.8 0 0
0.034423 0.085927 0.333680 0.8 0 0
0.069508 0.025407 0.341624 0.8 0 0
0.035990 0.095480 0.869005 0.8 0 0
0.115885 0.079756 0.554680 0.8 0 0
0.054582 0.073389 0.142022 0.8 0 0
0.093622 0.127287 0.137066 0.8 0 0
0.072535 0.025196 0.476414 0.8 0 0
0.116103 0.078991 0.737390 0.8 0 0
0.065655 0.025156 0.593595 0.8 0 0
0.089592 0.026765 0.576251 0.8 0 0
0.056000 0.133859 0.089623 0.8 0 0
0.115764 0.093860 0.688363 0.8 0 0
0.063608 0.165657 0.104107 0.8 0 0
0.100592 0.106573 0.067876 0.8 0 0
0.113155 0.083823 0.817734 0.8 0 0
0.058394 0.123703 0.075502 0.8 0 0
0.087597 0.103837 0.952074 0.8 0 0
0.098159 0.032437 0.319945 0.8 0 0
0.104102 0.037733 0.886075 0.8 0 0
0.112946 0.046198 0.542395 0.8 0 0
0.087267 0.043838 0.942723 0.8 0 0
0.106291 0.094981 0.144038 0.8 0 0
0.097999 0.080225 0.152354 0.8 0 0
0.030893 0.056611 0.502003 0.8 0 0
0.037450 0.039101 0.675205 0.8 0 0
0.030196 0.058985 0.645743 0.8 0 0
0.088783 0.056980 0.938166 0.8 0 0
0.071729 0.102943 0.536579 0.8 0 0
0.062872 0.102943 0.711557 0.8 0 0
0.077923 0.102943 0.478708 0.8 0 0
0.035645 0.094832 0.275105 0.8 0 0
0.075066 0.031138 0.046751 0.8 0 0
0.095333 0.103299 0.931292 0.8 0 0
0.109404 0.052516 0.285284 0.8 0 0
0.060636 0.114581 0.195384 0.8 0 0
0.057351 0.102943 0.717724 0.8 0 0
0.100442 0.048688 0.203595 0.8 0 0
0.082996 0.102943 0.520015 0.8 0 0
0.038258 0.106573 0.866678 0.8 0 0
0.091528 0.027321 0.661630 0.8 0 0
0.031355 0.077809 0.506109 0.8 0 0
0.113077 0.101400 0.434238 0.8 0 0
0.040835 0.141011 0.173503 0.8 0 0
0.075774 0.052010 0.075029 0.8 0 0
0.039046 0.037305 0.610795 0.8 0 0
0.094046 0.027977 0.753798 0.8 0 0
0.085502 0.102943 0.619786 0.8 0 0
0.038132 0.044426 0.395805 0.8 0 0
0.053445 0.084406 0.116614 0.8 0 0
0.084255 0.036188 0.949681 0.8 0 0
0.057913 0.150211 0.192321 0.8 0 0
0.088220 0.027479 0.285626 0.8 0 0
0.078461 0.179044 0.098236 0.8 0 0
0.041691 0.053076 0.893594 0.8 0 0
0.084204 0.172880 0.114678 0.8 0 0
0.091650 0.102943 0.819677 0.8 0 0
0.116976 0.068452 0.654263 0.8 0 0
0.039578 0.035854 0.662614 0.8 0 0
0.116553 0.060688 0.743917 0.8 0 0
0.112955 0.050195 0.815735 0.8 0 0
0.112027 0.048767 0.427918 0.8 0 0
0.110694 0.079079 0.253126 0.8 0 0
0.069438 0.102943 0.234962 0.8 0 0
0.031695 0.053847 0.487560 0.8 0 0
0.085486 0.084586 0.079255 0.8 0 0
0.044120 0.102641 0.587052 0.8 0 0
0.050205 0.028883 0.869087 0.8 0 0
0.074331 0.038958 0.066354 0.8 0 0
0.081847 0.106547 0.035746 0.8 0 0
0.076549 0.025115 0.576110 0.8 0 0
0.063177 0.035175 0.108276 0.8 0 0
0.109121 0.040890 0.835581 0.8 0 0
0.085303 0.025090 0.752809 0.8 0 0
0.073412 0.175374 0.097253 0.8 0 0
0.115920 0.081279 0.698946 0.8 0 0
0.079229 0.025595 0.895646 0.8 0 0
0.082725 0.047152 0.125521 0.8 0 0
0.075980 0.069161 0.059277 0.8 0 0
0.066170 0.105537 0.854454 0.8 0 0
0.114131 0.078718 0.381079 0.8 0 0
0.096961 0.032813 0.168388 0.8 0 0
0.114593 0.081471 0.458419 0.8 0 0
0.031373 0.092710 0.695551 0.8 0 0
0.092750 0.027266 0.837825 0.8 0 0
0.070841 0.045938 0.081879 0.8 0 0
0.106634 0.101400 0.218659 0.8 0 0
0.092898 0.059274 0.159469 0.8 0 0
0.082804 0.051143 0.122835 0.8 0 0
0.111092 0.048123 0.844432 0.8 0 0
0.115640 0.095955 0.625422 0.8 0 0
0.031255 0.091639 0.732142 0.8 0 0
0.079063 0.135808 0.193575 0.8 0 0
0.095134 0.123703 0.122571 0.8 0 0
0.033222 0.081135 0.799864 0.8 0 0
0.101664 0.102943 0.233194 0.8 0 0
0.080758 0.025576 0.369265 0.8 0 0
0.114192 0.080980 0.792867 0.8 0 0
0.068231 0.025637 0.240696 0.8 0 0
0.030229 0.067761 0.506455 0.8 0 0
0.105725 0.106573 0.875323 0.8 0 0
0.112873 0.095400 0.824895 0.8 0 0
0.115360 0.054971 0.468680 0.8 0 0
0.086320 0.054273 0.137599 0.8 0 0
0.032715 0.053098 0.445564 0.8 0 0
0.102505 0.032408 0.590608 0.8 0 0
0.039639 0.065177 0.223674 0.8 0 0
0.110093 0.096364 0.213872 0.8 0 0
0.042229 0.118122 0.193575 0.8 0 0
0.112680 0.094640 0.829387 0.8 0 0
0.087482 0.106573 0.036838 0.8 0 0
0.091972 0.027359 0.701017 0.8 0 0
0.105392 0.102943 0.756984 0.8 0 0
0.064027 0.102066 0.963113 0.8 0 0
0.112994 0.069203 0.314056 0.8 0 0
0.051929 0.133115 0.084763 0.8 0 0
0.065950 0.153950 0.099118 0.8 0 0
0.106313 0.106573 0.090019 0.8 0 0
0.095625 0.122217 0.114353 0.8 0 0
0.051685 0.029662 0.522659 0.8 0 0
0.034243 0.084949 0.344034 0.8 0 0
0.101992 0.106573 0.905511 0.8 0 0
0.068301 0.025306 0.448083 0.8 0 0
0.114342 0.088305 0.453795 0.8 0 0
0.113243 0.043951 0.740661 0.8 0 0
0.096836 0.037955 0.150060 0.8 0 0
0.112838 0.083984 0.338729 0.8 0 0
0.101718 0.092286 0.113697 0.8 0 0
0.115196 0.075640 0.430293 0.8 0 0
0.047484 0.031670 0.885222 0.8 0 0
0.090842 0.095771 0.047494 0.8 0 0
0.076042 0.025203 0.825694 0.8 0 0
0.110389 0.040319 0.669197 0.8 0 0
0.084201 0.025789 0.449656 0.8 0 0
0.055371 0.102943 0.564038 0.8 0 0
0.089739 0.089156 0.074311 0.8 0 0
0.036763 0.077186 0.243647 0.8 0 0
0.101394 0.102943 0.415993 0.8 0 0
0.086904 0.027228 0.249605 0.8 0 0
0.116249 0.077464 0.569517 0.8 0 0
0.090219 0.102943 0.583557 0.8 0 0
0.077297 0.025155 0.547464 0.8 0 0
0.080583 0.081314 0.067386 0.8 0 0
0.115599 0.094092 0.629026 0.8 0 0
0.114780 0.073251 0.364696 0.8 0 0
0.088844 0.064509 0.138745 0.8 0 0
0.110281 0.101400 0.324938 0.8 0 0
0.066614 0.025044 0.739875 0.8 0 0
0.056190 0.108286 0.207826 0.8 0 0
0.043885 0.046539 0.219764 0.8 0 0
0.085445 0.113795 0.074143 0.8 0 0
0.101117 0.032361 0.515539 0.8 0 0
0.094617 0.146177 0.193575 0.8 0 0
0.112202 0.043492 0.634254 0.8 0 0
0.049845 0.030091 0.600618 0.8 0 0
0.115560 0.073848 0.768978 0.8 0 0
0.102351 0.031366 0.734870 0.8 0 0
0.029521 0.064196 0.570989 0.8 0 0
0.110024 0.101400 0.757982 0.8 0 0
0.060085 0.026451 0.458108 0.8 0 0
0.043679 0.031584 0.791393 0.8 0 0
0.089247 0.102331 0.839033 0.8 0 0
0.033248 0.092092 0.429905 0.8 0 0
0.091127 0.115907 0.133535 0.8 0 0
0.104980 0.120241 0.153577 0.8 0 0
0.041300 0.101400 0.216252 0.8 0 0
0.074497 0.102943 0.358755 0.8 0 0
0.113003 0.054094 0.821169 0.8 0 0
0.070899 0.048271 0.047945 0.8 0 0
0.033347 0.066523 0.813521 0.8 0 0
0.064004 0.025118 0.726838 0.8 0 0
0.085326 0.160047 0.116349 0.8 0 0
0.049982 0.101400 0.210356 0.8 0 0
0.035605 0.042457 0.791510 0.8 0 0
0.046745 0.102943 0.792271 0.8 0 0
0.041351 0.051447 0.225946 0.8 0 0
0.107589 0.042759 0.366500 0.8 0 0
0.036858 0.063821 0.265256 0.8 0 0
0.050018 0.042394 0.189307 0.8 0 0
0.044950 0.031293 0.737795 0.8 0 0
0.068765 0.102943 0.532713 0.8 0 0
0.108274 0.039197 0.530663 0.8 0 0
0.113154 0.045593 0.572130 0.8 0 0
0.109091 0.065681 0.235500 0.8 0 0
0.112329 0.101400 0.472935 0.8 0 0
0.075563 0.059343 0.043609 0.8 0 0
0.110556 0.105803 0.191182 0.8 0 0
0.121877 0.139731 0.190188 0.8 0 0
0.108064 0.086165 0.206388 0.8 0 0
0.115815 0.050590 0.735181 0.8 0 0
0.115455 0.075263 0.448758 0.8 0 0
0.065101 0.145994 0.067361 0.8 0 0
0.032738 0.101400 0.513437 0.8 0 0
0.038432 0.042495 0.440062 0.8 0 0
0.100736 0.045918 0.209443 0.8 0 0
0.074921 0.162905 0.130401 0.8 0 0
0.115915 0.083735 0.747876 0.8 0 0
0.099231 0.106573 0.866377 0.8 0 0
0.085099 0.102943 0.262272 0.8 0 0
0.105800 0.080059 0.197701 0.8 0 0
0.076136 0.059485 0.048938 0.8 0 0
0.071215 0.028575 0.065236 0.8 0 0
0.093184 0.102943 0.613730 0.8 0 0
0.115878 0.100837 0.687371 0.8 0 0
0.049866 0.092893 0.080575 0.8 0 0
0.073630 0.151180 0.097596 0.8 0 0
0.077368 0.102943 0.225051 0.8 0 0
0.059279 0.032301 0.102579 0.8 0 0
0.060416 0.106573 0.901731 0.8 0 0
0.108285 0.094133 0.181091 0.8 0 0
0.050708 0.115281 0.117520 0.8 0 0
0.114581 0.092150 0.479148 0.8 0 0
0.113780 0.047665 0.538146 0.8 0 0
0.094404 0.102943 0.222656 0.8 0 0
0.055992 0.041527 0.143267 0.8 0 0
0.091186 0.053860 0.157910 0.8 0 0
0.045153 0.032502 0.546948 0.8 0 0
0.067258 0.102943 0.409484 0.8 0 0
0.107366 0.034587 0.749088 0.8 0 0
0.097676 0.132199 0.117465 0.8 0 0
0.112092 0.100156 0.300511 0.8 0 0
0.049415 0.144729 0.193575 0.8 0 0
0.039544 0.110388 0.188101 0.8 0 0
0.084049 0.102943 0.641740 0.8 0 0
0.056000 0.136612 0.095366 0.8 0 0
0.070803 0.037351 0.050403 0.8 0 0
0.031597 0.093429 0.611390 0.8 0 0
0.064693 0.030157 0.148039 0.8 0 0
0.071511 0.025113 0.579231 0.8 0 0
0.103227 0.101400 0.209889 0.8 0 0
0.047959 0.102943 0.332645 0.8 0 0
0.112914 0.044801 0.609297 0.8 0 0
0.110588 0.077932 0.877730 0.8 0 0
0.050515 0.093344 0.074320 0.8 0 0
0.096737 0.106511 0.059099 0.8 0 0
0.083286 0.025697 0.458681 0.8 0 0
0.064388 0.025593 0.213750 0.8 0 0
0.033483 0.077480 0.811750 0.8 0 0
0.095999 0.106573 0.201415 0.8 0 0
0.058263 0.151180 0.092402 0.8 0 0
0.083635 0.026201 0.909443 0.8 0 0
0.056161 0.102943 0.546832 0.8 0 0
0.063205 0.027251 0.924581 0.8 0 0
0.033064 0.053732 0.417381 0.8 0 0
0.106501 0.106573 0.867148 0.8 0 0
0.113290 0.080793 0.348574 0.8 0 0
0.111955 0.095135 0.848242 0.8 0 0
0.084394 0.102943 0.626903 0.8 0 0
0.048820 0.108671 0.043925 0.8 0 0
0.071430 0.025241 0.463448 0.8 0 0
0.075937 0.102943 0.275423 0.8 0 0
0.111324 0.057151 0.309100 0.8 0 0
0.031706 0.069689 0.382022 0.8 0 0
0.071722 0.054143 0.041299 0.8 0 0
0.115849 0.086015 0.687153 0.8 0 0
0.094066 0.102943 0.263225 0.8 0 0
0.100628 0.102943 0.248736 0.8 0 0
0.086194 0.030149 0.143774 0.8 0 0
0.036654 0.041241 0.800825 0.8 0 0
0.050527 0.102943 0.574705 0.8 0 0
0.071643 0.025781 0.115662 0.8 0 0
0.058101 0.030295 0.093730 0.8 0 0
0.031433 0.053786 0.502271 0.8 0 0
0.052729 0.115281 0.101544 0.8 0 0
0.041719 0.102943 0.640369 0.8 0 0
0.074151 0.092306 0.042972 0.8 0 0
0.031452 0.100254 0.755170 0.8 0 0
0.096312 0.102943 0.630350 0.8 0 0
0.053782 0.102943 0.361732 0.8 0 0
0.093196 0.102943 0.249926 0.8 0 0
0.115608 0.069333 0.771182 0.8 0 0
0.060989 0.102943 0.502327 0.8 0 0
0.099510 0.102943 0.248765 0.8 0 0
0.111322 0.084288 0.271571 0.8 0 0
0.055204 0.122217 0.095627 0.8 0 0
0.114766 0.141653 0.194233 0.8 0 0
0.040352 0.042545 0.333126 0.8 0 0
0.115462 0.098955 0.534988 0.8 0 0
0.041138 0.101400 0.782132 0.8 0 0
0.056000 0.138846 0.134443 0.8 0 0
0.070415 0.025298 0.420949 0.8 0 0
0.114327 0.063719 0.803591 0.8 0 0
0.116452 0.071158 0.714763 0.8 0 0
0.102231 0.106573 0.086669 0.8 0 0
0.104467 0.033884 0.547080 0.8 0 0
0.051153 0.049468 0.183670 0.8 0 0
0.041821 0.039859 0.339244 0.8 0 0
0.072467 0.025563 0.895264 0.8 0 0
0.032341 0.078663 0.781371 0.8 0 0
0.102088 0.097435 0.910560 0.8 0 0
0.060275 0.064818 0.130981 0.8 0 0
0.032019 0.057537 0.423500 0.8 0 0
0.115805 0.097191 0.679665 0.8 0 0
0.105573 0.102943 0.798876 0.8 0 0
0.054861 0.102943 0.629090 0.8 0 0
0.062782 0.151180 0.118215 0.8 0 0
0.084377 0.025889 0.211456 0.8 0 0
0.031202 0.077114 0.755068 0.8 0 0
0.052806 0.123703 0.097209 0.8 0 0
0.072475 0.102943 0.535108 0.8 0 0
0.055445 0.088089 0.939682 0.8 0 0
0.073871 0.127346 0.195384 0.8 0 0
0.055164 0.028059 0.531129 0.8 0 0
0.030266 0.057357 0.639276 0.8 0 0
0.030199 0.065856 0.677403 0.8 0 0
0.063095 0.158727 0.122968 0.8 0 0
0.055847 0.131628 0.102025 0.8 0 0
0.073983 0.025298 0.857427 0.8 0 0
0.104458 0.040191 0.286614 0.8 0 0
0.031210 0.084451 0.720525 0.8 0 0
0.044690 0.055618 0.202228 0.8 0 0
0.107917 0.114136 0.174871 0.8 0 0
0.040050 0.039773 0.440176 0.8 0 0
0.115584 0.087658 0.754487 0.8 0 0
0.031079 0.059001 0.477196 0.8 0 0
0.039647 0.039621 0.863788 0.8 0 0
0.047556 0.046223 0.908649 0.8 0 0
0.065690 0.026795 0.157461 0.8 0 0
0.083655 0.102943 0.321151 0.8 0 0
0.066716 0.091710 0.967284 0.8 0 0
0.057100 0.101400 0.338309 0.8 0 0
0.091692 0.123703 0.077414 0.8 0 0
0.084409 0.171345 0.115630 0.8 0 0
0.041537 0.102854 0.619215 0.8 0 0
0.067645 0.025077 0.697816 0.8 0 0
0.068308 0.102943 0.231541 0.8 0 0
0.089890 0.101575 0.334387 0.8 0 0
0.033897 0.066197 0.825836 0.8 0 0
0.080368 0.106573 0.932201 0.8 0 0
0.063503 0.102943 0.309290 0.8 0 0
0.068243 0.072883 0.069921 0.8 0 0
0.039374 0.106571 0.124846 0.8 0 0
0.076862 0.025118 0.646530 0.8 0 0
0.112634 0.090720 0.339759 0.8 0 0
0.109736 0.089052 0.221288 0.8 0 0
0.056340 0.027000 0.656540 0.8 0 0
0.116518 0.068696 0.733729 0.8 0 0
0.113632 0.083654 0.394199 0.8 0 0
0.032073 0.068798 0.360609 0.8 0 0
0.116063 0.051142 0.562688 0.8 0 0
0.076164 0.027413 0.108552 0.8 0 0
0.091567 0.102943 0.579998 0.8 0 0
0.116541 0.074044 0.646919 0.8 0 0
0.114139 0.076559 0.348744 0.8 0 0
0.088139 0.026294 0.567030 0.8 0 0
0.044267 0.042265 0.225966 0.8 0 0
0.115864 0.073869 0.468403 0.8 0 0
0.060870 0.101729 0.713147 0.8 0 0
0.106564 0.101400 0.393329 0.8 0 0
0.105589 0.101427 0.608433 0.8 0 0
0.065097 0.171999 0.121873 0.8 0 0
0.031307 0.084276 0.658424 0.8 0 0
0.075858 0.051646 0.075751 0.8 0 0
0.057048 0.071220 0.135593 0.8 0 0
0.033255 0.050464 0.480277 0.8 0 0
0.074745 0.131248 0.075976 0.8 0 0
0.051925 0.030265 0.389811 0.8 0 0
0.031067 0.079786 0.742392 0.8 0 0
0.054340 0.029305 0.328110 0.8 0 0
0.104235 0.035734 0.440886 0.8 0 0
0.052399 0.145994 0.076942 0.8 0 0
0.064973 0.102943 0.312125 0.8 0 0
0.071716 0.026835 0.086039 0.8 0 0
0.052745 0.038714 0.141307 0.8 0 0
0.042689 0.047214 0.224111 0.8 0 0
0.076086 0.106573 0.920344 0.8 0 0
0.056000 0.144508 0.083283 0.8 0 0
0.032963 0.101400 0.442151 0.8 0 0
0.090521 0.026429 0.768394 0.8 0 0
0.063392 0.077135 0.095586 0.8 0 0
0.031046 0.050962 0.587434 0.8 0 0
0.088382 0.026914 0.441186 0.8 0 0
0.104980 0.148381 0.140335 0.8 0 0
0.107703 0.035800 0.688668 0.8 0 0
0.042101 0.148552 0.161410 0.8 0 0
0.066470 0.102943 0.225977 0.8 0 0
0.109796 0.059148 0.267116 0.8 0 0
0.064275 0.102943 0.261846 0.8 0 0
0.038996 0.092976 0.183250 0.8 0 0
0.031323 0.095737 0.688286 0.8 0 0
0.096876 0.080710 0.924283 0.8 0 0
0.113711 0.085306 0.402987 0.8 0 0
0.088581 0.131520 0.194098 0.8 0 0
0.030232 0.072347 0.544207 0.8 0 0
0.093770 0.029928 0.116922 0.8 0 0
0.074697 0.026017 0.921406 0.8 0 0
0.106301 0.038518 0.439776 0.8 0 0
0.060401 0.042106 0.118349 0.8 0 0
0.066931 0.124695 0.075976 0.8 0 0
0.110021 0.080621 0.231721 0.8 0 0
0.076517 0.162237 0.096413 0.8 0 0
0.092112 0.106573 0.109655 0.8 0 0
0.068049 0.106532 0.041922 0.8 0 0
0.057913 0.147134 0.130144 0.8 0 0
0.083426 0.151180 0.160519 0.8 0 0
0.056000 0.140990 0.084836 0.8 0 0
0.056000 0.108529 0.088389 0.8 0 0
0.098367 0.029580 0.824848 0.8 0 0
0.079441 0.053070 0.103959 0.8 0 0
0.049231 0.102943 0.261064 0.8 0 0
0.049740 0.126176 0.137066 0.8 0 0
0.091577 0.102943 0.249607 0.8 0 0
0.107280 0.073135 0.214925 0.8 0 0
0.054844 0.028504 0.465801 0.8 0 0
0.114832 0.084977 0.482289 0.8 0 0
0.061751 0.102943 0.753540 0.8 0 0
0.084981 0.026572 0.273772 0.8 0 0
0.051653 0.102943 0.573905 0.8 0 0
0.088286 0.106573 0.942417 0.8 0 0
0.113437 0.095467 0.810221 0.8 0 0
0.041537 0.102701 0.294334 0.8 0 0
0.044785 0.106573 0.873774 0.8 0 0
0.106853 0.035687 0.581125 0.8 0 0
0.116360 0.071125 0.747232 0.8 0 0
0.070646 0.025360 0.150247 0.8 0 0
0.056071 0.102943 0.559449 0.8 0 0
0.088788 0.049563 0.151984 0.8 0 0
0.074703 0.025283 0.855068 0.8 0 0
0.089975 0.026377 0.723125 0.8 0 0
0.106722 0.095852 0.147237 0.8 0 0
0.092572 0.027927 0.627911 0.8 0 0
0.042153 0.035336 0.860021 0.8 0 0
0.114573 0.072927 0.349975 0.8 0 0
0.117428 0.063303 0.596726 0.8 0 0
0.080574 0.102943 0.708621 0.8 0 0
0.074755 0.025744 0.907908 0.8 0 0
0.031157 0.100343 0.729818 0.8 0 0
0.102861 0.127804 0.137066 0.8 0 0
0.075803 0.071269 0.058163 0.8 0 0
0.031339 0.090806 0.693450 0.8 0 0
0.104143 0.121069 0.193575 0.8 0 0
0.067961 0.025353 0.417223 0.8 0 0
0.113526 0.047327 0.533294 0.8 0 0
0.053025 0.043990 0.924512 0.8 0 0
0.031804 0.093243 0.541824 0.8 0 0
0.060318 0.106573 0.200941 0.8 0 0
0.061576 0.154751 0.110609 0.8 0 0
0.064488 0.102943 0.749908 0.8 0 0
0.116295 0.072667 0.750627 0.8 0 0
0.073458 0.146662 0.194590 0.8 0 0
0.048322 0.102943 0.641684 0.8 0 0
0.034439 0.052350 0.824528 0.8 0 0
0.103400 0.034815 0.880205 0.8 0 0
0.040835 0.140136 0.156785 0.8 0 0
0.057005 0.028189 0.289952 0.8 0 0
0.030671 0.052221 0.584592 0.8 0 0
0.092490 0.033005 0.086129 0.8 0 0
0.110697 0.060336 0.873855 0.8 0 0
0.094322 0.030531 0.232482 0.8 0 0
0.087822 0.102943 0.459249 0.8 0 0
0.048988 0.029698 0.733051 0.8 0 0
0.102947 0.106573 0.133934 0.8 0 0
0.108487 0.059519 0.884597 0.8 0 0
0.067076 0.025249 0.188649 0.8 0 0
0.105589 0.102150 0.547150 0.8 0 0
0.077687 0.102943 0.791837 0.8 0 0
0.089456 0.030015 0.107575 0.8 0 0
0.104329 0.106573 0.857857 0.8 0 0
0.078747 0.106573 0.901396 0.8 0 0
0.109293 0.104249 0.140294 0.8 0 0
0.053942 0.094372 0.056578 0.8 0 0
0.041034 0.034105 0.655629 0.8 0 0
0.052913 0.029156 0.516820 0.8 0 0
0.049610 0.030475 0.541720 0.8 0 0
0.055925 0.028697 0.289698 0.8 0 0
0.107098 0.096297 0.153616 0.8 0 0
0.097062 0.145994 0.088770 0.8 0 0
0.056000 0.125313 0.131819 0.8 0 0
0.111494 0.052654 0.848129 0.8 0 0
0.076843 0.025347 0.146635 0.8 0 0
0.093771 0.101400 0.589932 0.8 0 0
0.107953 0.101400 0.790921 0.8 0 0
0.087946 0.083788 0.095878 0.8 0 0
0.116525 0.076106 0.610097 0.8 0 0
0.080368 0.025182 0.534198 0.8 0 0
0.033703 0.101400 0.587886 0.8 0 0
0.052487 0.075834 0.144846 0.8 0 0
0.039210 0.119706 0.181652 0.8 0 0
0.062864 0.103506 0.029850 0.8 0 0
0.041537 0.101475 0.450605 0.8 0 0
0.053809 0.115281 0.072305 0.8 0 0
0.031573 0.068058 0.398644 0.8 0 0
0.059933 0.026727 0.402538 0.8 0 0
0.084366 0.058360 0.125560 0.8 0 0
0.076353 0.176728 0.096978 0.8 0 0
0.080460 0.025122 0.580247 0.8 0 0
0.074408 0.025170 0.513984 0.8 0 0
0.061217 0.025231 0.795479 0.8 0 0
0.081283 0.102943 0.300546 0.8 0 0
0.056222 0.028629 0.269828 0.8 0 0
0.056683 0.058229 0.151254 0.8 0 0
0.038953 0.108033 0.107029 0.8 0 0
0.067347 0.025376 0.204661 0.8 0 0
0.048066 0.102943 0.248161 0.8 0 0
0.113013 0.096579 0.362162 0.8 0 0
0.103573 0.035869 0.883156 0.8 0 0
0.049651 0.032980 0.218475 0.8 0 0
0.052617 0.028150 0.758305 0.8 0 0
0.079459 0.025539 0.891794 0.8 0 0
0.104980 0.141144 0.144323 0.8 0 0
0.067473 0.152638 0.128724 0.8 0 0
0.104980 0.116407 0.148443 0.8 0 0
0.060176 0.102943 0.534800 0.8 0 0
0.107917 0.129538 0.183930 0.8 0 0
0.045600 0.030796 0.782237 0.8 0 0
0.066594 0.167696 0.126433 0.8 0 0
0.068719 0.025250 0.485566 0.8 0 0
0.030109 0.068479 0.523829 0.8 0 0
0.034900 0.084527 0.309567 0.8 0 0
0.034934 0.080436 0.843835 0.8 0 0
0.070541 0.025797 0.910428 0.8 0 0
0.080983 0.025389 0.468201 0.8 0 0
0.052322 0.132407 0.137066 0.8 0 0
0.087655 0.027145 0.330319 0.8 0 0
0.095069 0.133115 0.122789 0.8 0 0
0.117569 0.063938 0.575308 0.8 0 0
0.097507 0.029589 0.703534 0.8 0 0
0.104705 0.102943 0.217156 0.8 0 0
0.079266 0.025074 0.708716 0.8 0 0
0.072370 0.025113 0.619800 0.8 0 0
