0.733298 0.076356 0.047642 0.8 0 0
0.040701 0.053423 0.100493 0.8 0 0
0.194760 0.074227 0.068008 0.8 0 0
0.704368 0.056765 0.171148 0.8 0 0
0.825358 0.053672 0.092584 0.8 0 0
0.283706 0.042545 0.147151 0.8 0 0
0.381356 0.067809 0.160764 0.8 0 0
0.764871 0.082387 0.089799 0.8 0 0
0.282219 0.056356 0.055521 0.8 0 0
0.180813 0.078505 0.086138 0.8 0 0
0.319185 0.071485 0.056191 0.8 0 0
0.873338 0.054240 0.090924 0.8 0 0
0.349304 0.058079 0.043388 0.8 0 0
0.755491 0.055923 0.156691 0.8 0 0
0.752079 0.025000 0.081532 0.8 0 0
0.054320 0.025000 0.096946 0.8 0 0
0.162158 0.053801 0.069840 0.8 0 0
0.630597 0.065644 0.044846 0.8 0 0
0.553912 0.025000 0.105535 0.8 0 0
0.571409 0.066258 0.086370 0.8 0 0
0.394680 0.081005 0.096156 0.8 0 0
0.545806 0.066552 0.112485 0.8 0 0
0.057810 0.039810 0.094940 0.8 0 0
0.074394 0.025000 0.102258 0.8 0 0
0.719042 0.065025 0.153116 0.8 0 0
0.568536 0.068465 0.108739 0.8 0 0
0.725720 0.076356 0.081612 0.8 0 0
0.618725 0.083301 0.100137 0.8 0 0
0.562566 0.025000 0.108251 0.8 0 0
0.322477 0.063385 0.049204 0.8 0 0
0.900110 0.054569 0.100617 0.8 0 0
0.738391 0.048616 0.037135 0.8 0 0
0.548115 0.066525 0.113989 0.8 0 0
0.318215 0.071505 0.090703 0.8 0 0
0.446776 0.068559 0.130605 0.8 0 0
0.738505 0.062182 0.129115 0.8 0 0
0.044838 0.025824 0.096711 0.8 0 0
0.222582 0.100847 0.110352 0.8 0 0
0.129881 0.028563 0.078623 0.8 0 0
0.386961 0.025000 0.083146 0.8 0 0
0.307227 0.069631 0.164448 0.8 0 0
0.184628 0.068771 0.138185 0.8 0 0
0.306845 0.071743 0.118731 0.8 0 0
0.550911 0.066492 0.045764 0.8 0 0
0.417540 0.069191 0.033376 0.8 0 0
0.665720 0.025000 0.081309 0.8 0 0
0.318753 0.049651 0.146172 0.8 0 0
0.759342 0.082387 0.092209 0.8 0 0
0.711030 0.065390 0.171189 0.8 0 0
0.721848 0.047872 0.172307 0.8 0 0
0.395924 0.057115 0.161763 0.8 0 0
0.663668 0.054642 0.163627 0.8 0 0
0.288778 0.042545 0.053577 0.8 0 0
0.256872 0.033635 0.145676 0.8 0 0
0.670565 0.025000 0.068584 0.8 0 0
0.480714 0.067664 0.144705 0.8 0 0
0.735407 0.025000 0.154101 0.8 0 0
0.542787 0.025000 0.132720 0.8 0 0
0.256180 0.072807 0.081286 0.8 0 0
0.617446 0.025000 0.086216 0.8 0 0
0.885731 0.039058 0.137035 0.8 0 0
0.727898 0.066146 0.157344 0.8 0 0
0.605899 0.025000 0.061373 0.8 0 0
0.576638 0.025000 0.122889 0.8 0 0
0.390558 0.117452 0.108619 0.8 0 0
0.589582 0.025000 0.115113 0.8 0 0
0.859189 0.025000 0.089198 0.8 0 0
0.072977 0.077007 0.103188 0.8 0 0
0.805929 0.070142 0.097575 0.8 0 0
0.296604 0.031220 0.050648 0.8 0 0
0.246639 0.079182 0.082387 0.8 0 0
0.216908 0.113823 0.091149 0.8 0 0
0.238957 0.044693 0.057807 0.8 0 0
0.768571 0.076356 0.124621 0.8 0 0
0.728531 0.025000 0.063011 0.8 0 0
0.961549 0.055972 0.110436 0.8 0 0
0.479930 0.155404 0.100110 0.8 0 0
0.238045 0.025000 0.067251 0.8 0 0
0.294799 0.076356 0.104369 0.8 0 0
0.552244 0.025000 0.104337 0.8 0 0
0.689642 0.063657 0.038335 0.8 0 0
0.371597 0.031182 0.158607 0.8 0 0
0.797916 0.040659 0.045387 0.8 0 0
0.894592 0.025000 0.078596 0.8 0 0
0.503235 0.067071 0.065326 0.8 0 0
0.744613 0.025000 0.092714 0.8 0 0
0.768844 0.088102 0.091513 0.8 0 0
0.810410 0.069550 0.115622 0.8 0 0
0.253789 0.031248 0.144953 0.8 0 0
0.412371 0.069466 0.111709 0.8 0 0
0.218656 0.045733 0.140498 0.8 0 0
0.360315 0.070641 0.123418 0.8 0 0
0.399621 0.025000 0.115735 0.8 0 0
0.175329 0.025000 0.118292 0.8 0 0
0.359234 0.076531 0.092988 0.8 0 0
0.518375 0.025000 0.102430 0.8 0 0
0.353694 0.087322 0.107531 0.8 0 0
0.363061 0.087322 0.099757 0.8 0 0
0.559455 0.143465 0.093522 0.8 0 0
0.261495 0.103992 0.139600 0.8 0 0
0.707143 0.065025 0.095988 0.8 0 0
0.559200 0.139604 0.108273 0.8 0 0
0.112411 0.031010 0.120285 0.8 0 0
0.912810 0.050002 0.129637 0.8 0 0
0.293217 0.041574 0.162364 0.8 0 0
0.709079 0.036472 0.039470 0.8 0 0
0.463085 0.036363 0.162779 0.8 0 0
0.464351 0.044051 0.163454 0.8 0 0
0.599416 0.065967 0.040032 0.8 0 0
0.539725 0.066623 0.081279 0.8 0 0
0.506783 0.040116 0.164454 0.8 0 0
0.712490 0.025000 0.093590 0.8 0 0
0.158183 0.025000 0.108597 0.8 0 0
0.478034 0.094509 0.093997 0.8 0 0
0.679530 0.025000 0.149780 0.8 0 0
0.812990 0.047856 0.116778 0.8 0 0
0.712734 0.042391 0.029386 0.8 0 0
0.752033 0.025000 0.085557 0.8 0 0
0.303692 0.055231 0.164448 0.8 0 0
0.197970 0.074147 0.101380 0.8 0 0
0.855498 0.054023 0.096094 0.8 0 0
0.742287 0.076356 0.138753 0.8 0 0
0.699855 0.025000 0.131933 0.8 0 0
0.157723 0.077087 0.104761 0.8 0 0
0.714053 0.025000 0.050971 0.8 0 0
0.249177 0.100847 0.124074 0.8 0 0
0.698378 0.065025 0.052166 0.8 0 0
0.144786 0.072218 0.070048 0.8 0 0
0.738505 0.055401 0.115614 0.8 0 0
0.116551 0.053798 0.124216 0.8 0 0
0.503550 0.025000 0.106547 0.8 0 0
0.582651 0.042615 0.164467 0.8 0 0
0.594420 0.025000 0.043732 0.8 0 0
0.827607 0.025000 0.081573 0.8 0 0
0.808148 0.025000 0.131728 0.8 0 0
0.773630 0.053032 0.122119 0.8 0 0
0.300787 0.025000 0.102989 0.8 0 0
0.609329 0.065864 0.038067 0.8 0 0
0.556130 0.066431 0.158990 0.8 0 0
0.738505 0.057177 0.054667 0.8 0 0
0.793924 0.025000 0.124731 0.8 0 0
0.181983 0.065763 0.090351 0.8 0 0
0.502700 0.067085 0.150224 0.8 0 0
0.552664 0.145260 0.108685 0.8 0 0
0.252174 0.080890 0.121607 0.8 0 0
0.681898 0.065112 0.162943 0.8 0 0
0.592956 0.058039 0.037333 0.8 0 0
0.643164 0.025000 0.129789 0.8 0 0
0.600007 0.025000 0.110275 0.8 0 0
0.245338 0.100847 0.088318 0.8 0 0
0.313995 0.120336 0.104840 0.8 0 0
0.866433 0.065119 0.101449 0.8 0 0
0.552071 0.066478 0.060224 0.8 0 0
0.244151 0.051129 0.056447 0.8 0 0
0.512099 0.066947 0.091305 0.8 0 0
0.050346 0.041734 0.096908 0.8 0 0
0.815886 0.057532 0.102131 0.8 0 0
0.727085 0.065025 0.109982 0.8 0 0
0.151373 0.025000 0.116804 0.8 0 0
0.787447 0.053230 0.117587 0.8 0 0
0.776703 0.072724 0.082133 0.8 0 0
0.582056 0.053634 0.164474 0.8 0 0
0.185305 0.077087 0.086354 0.8 0 0
0.232504 0.100847 0.105355 0.8 0 0
0.457245 0.025000 0.045712 0.8 0 0
0.382943 0.127951 0.107939 0.8 0 0
0.738505 0.053130 0.149751 0.8 0 0
0.217649 0.084946 0.116479 0.8 0 0
0.537878 0.066645 0.098621 0.8 0 0
0.838194 0.025000 0.118032 0.8 0 0
0.821736 0.040990 0.116403 0.8 0 0
0.564854 0.054311 0.164625 0.8 0 0
0.448659 0.068509 0.126291 0.8 0 0
0.614107 0.065815 0.039837 0.8 0 0
0.238437 0.073180 0.114324 0.8 0 0
0.376181 0.068694 0.160367 0.8 0 0
0.727142 0.030417 0.040579 0.8 0 0
0.489090 0.067443 0.141150 0.8 0 0
0.305755 0.133115 0.092244 0.8 0 0
0.887022 0.054408 0.079211 0.8 0 0
0.789988 0.053260 0.072636 0.8 0 0
0.251990 0.097256 0.119306 0.8 0 0
0.109590 0.056867 0.123089 0.8 0 0
0.434199 0.068890 0.108025 0.8 0 0
0.251389 0.087406 0.082387 0.8 0 0
0.231069 0.100847 0.082509 0.8 0 0
0.607744 0.047769 0.033802 0.8 0 0
0.458878 0.068369 0.110404 0.8 0 0
0.210614 0.073829 0.133398 0.8 0 0
0.174607 0.076433 0.116003 0.8 0 0
0.752641 0.025000 0.063909 0.8 0 0
0.305659 0.155378 0.093408 0.8 0 0
0.441860 0.068688 0.083337 0.8 0 0
0.258571 0.072786 0.112131 0.8 0 0
0.701522 0.065025 0.039328 0.8 0 0
0.680927 0.065122 0.143679 0.8 0 0
0.376087 0.025000 0.158073 0.8 0 0
0.232376 0.101058 0.058583 0.8 0 0
0.797798 0.070142 0.098912 0.8 0 0
0.305690 0.093499 0.109423 0.8 0 0
0.409037 0.025000 0.042224 0.8 0 0
0.786980 0.025000 0.149660 0.8 0 0
0.438214 0.068785 0.085555 0.8 0 0
0.512034 0.025000 0.103114 0.8 0 0
0.386416 0.070107 0.138750 0.8 0 0
0.773983 0.054780 0.128720 0.8 0 0
0.244480 0.090315 0.082387 0.8 0 0
0.729174 0.025000 0.093272 0.8 0 0
0.675528 0.065178 0.040249 0.8 0 0
0.875976 0.029203 0.064671 0.8 0 0
0.931400 0.025000 0.093859 0.8 0 0
0.664233 0.025000 0.064812 0.8 0 0
0.308758 0.155715 0.101715 0.8 0 0
0.324106 0.025000 0.050231 0.8 0 0
0.157052 0.085661 0.099268 0.8 0 0
0.124163 0.025000 0.114500 0.8 0 0
0.723961 0.025000 0.043623 0.8 0 0
0.751100 0.072406 0.079463 0.8 0 0
0.070701 0.077053 0.097089 0.8 0 0
0.586107 0.025000 0.150559 0.8 0 0
0.205461 0.025000 0.131905 0.8 0 0
0.329535 0.035992 0.155833 0.8 0 0
0.570298 0.066269 0.089488 0.8 0 0
0.173952 0.074750 0.101117 0.8 0 0
0.651455 0.065427 0.046497 0.8 0 0
0.501712 0.025000 0.162478 0.8 0 0
0.210504 0.077511 0.088243 0.8 0 0
0.329382 0.071274 0.111692 0.8 0 0
0.528140 0.025000 0.090386 0.8 0 0
0.791189 0.053274 0.063366 0.8 0 0
0.768844 0.068245 0.096193 0.8 0 0
0.148682 0.070475 0.132093 0.8 0 0
0.319060 0.025000 0.056914 0.8 0 0
0.253755 0.072858 0.075327 0.8 0 0
0.601348 0.025000 0.099715 0.8 0 0
0.551306 0.025000 0.148750 0.8 0 0
0.239179 0.073164 0.092349 0.8 0 0
0.815206 0.053554 0.110536 0.8 0 0
0.258571 0.095774 0.104653 0.8 0 0
0.246843 0.245526 0.099567 0.8 0 0
0.875618 0.054268 0.070467 0.8 0 0
0.783326 0.053182 0.105643 0.8 0 0
0.369503 0.043942 0.159855 0.8 0 0
0.225738 0.073449 0.099552 0.8 0 0
0.616106 0.065794 0.097048 0.8 0 0
0.213028 0.073768 0.100956 0.8 0 0
0.742479 0.076356 0.131884 0.8 0 0
0.396049 0.117658 0.102115 0.8 0 0
0.252174 0.083912 0.113416 0.8 0 0
0.060395 0.077265 0.096045 0.8 0 0
0.446092 0.029347 0.039653 0.8 0 0
0.693514 0.059155 0.038402 0.8 0 0
0.095617 0.025000 0.111862 0.8 0 0
0.324410 0.039361 0.155931 0.8 0 0
0.391195 0.083209 0.093329 0.8 0 0
0.233921 0.073274 0.082451 0.8 0 0
0.485927 0.066687 0.093885 0.8 0 0
0.560247 0.042003 0.164611 0.8 0 0
0.490688 0.067401 0.073800 0.8 0 0
0.113368 0.068453 0.076297 0.8 0 0
0.169149 0.077087 0.098335 0.8 0 0
0.415073 0.025000 0.141211 0.8 0 0
0.404740 0.044858 0.039712 0.8 0 0
0.589334 0.028183 0.164398 0.8 0 0
0.852119 0.053984 0.105917 0.8 0 0
0.445144 0.025000 0.082317 0.8 0 0
0.723884 0.053625 0.151140 0.8 0 0
0.353759 0.056586 0.043046 0.8 0 0
0.256231 0.074496 0.082387 0.8 0 0
0.557861 0.068651 0.108808 0.8 0 0
0.875345 0.025000 0.114733 0.8 0 0
0.724148 0.076356 0.125596 0.8 0 0
0.583171 0.025000 0.088378 0.8 0 0
0.065560 0.035536 0.093229 0.8 0 0
0.425985 0.069107 0.134519 0.8 0 0
0.738496 0.056623 0.160268 0.8 0 0
0.717976 0.257977 0.102126 0.8 0 0
0.820604 0.053617 0.107133 0.8 0 0
0.360581 0.070636 0.099415 0.8 0 0
0.356660 0.070716 0.122109 0.8 0 0
0.210900 0.073822 0.128969 0.8 0 0
0.152751 0.069677 0.104438 0.8 0 0
0.281898 0.065208 0.159112 0.8 0 0
0.901583 0.052861 0.132909 0.8 0 0
0.445920 0.068581 0.157597 0.8 0 0
0.462249 0.027839 0.162705 0.8 0 0
0.485406 0.025000 0.088400 0.8 0 0
0.474922 0.096121 0.108940 0.8 0 0
0.805651 0.039681 0.089109 0.8 0 0
0.666556 0.065271 0.136411 0.8 0 0
0.714407 0.065025 0.106811 0.8 0 0
0.101010 0.076450 0.094107 0.8 0 0
0.716337 0.258815 0.102126 0.8 0 0
0.059561 0.076501 0.107754 0.8 0 0
0.421947 0.082753 0.106053 0.8 0 0
0.221639 0.073552 0.142374 0.8 0 0
0.802837 0.050473 0.045598 0.8 0 0
0.259959 0.072728 0.106605 0.8 0 0
0.558385 0.061723 0.164606 0.8 0 0
0.745483 0.052545 0.129545 0.8 0 0
0.716998 0.025000 0.053105 0.8 0 0
0.819039 0.043408 0.084819 0.8 0 0
0.164479 0.074988 0.093918 0.8 0 0
0.509630 0.025000 0.158065 0.8 0 0
0.394933 0.062863 0.096787 0.8 0 0
0.667075 0.025000 0.088759 0.8 0 0
0.220884 0.051135 0.060405 0.8 0 0
0.179695 0.057370 0.135226 0.8 0 0
0.656643 0.065374 0.155100 0.8 0 0
0.258571 0.118078 0.105298 0.8 0 0
0.762181 0.044498 0.041266 0.8 0 0
0.396889 0.069874 0.084038 0.8 0 0
0.718634 0.188191 0.102492 0.8 0 0
0.462262 0.068151 0.157745 0.8 0 0
0.802885 0.034612 0.047652 0.8 0 0
0.418036 0.025000 0.103147 0.8 0 0
0.273297 0.045772 0.146172 0.8 0 0
0.476597 0.073432 0.109933 0.8 0 0
0.199510 0.033924 0.135790 0.8 0 0
0.723884 0.060966 0.124494 0.8 0 0
0.174965 0.077087 0.098505 0.8 0 0
0.549717 0.127115 0.094222 0.8 0 0
0.467332 0.105130 0.094066 0.8 0 0
0.314167 0.071698 0.161058 0.8 0 0
0.266214 0.072334 0.146172 0.8 0 0
0.301244 0.050075 0.164448 0.8 0 0
0.790978 0.053271 0.152260 0.8 0 0
0.821166 0.057532 0.106990 0.8 0 0
0.507450 0.044036 0.164456 0.8 0 0
0.531124 0.025000 0.096287 0.8 0 0
0.241266 0.084946 0.080353 0.8 0 0
0.588682 0.066078 0.102931 0.8 0 0
0.750397 0.076356 0.060304 0.8 0 0
0.653925 0.025000 0.044589 0.8 0 0
0.621362 0.065740 0.043316 0.8 0 0
0.802079 0.036260 0.047086 0.8 0 0
0.690487 0.025000 0.139537 0.8 0 0
0.278945 0.052950 0.146172 0.8 0 0
0.334732 0.071165 0.051319 0.8 0 0
0.299413 0.071900 0.073440 0.8 0 0
0.195024 0.025000 0.068132 0.8 0 0
0.482786 0.067610 0.091053 0.8 0 0
0.648631 0.025000 0.135851 0.8 0 0
0.538211 0.066641 0.043391 0.8 0 0
0.642754 0.065518 0.086816 0.8 0 0
0.553933 0.061030 0.164593 0.8 0 0
0.205314 0.051980 0.138808 0.8 0 0
0.709913 0.025000 0.079584 0.8 0 0
0.619141 0.025000 0.055560 0.8 0 0
0.563327 0.154794 0.103620 0.8 0 0
0.764399 0.052872 0.054056 0.8 0 0
0.958185 0.055915 0.098318 0.8 0 0
0.811572 0.070142 0.099268 0.8 0 0
0.457343 0.068280 0.050625 0.8 0 0
0.770933 0.052985 0.077327 0.8 0 0
0.305016 0.071782 0.108605 0.8 0 0
0.485927 0.065170 0.109410 0.8 0 0
0.421846 0.069173 0.163155 0.8 0 0
0.460200 0.066695 0.163351 0.8 0 0
0.753410 0.025000 0.139299 0.8 0 0
0.788603 0.033611 0.156390 0.8 0 0
0.409463 0.069542 0.151555 0.8 0 0
0.273886 0.072435 0.069506 0.8 0 0
0.147004 0.072115 0.069672 0.8 0 0
0.811593 0.052639 0.047271 0.8 0 0
0.335802 0.025000 0.073199 0.8 0 0
0.733556 0.065025 0.049353 0.8 0 0
0.229973 0.025000 0.107335 0.8 0 0
0.841790 0.053864 0.058688 0.8 0 0
0.243677 0.073070 0.087967 0.8 0 0
0.728525 0.025000 0.135429 0.8 0 0
0.919459 0.054833 0.114389 0.8 0 0
0.424862 0.074242 0.092988 0.8 0 0
0.888891 0.054431 0.099835 0.8 0 0
0.041696 0.039492 0.102322 0.8 0 0
0.223444 0.073507 0.111885 0.8 0 0
0.363065 0.025000 0.095421 0.8 0 0
0.767337 0.082387 0.120634 0.8 0 0
0.247301 0.100847 0.097199 0.8 0 0
0.404916 0.065486 0.039708 0.8 0 0
0.897210 0.025000 0.094081 0.8 0 0
0.548831 0.067225 0.087322 0.8 0 0
0.252174 0.084450 0.125096 0.8 0 0
0.401036 0.025000 0.076054 0.8 0 0
0.308880 0.046015 0.055521 0.8 0 0
0.034594 0.034655 0.100190 0.8 0 0
0.160051 0.062128 0.086274 0.8 0 0
0.464014 0.148692 0.100344 0.8 0 0
0.482425 0.073432 0.093677 0.8 0 0
0.585189 0.044233 0.164441 0.8 0 0
0.258571 0.111987 0.106037 0.8 0 0
0.524228 0.066805 0.162468 0.8 0 0
0.242454 0.095452 0.119306 0.8 0 0
0.887348 0.025000 0.112987 0.8 0 0
0.416471 0.025000 0.090432 0.8 0 0
0.185449 0.077087 0.106273 0.8 0 0
0.526206 0.025000 0.116933 0.8 0 0
0.478266 0.044102 0.163798 0.8 0 0
0.448395 0.068516 0.074554 0.8 0 0
0.390049 0.070033 0.148076 0.8 0 0
0.823195 0.053647 0.085505 0.8 0 0
0.228837 0.084946 0.118279 0.8 0 0
0.177627 0.045071 0.068248 0.8 0 0
0.635849 0.065589 0.083223 0.8 0 0
0.781389 0.048717 0.041817 0.8 0 0
0.726656 0.041661 0.030865 0.8 0 0
0.337946 0.059458 0.157434 0.8 0 0
0.532446 0.031403 0.037163 0.8 0 0
0.551428 0.025000 0.105103 0.8 0 0
0.228366 0.066345 0.144817 0.8 0 0
0.597940 0.065982 0.085904 0.8 0 0
0.552325 0.083409 0.108545 0.8 0 0
0.249017 0.084662 0.102491 0.8 0 0
0.206994 0.073920 0.085434 0.8 0 0
0.276692 0.072376 0.134364 0.8 0 0
0.314358 0.149084 0.097759 0.8 0 0
0.551932 0.094456 0.093310 0.8 0 0
0.341959 0.025000 0.084631 0.8 0 0
0.202933 0.025000 0.113860 0.8 0 0
0.476875 0.025000 0.119124 0.8 0 0
0.815186 0.025000 0.106760 0.8 0 0
0.178964 0.028048 0.070166 0.8 0 0
0.383566 0.142189 0.108188 0.8 0 0
0.166261 0.077087 0.109139 0.8 0 0
0.708337 0.065025 0.158902 0.8 0 0
0.736040 0.025000 0.093908 0.8 0 0
0.546773 0.062968 0.087322 0.8 0 0
0.122818 0.038654 0.078357 0.8 0 0
0.876001 0.054273 0.129849 0.8 0 0
0.716208 0.065025 0.122888 0.8 0 0
0.316873 0.076356 0.089937 0.8 0 0
0.764884 0.058913 0.059211 0.8 0 0
0.686043 0.025000 0.040275 0.8 0 0
0.395007 0.025000 0.089011 0.8 0 0
0.812128 0.053518 0.097341 0.8 0 0
0.955830 0.048623 0.088224 0.8 0 0
0.245748 0.100847 0.096072 0.8 0 0
0.678280 0.065149 0.155451 0.8 0 0
0.608256 0.065875 0.143973 0.8 0 0
0.348940 0.070874 0.080226 0.8 0 0
0.179247 0.074617 0.105944 0.8 0 0
0.252897 0.025000 0.115798 0.8 0 0
0.173420 0.025000 0.130033 0.8 0 0
0.776703 0.059470 0.082836 0.8 0 0
0.147813 0.058992 0.071584 0.8 0 0
0.258614 0.071095 0.146172 0.8 0 0
0.314787 0.025000 0.106751 0.8 0 0
0.658073 0.065359 0.118003 0.8 0 0
0.547432 0.085636 0.098488 0.8 0 0
0.368123 0.025000 0.048486 0.8 0 0
0.582118 0.066304 0.033366 0.8 0 0
0.312091 0.149397 0.094073 0.8 0 0
0.160344 0.077087 0.095008 0.8 0 0
0.547015 0.068163 0.102230 0.8 0 0
0.512312 0.025000 0.075296 0.8 0 0
0.828347 0.045104 0.112903 0.8 0 0
0.905378 0.051679 0.069890 0.8 0 0
0.377548 0.070289 0.123579 0.8 0 0
0.422781 0.058877 0.163554 0.8 0 0
0.522128 0.059252 0.164500 0.8 0 0
0.371649 0.070409 0.064602 0.8 0 0
0.478215 0.067730 0.129936 0.8 0 0
0.829165 0.053716 0.137437 0.8 0 0
0.808569 0.051786 0.114252 0.8 0 0
0.722509 0.058808 0.029386 0.8 0 0
0.463599 0.030254 0.162761 0.8 0 0
0.435888 0.026768 0.040074 0.8 0 0
0.438901 0.025000 0.107898 0.8 0 0
0.301678 0.025000 0.054108 0.8 0 0
0.495936 0.025000 0.082069 0.8 0 0
0.815180 0.057532 0.100505 0.8 0 0
0.501207 0.025000 0.069430 0.8 0 0
0.395428 0.078069 0.103667 0.8 0 0
0.265247 0.072617 0.141118 0.8 0 0
0.265073 0.071695 0.146172 0.8 0 0
0.845611 0.025000 0.071715 0.8 0 0
0.865239 0.025000 0.089149 0.8 0 0
0.819491 0.051915 0.116795 0.8 0 0
0.217026 0.025010 0.063864 0.8 0 0
0.721691 0.139372 0.101514 0.8 0 0
0.380214 0.123079 0.096926 0.8 0 0
0.296425 0.025000 0.117873 0.8 0 0
0.727150 0.076356 0.073674 0.8 0 0
0.562189 0.025000 0.146078 0.8 0 0
0.096778 0.025000 0.106854 0.8 0 0
0.779296 0.025000 0.137906 0.8 0 0
0.791133 0.025000 0.089292 0.8 0 0
0.738505 0.059602 0.130848 0.8 0 0
0.258571 0.109234 0.099087 0.8 0 0
0.252174 0.074477 0.112187 0.8 0 0
0.738505 0.044478 0.070596 0.8 0 0
0.960751 0.043349 0.091100 0.8 0 0
0.425794 0.065797 0.039319 0.8 0 0
0.894641 0.047110 0.134932 0.8 0 0
0.269682 0.025000 0.127958 0.8 0 0
0.561830 0.025000 0.079906 0.8 0 0
0.485843 0.067529 0.133078 0.8 0 0
0.854822 0.040611 0.146099 0.8 0 0
0.618083 0.065774 0.103269 0.8 0 0
0.656052 0.065380 0.071705 0.8 0 0
0.776083 0.053075 0.072406 0.8 0 0
0.258571 0.090474 0.086856 0.8 0 0
0.571281 0.066259 0.139521 0.8 0 0
0.152751 0.069843 0.095756 0.8 0 0
0.626640 0.025000 0.084805 0.8 0 0
0.959896 0.025000 0.101288 0.8 0 0
0.441562 0.025000 0.128387 0.8 0 0
0.324362 0.034502 0.155219 0.8 0 0
0.768844 0.086495 0.084183 0.8 0 0
0.809202 0.053484 0.056050 0.8 0 0
0.206473 0.025000 0.118273 0.8 0 0
0.559736 0.066388 0.149772 0.8 0 0
0.152751 0.076994 0.106217 0.8 0 0
0.926257 0.025000 0.090096 0.8 0 0
0.186801 0.078841 0.086192 0.8 0 0
0.611426 0.025000 0.079425 0.8 0 0
0.083260 0.074360 0.117285 0.8 0 0
0.710522 0.025000 0.104265 0.8 0 0
0.947944 0.050134 0.084795 0.8 0 0
0.940260 0.055522 0.087776 0.8 0 0
0.541487 0.072069 0.105452 0.8 0 0
0.707281 0.065025 0.040530 0.8 0 0
0.723122 0.038187 0.040275 0.8 0 0
0.174695 0.077087 0.099536 0.8 0 0
0.257352 0.072783 0.066186 0.8 0 0
0.140178 0.075599 0.075131 0.8 0 0
0.866553 0.054157 0.135796 0.8 0 0
0.673668 0.065197 0.137461 0.8 0 0
0.184659 0.089515 0.095284 0.8 0 0
0.508242 0.025000 0.091725 0.8 0 0
0.738505 0.051314 0.072978 0.8 0 0
0.437097 0.025000 0.042540 0.8 0 0
0.352902 0.070793 0.094201 0.8 0 0
0.413399 0.039080 0.164108 0.8 0 0
0.051431 0.077449 0.101693 0.8 0 0
0.869321 0.032135 0.061947 0.8 0 0
0.835140 0.025000 0.130838 0.8 0 0
0.303172 0.153459 0.092797 0.8 0 0
0.281649 0.064634 0.146172 0.8 0 0
0.609879 0.063317 0.168864 0.8 0 0
0.455443 0.068330 0.104376 0.8 0 0
0.315752 0.050481 0.146172 0.8 0 0
0.385308 0.025000 0.122117 0.8 0 0
0.562493 0.090739 0.105566 0.8 0 0
0.413404 0.059930 0.162195 0.8 0 0
0.645246 0.065492 0.082451 0.8 0 0
0.222829 0.119176 0.082387 0.8 0 0
0.272046 0.025000 0.128792 0.8 0 0
0.833542 0.049392 0.105191 0.8 0 0
0.120701 0.076088 0.095822 0.8 0 0
0.556926 0.080641 0.109182 0.8 0 0
0.752657 0.052669 0.051092 0.8 0 0
0.722399 0.025000 0.149477 0.8 0 0
0.873363 0.054241 0.120008 0.8 0 0
0.523496 0.025000 0.158878 0.8 0 0
0.757298 0.062048 0.079463 0.8 0 0
0.241287 0.097143 0.119306 0.8 0 0
0.463654 0.068114 0.139265 0.8 0 0
0.302949 0.147794 0.093367 0.8 0 0
0.705939 0.025000 0.041928 0.8 0 0
0.305053 0.025000 0.069855 0.8 0 0
0.835927 0.053795 0.131788 0.8 0 0
0.252357 0.099562 0.101759 0.8 0 0
0.350660 0.070839 0.091007 0.8 0 0
0.723884 0.053395 0.064879 0.8 0 0
0.824027 0.057532 0.098819 0.8 0 0
0.245996 0.100847 0.113140 0.8 0 0
0.943519 0.055630 0.107201 0.8 0 0
0.896648 0.054526 0.082978 0.8 0 0
0.257116 0.100847 0.068214 0.8 0 0
0.338596 0.071086 0.056676 0.8 0 0
0.799652 0.053373 0.050912 0.8 0 0
0.303639 0.063094 0.146172 0.8 0 0
0.553623 0.066460 0.161859 0.8 0 0
0.229282 0.111526 0.082387 0.8 0 0
0.168863 0.088789 0.110365 0.8 0 0
0.446661 0.025000 0.086517 0.8 0 0
0.701078 0.058080 0.163212 0.8 0 0
0.371599 0.070410 0.062421 0.8 0 0
0.422396 0.025000 0.153043 0.8 0 0
0.576036 0.025000 0.100007 0.8 0 0
0.832938 0.025000 0.079305 0.8 0 0
0.079206 0.076622 0.115615 0.8 0 0
0.854377 0.065251 0.099779 0.8 0 0
0.284829 0.072206 0.098591 0.8 0 0
0.374824 0.025000 0.065555 0.8 0 0
0.524679 0.066800 0.140559 0.8 0 0
0.296160 0.072046 0.042121 0.8 0 0
0.374384 0.037064 0.042231 0.8 0 0
0.535803 0.046544 0.164540 0.8 0 0
0.570106 0.033013 0.037096 0.8 0 0
0.468852 0.134476 0.093458 0.8 0 0
0.674447 0.025000 0.058659 0.8 0 0
0.735384 0.047921 0.166845 0.8 0 0
0.492621 0.059440 0.037540 0.8 0 0
0.720643 0.155703 0.099202 0.8 0 0
0.809463 0.043599 0.154459 0.8 0 0
0.623764 0.065715 0.070851 0.8 0 0
0.620718 0.025000 0.107395 0.8 0 0
0.261495 0.106071 0.106940 0.8 0 0
0.078339 0.064042 0.087197 0.8 0 0
0.747089 0.052573 0.086735 0.8 0 0
0.314778 0.076356 0.104694 0.8 0 0
0.724590 0.076356 0.065577 0.8 0 0
0.247564 0.072988 0.122643 0.8 0 0
0.811200 0.025000 0.074979 0.8 0 0
0.243542 0.082274 0.066132 0.8 0 0
0.233643 0.100847 0.085001 0.8 0 0
0.698945 0.065025 0.100830 0.8 0 0
0.717253 0.204707 0.102126 0.8 0 0
0.239041 0.056487 0.144995 0.8 0 0
0.365852 0.074866 0.105624 0.8 0 0
0.592967 0.025000 0.155069 0.8 0 0
0.566819 0.066305 0.052164 0.8 0 0
0.735435 0.068177 0.079463 0.8 0 0
0.464571 0.068090 0.119815 0.8 0 0
0.337290 0.071112 0.044376 0.8 0 0
0.318736 0.025000 0.054959 0.8 0 0
0.635330 0.065595 0.162157 0.8 0 0
0.306106 0.059714 0.037245 0.8 0 0
0.637302 0.025000 0.062367 0.8 0 0
0.472166 0.115016 0.109561 0.8 0 0
0.308255 0.081431 0.092538 0.8 0 0
0.824613 0.067984 0.095736 0.8 0 0
0.345865 0.025000 0.064466 0.8 0 0
0.711453 0.065391 0.031026 0.8 0 0
0.569014 0.066282 0.054751 0.8 0 0
0.460200 0.025000 0.145271 0.8 0 0
0.919522 0.025000 0.095995 0.8 0 0
0.536364 0.025000 0.136746 0.8 0 0
0.854542 0.026950 0.060099 0.8 0 0
0.151578 0.055643 0.071375 0.8 0 0
0.435942 0.025000 0.088135 0.8 0 0
0.740966 0.047603 0.035950 0.8 0 0
0.486002 0.025000 0.149317 0.8 0 0
0.258571 0.102926 0.102733 0.8 0 0
0.228454 0.026171 0.139959 0.8 0 0
0.774558 0.041266 0.160427 0.8 0 0
0.508635 0.066988 0.142526 0.8 0 0
0.392476 0.069983 0.049380 0.8 0 0
0.419854 0.069269 0.040134 0.8 0 0
0.560588 0.025000 0.069426 0.8 0 0
0.729704 0.065025 0.155917 0.8 0 0
0.551051 0.066490 0.123873 0.8 0 0
0.582594 0.025000 0.108617 0.8 0 0
0.606566 0.025000 0.107599 0.8 0 0
0.807192 0.053460 0.121635 0.8 0 0
0.814568 0.025000 0.119348 0.8 0 0
0.364720 0.025000 0.065054 0.8 0 0
0.134782 0.025000 0.079589 0.8 0 0
0.494297 0.026286 0.164025 0.8 0 0
0.551344 0.066487 0.124215 0.8 0 0
0.561731 0.152871 0.107893 0.8 0 0
0.539364 0.066627 0.047382 0.8 0 0
0.174122 0.029893 0.070801 0.8 0 0
0.192875 0.089515 0.103943 0.8 0 0
0.675652 0.033165 0.163198 0.8 0 0
0.425162 0.069129 0.082181 0.8 0 0
0.480297 0.026013 0.163448 0.8 0 0
0.476139 0.083522 0.108453 0.8 0 0
0.578841 0.025000 0.042698 0.8 0 0
0.486043 0.025000 0.126755 0.8 0 0
0.219691 0.073601 0.081025 0.8 0 0
0.440364 0.068728 0.103192 0.8 0 0
0.756749 0.076356 0.053004 0.8 0 0
0.527535 0.025000 0.044867 0.8 0 0
0.282330 0.072258 0.056346 0.8 0 0
0.768106 0.063427 0.137610 0.8 0 0
0.656281 0.059232 0.037989 0.8 0 0
0.357705 0.070695 0.074524 0.8 0 0
0.355273 0.027762 0.156831 0.8 0 0
0.269888 0.072519 0.110398 0.8 0 0
0.491507 0.067380 0.163977 0.8 0 0
0.177236 0.074668 0.113733 0.8 0 0
0.797352 0.057532 0.115393 0.8 0 0
0.305302 0.119834 0.109268 0.8 0 0
0.706994 0.065025 0.066449 0.8 0 0
0.250366 0.100847 0.092726 0.8 0 0
0.879822 0.054320 0.116384 0.8 0 0
0.404537 0.038650 0.038601 0.8 0 0
0.076229 0.057607 0.088202 0.8 0 0
0.480912 0.086793 0.102875 0.8 0 0
0.305941 0.144382 0.109524 0.8 0 0
0.614126 0.032726 0.164141 0.8 0 0
0.844063 0.035020 0.055312 0.8 0 0
0.351446 0.070823 0.130840 0.8 0 0
0.757059 0.076356 0.141808 0.8 0 0
0.064857 0.075823 0.091805 0.8 0 0
0.534291 0.066687 0.068280 0.8 0 0
0.546693 0.100470 0.100213 0.8 0 0
0.303186 0.025000 0.118352 0.8 0 0
0.162461 0.075039 0.083081 0.8 0 0
0.691256 0.025000 0.161122 0.8 0 0
0.358505 0.070678 0.152349 0.8 0 0
0.505474 0.052823 0.164451 0.8 0 0
0.697532 0.031981 0.039144 0.8 0 0
0.231422 0.073327 0.080085 0.8 0 0
0.957571 0.055904 0.095153 0.8 0 0
0.358302 0.070683 0.116224 0.8 0 0
0.738505 0.047218 0.044837 0.8 0 0
0.699047 0.025000 0.049100 0.8 0 0
0.456249 0.025000 0.158314 0.8 0 0
0.502216 0.030839 0.164351 0.8 0 0
0.618538 0.065769 0.047059 0.8 0 0
0.554705 0.063913 0.109525 0.8 0 0
0.589951 0.025000 0.151154 0.8 0 0
0.606344 0.025000 0.042988 0.8 0 0
0.527452 0.025000 0.132923 0.8 0 0
0.562416 0.073980 0.103042 0.8 0 0
0.549161 0.025000 0.042335 0.8 0 0
0.408759 0.056490 0.162080 0.8 0 0
0.393009 0.085300 0.107639 0.8 0 0
0.216170 0.093116 0.084284 0.8 0 0
0.818003 0.057795 0.115020 0.8 0 0
0.175363 0.025000 0.119487 0.8 0 0
0.777232 0.025000 0.154666 0.8 0 0
0.520021 0.028779 0.164493 0.8 0 0
0.430183 0.025000 0.081757 0.8 0 0
0.231023 0.100847 0.093243 0.8 0 0
0.794804 0.070142 0.093572 0.8 0 0
0.825088 0.053669 0.098652 0.8 0 0
0.708505 0.034432 0.039589 0.8 0 0
0.086430 0.025000 0.113373 0.8 0 0
0.658156 0.065358 0.150319 0.8 0 0
0.453473 0.068382 0.086831 0.8 0 0
0.483514 0.067590 0.100748 0.8 0 0
0.476634 0.067772 0.094745 0.8 0 0
0.108255 0.025000 0.097656 0.8 0 0
0.246691 0.218925 0.100799 0.8 0 0
0.736150 0.065025 0.136827 0.8 0 0
0.228778 0.089788 0.082387 0.8 0 0
0.288181 0.057820 0.038938 0.8 0 0
0.728228 0.050764 0.038957 0.8 0 0
0.625225 0.065700 0.040353 0.8 0 0
0.228219 0.073394 0.087370 0.8 0 0
0.436325 0.025000 0.059594 0.8 0 0
0.705805 0.025000 0.134257 0.8 0 0
0.719874 0.213938 0.102492 0.8 0 0
0.322498 0.052592 0.151912 0.8 0 0
0.213977 0.103790 0.121931 0.8 0 0
0.516677 0.066893 0.163191 0.8 0 0
0.159251 0.075119 0.105909 0.8 0 0
0.357412 0.070701 0.114222 0.8 0 0
0.097411 0.025000 0.103514 0.8 0 0
0.474093 0.155387 0.108016 0.8 0 0
0.310985 0.155541 0.098555 0.8 0 0
0.314422 0.076356 0.090520 0.8 0 0
0.211780 0.063373 0.141399 0.8 0 0
0.393364 0.025000 0.090992 0.8 0 0
0.298446 0.025000 0.059886 0.8 0 0
0.741737 0.052480 0.103787 0.8 0 0
0.482654 0.025000 0.114861 0.8 0 0
0.725697 0.025000 0.105962 0.8 0 0
0.312425 0.071626 0.094045 0.8 0 0
0.912350 0.025000 0.077235 0.8 0 0
0.121624 0.076065 0.076883 0.8 0 0
0.589232 0.066073 0.077807 0.8 0 0
0.733581 0.025000 0.151601 0.8 0 0
0.824036 0.057532 0.109254 0.8 0 0
0.320786 0.025000 0.108628 0.8 0 0
0.390239 0.078374 0.092946 0.8 0 0
0.426358 0.025000 0.156597 0.8 0 0
0.715479 0.065025 0.134138 0.8 0 0
0.496596 0.050981 0.164251 0.8 0 0
0.731240 0.065025 0.118610 0.8 0 0
0.872137 0.054226 0.072445 0.8 0 0
0.590482 0.066060 0.089917 0.8 0 0
0.469430 0.073432 0.107151 0.8 0 0
0.381705 0.030762 0.159442 0.8 0 0
0.248884 0.071966 0.100915 0.8 0 0
0.293113 0.063844 0.097528 0.8 0 0
0.212876 0.073239 0.119988 0.8 0 0
0.605568 0.025000 0.112867 0.8 0 0
0.172940 0.074775 0.076716 0.8 0 0
0.625315 0.065699 0.081000 0.8 0 0
0.426916 0.025000 0.057369 0.8 0 0
0.454011 0.068368 0.118202 0.8 0 0
0.403738 0.069693 0.094185 0.8 0 0
0.339867 0.032968 0.156185 0.8 0 0
0.261495 0.105926 0.130228 0.8 0 0
0.466092 0.121157 0.095148 0.8 0 0
0.771086 0.052988 0.070941 0.8 0 0
0.113483 0.083235 0.101774 0.8 0 0
0.466288 0.075896 0.107032 0.8 0 0
0.190310 0.036804 0.134587 0.8 0 0
0.518482 0.066872 0.140913 0.8 0 0
0.852394 0.029572 0.142901 0.8 0 0
0.396298 0.070487 0.114371 0.8 0 0
0.307471 0.048703 0.055521 0.8 0 0
0.762678 0.025000 0.072764 0.8 0 0
0.628252 0.065668 0.133982 0.8 0 0
0.154974 0.064250 0.092341 0.8 0 0
0.227759 0.093813 0.119306 0.8 0 0
0.748281 0.076356 0.081151 0.8 0 0
0.525709 0.025000 0.075041 0.8 0 0
0.850181 0.065227 0.101946 0.8 0 0
0.097061 0.050133 0.119590 0.8 0 0
0.301860 0.153260 0.093270 0.8 0 0
0.542945 0.025000 0.107498 0.8 0 0
0.587715 0.066262 0.033566 0.8 0 0
0.770231 0.025000 0.131369 0.8 0 0
0.230187 0.055348 0.058317 0.8 0 0
0.254029 0.036449 0.056109 0.8 0 0
0.886117 0.054397 0.120570 0.8 0 0
0.244464 0.113823 0.086446 0.8 0 0
0.545153 0.066559 0.071694 0.8 0 0
0.415818 0.069375 0.044990 0.8 0 0
0.235758 0.043951 0.058407 0.8 0 0
0.669669 0.065239 0.045686 0.8 0 0
0.312816 0.109329 0.094363 0.8 0 0
0.266856 0.025438 0.055594 0.8 0 0
0.336877 0.025000 0.051455 0.8 0 0
0.252174 0.075937 0.131398 0.8 0 0
0.874308 0.054252 0.125808 0.8 0 0
0.060654 0.076405 0.108194 0.8 0 0
0.135984 0.048908 0.126875 0.8 0 0
0.744216 0.052523 0.063711 0.8 0 0
0.677896 0.065153 0.106813 0.8 0 0
0.313713 0.082069 0.096148 0.8 0 0
0.464234 0.142991 0.101898 0.8 0 0
0.490735 0.049544 0.037587 0.8 0 0
0.159523 0.025000 0.095882 0.8 0 0
0.238841 0.033631 0.059064 0.8 0 0
0.759091 0.076356 0.151238 0.8 0 0
0.485082 0.073432 0.109725 0.8 0 0
0.858780 0.027617 0.060722 0.8 0 0
0.213462 0.058958 0.141058 0.8 0 0
0.705159 0.025000 0.114735 0.8 0 0
0.593159 0.066032 0.096839 0.8 0 0
0.629336 0.065657 0.143805 0.8 0 0
0.823265 0.025000 0.117198 0.8 0 0
0.261495 0.102531 0.060273 0.8 0 0
0.543286 0.025000 0.059899 0.8 0 0
0.177758 0.072373 0.064225 0.8 0 0
0.787426 0.025000 0.141193 0.8 0 0
0.801293 0.025000 0.136022 0.8 0 0
0.705010 0.025000 0.069442 0.8 0 0
0.226765 0.100847 0.102384 0.8 0 0
0.390001 0.121290 0.092851 0.8 0 0
0.299898 0.063244 0.106389 0.8 0 0
0.370890 0.070425 0.084154 0.8 0 0
0.882991 0.025000 0.072770 0.8 0 0
0.309658 0.025000 0.116598 0.8 0 0
0.727129 0.054004 0.162919 0.8 0 0
0.411953 0.061471 0.170244 0.8 0 0
0.906129 0.025000 0.074329 0.8 0 0
0.426757 0.069087 0.046532 0.8 0 0
0.069023 0.031685 0.092375 0.8 0 0
0.418232 0.025000 0.151142 0.8 0 0
0.556812 0.025000 0.112067 0.8 0 0
0.083743 0.076403 0.117435 0.8 0 0
0.443912 0.025000 0.087329 0.8 0 0
0.486314 0.025000 0.080987 0.8 0 0
0.600207 0.057560 0.171409 0.8 0 0
0.519188 0.066864 0.057346 0.8 0 0
0.343001 0.070064 0.043871 0.8 0 0
0.826273 0.025000 0.077430 0.8 0 0
0.672847 0.025000 0.142590 0.8 0 0
0.842695 0.064804 0.099691 0.8 0 0
0.865819 0.051916 0.058362 0.8 0 0
0.753774 0.073899 0.079463 0.8 0 0
0.251758 0.081772 0.066296 0.8 0 0
0.636742 0.060631 0.037787 0.8 0 0
0.541796 0.066599 0.136475 0.8 0 0
0.077744 0.076909 0.105873 0.8 0 0
0.554699 0.025000 0.063155 0.8 0 0
0.381940 0.112961 0.094155 0.8 0 0
0.694417 0.065025 0.071437 0.8 0 0
0.898161 0.038642 0.133255 0.8 0 0
0.302235 0.049594 0.164448 0.8 0 0
0.753669 0.039107 0.161035 0.8 0 0
0.557020 0.051991 0.164602 0.8 0 0
0.734911 0.065390 0.162224 0.8 0 0
0.226056 0.025000 0.136791 0.8 0 0
0.799887 0.025000 0.087117 0.8 0 0
0.368613 0.025000 0.139518 0.8 0 0
0.188438 0.034596 0.067747 0.8 0 0
0.147207 0.043372 0.128128 0.8 0 0
0.309835 0.025000 0.117473 0.8 0 0
0.476966 0.067763 0.050711 0.8 0 0
0.731837 0.025000 0.063763 0.8 0 0
0.741596 0.076356 0.082610 0.8 0 0
0.173326 0.074766 0.085295 0.8 0 0
0.723118 0.065025 0.090354 0.8 0 0
0.490847 0.025000 0.134011 0.8 0 0
0.680983 0.065121 0.044117 0.8 0 0
0.537994 0.066643 0.077294 0.8 0 0
0.808908 0.057532 0.096576 0.8 0 0
0.183328 0.077087 0.104012 0.8 0 0
0.219696 0.113823 0.108183 0.8 0 0
0.551472 0.117793 0.093499 0.8 0 0
0.738505 0.055746 0.075810 0.8 0 0
0.712586 0.083306 0.099923 0.8 0 0
0.619848 0.025000 0.149460 0.8 0 0
0.482031 0.067630 0.088137 0.8 0 0
0.581277 0.066155 0.038894 0.8 0 0
0.610477 0.025000 0.067627 0.8 0 0
0.169288 0.058165 0.133589 0.8 0 0
0.902500 0.027254 0.129450 0.8 0 0
0.821333 0.057532 0.094614 0.8 0 0
0.791972 0.053283 0.075814 0.8 0 0
0.276960 0.059049 0.146172 0.8 0 0
0.404869 0.044083 0.161984 0.8 0 0
0.762357 0.063992 0.055387 0.8 0 0
0.170449 0.077087 0.104185 0.8 0 0
0.583901 0.055300 0.165582 0.8 0 0
0.787837 0.053235 0.148838 0.8 0 0
0.412290 0.025000 0.091045 0.8 0 0
0.374077 0.063608 0.092093 0.8 0 0
0.736794 0.025000 0.083863 0.8 0 0
0.768844 0.084009 0.095611 0.8 0 0
0.718219 0.169602 0.100215 0.8 0 0
0.648962 0.025000 0.143434 0.8 0 0
0.738505 0.043943 0.109849 0.8 0 0
0.291187 0.032757 0.150522 0.8 0 0
0.305318 0.025000 0.059563 0.8 0 0
0.185427 0.074462 0.133538 0.8 0 0
0.361122 0.070625 0.048154 0.8 0 0
0.221568 0.113823 0.095129 0.8 0 0
0.238080 0.073187 0.144681 0.8 0 0
0.258571 0.103985 0.115049 0.8 0 0
0.483761 0.025000 0.134718 0.8 0 0
0.691028 0.065025 0.134185 0.8 0 0
0.687526 0.065053 0.074683 0.8 0 0
0.868019 0.025000 0.085706 0.8 0 0
0.693954 0.065025 0.149419 0.8 0 0
0.259188 0.051058 0.049052 0.8 0 0
0.640469 0.025000 0.121027 0.8 0 0
0.412822 0.068103 0.102734 0.8 0 0
0.945435 0.055693 0.094894 0.8 0 0
0.610434 0.047273 0.168589 0.8 0 0
0.474633 0.025000 0.076976 0.8 0 0
0.130285 0.075847 0.082648 0.8 0 0
0.096766 0.063235 0.120852 0.8 0 0
0.297729 0.025000 0.133376 0.8 0 0
0.787028 0.025000 0.102841 0.8 0 0
0.236352 0.084946 0.078517 0.8 0 0
0.768844 0.081663 0.119056 0.8 0 0
0.111241 0.057550 0.123531 0.8 0 0
0.937076 0.025000 0.090829 0.8 0 0
0.544674 0.025000 0.151592 0.8 0 0
0.721466 0.185515 0.099202 0.8 0 0
0.754873 0.065498 0.122230 0.8 0 0
0.413339 0.046183 0.034529 0.8 0 0
0.216170 0.072703 0.113827 0.8 0 0
0.579741 0.040696 0.037196 0.8 0 0
0.753368 0.082387 0.092708 0.8 0 0
0.412747 0.025000 0.079667 0.8 0 0
0.594903 0.053766 0.030638 0.8 0 0
0.500063 0.025000 0.130879 0.8 0 0
0.517312 0.066886 0.159466 0.8 0 0
0.912619 0.025000 0.082371 0.8 0 0
0.316011 0.071551 0.105665 0.8 0 0
0.203888 0.059900 0.062115 0.8 0 0
0.247087 0.291629 0.099567 0.8 0 0
0.349136 0.045034 0.043401 0.8 0 0
0.361194 0.036849 0.043306 0.8 0 0
0.239703 0.078981 0.119306 0.8 0 0
0.618086 0.025000 0.078422 0.8 0 0
0.420992 0.049805 0.162062 0.8 0 0
0.291319 0.072112 0.161621 0.8 0 0
0.768844 0.070539 0.108402 0.8 0 0
0.283008 0.025000 0.066016 0.8 0 0
0.449028 0.025000 0.124241 0.8 0 0
0.524941 0.048825 0.037185 0.8 0 0
0.085889 0.059009 0.116808 0.8 0 0
0.656808 0.025000 0.107022 0.8 0 0
0.379621 0.111073 0.103284 0.8 0 0
0.128545 0.056730 0.126611 0.8 0 0
0.350470 0.085481 0.092988 0.8 0 0
0.726566 0.027408 0.160912 0.8 0 0
0.776311 0.053078 0.155950 0.8 0 0
0.309818 0.123525 0.093164 0.8 0 0
0.368502 0.070474 0.063462 0.8 0 0
0.270779 0.072501 0.129473 0.8 0 0
0.466230 0.025000 0.081464 0.8 0 0
0.588332 0.066082 0.125251 0.8 0 0
0.530913 0.066726 0.110627 0.8 0 0
0.327428 0.047023 0.156627 0.8 0 0
0.762073 0.025653 0.043406 0.8 0 0
0.385437 0.152914 0.108936 0.8 0 0
0.315162 0.145189 0.099770 0.8 0 0
0.755447 0.076356 0.140591 0.8 0 0
0.057350 0.060303 0.106547 0.8 0 0
0.587195 0.025000 0.054809 0.8 0 0
0.329796 0.071266 0.052300 0.8 0 0
0.607838 0.042002 0.164206 0.8 0 0
0.577971 0.025000 0.050224 0.8 0 0
0.409419 0.069544 0.062502 0.8 0 0
0.216170 0.080218 0.109405 0.8 0 0
0.425403 0.069122 0.107179 0.8 0 0
0.256567 0.095999 0.119306 0.8 0 0
0.188194 0.074392 0.096955 0.8 0 0
0.258571 0.093204 0.089037 0.8 0 0
0.198277 0.025000 0.134079 0.8 0 0
0.222757 0.050681 0.060131 0.8 0 0
0.283204 0.055355 0.041824 0.8 0 0
0.763376 0.082387 0.111211 0.8 0 0
0.533589 0.066695 0.121489 0.8 0 0
0.487702 0.034712 0.037940 0.8 0 0
0.473834 0.025000 0.072071 0.8 0 0
0.581469 0.037089 0.164480 0.8 0 0
0.427248 0.069074 0.153540 0.8 0 0
0.262102 0.054003 0.055521 0.8 0 0
0.896639 0.050568 0.134350 0.8 0 0
0.664075 0.065297 0.154108 0.8 0 0
0.707449 0.065025 0.064605 0.8 0 0
0.801970 0.041340 0.105458 0.8 0 0
0.721853 0.065025 0.139909 0.8 0 0
0.160190 0.084687 0.091570 0.8 0 0
0.934983 0.055347 0.095999 0.8 0 0
0.738505 0.060624 0.157879 0.8 0 0
0.319287 0.071482 0.106649 0.8 0 0
0.496521 0.067248 0.072301 0.8 0 0
0.530227 0.066734 0.131452 0.8 0 0
0.763433 0.054330 0.144677 0.8 0 0
0.562316 0.096558 0.095715 0.8 0 0
0.301989 0.042468 0.037245 0.8 0 0
0.814847 0.053550 0.112539 0.8 0 0
0.650084 0.046894 0.037925 0.8 0 0
0.220573 0.073579 0.142520 0.8 0 0
0.736226 0.073437 0.044300 0.8 0 0
0.958894 0.034404 0.109775 0.8 0 0
0.502121 0.025000 0.063418 0.8 0 0
0.954548 0.043123 0.113602 0.8 0 0
0.552001 0.155627 0.101293 0.8 0 0
0.894839 0.034921 0.133507 0.8 0 0
0.298321 0.096759 0.099250 0.8 0 0
0.314653 0.069206 0.160750 0.8 0 0
0.515638 0.066906 0.101751 0.8 0 0
0.529761 0.066740 0.093706 0.8 0 0
0.826219 0.064413 0.091817 0.8 0 0
0.695607 0.036828 0.038846 0.8 0 0
0.372835 0.027275 0.043386 0.8 0 0
0.777432 0.053098 0.072846 0.8 0 0
0.372046 0.025000 0.108757 0.8 0 0
0.307813 0.040260 0.157409 0.8 0 0
0.287482 0.025000 0.134101 0.8 0 0
0.515366 0.025000 0.079463 0.8 0 0
0.304982 0.076356 0.105702 0.8 0 0
0.693903 0.056154 0.037595 0.8 0 0
0.408123 0.025000 0.139397 0.8 0 0
0.314424 0.091859 0.097925 0.8 0 0
0.095919 0.025000 0.111681 0.8 0 0
0.249684 0.128315 0.099202 0.8 0 0
0.733388 0.049369 0.084721 0.8 0 0
0.080546 0.034724 0.112860 0.8 0 0
0.300124 0.029411 0.151267 0.8 0 0
0.510568 0.066965 0.057174 0.8 0 0
0.248150 0.271810 0.099567 0.8 0 0
0.251199 0.025000 0.101881 0.8 0 0
0.357430 0.059607 0.042764 0.8 0 0
0.306501 0.071921 0.049006 0.8 0 0
0.464422 0.059523 0.163456 0.8 0 0
0.418692 0.063176 0.162325 0.8 0 0
0.394763 0.069930 0.040999 0.8 0 0
0.234863 0.100847 0.062101 0.8 0 0
0.641162 0.025000 0.067079 0.8 0 0
0.108649 0.025000 0.099533 0.8 0 0
0.708130 0.065025 0.044736 0.8 0 0
0.383413 0.115544 0.108127 0.8 0 0
0.280322 0.072300 0.069946 0.8 0 0
0.216170 0.074380 0.087860 0.8 0 0
0.505819 0.063329 0.164452 0.8 0 0
0.749470 0.074695 0.157471 0.8 0 0
0.401125 0.071804 0.109002 0.8 0 0
0.457664 0.042298 0.038430 0.8 0 0
0.184095 0.077087 0.093699 0.8 0 0
0.726917 0.076356 0.099663 0.8 0 0
0.476401 0.067778 0.088474 0.8 0 0
0.600538 0.065956 0.052695 0.8 0 0
0.874569 0.025000 0.073352 0.8 0 0
0.326800 0.071327 0.148551 0.8 0 0
0.605801 0.048607 0.164227 0.8 0 0
0.892628 0.031452 0.133439 0.8 0 0
0.143731 0.075509 0.096459 0.8 0 0
0.249133 0.025000 0.104103 0.8 0 0
0.217372 0.107019 0.127871 0.8 0 0
0.671232 0.053761 0.038144 0.8 0 0
0.251601 0.072903 0.091162 0.8 0 0
0.195489 0.035631 0.066393 0.8 0 0
0.223517 0.117487 0.119306 0.8 0 0
0.160067 0.065910 0.086255 0.8 0 0
0.432353 0.025000 0.046939 0.8 0 0
0.596084 0.066002 0.133712 0.8 0 0
0.299394 0.110966 0.096566 0.8 0 0
0.817705 0.025000 0.065311 0.8 0 0
0.143651 0.075511 0.106308 0.8 0 0
0.612450 0.061382 0.037535 0.8 0 0
0.110233 0.042562 0.121526 0.8 0 0
0.589078 0.059047 0.037292 0.8 0 0
0.750702 0.076356 0.092127 0.8 0 0
0.635326 0.025000 0.132280 0.8 0 0
0.285124 0.072200 0.067810 0.8 0 0
0.474721 0.127852 0.092673 0.8 0 0
0.738505 0.055013 0.159068 0.8 0 0
0.169980 0.025000 0.103758 0.8 0 0
0.723884 0.064429 0.083544 0.8 0 0
0.685087 0.025000 0.057204 0.8 0 0
0.338579 0.071086 0.075740 0.8 0 0
0.179330 0.061703 0.135706 0.8 0 0
0.435891 0.068846 0.128263 0.8 0 0
0.281689 0.025000 0.062220 0.8 0 0
0.373812 0.070365 0.130684 0.8 0 0
0.828344 0.060252 0.108828 0.8 0 0
0.738355 0.056483 0.166024 0.8 0 0
0.684932 0.065080 0.067190 0.8 0 0
0.215340 0.100847 0.109973 0.8 0 0
0.130504 0.075842 0.128801 0.8 0 0
0.406203 0.057670 0.162017 0.8 0 0
0.410987 0.069502 0.090062 0.8 0 0
0.279616 0.055441 0.146172 0.8 0 0
0.866919 0.054162 0.094477 0.8 0 0
0.481056 0.048345 0.037826 0.8 0 0
0.245585 0.058635 0.055521 0.8 0 0
0.805350 0.050443 0.046078 0.8 0 0
0.249250 0.222357 0.101937 0.8 0 0
0.287176 0.072156 0.100356 0.8 0 0
0.437764 0.025000 0.048242 0.8 0 0
0.422701 0.025000 0.050893 0.8 0 0
0.667572 0.025000 0.073731 0.8 0 0
0.647532 0.025080 0.163320 0.8 0 0
0.738505 0.052246 0.130261 0.8 0 0
0.248911 0.100847 0.082738 0.8 0 0
0.549305 0.025000 0.112627 0.8 0 0
0.309156 0.025000 0.135034 0.8 0 0
0.809842 0.025000 0.110337 0.8 0 0
0.847025 0.025000 0.132520 0.8 0 0
0.596720 0.036719 0.164850 0.8 0 0
0.500378 0.029511 0.037418 0.8 0 0
0.117173 0.025000 0.105266 0.8 0 0
0.703391 0.065025 0.132151 0.8 0 0
0.499646 0.059142 0.164326 0.8 0 0
0.335562 0.071148 0.044998 0.8 0 0
0.252174 0.075896 0.110386 0.8 0 0
0.645393 0.045942 0.037876 0.8 0 0
0.716025 0.302817 0.100308 0.8 0 0
0.562292 0.146324 0.106033 0.8 0 0
0.857752 0.025000 0.083613 0.8 0 0
0.236720 0.084946 0.106167 0.8 0 0
0.471621 0.073432 0.103569 0.8 0 0
0.168045 0.082300 0.114686 0.8 0 0
0.917134 0.031863 0.126270 0.8 0 0
0.123561 0.036227 0.123109 0.8 0 0
0.140297 0.025000 0.114581 0.8 0 0
0.466944 0.025000 0.102181 0.8 0 0
0.799782 0.027860 0.048999 0.8 0 0
0.656854 0.025000 0.133786 0.8 0 0
0.397755 0.058686 0.168805 0.8 0 0
0.463488 0.058355 0.038260 0.8 0 0
0.781464 0.045586 0.042067 0.8 0 0
0.611247 0.065461 0.168012 0.8 0 0
0.140491 0.075591 0.130901 0.8 0 0
0.221661 0.025000 0.128153 0.8 0 0
0.251331 0.091215 0.082387 0.8 0 0
0.816984 0.057532 0.100103 0.8 0 0
0.530179 0.031607 0.037170 0.8 0 0
0.313683 0.025000 0.121643 0.8 0 0
0.312087 0.071923 0.040007 0.8 0 0
0.570953 0.050953 0.164589 0.8 0 0
0.767592 0.049706 0.122230 0.8 0 0
0.781900 0.053166 0.128990 0.8 0 0
0.484099 0.025000 0.152550 0.8 0 0
0.882495 0.046994 0.138472 0.8 0 0
0.750522 0.082387 0.095413 0.8 0 0
0.776987 0.025000 0.096632 0.8 0 0
0.375267 0.070335 0.043665 0.8 0 0
0.216170 0.107618 0.103154 0.8 0 0
0.242572 0.073093 0.102151 0.8 0 0
0.216170 0.091992 0.097779 0.8 0 0
0.462164 0.025000 0.061088 0.8 0 0
0.232023 0.025000 0.097715 0.8 0 0
0.427610 0.025000 0.109335 0.8 0 0
0.233955 0.076287 0.082387 0.8 0 0
0.056343 0.077348 0.098552 0.8 0 0
0.301648 0.076356 0.094259 0.8 0 0
0.481696 0.093284 0.100776 0.8 0 0
0.258571 0.089151 0.108698 0.8 0 0
0.205318 0.052829 0.062776 0.8 0 0
0.906642 0.047182 0.070258 0.8 0 0
0.214212 0.070921 0.080703 0.8 0 0
0.364672 0.025000 0.060882 0.8 0 0
0.682869 0.025000 0.060210 0.8 0 0
0.450792 0.025000 0.120656 0.8 0 0
0.704089 0.065391 0.041118 0.8 0 0
0.344275 0.070970 0.046858 0.8 0 0
0.500395 0.025000 0.086269 0.8 0 0
0.890277 0.025000 0.079610 0.8 0 0
0.520264 0.025000 0.110475 0.8 0 0
0.126221 0.025000 0.109124 0.8 0 0
0.353109 0.087322 0.107793 0.8 0 0
0.034722 0.025000 0.101736 0.8 0 0
0.406745 0.038616 0.161621 0.8 0 0
0.713499 0.052364 0.162863 0.8 0 0
0.239245 0.100847 0.068994 0.8 0 0
0.735779 0.076356 0.148449 0.8 0 0
0.310673 0.055502 0.038415 0.8 0 0
0.864986 0.054138 0.061146 0.8 0 0
0.869392 0.054192 0.105120 0.8 0 0
0.659979 0.065339 0.153652 0.8 0 0
0.719638 0.065025 0.151752 0.8 0 0
0.228213 0.073394 0.055665 0.8 0 0
0.692389 0.041407 0.163197 0.8 0 0
0.177211 0.089515 0.090076 0.8 0 0
0.591909 0.025000 0.064141 0.8 0 0
0.776703 0.055879 0.120306 0.8 0 0
0.802695 0.054440 0.094258 0.8 0 0
0.389725 0.155731 0.101075 0.8 0 0
0.898876 0.025000 0.091650 0.8 0 0
0.191937 0.034984 0.134599 0.8 0 0
0.548011 0.124268 0.104555 0.8 0 0
0.669775 0.059384 0.163564 0.8 0 0
0.721691 0.144521 0.101400 0.8 0 0
0.607066 0.052979 0.164214 0.8 0 0
0.721942 0.025000 0.077627 0.8 0 0
0.495773 0.027274 0.037607 0.8 0 0
0.213977 0.105085 0.084291 0.8 0 0
0.480663 0.025000 0.156971 0.8 0 0
0.702444 0.065390 0.169180 0.8 0 0
0.642765 0.025000 0.057754 0.8 0 0
0.195093 0.052842 0.137219 0.8 0 0
0.803519 0.025274 0.151085 0.8 0 0
0.672414 0.025000 0.071204 0.8 0 0
0.624257 0.025000 0.060522 0.8 0 0
0.891704 0.031165 0.133583 0.8 0 0
0.258197 0.025000 0.108401 0.8 0 0
0.393996 0.064723 0.094449 0.8 0 0
0.719875 0.025000 0.088448 0.8 0 0
0.648157 0.054601 0.163788 0.8 0 0
0.690256 0.025000 0.115534 0.8 0 0
0.817243 0.036987 0.084505 0.8 0 0
0.716755 0.222458 0.102126 0.8 0 0
0.467137 0.025000 0.055212 0.8 0 0
0.622461 0.025000 0.047420 0.8 0 0
0.167209 0.074919 0.134147 0.8 0 0
0.632099 0.025000 0.118169 0.8 0 0
0.448039 0.046787 0.038642 0.8 0 0
0.475551 0.087403 0.093004 0.8 0 0
0.245605 0.084946 0.120748 0.8 0 0
0.959778 0.055942 0.101511 0.8 0 0
0.389170 0.028127 0.159817 0.8 0 0
0.804712 0.043413 0.089645 0.8 0 0
0.232312 0.080441 0.134564 0.8 0 0
0.719259 0.047466 0.039008 0.8 0 0
0.563049 0.025000 0.080755 0.8 0 0
0.355801 0.041986 0.158722 0.8 0 0
0.648639 0.025000 0.099152 0.8 0 0
0.428357 0.073962 0.101008 0.8 0 0
0.155904 0.059511 0.070169 0.8 0 0
0.265048 0.072579 0.146172 0.8 0 0
0.770664 0.025000 0.048741 0.8 0 0
0.354935 0.070751 0.057675 0.8 0 0
0.385491 0.155448 0.095008 0.8 0 0
0.640265 0.025000 0.060568 0.8 0 0
0.665159 0.045144 0.038081 0.8 0 0
0.615248 0.025000 0.067897 0.8 0 0
0.558785 0.025000 0.138243 0.8 0 0
0.470584 0.067931 0.109146 0.8 0 0
0.480744 0.025000 0.103674 0.8 0 0
0.683618 0.065094 0.069450 0.8 0 0
0.179649 0.077087 0.115113 0.8 0 0
0.892248 0.025000 0.130702 0.8 0 0
0.564068 0.025000 0.159013 0.8 0 0
0.972825 0.041785 0.102841 0.8 0 0
0.726056 0.054053 0.038769 0.8 0 0
0.187388 0.074412 0.103806 0.8 0 0
0.394912 0.025000 0.082979 0.8 0 0
0.707831 0.025000 0.096840 0.8 0 0
0.391918 0.069995 0.071492 0.8 0 0
0.748429 0.082481 0.122230 0.8 0 0
0.753557 0.025000 0.155417 0.8 0 0
0.749735 0.076356 0.068615 0.8 0 0
0.818690 0.048660 0.153065 0.8 0 0
0.688294 0.050444 0.163371 0.8 0 0
0.212588 0.073779 0.118719 0.8 0 0
0.817338 0.053579 0.137366 0.8 0 0
0.300975 0.152407 0.093403 0.8 0 0
0.482965 0.038448 0.038135 0.8 0 0
0.745450 0.025000 0.107972 0.8 0 0
0.496714 0.067242 0.127510 0.8 0 0
0.319590 0.044796 0.055521 0.8 0 0
0.383541 0.069346 0.160932 0.8 0 0
0.809527 0.025000 0.054554 0.8 0 0
0.400667 0.069774 0.134770 0.8 0 0
0.738505 0.061572 0.148435 0.8 0 0
0.379484 0.150583 0.102942 0.8 0 0
0.452068 0.068419 0.047347 0.8 0 0
0.475933 0.150603 0.109756 0.8 0 0
0.663984 0.025000 0.116705 0.8 0 0
0.747116 0.025000 0.158421 0.8 0 0
0.594647 0.036626 0.037399 0.8 0 0
0.670934 0.065225 0.070329 0.8 0 0
0.506633 0.067011 0.112753 0.8 0 0
0.761831 0.062772 0.079463 0.8 0 0
0.150422 0.049696 0.129382 0.8 0 0
0.471806 0.025000 0.115273 0.8 0 0
0.078810 0.076887 0.112662 0.8 0 0
0.258571 0.109839 0.108503 0.8 0 0
0.859035 0.054065 0.067495 0.8 0 0
0.895194 0.054509 0.090433 0.8 0 0
0.617266 0.055561 0.164108 0.8 0 0
0.351164 0.025000 0.122439 0.8 0 0
0.305943 0.071925 0.048665 0.8 0 0
0.562615 0.072854 0.096413 0.8 0 0
0.387683 0.025000 0.144438 0.8 0 0
0.474647 0.073432 0.093374 0.8 0 0
0.637035 0.043682 0.037790 0.8 0 0
0.611188 0.057559 0.037415 0.8 0 0
0.391148 0.142330 0.108383 0.8 0 0
0.866772 0.025000 0.064638 0.8 0 0
0.628176 0.065669 0.150163 0.8 0 0
0.651428 0.025000 0.136106 0.8 0 0
0.802763 0.053409 0.072718 0.8 0 0
0.378076 0.025000 0.127701 0.8 0 0
0.247389 0.072992 0.079991 0.8 0 0
0.733388 0.054777 0.120528 0.8 0 0
0.391914 0.120957 0.093616 0.8 0 0
0.258571 0.074535 0.115936 0.8 0 0
0.718746 0.065391 0.039320 0.8 0 0
0.833542 0.054393 0.103645 0.8 0 0
0.491440 0.025000 0.046513 0.8 0 0
0.807218 0.053461 0.081496 0.8 0 0
0.733388 0.064640 0.102073 0.8 0 0
0.409436 0.025000 0.090560 0.8 0 0
0.334636 0.025000 0.095249 0.8 0 0
0.454621 0.025000 0.146256 0.8 0 0
0.872777 0.054234 0.087459 0.8 0 0
0.596291 0.066000 0.109541 0.8 0 0
0.094490 0.072609 0.080386 0.8 0 0
0.270132 0.041241 0.148483 0.8 0 0
0.910704 0.036711 0.129142 0.8 0 0
0.410839 0.063474 0.170875 0.8 0 0
0.831314 0.053742 0.133553 0.8 0 0
0.774971 0.076356 0.106378 0.8 0 0
0.106548 0.025000 0.086170 0.8 0 0
0.801787 0.043507 0.045866 0.8 0 0
0.616633 0.065789 0.068763 0.8 0 0
0.843962 0.047589 0.148235 0.8 0 0
0.469687 0.137724 0.093124 0.8 0 0
0.250503 0.114221 0.082387 0.8 0 0
0.227869 0.025000 0.091811 0.8 0 0
0.158685 0.025000 0.074231 0.8 0 0
0.271884 0.072477 0.127777 0.8 0 0
0.738505 0.048766 0.059931 0.8 0 0
0.467022 0.090138 0.094190 0.8 0 0
0.466244 0.025000 0.144782 0.8 0 0
0.770246 0.052974 0.117904 0.8 0 0
0.188434 0.074386 0.129236 0.8 0 0
0.547567 0.138317 0.098174 0.8 0 0
0.167476 0.077087 0.105797 0.8 0 0
0.668450 0.065251 0.146089 0.8 0 0
0.662893 0.065309 0.124352 0.8 0 0
0.708917 0.033910 0.039631 0.8 0 0
0.691240 0.037684 0.038593 0.8 0 0
0.264162 0.028110 0.055586 0.8 0 0
0.459821 0.068215 0.108003 0.8 0 0
0.427607 0.025000 0.090973 0.8 0 0
0.733388 0.055978 0.101437 0.8 0 0
0.258571 0.074829 0.118487 0.8 0 0
0.532945 0.041855 0.164531 0.8 0 0
0.932920 0.025000 0.115283 0.8 0 0
0.813157 0.053530 0.073956 0.8 0 0
0.675106 0.025000 0.051627 0.8 0 0
0.767557 0.059531 0.063254 0.8 0 0
0.707955 0.025000 0.107515 0.8 0 0
0.443817 0.068637 0.064512 0.8 0 0
0.555517 0.061210 0.087322 0.8 0 0
0.428345 0.025000 0.144568 0.8 0 0
0.385685 0.070122 0.061907 0.8 0 0
0.310172 0.071891 0.052341 0.8 0 0
0.453889 0.025000 0.070202 0.8 0 0
