0.926244 0.086901 0.036494 0.8 0 0
0.655442 0.044515 0.097050 0.8 0 0
0.422667 0.116126 0.119503 0.8 0 0
0.622177 0.089282 0.118576 0.8 0 0
0.089513 0.049507 0.070441 0.8 0 0
0.617010 0.105889 0.056294 0.8 0 0
0.654369 0.149366 0.075307 0.8 0 0
0.377898 0.050639 0.038612 0.8 0 0
0.895495 0.069523 0.039804 0.8 0 0
0.671092 0.143335 0.121000 0.8 0 0
0.974440 0.091949 0.048285 0.8 0 0
0.616436 0.062654 0.031610 0.8 0 0
0.505792 0.179972 0.049044 0.8 0 0
0.228615 0.110943 0.042029 0.8 0 0
0.630940 0.099540 0.027957 0.8 0 0
0.642195 0.105553 0.056132 0.8 0 0
0.889522 0.064468 0.093968 0.8 0 0
0.665395 0.102867 0.027206 0.8 0 0
0.715502 0.061509 0.115254 0.8 0 0
0.221870 0.069565 0.091875 0.8 0 0
0.905757 0.065248 0.059601 0.8 0 0
0.833488 0.101180 0.103958 0.8 0 0
0.138804 0.034528 0.081268 0.8 0 0
0.372956 0.043829 0.077666 0.8 0 0
0.577890 0.106412 0.033820 0.8 0 0
0.820726 0.106681 0.116439 0.8 0 0
0.481061 0.198072 0.056878 0.8 0 0
0.156600 0.114110 0.050652 0.8 0 0
0.264258 0.063432 0.049085 0.8 0 0
0.579341 0.046853 0.041798 0.8 0 0
0.097425 0.051751 0.076046 0.8 0 0
0.531400 0.130082 0.078060 0.8 0 0
0.870879 0.091337 0.033130 0.8 0 0
0.567978 0.111714 0.120883 0.8 0 0
0.955019 0.070106 0.092215 0.8 0 0
0.468121 0.131270 0.076272 0.8 0 0
0.520056 0.171675 0.080816 0.8 0 0
0.433113 0.135945 0.028664 0.8 0 0
0.725442 0.048058 0.051042 0.8 0 0
0.345654 0.100618 0.114614 0.8 0 0
0.606215 0.106034 0.046400 0.8 0 0
0.112575 0.120506 0.073277 0.8 0 0
0.258723 0.064326 0.050140 0.8 0 0
0.507995 0.207618 0.068158 0.8 0 0
0.970627 0.073303 0.102222 0.8 0 0
0.847154 0.060076 0.089307 0.8 0 0
0.189188 0.044210 0.076203 0.8 0 0
0.539250 0.054222 0.033187 0.8 0 0
0.602959 0.067066 0.031034 0.8 0 0
0.486820 0.180083 0.092986 0.8 0 0
0.687763 0.044094 0.071815 0.8 0 0
0.806641 0.105431 0.117498 0.8 0 0
0.554805 0.089462 0.118303 0.8 0 0
0.659285 0.045286 0.100035 0.8 0 0
0.463022 0.131387 0.071364 0.8 0 0
0.654348 0.149845 0.094460 0.8 0 0
0.365835 0.151362 0.040939 0.8 0 0
0.466554 0.051270 0.035492 0.8 0 0
0.325043 0.111419 0.073028 0.8 0 0
0.274350 0.050658 0.097427 0.8 0 0
0.575078 0.097099 0.028620 0.8 0 0
0.368795 0.166684 0.085291 0.8 0 0
0.260008 0.045922 0.059873 0.8 0 0
0.658864 0.133426 0.060763 0.8 0 0
0.789371 0.106009 0.043631 0.8 0 0
0.665627 0.139548 0.026658 0.8 0 0
0.122335 0.112591 0.088184 0.8 0 0
0.547451 0.059605 0.030452 0.8 0 0
0.613365 0.053954 0.115394 0.8 0 0
0.475116 0.057025 0.028843 0.8 0 0
0.654145 0.109198 0.045315 0.8 0 0
0.693542 0.134712 0.027334 0.8 0 0
0.723546 0.123909 0.059178 0.8 0 0
0.533902 0.130078 0.075330 0.8 0 0
0.168094 0.103501 0.091983 0.8 0 0
0.419380 0.068909 0.116149 0.8 0 0
0.527903 0.205171 0.071341 0.8 0 0
0.838936 0.064786 0.040294 0.8 0 0
0.974411 0.092602 0.100644 0.8 0 0
0.269757 0.046300 0.057124 0.8 0 0
0.323239 0.106995 0.031825 0.8 0 0
0.377600 0.049738 0.039891 0.8 0 0
0.204266 0.043864 0.071284 0.8 0 0
0.686935 0.047023 0.105973 0.8 0 0
0.437223 0.143847 0.062745 0.8 0 0
0.585215 0.079737 0.029832 0.8 0 0
0.334298 0.167300 0.101421 0.8 0 0
0.533339 0.130078 0.082783 0.8 0 0
0.398821 0.141417 0.115661 0.8 0 0
0.204141 0.102379 0.050675 0.8 0 0
0.972119 0.096504 0.067871 0.8 0 0
0.161776 0.117965 0.095620 0.8 0 0
0.187199 0.116792 0.060187 0.8 0 0
0.834250 0.101042 0.107518 0.8 0 0
0.640529 0.060580 0.116733 0.8 0 0
0.627279 0.129325 0.070528 0.8 0 0
0.851434 0.082626 0.034643 0.8 0 0
0.274363 0.103341 0.105656 0.8 0 0
0.251780 0.114332 0.056523 0.8 0 0
0.285954 0.043846 0.073211 0.8 0 0
0.298673 0.110056 0.034028 0.8 0 0
0.062718 0.095645 0.073403 0.8 0 0
0.492062 0.180060 0.051651 0.8 0 0
0.341346 0.060065 0.038447 0.8 0 0
0.964936 0.076809 0.108457 0.8 0 0
0.788906 0.106000 0.086374 0.8 0 0
0.312376 0.058342 0.041699 0.8 0 0
0.241401 0.114700 0.041298 0.8 0 0
0.547104 0.113550 0.120772 0.8 0 0
0.689459 0.120165 0.027238 0.8 0 0
0.202136 0.116216 0.042404 0.8 0 0
0.622573 0.063148 0.031545 0.8 0 0
0.645128 0.055930 0.120085 0.8 0 0
0.946750 0.081453 0.110664 0.8 0 0
0.819395 0.106652 0.085353 0.8 0 0
0.667766 0.137867 0.026710 0.8 0 0
0.441151 0.046584 0.104188 0.8 0 0
0.718003 0.151265 0.053441 0.8 0 0
0.691705 0.044427 0.092960 0.8 0 0
0.926200 0.096497 0.068878 0.8 0 0
0.380488 0.157555 0.087060 0.8 0 0
0.460060 0.043825 0.074440 0.8 0 0
0.649850 0.084610 0.029357 0.8 0 0
0.428445 0.054473 0.119351 0.8 0 0
0.771889 0.056438 0.040028 0.8 0 0
0.846432 0.069082 0.110758 0.8 0 0
0.394819 0.112295 0.118796 0.8 0 0
0.334667 0.043835 0.080531 0.8 0 0
0.884849 0.086391 0.113308 0.8 0 0
0.434529 0.144577 0.044180 0.8 0 0
0.654870 0.064310 0.116288 0.8 0 0
0.265498 0.114058 0.048283 0.8 0 0
0.640685 0.056254 0.119843 0.8 0 0
0.342578 0.158937 0.040640 0.8 0 0
0.717394 0.108189 0.120002 0.8 0 0
0.244777 0.114569 0.065151 0.8 0 0
0.686257 0.094432 0.118788 0.8 0 0
0.391016 0.066879 0.032647 0.8 0 0
0.070620 0.034067 0.064732 0.8 0 0
0.836525 0.100636 0.087872 0.8 0 0
0.891580 0.063976 0.063733 0.8 0 0
0.408329 0.136437 0.028943 0.8 0 0
0.177087 0.086971 0.058486 0.8 0 0
0.289365 0.068061 0.101983 0.8 0 0
0.516416 0.127392 0.120612 0.8 0 0
0.568926 0.046539 0.104512 0.8 0 0
0.720890 0.065743 0.115594 0.8 0 0
0.210909 0.115875 0.088147 0.8 0 0
0.469339 0.075617 0.116984 0.8 0 0
0.331366 0.044505 0.088464 0.8 0 0
0.295713 0.043997 0.064624 0.8 0 0
0.904204 0.072430 0.109542 0.8 0 0
0.845369 0.087727 0.033783 0.8 0 0
0.605073 0.129621 0.070752 0.8 0 0
0.354303 0.090785 0.113705 0.8 0 0
0.326870 0.113918 0.069850 0.8 0 0
0.701613 0.045257 0.078807 0.8 0 0
0.376974 0.111407 0.118342 0.8 0 0
0.716761 0.151278 0.093377 0.8 0 0
0.813831 0.056574 0.091599 0.8 0 0
0.280401 0.044178 0.065207 0.8 0 0
0.489127 0.196280 0.099256 0.8 0 0
0.269301 0.114092 0.055590 0.8 0 0
0.617342 0.105885 0.051066 0.8 0 0
0.258381 0.045732 0.060855 0.8 0 0
0.552283 0.124659 0.120798 0.8 0 0
0.506705 0.157248 0.053205 0.8 0 0
0.497064 0.107287 0.026864 0.8 0 0
0.454324 0.131587 0.099790 0.8 0 0
0.418363 0.145017 0.106305 0.8 0 0
0.526767 0.043826 0.078613 0.8 0 0
0.653731 0.128972 0.064443 0.8 0 0
0.716271 0.101956 0.028426 0.8 0 0
0.782132 0.105854 0.040359 0.8 0 0
0.746522 0.105093 0.059600 0.8 0 0
0.480263 0.201828 0.079185 0.8 0 0
0.389184 0.087673 0.116386 0.8 0 0
0.548061 0.043827 0.060256 0.8 0 0
0.453191 0.086823 0.029592 0.8 0 0
0.646290 0.077260 0.117805 0.8 0 0
0.634182 0.105659 0.103245 0.8 0 0
0.614057 0.090037 0.029036 0.8 0 0
0.461284 0.131427 0.107682 0.8 0 0
0.658995 0.043830 0.062040 0.8 0 0
0.564496 0.045496 0.047057 0.8 0 0
0.530385 0.188486 0.061553 0.8 0 0
0.729684 0.132548 0.063552 0.8 0 0
0.693269 0.091373 0.029213 0.8 0 0
0.680862 0.128668 0.031481 0.8 0 0
0.212475 0.093818 0.093419 0.8 0 0
0.813682 0.102209 0.031102 0.8 0 0
0.173185 0.101044 0.091104 0.8 0 0
0.199177 0.115906 0.042645 0.8 0 0
0.222132 0.104318 0.047109 0.8 0 0
0.417450 0.043823 0.087294 0.8 0 0
0.383624 0.081655 0.032109 0.8 0 0
0.695214 0.080576 0.117872 0.8 0 0
0.750883 0.105186 0.048034 0.8 0 0
0.251026 0.112433 0.108644 0.8 0 0
0.490347 0.047136 0.105841 0.8 0 0
0.280112 0.114245 0.088713 0.8 0 0
0.180984 0.117030 0.078950 0.8 0 0
0.182292 0.055760 0.059323 0.8 0 0
0.654206 0.084940 0.118396 0.8 0 0
0.228507 0.043860 0.075863 0.8 0 0
0.546113 0.130065 0.053467 0.8 0 0
0.484744 0.086609 0.029541 0.8 0 0
0.344022 0.167154 0.097289 0.8 0 0
0.100142 0.026967 0.067056 0.8 0 0
0.166423 0.058948 0.085423 0.8 0 0
0.664366 0.049189 0.109636 0.8 0 0
0.472485 0.103988 0.027465 0.8 0 0
0.128628 0.119570 0.064631 0.8 0 0
0.633420 0.053770 0.026135 0.8 0 0
0.653769 0.076619 0.117791 0.8 0 0
0.430477 0.051965 0.111994 0.8 0 0
0.522236 0.143079 0.091134 0.8 0 0
0.661024 0.140522 0.026547 0.8 0 0
0.787076 0.066950 0.034561 0.8 0 0
0.699129 0.109430 0.120394 0.8 0 0
0.760326 0.097000 0.117967 0.8 0 0
0.420730 0.123361 0.119452 0.8 0 0
0.576478 0.043828 0.093378 0.8 0 0
0.738721 0.104927 0.081101 0.8 0 0
0.506759 0.063343 0.115823 0.8 0 0
0.731647 0.104776 0.064947 0.8 0 0
0.549318 0.126508 0.120783 0.8 0 0
0.156431 0.052664 0.063702 0.8 0 0
0.274897 0.118516 0.087220 0.8 0 0
0.167981 0.061716 0.061016 0.8 0 0
0.515011 0.121789 0.026819 0.8 0 0
0.746478 0.105093 0.065160 0.8 0 0
0.397636 0.141424 0.111027 0.8 0 0
0.105335 0.075054 0.076011 0.8 0 0
0.684383 0.149650 0.027110 0.8 0 0
0.360381 0.159795 0.118025 0.8 0 0
0.779520 0.052956 0.052953 0.8 0 0
0.382681 0.119603 0.118486 0.8 0 0
0.408922 0.056855 0.115266 0.8 0 0
0.896032 0.064624 0.056126 0.8 0 0
0.333435 0.159122 0.054863 0.8 0 0
0.833993 0.101092 0.092510 0.8 0 0
0.364838 0.162104 0.028897 0.8 0 0
0.763862 0.054916 0.040987 0.8 0 0
0.344276 0.047667 0.101171 0.8 0 0
0.149070 0.084265 0.083828 0.8 0 0
0.392603 0.044573 0.052116 0.8 0 0
0.924854 0.082735 0.111547 0.8 0 0
0.827134 0.058075 0.067391 0.8 0 0
0.126614 0.069330 0.067615 0.8 0 0
0.322031 0.044393 0.086884 0.8 0 0
0.728120 0.132578 0.098649 0.8 0 0
0.617890 0.105878 0.031207 0.8 0 0
0.328466 0.119580 0.110989 0.8 0 0
0.727044 0.104677 0.070964 0.8 0 0
0.763578 0.061499 0.112953 0.8 0 0
0.508178 0.104677 0.120191 0.8 0 0
0.723986 0.132661 0.047285 0.8 0 0
0.660316 0.125765 0.121227 0.8 0 0
0.721653 0.128186 0.066759 0.8 0 0
0.425070 0.139732 0.028758 0.8 0 0
0.908338 0.096495 0.075811 0.8 0 0
0.092475 0.048986 0.070395 0.8 0 0
0.862109 0.096488 0.038247 0.8 0 0
0.726737 0.104671 0.070401 0.8 0 0
0.439278 0.071043 0.116386 0.8 0 0
0.172383 0.117401 0.091478 0.8 0 0
0.363011 0.055910 0.109425 0.8 0 0
0.523006 0.155335 0.079493 0.8 0 0
0.618827 0.108810 0.089611 0.8 0 0
0.330778 0.127527 0.112762 0.8 0 0
0.183465 0.110180 0.048343 0.8 0 0
0.174646 0.117292 0.087111 0.8 0 0
0.566482 0.053122 0.028506 0.8 0 0
0.312530 0.068205 0.106372 0.8 0 0
0.518612 0.207618 0.084960 0.8 0 0
0.582341 0.050428 0.111184 0.8 0 0
0.315497 0.061057 0.105985 0.8 0 0
0.654963 0.133456 0.089264 0.8 0 0
0.109127 0.025577 0.072090 0.8 0 0
0.297743 0.043902 0.082029 0.8 0 0
0.755449 0.046809 0.077292 0.8 0 0
0.790227 0.089197 0.031468 0.8 0 0
0.570797 0.075589 0.030157 0.8 0 0
0.134315 0.119369 0.080985 0.8 0 0
0.778315 0.052134 0.063629 0.8 0 0
0.118333 0.046618 0.067925 0.8 0 0
0.291973 0.120941 0.081036 0.8 0 0
0.360536 0.103810 0.117062 0.8 0 0
0.505297 0.204539 0.068249 0.8 0 0
0.390082 0.093245 0.030633 0.8 0 0
0.781281 0.056446 0.105793 0.8 0 0
0.800931 0.063264 0.110704 0.8 0 0
0.783677 0.105889 0.091926 0.8 0 0
0.518803 0.157745 0.089486 0.8 0 0
0.448612 0.141101 0.057523 0.8 0 0
0.510303 0.046052 0.102409 0.8 0 0
0.742135 0.094533 0.118013 0.8 0 0
0.300234 0.112685 0.108889 0.8 0 0
0.440329 0.106401 0.119872 0.8 0 0
0.621168 0.075273 0.117567 0.8 0 0
0.076857 0.034964 0.061864 0.8 0 0
0.408962 0.096808 0.028990 0.8 0 0
0.705753 0.151405 0.080193 0.8 0 0
0.696737 0.044847 0.071949 0.8 0 0
0.446791 0.121534 0.120115 0.8 0 0
0.709585 0.079891 0.117550 0.8 0 0
0.704440 0.044118 0.074235 0.8 0 0
0.524818 0.133854 0.079147 0.8 0 0
0.577507 0.043828 0.080257 0.8 0 0
0.656707 0.151966 0.098002 0.8 0 0
0.323146 0.111579 0.069738 0.8 0 0
0.961619 0.070890 0.054417 0.8 0 0
0.440366 0.122579 0.119951 0.8 0 0
0.545299 0.054310 0.033560 0.8 0 0
0.352344 0.043832 0.078509 0.8 0 0
0.545519 0.130065 0.095820 0.8 0 0
0.354021 0.166899 0.037321 0.8 0 0
0.932264 0.068150 0.092772 0.8 0 0
0.784289 0.105900 0.046246 0.8 0 0
0.691098 0.139911 0.027274 0.8 0 0
0.819784 0.105712 0.031007 0.8 0 0
0.831900 0.075815 0.112617 0.8 0 0
0.328697 0.070015 0.038759 0.8 0 0
0.448246 0.132464 0.064377 0.8 0 0
0.572066 0.069278 0.030747 0.8 0 0
0.448538 0.092792 0.029187 0.8 0 0
0.575948 0.120715 0.058077 0.8 0 0
0.435192 0.050606 0.110871 0.8 0 0
0.233002 0.101408 0.099220 0.8 0 0
0.466992 0.126462 0.026940 0.8 0 0
0.431102 0.118434 0.027515 0.8 0 0
0.123624 0.119905 0.073751 0.8 0 0
0.686074 0.045346 0.047917 0.8 0 0
0.327911 0.117477 0.065754 0.8 0 0
0.282112 0.061373 0.100432 0.8 0 0
0.515877 0.062789 0.115792 0.8 0 0
0.443592 0.045716 0.100854 0.8 0 0
0.425596 0.141205 0.108674 0.8 0 0
0.626497 0.112912 0.089631 0.8 0 0
0.667882 0.151838 0.089661 0.8 0 0
0.203729 0.090886 0.091757 0.8 0 0
0.495262 0.100755 0.119335 0.8 0 0
0.124038 0.119957 0.084994 0.8 0 0
0.333613 0.167082 0.054353 0.8 0 0
0.353620 0.052105 0.107240 0.8 0 0
0.645421 0.105510 0.046375 0.8 0 0
0.510295 0.179857 0.091177 0.8 0 0
0.866836 0.069889 0.110544 0.8 0 0
0.784619 0.056451 0.105046 0.8 0 0
0.354277 0.106683 0.029552 0.8 0 0
0.431052 0.064738 0.031429 0.8 0 0
0.104890 0.091647 0.069088 0.8 0 0
0.670349 0.151810 0.080397 0.8 0 0
0.771154 0.105620 0.047535 0.8 0 0
0.591192 0.043828 0.089739 0.8 0 0
0.726983 0.047388 0.091521 0.8 0 0
0.662203 0.056477 0.119302 0.8 0 0
0.285359 0.074441 0.045014 0.8 0 0
0.072862 0.122694 0.075753 0.8 0 0
0.461469 0.043825 0.079493 0.8 0 0
0.553362 0.128674 0.026722 0.8 0 0
0.217629 0.061007 0.055369 0.8 0 0
0.541753 0.052446 0.034757 0.8 0 0
0.204859 0.095127 0.053931 0.8 0 0
0.480178 0.116327 0.120424 0.8 0 0
0.399165 0.136989 0.118066 0.8 0 0
0.465514 0.094502 0.118290 0.8 0 0
0.909478 0.096495 0.086214 0.8 0 0
0.318991 0.076056 0.039198 0.8 0 0
0.238709 0.108907 0.104772 0.8 0 0
0.847265 0.095281 0.031735 0.8 0 0
0.475596 0.115020 0.120400 0.8 0 0
0.616869 0.120689 0.058059 0.8 0 0
0.544827 0.054460 0.027021 0.8 0 0
0.725879 0.148346 0.028068 0.8 0 0
0.227846 0.044379 0.068078 0.8 0 0
0.497587 0.170976 0.090396 0.8 0 0
0.421596 0.147617 0.086171 0.8 0 0
0.669802 0.151817 0.054478 0.8 0 0
0.669180 0.061630 0.116039 0.8 0 0
0.671292 0.151800 0.045606 0.8 0 0
0.705636 0.073833 0.030677 0.8 0 0
0.187704 0.092301 0.056482 0.8 0 0
0.654274 0.141753 0.103159 0.8 0 0
0.609570 0.043829 0.064647 0.8 0 0
0.410300 0.048583 0.107713 0.8 0 0
0.861513 0.063293 0.100948 0.8 0 0
0.379380 0.045178 0.051239 0.8 0 0
0.806474 0.087540 0.032088 0.8 0 0
0.624371 0.129364 0.064442 0.8 0 0
0.862423 0.061359 0.071323 0.8 0 0
0.361824 0.126791 0.029186 0.8 0 0
0.770496 0.081102 0.116338 0.8 0 0
0.131134 0.119524 0.078154 0.8 0 0
0.590447 0.067276 0.116414 0.8 0 0
0.306440 0.072350 0.041140 0.8 0 0
0.581115 0.106369 0.038236 0.8 0 0
0.847466 0.098671 0.045397 0.8 0 0
0.718308 0.139118 0.119987 0.8 0 0
0.723559 0.123185 0.046589 0.8 0 0
0.736745 0.048205 0.064062 0.8 0 0
0.291878 0.095659 0.106607 0.8 0 0
0.119560 0.046840 0.067950 0.8 0 0
0.791701 0.092557 0.031227 0.8 0 0
0.625917 0.126595 0.089629 0.8 0 0
0.104670 0.051096 0.078116 0.8 0 0
0.514800 0.186093 0.046053 0.8 0 0
0.434147 0.141142 0.116632 0.8 0 0
0.912813 0.065883 0.068641 0.8 0 0
0.372183 0.043829 0.079389 0.8 0 0
0.514479 0.213544 0.075424 0.8 0 0
0.600759 0.063496 0.031500 0.8 0 0
0.351993 0.132080 0.117633 0.8 0 0
0.816915 0.106599 0.090115 0.8 0 0
0.476104 0.107433 0.026916 0.8 0 0
0.690744 0.046946 0.104326 0.8 0 0
0.452482 0.046565 0.104157 0.8 0 0
0.709958 0.071836 0.031026 0.8 0 0
0.731060 0.046596 0.077024 0.8 0 0
0.261703 0.087238 0.047478 0.8 0 0
0.219672 0.115538 0.053240 0.8 0 0
0.458728 0.043825 0.055901 0.8 0 0
0.815757 0.058999 0.101596 0.8 0 0
0.316137 0.112168 0.095365 0.8 0 0
0.725823 0.047291 0.089856 0.8 0 0
0.955744 0.096502 0.059893 0.8 0 0
0.728027 0.143476 0.119885 0.8 0 0
0.619648 0.080651 0.117936 0.8 0 0
0.464987 0.127947 0.120345 0.8 0 0
0.257336 0.123387 0.073242 0.8 0 0
0.506701 0.185324 0.103414 0.8 0 0
0.415793 0.071346 0.030843 0.8 0 0
0.222022 0.045491 0.063702 0.8 0 0
0.256815 0.095678 0.099948 0.8 0 0
0.463745 0.049010 0.108569 0.8 0 0
0.973168 0.078255 0.099596 0.8 0 0
0.433839 0.141142 0.109721 0.8 0 0
0.758365 0.066076 0.033358 0.8 0 0
0.502919 0.045567 0.100508 0.8 0 0
0.533455 0.186347 0.069561 0.8 0 0
0.190700 0.049671 0.086734 0.8 0 0
0.828168 0.064863 0.038932 0.8 0 0
0.875336 0.062520 0.086798 0.8 0 0
0.288955 0.043846 0.079564 0.8 0 0
0.720175 0.132694 0.095580 0.8 0 0
0.725616 0.047270 0.056759 0.8 0 0
0.524788 0.134161 0.084570 0.8 0 0
0.725913 0.047296 0.065422 0.8 0 0
0.974734 0.094453 0.060487 0.8 0 0
0.354820 0.117517 0.117765 0.8 0 0
0.674384 0.145631 0.120930 0.8 0 0
0.148629 0.094205 0.061913 0.8 0 0
0.525293 0.089726 0.029238 0.8 0 0
0.283228 0.096438 0.105092 0.8 0 0
0.719453 0.055284 0.112460 0.8 0 0
0.662298 0.151903 0.036397 0.8 0 0
0.490253 0.124614 0.120476 0.8 0 0
0.723503 0.114729 0.055227 0.8 0 0
0.386496 0.071398 0.114510 0.8 0 0
0.396179 0.092712 0.117318 0.8 0 0
0.199196 0.085167 0.090476 0.8 0 0
0.495894 0.154291 0.094382 0.8 0 0
0.433884 0.141140 0.107726 0.8 0 0
0.481798 0.190594 0.054947 0.8 0 0
0.515756 0.216381 0.075839 0.8 0 0
0.522724 0.158683 0.078010 0.8 0 0
0.819914 0.106663 0.067428 0.8 0 0
0.095470 0.084223 0.075609 0.8 0 0
0.328943 0.121179 0.102455 0.8 0 0
0.333533 0.166464 0.107441 0.8 0 0
0.730378 0.145170 0.041376 0.8 0 0
0.236896 0.114800 0.108308 0.8 0 0
0.423212 0.106900 0.119433 0.8 0 0
0.875149 0.086157 0.034675 0.8 0 0
0.676774 0.133209 0.119357 0.8 0 0
0.300529 0.098891 0.108912 0.8 0 0
0.974012 0.085026 0.052033 0.8 0 0
0.697181 0.093751 0.118577 0.8 0 0
0.859229 0.096541 0.076550 0.8 0 0
0.157305 0.035459 0.068194 0.8 0 0
0.515777 0.178774 0.061747 0.8 0 0
0.050322 0.119113 0.070844 0.8 0 0
0.490434 0.053131 0.112710 0.8 0 0
0.546238 0.104094 0.027112 0.8 0 0
0.931877 0.086356 0.036774 0.8 0 0
0.054373 0.123720 0.078098 0.8 0 0
0.820725 0.069738 0.035774 0.8 0 0
0.433432 0.043824 0.085290 0.8 0 0
0.661391 0.151912 0.115900 0.8 0 0
0.076502 0.103274 0.070742 0.8 0 0
0.410033 0.054977 0.033289 0.8 0 0
0.180455 0.048348 0.084771 0.8 0 0
0.423871 0.109232 0.119534 0.8 0 0
0.571969 0.130064 0.047570 0.8 0 0
0.522452 0.161997 0.069616 0.8 0 0
0.484142 0.186773 0.052129 0.8 0 0
0.563423 0.130035 0.120852 0.8 0 0
0.122280 0.104331 0.083687 0.8 0 0
0.863666 0.061470 0.069482 0.8 0 0
0.744136 0.105044 0.105843 0.8 0 0
0.193898 0.047130 0.084969 0.8 0 0
0.757706 0.073298 0.115678 0.8 0 0
0.528248 0.130102 0.051286 0.8 0 0
0.351230 0.149224 0.105438 0.8 0 0
0.953903 0.070391 0.053015 0.8 0 0
0.521342 0.045935 0.045443 0.8 0 0
0.518946 0.117906 0.026809 0.8 0 0
0.374807 0.129721 0.029367 0.8 0 0
0.730270 0.136048 0.070343 0.8 0 0
0.766818 0.105527 0.064105 0.8 0 0
0.300229 0.060957 0.103481 0.8 0 0
0.416270 0.043823 0.070667 0.8 0 0
0.406594 0.151264 0.056356 0.8 0 0
0.677624 0.151726 0.118887 0.8 0 0
0.953102 0.096501 0.070866 0.8 0 0
0.063153 0.111888 0.071013 0.8 0 0
0.723479 0.114705 0.074323 0.8 0 0
0.259594 0.125378 0.059677 0.8 0 0
0.637297 0.105617 0.117586 0.8 0 0
0.496296 0.179995 0.050852 0.8 0 0
0.527666 0.190196 0.092835 0.8 0 0
0.371193 0.066262 0.112351 0.8 0 0
0.349723 0.154625 0.105418 0.8 0 0
0.611647 0.044298 0.051587 0.8 0 0
0.673195 0.096998 0.119188 0.8 0 0
0.724922 0.132642 0.075917 0.8 0 0
0.449776 0.131692 0.110701 0.8 0 0
0.463194 0.069351 0.030938 0.8 0 0
0.364083 0.043830 0.074674 0.8 0 0
0.471076 0.130735 0.114938 0.8 0 0
0.608990 0.120119 0.058063 0.8 0 0
0.512787 0.057133 0.028909 0.8 0 0
0.342802 0.094532 0.113010 0.8 0 0
0.574002 0.124345 0.102541 0.8 0 0
0.713409 0.081337 0.030148 0.8 0 0
0.345172 0.061625 0.109155 0.8 0 0
0.533584 0.110372 0.026772 0.8 0 0
0.423240 0.118132 0.027705 0.8 0 0
0.573877 0.100011 0.027955 0.8 0 0
0.948455 0.096501 0.045084 0.8 0 0
0.574019 0.110292 0.031679 0.8 0 0
0.723511 0.151201 0.107651 0.8 0 0
0.686321 0.062304 0.116226 0.8 0 0
0.735753 0.104865 0.117806 0.8 0 0
0.339756 0.167187 0.113865 0.8 0 0
0.116827 0.120322 0.080501 0.8 0 0
0.036170 0.124687 0.073800 0.8 0 0
0.470754 0.077372 0.117112 0.8 0 0
0.656307 0.151971 0.061552 0.8 0 0
0.928081 0.069417 0.101935 0.8 0 0
0.454190 0.131591 0.099748 0.8 0 0
0.391356 0.056649 0.034296 0.8 0 0
0.452071 0.131640 0.090471 0.8 0 0
0.718472 0.128340 0.091838 0.8 0 0
0.382256 0.146752 0.040981 0.8 0 0
0.796243 0.054314 0.058050 0.8 0 0
0.543707 0.130444 0.038913 0.8 0 0
0.518528 0.153906 0.090971 0.8 0 0
0.848340 0.098498 0.113108 0.8 0 0
0.307588 0.110958 0.032388 0.8 0 0
0.276907 0.113446 0.109633 0.8 0 0
0.357010 0.100369 0.031626 0.8 0 0
0.450929 0.043824 0.071155 0.8 0 0
0.527542 0.074238 0.117062 0.8 0 0
0.344725 0.072248 0.110166 0.8 0 0
0.497581 0.201828 0.064120 0.8 0 0
0.720656 0.070615 0.031447 0.8 0 0
0.657020 0.151963 0.058137 0.8 0 0
0.437572 0.055246 0.027733 0.8 0 0
0.774620 0.057844 0.109661 0.8 0 0
0.273321 0.064813 0.047364 0.8 0 0
0.382813 0.044123 0.092472 0.8 0 0
0.207712 0.067148 0.090250 0.8 0 0
0.514999 0.145478 0.096254 0.8 0 0
0.456172 0.090506 0.117968 0.8 0 0
0.970338 0.096504 0.109613 0.8 0 0
0.578710 0.043828 0.058169 0.8 0 0
0.647504 0.053348 0.118174 0.8 0 0
0.575116 0.045331 0.099880 0.8 0 0
0.737826 0.063503 0.114819 0.8 0 0
0.584705 0.046121 0.102964 0.8 0 0
0.448710 0.131717 0.088161 0.8 0 0
0.357085 0.169170 0.078217 0.8 0 0
0.069229 0.039746 0.068280 0.8 0 0
0.574041 0.113860 0.028431 0.8 0 0
0.431542 0.052065 0.112047 0.8 0 0
0.722304 0.151216 0.035483 0.8 0 0
0.812630 0.056313 0.085859 0.8 0 0
0.209877 0.115915 0.088793 0.8 0 0
0.649693 0.043830 0.058191 0.8 0 0
0.721648 0.058347 0.033982 0.8 0 0
0.854539 0.097381 0.106364 0.8 0 0
0.175343 0.044540 0.070141 0.8 0 0
0.673522 0.140596 0.026849 0.8 0 0
0.809421 0.087316 0.032288 0.8 0 0
0.611021 0.053597 0.030520 0.8 0 0
0.756028 0.058709 0.111962 0.8 0 0
0.926957 0.067152 0.060185 0.8 0 0
0.576773 0.090300 0.118457 0.8 0 0
0.617922 0.096641 0.119094 0.8 0 0
0.486021 0.043825 0.075981 0.8 0 0
0.808147 0.055765 0.071513 0.8 0 0
0.392408 0.045388 0.098490 0.8 0 0
0.475116 0.047561 0.106423 0.8 0 0
0.383166 0.095711 0.116446 0.8 0 0
0.847635 0.098642 0.037243 0.8 0 0
0.496499 0.046584 0.042988 0.8 0 0
0.499373 0.114477 0.026858 0.8 0 0
0.400747 0.152734 0.045812 0.8 0 0
0.579510 0.102775 0.120134 0.8 0 0
0.359849 0.166870 0.058817 0.8 0 0
0.574736 0.069240 0.030752 0.8 0 0
0.433655 0.119356 0.119781 0.8 0 0
0.485399 0.130852 0.105580 0.8 0 0
0.757220 0.052849 0.043395 0.8 0 0
0.670379 0.043830 0.053288 0.8 0 0
0.032775 0.124862 0.072344 0.8 0 0
0.479470 0.197997 0.061042 0.8 0 0
0.673831 0.133251 0.117059 0.8 0 0
0.844313 0.060649 0.094519 0.8 0 0
0.298734 0.059793 0.103225 0.8 0 0
0.373555 0.044396 0.092710 0.8 0 0
0.547369 0.123975 0.120773 0.8 0 0
0.328404 0.044304 0.087182 0.8 0 0
0.135439 0.031769 0.065203 0.8 0 0
0.970417 0.071057 0.082989 0.8 0 0
0.868906 0.096489 0.046808 0.8 0 0
0.132188 0.096780 0.081826 0.8 0 0
0.265481 0.043852 0.077183 0.8 0 0
0.370235 0.183029 0.067449 0.8 0 0
0.941037 0.084051 0.037353 0.8 0 0
0.816486 0.092361 0.031976 0.8 0 0
0.339315 0.154944 0.116584 0.8 0 0
0.922283 0.069749 0.043946 0.8 0 0
0.430132 0.094583 0.029101 0.8 0 0
0.419990 0.063957 0.115698 0.8 0 0
0.478300 0.180103 0.074715 0.8 0 0
0.292027 0.128426 0.061546 0.8 0 0
0.803498 0.063538 0.037333 0.8 0 0
0.660942 0.133401 0.031100 0.8 0 0
0.396916 0.153586 0.077826 0.8 0 0
0.049919 0.123910 0.070142 0.8 0 0
0.715881 0.049393 0.105394 0.8 0 0
0.130326 0.106258 0.086392 0.8 0 0
0.691630 0.122918 0.027290 0.8 0 0
0.188689 0.116734 0.060943 0.8 0 0
0.898558 0.096493 0.114159 0.8 0 0
0.348326 0.046208 0.049713 0.8 0 0
0.510587 0.161154 0.093282 0.8 0 0
0.135939 0.035204 0.081717 0.8 0 0
0.862599 0.071781 0.036327 0.8 0 0
0.782470 0.052639 0.063008 0.8 0 0
0.250085 0.114364 0.056529 0.8 0 0
0.267805 0.046196 0.057790 0.8 0 0
0.813806 0.056875 0.054982 0.8 0 0
0.830314 0.103160 0.030821 0.8 0 0
0.526000 0.185917 0.052429 0.8 0 0
0.457502 0.131515 0.070897 0.8 0 0
0.448597 0.137415 0.075532 0.8 0 0
0.109571 0.044071 0.079339 0.8 0 0
0.762431 0.050361 0.057695 0.8 0 0
0.651883 0.069135 0.030762 0.8 0 0
0.590132 0.129821 0.069811 0.8 0 0
0.442214 0.141080 0.117119 0.8 0 0
0.134615 0.083559 0.065591 0.8 0 0
0.312491 0.089771 0.037565 0.8 0 0
0.355813 0.092525 0.033618 0.8 0 0
0.348193 0.045459 0.053241 0.8 0 0
0.367965 0.127703 0.118038 0.8 0 0
0.660449 0.071067 0.117183 0.8 0 0
0.514464 0.095901 0.118600 0.8 0 0
0.888317 0.065207 0.049361 0.8 0 0
0.749146 0.105150 0.091832 0.8 0 0
0.630246 0.079719 0.029747 0.8 0 0
0.229237 0.066805 0.054053 0.8 0 0
0.118579 0.038097 0.062592 0.8 0 0
0.075768 0.122476 0.067034 0.8 0 0
0.313201 0.052666 0.103700 0.8 0 0
0.237784 0.098394 0.048878 0.8 0 0
0.175664 0.067915 0.086590 0.8 0 0
0.947472 0.096500 0.097867 0.8 0 0
0.598572 0.129708 0.072322 0.8 0 0
0.460526 0.130723 0.118517 0.8 0 0
0.822291 0.106714 0.073132 0.8 0 0
0.710421 0.151351 0.091932 0.8 0 0
0.442485 0.045177 0.048510 0.8 0 0
0.814115 0.060083 0.104518 0.8 0 0
0.701420 0.137331 0.027524 0.8 0 0
0.251722 0.113854 0.109639 0.8 0 0
0.604594 0.044269 0.095904 0.8 0 0
0.617914 0.053343 0.025890 0.8 0 0
0.387958 0.105461 0.118361 0.8 0 0
0.351242 0.101133 0.031800 0.8 0 0
0.510969 0.130885 0.042722 0.8 0 0
0.098237 0.074658 0.071250 0.8 0 0
0.519483 0.184190 0.047268 0.8 0 0
0.655886 0.045016 0.098983 0.8 0 0
0.588279 0.106272 0.104245 0.8 0 0
0.200073 0.116292 0.095235 0.8 0 0
0.458767 0.131486 0.054789 0.8 0 0
0.648056 0.103883 0.026791 0.8 0 0
0.252589 0.046774 0.089485 0.8 0 0
0.961138 0.096503 0.096691 0.8 0 0
0.677672 0.131574 0.031993 0.8 0 0
0.891759 0.096492 0.103431 0.8 0 0
0.657135 0.133439 0.067260 0.8 0 0
0.904548 0.096494 0.097518 0.8 0 0
0.252075 0.051041 0.051889 0.8 0 0
0.730255 0.133286 0.065470 0.8 0 0
0.471071 0.090630 0.029289 0.8 0 0
0.712463 0.151328 0.075239 0.8 0 0
0.558947 0.130051 0.064651 0.8 0 0
0.259563 0.114308 0.072968 0.8 0 0
0.419977 0.053828 0.031069 0.8 0 0
0.538138 0.044907 0.098103 0.8 0 0
0.661173 0.048835 0.109088 0.8 0 0
0.468878 0.103757 0.119775 0.8 0 0
0.801420 0.106267 0.044506 0.8 0 0
0.867955 0.096488 0.037540 0.8 0 0
0.520536 0.043826 0.068238 0.8 0 0
0.450614 0.107014 0.120198 0.8 0 0
0.274529 0.109602 0.109685 0.8 0 0
0.473159 0.072971 0.030581 0.8 0 0
0.483886 0.136966 0.085351 0.8 0 0
0.183987 0.044104 0.075726 0.8 0 0
0.793094 0.072245 0.034201 0.8 0 0
0.857739 0.062758 0.099857 0.8 0 0
0.669251 0.057270 0.029619 0.8 0 0
0.738304 0.083205 0.117144 0.8 0 0
0.330945 0.128004 0.089926 0.8 0 0
0.571591 0.053953 0.032042 0.8 0 0
0.955188 0.096502 0.042270 0.8 0 0
0.346692 0.097183 0.033587 0.8 0 0
0.330927 0.127851 0.069206 0.8 0 0
0.495155 0.051139 0.111881 0.8 0 0
0.355651 0.158642 0.108036 0.8 0 0
0.702597 0.151440 0.109329 0.8 0 0
0.777054 0.054123 0.046668 0.8 0 0
0.724282 0.151187 0.108355 0.8 0 0
0.633451 0.105669 0.116536 0.8 0 0
0.480520 0.130862 0.106563 0.8 0 0
0.796755 0.068231 0.034852 0.8 0 0
0.671243 0.123447 0.026797 0.8 0 0
0.604461 0.075485 0.030100 0.8 0 0
0.642645 0.045609 0.046478 0.8 0 0
0.774806 0.062274 0.112459 0.8 0 0
0.506656 0.082705 0.029769 0.8 0 0
0.972144 0.071210 0.065705 0.8 0 0
0.820121 0.106668 0.106482 0.8 0 0
0.484412 0.141799 0.084592 0.8 0 0
0.609752 0.060891 0.116445 0.8 0 0
0.654224 0.123830 0.042746 0.8 0 0
0.258586 0.130463 0.069500 0.8 0 0
0.710668 0.083850 0.029916 0.8 0 0
0.259874 0.049962 0.094597 0.8 0 0
0.370423 0.152051 0.040850 0.8 0 0
0.249073 0.053248 0.052053 0.8 0 0
0.415150 0.108964 0.119313 0.8 0 0
0.730255 0.140757 0.110960 0.8 0 0
0.516962 0.046446 0.043482 0.8 0 0
0.286224 0.045566 0.088031 0.8 0 0
0.350662 0.141792 0.035217 0.8 0 0
0.466074 0.058458 0.117771 0.8 0 0
0.475839 0.105664 0.120161 0.8 0 0
0.648485 0.129042 0.068363 0.8 0 0
0.588833 0.106266 0.041307 0.8 0 0
0.744478 0.048853 0.055414 0.8 0 0
0.930432 0.067467 0.085258 0.8 0 0
0.514118 0.168227 0.056979 0.8 0 0
0.800400 0.093422 0.116331 0.8 0 0
0.783172 0.052724 0.060406 0.8 0 0
0.372872 0.053829 0.037203 0.8 0 0
0.902501 0.096494 0.081420 0.8 0 0
0.754474 0.105263 0.031875 0.8 0 0
0.523235 0.043826 0.070602 0.8 0 0
0.692703 0.103573 0.027633 0.8 0 0
0.850722 0.090336 0.115169 0.8 0 0
0.654245 0.125169 0.031781 0.8 0 0
0.725818 0.066879 0.115580 0.8 0 0
0.723538 0.116266 0.033641 0.8 0 0
0.332544 0.135446 0.071880 0.8 0 0
0.876592 0.096490 0.111064 0.8 0 0
0.749855 0.050837 0.099000 0.8 0 0
0.553224 0.110830 0.120804 0.8 0 0
0.770880 0.105616 0.115944 0.8 0 0
0.407373 0.046446 0.043683 0.8 0 0
0.619207 0.101954 0.120124 0.8 0 0
0.103765 0.045790 0.067544 0.8 0 0
0.815413 0.056648 0.066178 0.8 0 0
0.131540 0.098012 0.064571 0.8 0 0
0.869392 0.096489 0.112820 0.8 0 0
0.687846 0.046783 0.043000 0.8 0 0
0.661964 0.082535 0.118253 0.8 0 0
0.690330 0.044310 0.075390 0.8 0 0
0.614363 0.053273 0.029144 0.8 0 0
0.502474 0.201828 0.047343 0.8 0 0
0.393494 0.078506 0.031305 0.8 0 0
0.525763 0.065347 0.031262 0.8 0 0
0.798482 0.106205 0.102980 0.8 0 0
0.654163 0.108442 0.028101 0.8 0 0
0.522444 0.053757 0.121014 0.8 0 0
0.671751 0.089637 0.028957 0.8 0 0
0.435553 0.062428 0.031647 0.8 0 0
0.400384 0.128738 0.118889 0.8 0 0
0.446744 0.052435 0.121348 0.8 0 0
0.939004 0.085178 0.111345 0.8 0 0
0.200388 0.061984 0.089410 0.8 0 0
0.782860 0.052689 0.075197 0.8 0 0
0.438768 0.113421 0.027330 0.8 0 0
0.593760 0.072750 0.117134 0.8 0 0
0.974768 0.094490 0.064831 0.8 0 0
0.592110 0.112067 0.058070 0.8 0 0
0.038007 0.121050 0.072384 0.8 0 0
0.598378 0.054096 0.114821 0.8 0 0
0.363023 0.175679 0.064250 0.8 0 0
0.519808 0.171181 0.081757 0.8 0 0
0.359887 0.163345 0.029063 0.8 0 0
0.377911 0.043828 0.082342 0.8 0 0
0.118161 0.110431 0.060380 0.8 0 0
0.705621 0.072532 0.030831 0.8 0 0
0.677051 0.151733 0.118314 0.8 0 0
0.519741 0.058172 0.029558 0.8 0 0
0.683116 0.090782 0.118637 0.8 0 0
0.448341 0.133245 0.034796 0.8 0 0
0.733875 0.104823 0.051098 0.8 0 0
0.574024 0.127319 0.096880 0.8 0 0
0.568401 0.043827 0.064210 0.8 0 0
0.326627 0.112992 0.049172 0.8 0 0
0.534095 0.077304 0.117360 0.8 0 0
0.508434 0.046953 0.041779 0.8 0 0
0.699525 0.045083 0.088403 0.8 0 0
0.860021 0.061144 0.082895 0.8 0 0
0.240542 0.114731 0.093806 0.8 0 0
0.131262 0.051676 0.066243 0.8 0 0
0.089902 0.039095 0.085335 0.8 0 0
0.872872 0.062298 0.080807 0.8 0 0
0.818141 0.077019 0.034780 0.8 0 0
0.785736 0.105932 0.066491 0.8 0 0
0.415107 0.060682 0.031409 0.8 0 0
0.268463 0.114281 0.090009 0.8 0 0
0.514247 0.186356 0.045910 0.8 0 0
0.609209 0.101861 0.120061 0.8 0 0
0.805754 0.055473 0.063454 0.8 0 0
0.974174 0.086317 0.041619 0.8 0 0
0.347819 0.167087 0.068907 0.8 0 0
0.448620 0.138114 0.098123 0.8 0 0
0.215309 0.093279 0.052801 0.8 0 0
0.297497 0.088349 0.040535 0.8 0 0
0.517661 0.162195 0.057914 0.8 0 0
0.276700 0.074307 0.046670 0.8 0 0
0.330604 0.126941 0.114840 0.8 0 0
0.145287 0.068081 0.064404 0.8 0 0
0.484260 0.133990 0.055135 0.8 0 0
0.651347 0.047593 0.107170 0.8 0 0
0.669677 0.043830 0.059063 0.8 0 0
0.583461 0.061659 0.115838 0.8 0 0
0.444912 0.080861 0.030025 0.8 0 0
0.771976 0.105638 0.061254 0.8 0 0
0.750830 0.068233 0.115068 0.8 0 0
0.846962 0.098764 0.037082 0.8 0 0
0.367480 0.083294 0.033668 0.8 0 0
0.434134 0.100177 0.028334 0.8 0 0
0.336017 0.125770 0.117204 0.8 0 0
0.042143 0.116323 0.072551 0.8 0 0
0.771430 0.105626 0.050392 0.8 0 0
0.108013 0.120660 0.059017 0.8 0 0
0.842288 0.099596 0.086219 0.8 0 0
0.372429 0.158266 0.115477 0.8 0 0
0.899331 0.096493 0.058357 0.8 0 0
0.720930 0.079171 0.030513 0.8 0 0
0.280827 0.106345 0.038529 0.8 0 0
0.644379 0.096013 0.119161 0.8 0 0
0.865925 0.076943 0.035500 0.8 0 0
0.342179 0.167125 0.117014 0.8 0 0
0.643098 0.052316 0.122599 0.8 0 0
0.594765 0.106185 0.118354 0.8 0 0
0.248625 0.043856 0.073292 0.8 0 0
0.534572 0.180531 0.072473 0.8 0 0
0.730272 0.143976 0.117881 0.8 0 0
0.535169 0.043827 0.061318 0.8 0 0
0.305936 0.055797 0.043260 0.8 0 0
0.622212 0.129392 0.072215 0.8 0 0
0.345233 0.096806 0.033767 0.8 0 0
0.940973 0.068994 0.054436 0.8 0 0
0.301709 0.066586 0.104232 0.8 0 0
0.293127 0.089657 0.041156 0.8 0 0
0.569058 0.085055 0.029481 0.8 0 0
0.708836 0.097406 0.029130 0.8 0 0
0.737595 0.047067 0.077556 0.8 0 0
0.482485 0.074472 0.030423 0.8 0 0
0.553881 0.043827 0.056481 0.8 0 0
0.483004 0.068691 0.116263 0.8 0 0
0.368911 0.137240 0.029386 0.8 0 0
0.619302 0.097433 0.119158 0.8 0 0
0.352519 0.045611 0.095954 0.8 0 0
0.380647 0.110541 0.118436 0.8 0 0
0.116755 0.084373 0.078018 0.8 0 0
0.478488 0.103084 0.119716 0.8 0 0
0.363051 0.166778 0.054338 0.8 0 0
0.137844 0.032377 0.065188 0.8 0 0
0.385696 0.141516 0.107240 0.8 0 0
0.404690 0.083746 0.029909 0.8 0 0
0.083027 0.122138 0.075757 0.8 0 0
0.614895 0.105918 0.044426 0.8 0 0
0.109384 0.051808 0.068713 0.8 0 0
0.854514 0.097399 0.044494 0.8 0 0
0.513347 0.164850 0.091581 0.8 0 0
0.606330 0.076955 0.029991 0.8 0 0
0.721322 0.132685 0.075508 0.8 0 0
0.386075 0.092432 0.116459 0.8 0 0
0.688590 0.101529 0.119979 0.8 0 0
0.499624 0.172386 0.056824 0.8 0 0
0.353096 0.167012 0.068166 0.8 0 0
0.961160 0.096503 0.048052 0.8 0 0
0.291979 0.122415 0.079978 0.8 0 0
0.834706 0.058996 0.061952 0.8 0 0
0.795127 0.055262 0.051379 0.8 0 0
0.698534 0.072071 0.030703 0.8 0 0
0.661495 0.049617 0.110272 0.8 0 0
0.345378 0.071621 0.110170 0.8 0 0
0.797318 0.059296 0.040770 0.8 0 0
0.501094 0.095017 0.118479 0.8 0 0
0.659587 0.051093 0.035233 0.8 0 0
0.748517 0.073024 0.031940 0.8 0 0
0.469314 0.101692 0.027898 0.8 0 0
0.903230 0.067056 0.046626 0.8 0 0
0.619935 0.044055 0.052511 0.8 0 0
0.541572 0.130070 0.069151 0.8 0 0
0.328247 0.118810 0.106895 0.8 0 0
0.871714 0.096489 0.078931 0.8 0 0
0.146645 0.118726 0.096333 0.8 0 0
0.940340 0.096499 0.086219 0.8 0 0
0.278945 0.043848 0.073536 0.8 0 0
0.512256 0.045169 0.099013 0.8 0 0
0.566609 0.053052 0.118930 0.8 0 0
0.494185 0.110246 0.026871 0.8 0 0
0.672200 0.149565 0.026816 0.8 0 0
0.448568 0.137031 0.075818 0.8 0 0
0.569300 0.072426 0.116995 0.8 0 0
0.749968 0.049315 0.064583 0.8 0 0
0.328038 0.118070 0.102027 0.8 0 0
0.584938 0.106318 0.048565 0.8 0 0
0.490983 0.096140 0.118518 0.8 0 0
0.376274 0.102384 0.117829 0.8 0 0
0.706418 0.045659 0.060997 0.8 0 0
0.486264 0.056712 0.118971 0.8 0 0
0.483332 0.201828 0.071604 0.8 0 0
0.706378 0.135971 0.027645 0.8 0 0
0.890984 0.064061 0.091252 0.8 0 0
0.528092 0.200820 0.091734 0.8 0 0
0.798353 0.084700 0.032263 0.8 0 0
0.476452 0.047666 0.106588 0.8 0 0
0.351734 0.166935 0.112228 0.8 0 0
0.269319 0.098862 0.043901 0.8 0 0
0.944166 0.096500 0.078417 0.8 0 0
0.497430 0.130755 0.106425 0.8 0 0
0.888801 0.096492 0.061548 0.8 0 0
0.333079 0.144991 0.085662 0.8 0 0
0.589798 0.106253 0.032278 0.8 0 0
0.327046 0.114656 0.100668 0.8 0 0
0.088582 0.087160 0.071051 0.8 0 0
0.310285 0.112167 0.111887 0.8 0 0
0.779386 0.101592 0.117995 0.8 0 0
0.304719 0.046764 0.095984 0.8 0 0
0.467050 0.043825 0.061109 0.8 0 0
0.227320 0.115241 0.097546 0.8 0 0
0.302452 0.113326 0.054549 0.8 0 0
0.784531 0.067401 0.034389 0.8 0 0
0.333142 0.145686 0.048593 0.8 0 0
0.252913 0.104772 0.042862 0.8 0 0
0.513697 0.120360 0.026822 0.8 0 0
0.209719 0.115923 0.049716 0.8 0 0
0.621607 0.124543 0.089618 0.8 0 0
0.440464 0.046443 0.103643 0.8 0 0
0.333347 0.155490 0.059667 0.8 0 0
0.257549 0.114090 0.110041 0.8 0 0
0.840043 0.100011 0.044512 0.8 0 0
0.711600 0.139075 0.027770 0.8 0 0
0.404344 0.151788 0.087119 0.8 0 0
0.484518 0.188090 0.095538 0.8 0 0
0.682767 0.128640 0.027423 0.8 0 0
0.638533 0.105602 0.045182 0.8 0 0
0.359748 0.184985 0.070556 0.8 0 0
0.141352 0.038841 0.066701 0.8 0 0
0.308725 0.075366 0.106460 0.8 0 0
0.782756 0.105867 0.030466 0.8 0 0
0.428781 0.141181 0.110592 0.8 0 0
0.700085 0.151470 0.028807 0.8 0 0
0.267322 0.079707 0.047726 0.8 0 0
0.302267 0.064371 0.042611 0.8 0 0
0.764794 0.050559 0.056367 0.8 0 0
0.569674 0.130040 0.105529 0.8 0 0
0.635562 0.074910 0.030089 0.8 0 0
0.540197 0.043827 0.066095 0.8 0 0
0.303568 0.096923 0.037941 0.8 0 0
0.730189 0.132537 0.104841 0.8 0 0
0.723540 0.125760 0.071210 0.8 0 0
0.482080 0.129360 0.120433 0.8 0 0
0.503283 0.064841 0.031329 0.8 0 0
0.379223 0.046630 0.045173 0.8 0 0
0.337133 0.159520 0.032898 0.8 0 0
0.344938 0.167125 0.064303 0.8 0 0
0.156774 0.111682 0.051997 0.8 0 0
0.659854 0.043830 0.087858 0.8 0 0
0.676004 0.148376 0.026908 0.8 0 0
0.368115 0.147598 0.105656 0.8 0 0
0.514184 0.155357 0.053538 0.8 0 0
0.802759 0.106297 0.108737 0.8 0 0
0.533475 0.116456 0.026772 0.8 0 0
0.379791 0.157821 0.041819 0.8 0 0
0.939048 0.068241 0.087634 0.8 0 0
0.923190 0.096329 0.034563 0.8 0 0
0.940645 0.096499 0.063174 0.8 0 0
0.671512 0.124204 0.026803 0.8 0 0
0.597303 0.120780 0.089556 0.8 0 0
0.668173 0.043830 0.060862 0.8 0 0
0.258180 0.102989 0.043375 0.8 0 0
0.723512 0.116529 0.055530 0.8 0 0
0.646132 0.116083 0.058047 0.8 0 0
0.806734 0.069809 0.113029 0.8 0 0
0.829912 0.062639 0.105543 0.8 0 0
0.443904 0.052976 0.118783 0.8 0 0
0.808375 0.106416 0.069236 0.8 0 0
0.898689 0.096493 0.054218 0.8 0 0
0.526026 0.045250 0.099378 0.8 0 0
0.262056 0.045141 0.083688 0.8 0 0
0.210231 0.044024 0.070106 0.8 0 0
0.820741 0.106682 0.112192 0.8 0 0
0.338432 0.093638 0.112585 0.8 0 0
0.557357 0.124162 0.120825 0.8 0 0
0.643935 0.105530 0.034091 0.8 0 0
0.503409 0.071505 0.116613 0.8 0 0
0.122599 0.088264 0.067292 0.8 0 0
0.488804 0.128549 0.120468 0.8 0 0
0.388270 0.091297 0.116563 0.8 0 0
0.530731 0.075060 0.117181 0.8 0 0
0.421399 0.066638 0.115946 0.8 0 0
0.572725 0.130036 0.067905 0.8 0 0
0.835360 0.100843 0.101774 0.8 0 0
0.370130 0.047132 0.044448 0.8 0 0
0.255659 0.114320 0.069221 0.8 0 0
0.359827 0.185454 0.070210 0.8 0 0
0.880920 0.086212 0.113421 0.8 0 0
0.480737 0.181939 0.089701 0.8 0 0
0.904652 0.081481 0.112057 0.8 0 0
0.481424 0.123730 0.120430 0.8 0 0
0.562726 0.043827 0.068896 0.8 0 0
0.108970 0.028066 0.081265 0.8 0 0
0.344277 0.044273 0.058598 0.8 0 0
0.418075 0.148517 0.051143 0.8 0 0
0.728193 0.132685 0.028073 0.8 0 0
0.297822 0.101381 0.037892 0.8 0 0
0.869716 0.063997 0.047268 0.8 0 0
0.608203 0.082732 0.118039 0.8 0 0
0.405023 0.046429 0.043754 0.8 0 0
0.645071 0.045630 0.046394 0.8 0 0
0.431032 0.043824 0.056195 0.8 0 0
0.513558 0.192327 0.045731 0.8 0 0
0.397283 0.078236 0.030932 0.8 0 0
0.092612 0.112087 0.083988 0.8 0 0
0.686148 0.098347 0.119254 0.8 0 0
0.771744 0.105633 0.087448 0.8 0 0
0.730225 0.138106 0.118186 0.8 0 0
0.829478 0.071557 0.035958 0.8 0 0
0.939077 0.096499 0.040126 0.8 0 0
0.854831 0.097333 0.084504 0.8 0 0
0.351904 0.043832 0.073078 0.8 0 0
0.333702 0.081066 0.110267 0.8 0 0
0.655839 0.141922 0.026421 0.8 0 0
0.635417 0.127299 0.058052 0.8 0 0
0.604467 0.106056 0.113207 0.8 0 0
0.450897 0.054241 0.034081 0.8 0 0
0.170295 0.081307 0.060056 0.8 0 0
0.723412 0.107870 0.099596 0.8 0 0
0.659331 0.077731 0.117892 0.8 0 0
0.521342 0.043826 0.061472 0.8 0 0
0.671518 0.129157 0.031837 0.8 0 0
0.058847 0.097951 0.073138 0.8 0 0
0.326522 0.112625 0.047665 0.8 0 0
0.538354 0.043827 0.058434 0.8 0 0
0.192160 0.046798 0.084235 0.8 0 0
0.088418 0.078294 0.074350 0.8 0 0
0.653114 0.106406 0.058044 0.8 0 0
0.543368 0.130068 0.051307 0.8 0 0
0.407016 0.151143 0.083910 0.8 0 0
0.629096 0.060927 0.116460 0.8 0 0
0.776126 0.054234 0.045704 0.8 0 0
0.117971 0.064638 0.069075 0.8 0 0
0.644564 0.129094 0.064770 0.8 0 0
0.957339 0.096502 0.063129 0.8 0 0
0.493180 0.181917 0.046521 0.8 0 0
0.501489 0.161692 0.093302 0.8 0 0
0.621899 0.120905 0.089619 0.8 0 0
0.513875 0.194340 0.045813 0.8 0 0
0.676699 0.131964 0.031968 0.8 0 0
0.670083 0.066168 0.116589 0.8 0 0
0.348870 0.050010 0.042060 0.8 0 0
0.790887 0.055023 0.097453 0.8 0 0
0.659260 0.132721 0.102612 0.8 0 0
0.403355 0.079208 0.030235 0.8 0 0
0.532618 0.201026 0.080057 0.8 0 0
0.688094 0.108101 0.120630 0.8 0 0
0.713535 0.052706 0.110878 0.8 0 0
0.143692 0.075802 0.064634 0.8 0 0
0.407370 0.043823 0.061813 0.8 0 0
0.551848 0.130335 0.032849 0.8 0 0
0.715756 0.146422 0.027869 0.8 0 0
0.550129 0.130098 0.120370 0.8 0 0
0.628142 0.043829 0.069849 0.8 0 0
0.154490 0.095891 0.060614 0.8 0 0
0.327948 0.117605 0.066280 0.8 0 0
0.411870 0.149984 0.057303 0.8 0 0
0.730271 0.142234 0.108035 0.8 0 0
0.444848 0.053040 0.118537 0.8 0 0
0.123927 0.054868 0.067616 0.8 0 0
0.401586 0.055904 0.033716 0.8 0 0
0.668297 0.043830 0.065277 0.8 0 0
0.562178 0.110994 0.120851 0.8 0 0
0.592232 0.121992 0.089543 0.8 0 0
0.281104 0.079148 0.101767 0.8 0 0
0.451263 0.086546 0.029616 0.8 0 0
0.538526 0.105869 0.026823 0.8 0 0
0.720246 0.132694 0.093969 0.8 0 0
0.084377 0.089213 0.071307 0.8 0 0
0.573945 0.117572 0.119710 0.8 0 0
0.422368 0.147439 0.058514 0.8 0 0
0.744643 0.048870 0.083715 0.8 0 0
0.572901 0.125384 0.026663 0.8 0 0
0.339289 0.143377 0.030300 0.8 0 0
0.460157 0.131454 0.051738 0.8 0 0
0.355491 0.166887 0.104710 0.8 0 0
0.742616 0.062561 0.033349 0.8 0 0
0.524415 0.138791 0.063252 0.8 0 0
0.775023 0.090749 0.116937 0.8 0 0
0.901233 0.096493 0.058092 0.8 0 0
0.409411 0.048343 0.039864 0.8 0 0
0.723532 0.124199 0.071644 0.8 0 0
0.697133 0.091419 0.118389 0.8 0 0
0.454099 0.111361 0.026972 0.8 0 0
0.521277 0.179766 0.060908 0.8 0 0
0.621096 0.129407 0.082290 0.8 0 0
0.444380 0.114074 0.120054 0.8 0 0
0.368403 0.166621 0.046275 0.8 0 0
0.581935 0.043828 0.084861 0.8 0 0
0.378023 0.158141 0.110456 0.8 0 0
0.382569 0.077840 0.114922 0.8 0 0
0.415266 0.097991 0.028818 0.8 0 0
0.141138 0.119058 0.090320 0.8 0 0
0.585459 0.129883 0.088898 0.8 0 0
0.529549 0.179923 0.068714 0.8 0 0
0.624429 0.105791 0.026513 0.8 0 0
0.883409 0.096491 0.039076 0.8 0 0
0.281843 0.053981 0.099187 0.8 0 0
0.717805 0.046615 0.059869 0.8 0 0
0.934857 0.068006 0.090856 0.8 0 0
0.300893 0.047452 0.096698 0.8 0 0
0.342826 0.078326 0.036569 0.8 0 0
0.338523 0.157591 0.031419 0.8 0 0
0.660737 0.136062 0.026541 0.8 0 0
0.490410 0.093486 0.029050 0.8 0 0
0.645616 0.105508 0.048880 0.8 0 0
0.381185 0.157386 0.087816 0.8 0 0
0.586157 0.129085 0.058073 0.8 0 0
0.505512 0.150296 0.051890 0.8 0 0
0.273765 0.046118 0.089056 0.8 0 0
0.266249 0.123327 0.087213 0.8 0 0
0.888676 0.063716 0.077360 0.8 0 0
0.787108 0.053321 0.092260 0.8 0 0
0.974300 0.088061 0.073132 0.8 0 0
0.627643 0.062905 0.116037 0.8 0 0
0.192421 0.112616 0.101073 0.8 0 0
0.962013 0.096503 0.063548 0.8 0 0
0.504607 0.150105 0.051856 0.8 0 0
0.356776 0.166829 0.035609 0.8 0 0
0.654360 0.147122 0.068427 0.8 0 0
0.707148 0.049535 0.040778 0.8 0 0
0.522785 0.053515 0.030179 0.8 0 0
0.488018 0.147244 0.056285 0.8 0 0
0.910265 0.096495 0.066545 0.8 0 0
0.448036 0.115185 0.027107 0.8 0 0
0.684270 0.151651 0.072316 0.8 0 0
0.096149 0.058939 0.072039 0.8 0 0
0.941471 0.086411 0.037103 0.8 0 0
0.502689 0.099734 0.119144 0.8 0 0
0.899460 0.096493 0.053567 0.8 0 0
0.340482 0.154756 0.040900 0.8 0 0
0.903883 0.075300 0.111297 0.8 0 0
0.263794 0.113918 0.039870 0.8 0 0
0.804678 0.057303 0.100014 0.8 0 0
0.047883 0.124014 0.068989 0.8 0 0
0.108668 0.033178 0.084713 0.8 0 0
0.380272 0.095335 0.031183 0.8 0 0
0.554708 0.130056 0.079072 0.8 0 0
0.671727 0.151795 0.044773 0.8 0 0
0.499661 0.137792 0.097821 0.8 0 0
0.855753 0.089896 0.032998 0.8 0 0
0.317254 0.093008 0.036648 0.8 0 0
0.574022 0.125622 0.091666 0.8 0 0
0.195828 0.116458 0.072848 0.8 0 0
0.678922 0.139195 0.120831 0.8 0 0
0.115499 0.105250 0.063788 0.8 0 0
0.638077 0.054144 0.114720 0.8 0 0
0.717626 0.059290 0.033345 0.8 0 0
0.314428 0.062351 0.105999 0.8 0 0
0.106122 0.060045 0.075800 0.8 0 0
0.227448 0.051039 0.092178 0.8 0 0
0.727033 0.104676 0.033114 0.8 0 0
0.151068 0.118443 0.057717 0.8 0 0
0.562751 0.130047 0.078641 0.8 0 0
0.688964 0.151596 0.120212 0.8 0 0
0.188560 0.116737 0.093077 0.8 0 0
0.580651 0.055776 0.120060 0.8 0 0
0.940814 0.073468 0.040532 0.8 0 0
0.076418 0.028791 0.067512 0.8 0 0
0.739363 0.048957 0.052611 0.8 0 0
0.674282 0.126140 0.026870 0.8 0 0
0.659261 0.130936 0.090749 0.8 0 0
0.961848 0.096503 0.102363 0.8 0 0
0.516045 0.082449 0.029770 0.8 0 0
0.503794 0.121846 0.026847 0.8 0 0
0.330280 0.044825 0.089844 0.8 0 0
0.897167 0.070724 0.039014 0.8 0 0
0.575308 0.088074 0.029252 0.8 0 0
0.960376 0.084316 0.110527 0.8 0 0
0.313659 0.112381 0.051528 0.8 0 0
0.388863 0.135763 0.117934 0.8 0 0
0.647877 0.076213 0.117739 0.8 0 0
0.451723 0.054026 0.032366 0.8 0 0
0.092325 0.074945 0.074539 0.8 0 0
0.669623 0.126000 0.026757 0.8 0 0
0.939098 0.071535 0.104465 0.8 0 0
0.415423 0.131926 0.028860 0.8 0 0
0.768566 0.050951 0.087022 0.8 0 0
0.888068 0.068496 0.107618 0.8 0 0
0.731706 0.065206 0.032559 0.8 0 0
0.259519 0.130460 0.082463 0.8 0 0
0.549265 0.043827 0.058181 0.8 0 0
0.235323 0.109417 0.104655 0.8 0 0
0.609159 0.043829 0.071239 0.8 0 0
0.438108 0.043824 0.070183 0.8 0 0
0.744792 0.053969 0.108257 0.8 0 0
0.259973 0.086171 0.047989 0.8 0 0
0.395314 0.153992 0.093258 0.8 0 0
0.477692 0.076667 0.117091 0.8 0 0
0.390263 0.045085 0.097140 0.8 0 0
0.568823 0.043827 0.062565 0.8 0 0
0.203365 0.048745 0.087099 0.8 0 0
0.696675 0.044843 0.083210 0.8 0 0
0.379517 0.082050 0.032507 0.8 0 0
0.520058 0.075148 0.030288 0.8 0 0
0.664526 0.145691 0.026631 0.8 0 0
0.957572 0.069903 0.074317 0.8 0 0
0.172158 0.097164 0.088713 0.8 0 0
0.646549 0.043829 0.062105 0.8 0 0
0.378039 0.158733 0.115613 0.8 0 0
0.736752 0.059690 0.113551 0.8 0 0
0.484560 0.142658 0.088011 0.8 0 0
0.710861 0.138471 0.027753 0.8 0 0
0.301840 0.045748 0.055825 0.8 0 0
0.664872 0.043830 0.060206 0.8 0 0
0.723472 0.111478 0.066362 0.8 0 0
0.654313 0.142029 0.074267 0.8 0 0
0.569028 0.118921 0.026675 0.8 0 0
0.591009 0.110748 0.089540 0.8 0 0
0.424712 0.123000 0.027670 0.8 0 0
0.710288 0.067692 0.116144 0.8 0 0
0.689650 0.133051 0.028854 0.8 0 0
0.327612 0.116567 0.092799 0.8 0 0
0.479238 0.043825 0.060666 0.8 0 0
0.447435 0.048229 0.107324 0.8 0 0
0.244699 0.046697 0.058100 0.8 0 0
0.471593 0.052486 0.025894 0.8 0 0
0.349029 0.051007 0.040690 0.8 0 0
0.087813 0.026802 0.075197 0.8 0 0
0.562895 0.051221 0.035332 0.8 0 0
0.080840 0.039247 0.085612 0.8 0 0
0.195738 0.116459 0.101340 0.8 0 0
0.257326 0.119498 0.071456 0.8 0 0
0.594945 0.088057 0.118371 0.8 0 0
0.199220 0.089681 0.091015 0.8 0 0
0.137836 0.030039 0.078539 0.8 0 0
0.486482 0.114653 0.120457 0.8 0 0
0.372954 0.127489 0.118171 0.8 0 0
0.439661 0.114513 0.027309 0.8 0 0
0.618760 0.105865 0.109665 0.8 0 0
0.182136 0.116987 0.065348 0.8 0 0
0.723464 0.112634 0.077906 0.8 0 0
0.497496 0.131067 0.039574 0.8 0 0
0.239100 0.103844 0.045220 0.8 0 0
0.521909 0.130205 0.049054 0.8 0 0
0.547166 0.069409 0.116517 0.8 0 0
0.479056 0.185911 0.062126 0.8 0 0
0.751308 0.050720 0.097962 0.8 0 0
0.892356 0.096492 0.086216 0.8 0 0
0.703477 0.141707 0.027573 0.8 0 0
0.510816 0.058848 0.029981 0.8 0 0
0.353389 0.166974 0.050411 0.8 0 0
0.791855 0.078047 0.114931 0.8 0 0
0.548618 0.074740 0.117211 0.8 0 0
0.481195 0.043825 0.066516 0.8 0 0
0.181998 0.116990 0.101174 0.8 0 0
0.733761 0.048030 0.054393 0.8 0 0
0.252770 0.054025 0.051514 0.8 0 0
0.565130 0.044190 0.052088 0.8 0 0
0.717829 0.097535 0.029249 0.8 0 0
0.556222 0.053803 0.115852 0.8 0 0
0.974014 0.086854 0.108168 0.8 0 0
0.590055 0.129821 0.082864 0.8 0 0
0.713465 0.046253 0.090407 0.8 0 0
0.481446 0.131054 0.089804 0.8 0 0
0.363873 0.128918 0.117934 0.8 0 0
0.095315 0.026345 0.077364 0.8 0 0
0.198979 0.083941 0.056019 0.8 0 0
0.588263 0.051610 0.035088 0.8 0 0
0.557448 0.130053 0.077135 0.8 0 0
0.723465 0.107232 0.054067 0.8 0 0
0.528041 0.203579 0.071700 0.8 0 0
0.107136 0.041939 0.081576 0.8 0 0
0.956268 0.082797 0.038022 0.8 0 0
0.740533 0.048522 0.056217 0.8 0 0
0.537019 0.110591 0.026763 0.8 0 0
0.730222 0.134032 0.095846 0.8 0 0
0.768691 0.105567 0.041219 0.8 0 0
0.223578 0.115388 0.047744 0.8 0 0
0.850169 0.060625 0.055928 0.8 0 0
0.836746 0.100599 0.074680 0.8 0 0
0.225576 0.043860 0.073138 0.8 0 0
0.520974 0.172750 0.069631 0.8 0 0
0.883630 0.065300 0.101142 0.8 0 0
0.530422 0.051395 0.112111 0.8 0 0
0.414018 0.149457 0.060225 0.8 0 0
0.679538 0.043830 0.067579 0.8 0 0
0.615407 0.070491 0.116929 0.8 0 0
0.260637 0.044240 0.079849 0.8 0 0
0.436740 0.125765 0.119859 0.8 0 0
0.442257 0.120979 0.027247 0.8 0 0
0.451335 0.092277 0.029217 0.8 0 0
0.937742 0.068123 0.081137 0.8 0 0
0.436918 0.062011 0.115555 0.8 0 0
0.424083 0.141222 0.029452 0.8 0 0
0.805945 0.106364 0.071098 0.8 0 0
0.587509 0.126350 0.089531 0.8 0 0
0.663373 0.063666 0.031476 0.8 0 0
0.341611 0.167174 0.066507 0.8 0 0
0.601757 0.043828 0.091532 0.8 0 0
0.144807 0.112548 0.092792 0.8 0 0
0.087189 0.121331 0.085202 0.8 0 0
0.555418 0.053782 0.115929 0.8 0 0
0.864909 0.073650 0.112363 0.8 0 0
0.654271 0.138858 0.087880 0.8 0 0
0.357839 0.141736 0.035592 0.8 0 0
0.366090 0.166700 0.052117 0.8 0 0
0.631105 0.066365 0.116459 0.8 0 0
0.300694 0.064777 0.042832 0.8 0 0
0.166549 0.117641 0.046576 0.8 0 0
0.444763 0.142066 0.050994 0.8 0 0
0.935753 0.068143 0.056939 0.8 0 0
0.865045 0.096488 0.071991 0.8 0 0
0.241934 0.093220 0.097186 0.8 0 0
0.924664 0.092665 0.035701 0.8 0 0
0.692591 0.151556 0.028438 0.8 0 0
0.493085 0.043825 0.071975 0.8 0 0
0.532983 0.074102 0.030361 0.8 0 0
0.479239 0.053584 0.120847 0.8 0 0
0.455306 0.074754 0.030449 0.8 0 0
0.510173 0.086492 0.117905 0.8 0 0
0.488903 0.136000 0.096193 0.8 0 0
0.331529 0.129854 0.054207 0.8 0 0
0.247132 0.099638 0.099943 0.8 0 0
0.675220 0.118169 0.120907 0.8 0 0
