0.424593 0.065864 0.061004 0.8 0 0
0.521621 0.050811 0.059956 0.8 0 0
0.192681 0.057299 0.036360 0.8 0 0
0.364359 0.049567 0.032101 0.8 0 0
0.547996 0.050660 0.056453 0.8 0 0
0.789729 0.043480 0.119018 0.8 0 0
0.524465 0.069853 0.066240 0.8 0 0
0.391506 0.025000 0.088835 0.8 0 0
0.706938 0.025000 0.094848 0.8 0 0
0.518303 0.122905 0.066838 0.8 0 0
0.782696 0.025000 0.101595 0.8 0 0
0.082454 0.052371 0.052707 0.8 0 0
0.398222 0.025000 0.067677 0.8 0 0
0.538470 0.025000 0.084658 0.8 0 0
0.185347 0.025000 0.038905 0.8 0 0
0.961687 0.051512 0.071426 0.8 0 0
0.314050 0.054576 0.093373 0.8 0 0
0.390608 0.049966 0.041137 0.8 0 0
0.356144 0.121770 0.086124 0.8 0 0
0.762626 0.049899 0.040698 0.8 0 0
0.797888 0.093854 0.074627 0.8 0 0
0.658171 0.025000 0.088051 0.8 0 0
0.251663 0.057367 0.040440 0.8 0 0
0.394754 0.025000 0.086766 0.8 0 0
0.540201 0.025000 0.115503 0.8 0 0
0.464384 0.059615 0.056284 0.8 0 0
0.399898 0.050144 0.045184 0.8 0 0
0.797888 0.051222 0.076309 0.8 0 0
0.372178 0.115770 0.073585 0.8 0 0
0.534473 0.113253 0.067400 0.8 0 0
0.344506 0.083676 0.069273 0.8 0 0
0.408295 0.049651 0.033753 0.8 0 0
0.910057 0.051248 0.088455 0.8 0 0
0.164322 0.051512 0.054711 0.8 0 0
0.118142 0.049541 0.109272 0.8 0 0
0.434305 0.041538 0.126873 0.8 0 0
0.200356 0.025000 0.037272 0.8 0 0
0.450142 0.051195 0.068996 0.8 0 0
0.319430 0.101590 0.078023 0.8 0 0
0.157888 0.057422 0.063110 0.8 0 0
0.216417 0.051512 0.070449 0.8 0 0
0.069494 0.073883 0.071288 0.8 0 0
0.806843 0.029737 0.118009 0.8 0 0
0.549638 0.025000 0.097100 0.8 0 0
0.626329 0.057964 0.083467 0.8 0 0
0.148087 0.067861 0.095525 0.8 0 0
0.186871 0.053059 0.095330 0.8 0 0
0.799263 0.051063 0.066319 0.8 0 0
0.486624 0.025000 0.040845 0.8 0 0
0.665028 0.025000 0.105992 0.8 0 0
0.368288 0.075420 0.082555 0.8 0 0
0.300383 0.051243 0.060823 0.8 0 0
0.687304 0.049638 0.034464 0.8 0 0
0.637531 0.025000 0.065304 0.8 0 0
0.487472 0.025000 0.094928 0.8 0 0
0.868794 0.050515 0.106301 0.8 0 0
0.102761 0.068155 0.102641 0.8 0 0
0.643512 0.027454 0.026382 0.8 0 0
0.726614 0.031232 0.027258 0.8 0 0
0.369353 0.029308 0.025930 0.8 0 0
0.608452 0.050193 0.106593 0.8 0 0
0.342635 0.055941 0.068871 0.8 0 0
0.795807 0.223063 0.078392 0.8 0 0
0.254315 0.057686 0.118249 0.8 0 0
0.336294 0.037281 0.125767 0.8 0 0
0.328656 0.025000 0.065598 0.8 0 0
0.412282 0.049956 0.040782 0.8 0 0
0.318889 0.075446 0.101569 0.8 0 0
0.175415 0.082514 0.078350 0.8 0 0
0.284995 0.058701 0.069059 0.8 0 0
0.563018 0.051064 0.086549 0.8 0 0
0.797549 0.025000 0.072047 0.8 0 0
0.343621 0.102340 0.075682 0.8 0 0
0.883691 0.051328 0.069436 0.8 0 0
0.348951 0.025000 0.097910 0.8 0 0
0.464726 0.052162 0.054160 0.8 0 0
0.704796 0.025000 0.044630 0.8 0 0
0.391756 0.025000 0.048546 0.8 0 0
0.837237 0.025000 0.081530 0.8 0 0
0.471516 0.050850 0.091275 0.8 0 0
0.704646 0.049858 0.039499 0.8 0 0
0.752537 0.025000 0.045787 0.8 0 0
0.295073 0.050518 0.043247 0.8 0 0
0.635484 0.051256 0.070262 0.8 0 0
0.911342 0.035073 0.051895 0.8 0 0
0.323697 0.079884 0.060077 0.8 0 0
0.288833 0.025000 0.040701 0.8 0 0
0.339210 0.051219 0.083746 0.8 0 0
0.075813 0.050416 0.096997 0.8 0 0
0.333040 0.075446 0.108705 0.8 0 0
0.720345 0.049807 0.113814 0.8 0 0
0.166544 0.051512 0.038799 0.8 0 0
0.850994 0.050417 0.106872 0.8 0 0
0.556646 0.025000 0.044847 0.8 0 0
0.388772 0.049793 0.115191 0.8 0 0
0.784842 0.049716 0.032960 0.8 0 0
0.409598 0.036227 0.126706 0.8 0 0
0.318101 0.198267 0.075892 0.8 0 0
0.429590 0.051294 0.071253 0.8 0 0
0.766182 0.058585 0.084631 0.8 0 0
0.336770 0.025000 0.042352 0.8 0 0
0.683636 0.080135 0.067095 0.8 0 0
0.647242 0.050332 0.103106 0.8 0 0
0.538116 0.103441 0.072221 0.8 0 0
0.473013 0.025000 0.076629 0.8 0 0
0.811381 0.030621 0.117537 0.8 0 0
0.816867 0.025000 0.114142 0.8 0 0
0.258960 0.032137 0.120487 0.8 0 0
0.397693 0.049591 0.119934 0.8 0 0
0.194478 0.077615 0.072694 0.8 0 0
0.299057 0.025000 0.031059 0.8 0 0
0.256570 0.050444 0.119062 0.8 0 0
0.389585 0.027756 0.126571 0.8 0 0
0.527650 0.025000 0.086111 0.8 0 0
0.455840 0.025000 0.054933 0.8 0 0
0.838452 0.050404 0.105505 0.8 0 0
0.522004 0.051427 0.074227 0.8 0 0
0.172610 0.025000 0.058750 0.8 0 0
0.071925 0.025000 0.088978 0.8 0 0
0.312961 0.096434 0.072706 0.8 0 0
0.662267 0.078697 0.059705 0.8 0 0
0.341296 0.069177 0.080045 0.8 0 0
0.793837 0.056550 0.075676 0.8 0 0
0.867553 0.050601 0.048902 0.8 0 0
0.800561 0.025000 0.071441 0.8 0 0
0.314050 0.056308 0.040166 0.8 0 0
0.780304 0.049704 0.033220 0.8 0 0
0.371727 0.110961 0.070591 0.8 0 0
0.455296 0.049635 0.119317 0.8 0 0
0.340299 0.054950 0.080712 0.8 0 0
0.253739 0.025000 0.067503 0.8 0 0
0.663857 0.056963 0.085963 0.8 0 0
0.322673 0.091617 0.092264 0.8 0 0
0.459936 0.025000 0.075692 0.8 0 0
0.720379 0.042822 0.027372 0.8 0 0
0.454722 0.025000 0.044297 0.8 0 0
0.596243 0.059874 0.070072 0.8 0 0
0.663857 0.059440 0.090600 0.8 0 0
0.125324 0.051704 0.056725 0.8 0 0
0.661679 0.073605 0.070504 0.8 0 0
0.392654 0.043073 0.126592 0.8 0 0
0.813732 0.026057 0.034708 0.8 0 0
0.922310 0.051512 0.078750 0.8 0 0
0.484349 0.049576 0.031493 0.8 0 0
0.298749 0.029009 0.123204 0.8 0 0
0.475817 0.049991 0.111193 0.8 0 0
0.391935 0.051470 0.077136 0.8 0 0
0.658828 0.025000 0.121523 0.8 0 0
0.422156 0.027672 0.126791 0.8 0 0
0.162503 0.025000 0.112581 0.8 0 0
0.795069 0.252174 0.078392 0.8 0 0
0.552266 0.025000 0.079902 0.8 0 0
0.813078 0.072825 0.059981 0.8 0 0
0.318101 0.203244 0.075409 0.8 0 0
0.422306 0.086326 0.118380 0.8 0 0
0.711968 0.025000 0.088623 0.8 0 0
0.347170 0.025000 0.087402 0.8 0 0
0.171127 0.048786 0.116041 0.8 0 0
0.539017 0.046683 0.126996 0.8 0 0
0.333933 0.051373 0.081394 0.8 0 0
0.558631 0.027772 0.025551 0.8 0 0
0.119058 0.054863 0.089092 0.8 0 0
0.398526 0.049855 0.038544 0.8 0 0
0.817264 0.047878 0.116194 0.8 0 0
0.833439 0.025000 0.093666 0.8 0 0
0.314050 0.064256 0.088919 0.8 0 0
0.380035 0.051199 0.083274 0.8 0 0
0.349980 0.074523 0.122578 0.8 0 0
0.868309 0.050727 0.099651 0.8 0 0
0.523126 0.025000 0.100882 0.8 0 0
0.251741 0.025000 0.039800 0.8 0 0
0.162162 0.051512 0.064417 0.8 0 0
0.880378 0.050499 0.044097 0.8 0 0
0.328043 0.054986 0.061461 0.8 0 0
0.754328 0.052191 0.065850 0.8 0 0
0.160912 0.047158 0.056904 0.8 0 0
0.314050 0.075322 0.061679 0.8 0 0
0.394091 0.025000 0.046263 0.8 0 0
0.818982 0.041721 0.036249 0.8 0 0
0.461128 0.025000 0.122543 0.8 0 0
0.276241 0.025000 0.098358 0.8 0 0
0.671957 0.054726 0.085251 0.8 0 0
0.315873 0.075446 0.037957 0.8 0 0
0.129526 0.073319 0.056078 0.8 0 0
0.948340 0.050836 0.063892 0.8 0 0
0.270466 0.051461 0.059347 0.8 0 0
0.508160 0.054912 0.070434 0.8 0 0
0.376363 0.039113 0.025883 0.8 0 0
0.601150 0.025000 0.076609 0.8 0 0
0.723472 0.031848 0.027237 0.8 0 0
0.494153 0.050158 0.044920 0.8 0 0
0.337296 0.025000 0.080875 0.8 0 0
0.854693 0.068432 0.074341 0.8 0 0
0.896720 0.038516 0.104686 0.8 0 0
0.365157 0.025000 0.117401 0.8 0 0
0.517007 0.110626 0.067145 0.8 0 0
0.149307 0.025000 0.104975 0.8 0 0
0.743204 0.025000 0.085599 0.8 0 0
0.814025 0.041343 0.035747 0.8 0 0
0.360289 0.059002 0.086124 0.8 0 0
0.584681 0.058140 0.083420 0.8 0 0
0.328043 0.052806 0.072229 0.8 0 0
0.191385 0.025000 0.112563 0.8 0 0
0.616740 0.025000 0.087349 0.8 0 0
0.672344 0.051018 0.087624 0.8 0 0
0.318437 0.051058 0.091850 0.8 0 0
0.220637 0.025000 0.062684 0.8 0 0
0.539194 0.118820 0.074732 0.8 0 0
0.429131 0.049317 0.126490 0.8 0 0
0.353450 0.063794 0.104117 0.8 0 0
0.144825 0.051512 0.066012 0.8 0 0
0.333153 0.075446 0.039446 0.8 0 0
0.046900 0.058897 0.065353 0.8 0 0
0.679099 0.032408 0.125556 0.8 0 0
0.054254 0.031695 0.065723 0.8 0 0
0.910976 0.030864 0.100584 0.8 0 0
0.576794 0.025000 0.051230 0.8 0 0
0.271233 0.051121 0.051798 0.8 0 0
0.383074 0.025000 0.109988 0.8 0 0
0.906952 0.025000 0.086760 0.8 0 0
0.326024 0.079757 0.029787 0.8 0 0
0.657318 0.079390 0.090460 0.8 0 0
0.887759 0.034513 0.044728 0.8 0 0
0.752951 0.058140 0.086571 0.8 0 0
0.192932 0.067481 0.089401 0.8 0 0
0.335964 0.050900 0.091675 0.8 0 0
0.646660 0.025000 0.076698 0.8 0 0
0.855615 0.025000 0.092177 0.8 0 0
0.740840 0.025000 0.115213 0.8 0 0
0.796968 0.025000 0.087876 0.8 0 0
0.445003 0.049575 0.120632 0.8 0 0
0.729178 0.058080 0.089125 0.8 0 0
0.808863 0.051175 0.083597 0.8 0 0
0.214957 0.059804 0.036750 0.8 0 0
0.116635 0.051512 0.062009 0.8 0 0
0.794097 0.233317 0.073973 0.8 0 0
0.440911 0.028826 0.025447 0.8 0 0
0.130993 0.049137 0.089142 0.8 0 0
0.483830 0.025000 0.048240 0.8 0 0
0.260275 0.025000 0.074188 0.8 0 0
0.182801 0.051512 0.092836 0.8 0 0
0.842527 0.025000 0.046065 0.8 0 0
0.314050 0.079959 0.108342 0.8 0 0
0.580202 0.037492 0.025841 0.8 0 0
0.847173 0.050728 0.055667 0.8 0 0
0.109592 0.050332 0.044262 0.8 0 0
0.675643 0.050559 0.097784 0.8 0 0
0.655618 0.025000 0.112207 0.8 0 0
0.157306 0.051512 0.078671 0.8 0 0
0.710778 0.036798 0.027186 0.8 0 0
0.630619 0.025000 0.123950 0.8 0 0
0.843882 0.025000 0.065279 0.8 0 0
0.430842 0.060897 0.062724 0.8 0 0
0.618759 0.051006 0.064475 0.8 0 0
0.363080 0.099119 0.066240 0.8 0 0
0.308229 0.088382 0.061276 0.8 0 0
0.478746 0.025000 0.048452 0.8 0 0
0.372147 0.033537 0.126453 0.8 0 0
0.503453 0.049974 0.111789 0.8 0 0
0.683663 0.025000 0.064613 0.8 0 0
0.351586 0.029357 0.026050 0.8 0 0
0.571524 0.025000 0.075823 0.8 0 0
0.073270 0.053934 0.055794 0.8 0 0
0.200994 0.025000 0.113018 0.8 0 0
0.747427 0.027954 0.123489 0.8 0 0
0.146639 0.025000 0.045778 0.8 0 0
0.602971 0.049448 0.123061 0.8 0 0
0.520314 0.036404 0.127211 0.8 0 0
0.440422 0.049472 0.122977 0.8 0 0
0.283602 0.064217 0.067946 0.8 0 0
0.329555 0.073036 0.029787 0.8 0 0
0.318101 0.099272 0.076665 0.8 0 0
0.829863 0.050605 0.054261 0.8 0 0
0.831395 0.065180 0.076815 0.8 0 0
0.657315 0.025000 0.041899 0.8 0 0
0.257723 0.037900 0.120403 0.8 0 0
0.138951 0.025000 0.083133 0.8 0 0
0.774123 0.050338 0.050354 0.8 0 0
0.162705 0.030596 0.114280 0.8 0 0
0.711483 0.049649 0.034978 0.8 0 0
0.107995 0.050276 0.044500 0.8 0 0
0.308802 0.096434 0.065337 0.8 0 0
0.861109 0.025000 0.051045 0.8 0 0
0.671957 0.071199 0.084628 0.8 0 0
0.469600 0.025000 0.097073 0.8 0 0
0.606176 0.058140 0.068274 0.8 0 0
0.161641 0.025000 0.043761 0.8 0 0
0.867098 0.067467 0.075719 0.8 0 0
0.237034 0.034350 0.033374 0.8 0 0
0.239328 0.051512 0.086713 0.8 0 0
0.748944 0.036934 0.029163 0.8 0 0
0.219462 0.051512 0.096476 0.8 0 0
0.759897 0.057421 0.073549 0.8 0 0
0.692957 0.025000 0.105375 0.8 0 0
0.173350 0.063358 0.089319 0.8 0 0
0.569786 0.050298 0.104292 0.8 0 0
0.169886 0.050108 0.063060 0.8 0 0
0.193971 0.051512 0.090465 0.8 0 0
0.344888 0.089854 0.083542 0.8 0 0
0.462787 0.066030 0.088838 0.8 0 0
0.350319 0.133169 0.068149 0.8 0 0
0.814826 0.063121 0.084283 0.8 0 0
0.476576 0.050924 0.062767 0.8 0 0
0.858566 0.066977 0.076739 0.8 0 0
0.896368 0.047441 0.048221 0.8 0 0
0.368744 0.025000 0.109741 0.8 0 0
0.528958 0.067653 0.066240 0.8 0 0
0.335830 0.050968 0.090159 0.8 0 0
0.369390 0.075992 0.075608 0.8 0 0
0.418683 0.025000 0.028849 0.8 0 0
0.920250 0.030024 0.097615 0.8 0 0
0.409333 0.040008 0.126704 0.8 0 0
0.562429 0.025000 0.061948 0.8 0 0
0.432110 0.025000 0.123750 0.8 0 0
0.183332 0.051512 0.065750 0.8 0 0
0.541317 0.051047 0.086944 0.8 0 0
0.899337 0.029865 0.104310 0.8 0 0
0.432275 0.053096 0.054653 0.8 0 0
0.574905 0.050302 0.104212 0.8 0 0
0.684951 0.074348 0.082112 0.8 0 0
0.239507 0.051512 0.095728 0.8 0 0
0.221577 0.025000 0.070507 0.8 0 0
0.151163 0.030657 0.039657 0.8 0 0
0.663857 0.068363 0.071500 0.8 0 0
0.180484 0.068599 0.095362 0.8 0 0
0.821068 0.081768 0.069554 0.8 0 0
0.536326 0.077904 0.073063 0.8 0 0
0.357593 0.050429 0.051644 0.8 0 0
0.549358 0.050888 0.090632 0.8 0 0
0.490222 0.051334 0.072146 0.8 0 0
0.238920 0.051512 0.096093 0.8 0 0
0.848310 0.028192 0.037974 0.8 0 0
0.149873 0.046320 0.113589 0.8 0 0
0.321196 0.075446 0.065329 0.8 0 0
0.804369 0.051307 0.080693 0.8 0 0
0.740774 0.062926 0.068612 0.8 0 0
0.151482 0.051512 0.050963 0.8 0 0
0.450606 0.049506 0.122255 0.8 0 0
0.110128 0.047151 0.107872 0.8 0 0
0.644087 0.025000 0.121681 0.8 0 0
0.814886 0.039473 0.116580 0.8 0 0
0.175926 0.077512 0.075584 0.8 0 0
0.845512 0.029086 0.037787 0.8 0 0
0.756909 0.028361 0.122602 0.8 0 0
0.311540 0.117235 0.076764 0.8 0 0
0.724410 0.025000 0.048431 0.8 0 0
0.684724 0.025474 0.125606 0.8 0 0
0.323384 0.050500 0.103437 0.8 0 0
0.572400 0.050754 0.058622 0.8 0 0
0.510637 0.025000 0.067910 0.8 0 0
0.185840 0.041630 0.116413 0.8 0 0
0.195795 0.051512 0.057686 0.8 0 0
0.648994 0.025000 0.088173 0.8 0 0
0.939542 0.025000 0.088433 0.8 0 0
0.862443 0.036523 0.112515 0.8 0 0
0.963199 0.051512 0.077018 0.8 0 0
0.687845 0.025000 0.120600 0.8 0 0
0.284876 0.050484 0.112074 0.8 0 0
0.284188 0.051122 0.097769 0.8 0 0
0.182375 0.051512 0.064118 0.8 0 0
0.851833 0.025000 0.066886 0.8 0 0
0.794070 0.270449 0.078392 0.8 0 0
0.317774 0.096434 0.088400 0.8 0 0
0.187798 0.025000 0.069668 0.8 0 0
0.766473 0.025000 0.069104 0.8 0 0
0.314050 0.082195 0.039579 0.8 0 0
0.053457 0.045605 0.064077 0.8 0 0
0.694483 0.025000 0.051526 0.8 0 0
0.871439 0.050421 0.042796 0.8 0 0
0.126058 0.068593 0.046738 0.8 0 0
0.495580 0.025000 0.112333 0.8 0 0
0.744880 0.058140 0.082746 0.8 0 0
0.060864 0.059150 0.059310 0.8 0 0
0.206719 0.051042 0.116209 0.8 0 0
0.742099 0.050806 0.091707 0.8 0 0
0.449104 0.025656 0.025391 0.8 0 0
0.100925 0.067562 0.048808 0.8 0 0
0.792426 0.025000 0.072065 0.8 0 0
0.406873 0.025000 0.075304 0.8 0 0
0.743644 0.058140 0.081798 0.8 0 0
0.518363 0.025000 0.080148 0.8 0 0
0.913971 0.048912 0.098812 0.8 0 0
0.510862 0.048441 0.084691 0.8 0 0
0.798992 0.055151 0.076283 0.8 0 0
0.225881 0.051205 0.043961 0.8 0 0
0.268793 0.025000 0.071476 0.8 0 0
0.671957 0.057848 0.090512 0.8 0 0
0.505185 0.025000 0.034669 0.8 0 0
0.276448 0.025000 0.098156 0.8 0 0
0.423917 0.050806 0.092177 0.8 0 0
0.320780 0.106987 0.078023 0.8 0 0
0.503259 0.025000 0.067602 0.8 0 0
0.819109 0.051130 0.067784 0.8 0 0
0.601695 0.062133 0.065290 0.8 0 0
0.764384 0.027999 0.030409 0.8 0 0
0.677600 0.048211 0.125403 0.8 0 0
0.225761 0.054220 0.034109 0.8 0 0
0.917546 0.025000 0.057251 0.8 0 0
0.188548 0.037743 0.116303 0.8 0 0
0.606365 0.051472 0.075254 0.8 0 0
0.132849 0.080665 0.076174 0.8 0 0
0.657165 0.028673 0.125829 0.8 0 0
0.799718 0.035045 0.034098 0.8 0 0
0.112476 0.061220 0.110105 0.8 0 0
0.346665 0.124909 0.082660 0.8 0 0
0.747303 0.062401 0.069796 0.8 0 0
0.056729 0.069651 0.089602 0.8 0 0
0.310798 0.082145 0.060542 0.8 0 0
0.225836 0.036839 0.033921 0.8 0 0
0.209987 0.045754 0.118126 0.8 0 0
0.367601 0.069374 0.082766 0.8 0 0
0.923660 0.028372 0.096522 0.8 0 0
0.746793 0.025000 0.072557 0.8 0 0
0.825644 0.025000 0.049707 0.8 0 0
0.331454 0.050479 0.050194 0.8 0 0
0.303098 0.050371 0.110727 0.8 0 0
0.652491 0.025000 0.123931 0.8 0 0
0.716253 0.051011 0.064998 0.8 0 0
0.617609 0.025000 0.052239 0.8 0 0
0.045928 0.070826 0.069574 0.8 0 0
0.198644 0.025000 0.096927 0.8 0 0
0.260298 0.033078 0.031786 0.8 0 0
0.192001 0.025000 0.090169 0.8 0 0
0.803368 0.029085 0.033995 0.8 0 0
0.498953 0.050564 0.098083 0.8 0 0
0.272844 0.045348 0.121811 0.8 0 0
0.418010 0.031068 0.025601 0.8 0 0
0.196539 0.073863 0.062948 0.8 0 0
0.635909 0.025000 0.070055 0.8 0 0
0.816683 0.050496 0.052709 0.8 0 0
0.488849 0.050144 0.107746 0.8 0 0
0.152274 0.051512 0.094332 0.8 0 0
0.319853 0.182801 0.078023 0.8 0 0
0.060375 0.025000 0.086398 0.8 0 0
0.436067 0.025000 0.121753 0.8 0 0
0.515222 0.025000 0.122503 0.8 0 0
0.295271 0.079707 0.079414 0.8 0 0
0.426851 0.050282 0.048231 0.8 0 0
0.153001 0.051512 0.097881 0.8 0 0
0.128007 0.059654 0.063235 0.8 0 0
0.613811 0.049813 0.037454 0.8 0 0
0.663857 0.056524 0.066772 0.8 0 0
0.615248 0.025000 0.056556 0.8 0 0
0.604551 0.049857 0.114035 0.8 0 0
0.507783 0.054604 0.077452 0.8 0 0
0.056926 0.069890 0.063248 0.8 0 0
0.511088 0.025342 0.025046 0.8 0 0
0.154316 0.069656 0.108810 0.8 0 0
0.641055 0.050941 0.062963 0.8 0 0
0.468148 0.049633 0.119434 0.8 0 0
0.342174 0.081694 0.076763 0.8 0 0
0.629216 0.042811 0.026405 0.8 0 0
0.819708 0.040065 0.036261 0.8 0 0
0.340223 0.051228 0.069045 0.8 0 0
0.607049 0.025000 0.096541 0.8 0 0
0.511054 0.050236 0.046632 0.8 0 0
0.927159 0.025000 0.083187 0.8 0 0
0.238758 0.025000 0.035665 0.8 0 0
0.260725 0.054807 0.113638 0.8 0 0
0.317390 0.051512 0.077042 0.8 0 0
0.185313 0.039988 0.116268 0.8 0 0
0.154387 0.025000 0.062845 0.8 0 0
0.709648 0.025000 0.034882 0.8 0 0
0.628504 0.051315 0.080732 0.8 0 0
0.243458 0.050875 0.112107 0.8 0 0
0.671957 0.071703 0.064653 0.8 0 0
0.582481 0.056348 0.065712 0.8 0 0
0.480517 0.025000 0.062533 0.8 0 0
0.353450 0.073157 0.067482 0.8 0 0
0.604948 0.025000 0.065903 0.8 0 0
0.610902 0.050707 0.057535 0.8 0 0
0.131038 0.068920 0.095611 0.8 0 0
0.418716 0.051240 0.089597 0.8 0 0
0.867959 0.025000 0.059512 0.8 0 0
0.424884 0.108275 0.116722 0.8 0 0
0.264511 0.025000 0.078475 0.8 0 0
0.331409 0.075446 0.113321 0.8 0 0
0.039695 0.035610 0.080089 0.8 0 0
0.412287 0.025000 0.054906 0.8 0 0
0.748357 0.050658 0.059174 0.8 0 0
0.286555 0.025000 0.105114 0.8 0 0
0.227108 0.054248 0.037358 0.8 0 0
0.952609 0.027032 0.065112 0.8 0 0
0.317204 0.075446 0.038563 0.8 0 0
0.599953 0.050825 0.060264 0.8 0 0
0.265815 0.051125 0.101632 0.8 0 0
0.431212 0.049700 0.117641 0.8 0 0
0.328043 0.068880 0.065766 0.8 0 0
0.550980 0.027166 0.025466 0.8 0 0
0.230548 0.025000 0.062613 0.8 0 0
0.824569 0.025000 0.111165 0.8 0 0
0.221253 0.025000 0.105213 0.8 0 0
0.370431 0.025000 0.113610 0.8 0 0
0.428995 0.059947 0.048299 0.8 0 0
0.341149 0.096434 0.067410 0.8 0 0
0.117004 0.051512 0.100674 0.8 0 0
0.906898 0.025000 0.093160 0.8 0 0
0.937291 0.051385 0.087359 0.8 0 0
0.723979 0.049934 0.041393 0.8 0 0
0.714973 0.025000 0.065149 0.8 0 0
0.353450 0.073168 0.121247 0.8 0 0
0.832660 0.037530 0.037242 0.8 0 0
0.326272 0.043769 0.125083 0.8 0 0
0.422635 0.099274 0.118895 0.8 0 0
0.388812 0.025000 0.035867 0.8 0 0
0.100908 0.059137 0.107235 0.8 0 0
0.933397 0.051421 0.085814 0.8 0 0
0.481291 0.040852 0.127190 0.8 0 0
0.364109 0.025000 0.049660 0.8 0 0
0.333759 0.025000 0.040617 0.8 0 0
0.687277 0.040254 0.125357 0.8 0 0
0.343214 0.066188 0.069196 0.8 0 0
0.594478 0.050409 0.050625 0.8 0 0
0.742990 0.051129 0.084611 0.8 0 0
0.496523 0.025000 0.075936 0.8 0 0
0.608575 0.025000 0.033922 0.8 0 0
0.744720 0.057065 0.092022 0.8 0 0
0.476387 0.070366 0.063897 0.8 0 0
0.592089 0.025000 0.040778 0.8 0 0
0.757337 0.050480 0.053494 0.8 0 0
0.353450 0.074078 0.077529 0.8 0 0
0.927499 0.036350 0.057067 0.8 0 0
0.160560 0.070724 0.044151 0.8 0 0
0.137899 0.051512 0.084686 0.8 0 0
0.597176 0.053310 0.060695 0.8 0 0
0.353450 0.053704 0.051516 0.8 0 0
0.353450 0.050988 0.049952 0.8 0 0
0.575439 0.043189 0.126577 0.8 0 0
0.698952 0.050038 0.108969 0.8 0 0
0.345098 0.115936 0.082155 0.8 0 0
0.864803 0.050903 0.093723 0.8 0 0
0.046181 0.046384 0.084728 0.8 0 0
0.814073 0.051295 0.080945 0.8 0 0
0.237980 0.025000 0.079705 0.8 0 0
0.329840 0.064896 0.122578 0.8 0 0
0.150054 0.072393 0.047759 0.8 0 0
0.816555 0.074751 0.082810 0.8 0 0
0.471612 0.058037 0.062506 0.8 0 0
0.295271 0.096233 0.079180 0.8 0 0
0.314050 0.081079 0.040095 0.8 0 0
0.484733 0.049551 0.030908 0.8 0 0
0.345298 0.095957 0.069317 0.8 0 0
0.353450 0.051450 0.048355 0.8 0 0
0.598782 0.025000 0.064790 0.8 0 0
0.197877 0.025000 0.107615 0.8 0 0
0.248685 0.025000 0.079815 0.8 0 0
0.560157 0.051493 0.076623 0.8 0 0
0.838352 0.025000 0.089553 0.8 0 0
0.718011 0.025000 0.047857 0.8 0 0
0.308275 0.096434 0.078794 0.8 0 0
0.763348 0.050942 0.063654 0.8 0 0
0.404294 0.050097 0.044094 0.8 0 0
0.306724 0.049277 0.124085 0.8 0 0
0.384261 0.025000 0.047878 0.8 0 0
0.385803 0.028705 0.025819 0.8 0 0
0.065082 0.068237 0.057934 0.8 0 0
0.592657 0.050598 0.097346 0.8 0 0
0.519999 0.049769 0.035815 0.8 0 0
0.407826 0.033290 0.126694 0.8 0 0
0.852890 0.051185 0.078703 0.8 0 0
0.173173 0.073020 0.103788 0.8 0 0
0.823682 0.050881 0.090063 0.8 0 0
0.808806 0.025000 0.056445 0.8 0 0
0.104549 0.051512 0.065579 0.8 0 0
0.316575 0.091689 0.092129 0.8 0 0
0.229686 0.025000 0.037382 0.8 0 0
0.279230 0.051512 0.073922 0.8 0 0
0.390738 0.026353 0.126579 0.8 0 0
0.226104 0.025000 0.078049 0.8 0 0
0.369890 0.122636 0.068525 0.8 0 0
0.797482 0.159105 0.073973 0.8 0 0
0.426597 0.025000 0.094323 0.8 0 0
0.899597 0.051205 0.063775 0.8 0 0
0.155487 0.045599 0.063120 0.8 0 0
0.170160 0.050554 0.063059 0.8 0 0
0.683372 0.068860 0.076503 0.8 0 0
0.234258 0.025000 0.117134 0.8 0 0
0.718702 0.028062 0.125232 0.8 0 0
0.517118 0.039507 0.025116 0.8 0 0
0.793837 0.144212 0.077149 0.8 0 0
0.102737 0.075177 0.063140 0.8 0 0
0.374163 0.025000 0.101302 0.8 0 0
0.533583 0.050704 0.094900 0.8 0 0
0.582481 0.053872 0.077705 0.8 0 0
0.162964 0.053586 0.089276 0.8 0 0
0.684409 0.049559 0.119675 0.8 0 0
0.791268 0.050171 0.106193 0.8 0 0
0.918750 0.051061 0.095268 0.8 0 0
0.353450 0.058013 0.080689 0.8 0 0
0.794506 0.108567 0.073973 0.8 0 0
0.541782 0.025000 0.067119 0.8 0 0
0.165648 0.025000 0.109889 0.8 0 0
0.663857 0.060555 0.069831 0.8 0 0
0.147537 0.051512 0.109184 0.8 0 0
0.687503 0.050260 0.048132 0.8 0 0
0.336983 0.075446 0.108362 0.8 0 0
0.118162 0.051512 0.050013 0.8 0 0
0.116839 0.056038 0.063282 0.8 0 0
0.476890 0.025000 0.059199 0.8 0 0
0.314050 0.082442 0.061608 0.8 0 0
0.126473 0.064761 0.095634 0.8 0 0
0.492152 0.025000 0.091320 0.8 0 0
0.784658 0.038543 0.119600 0.8 0 0
0.249827 0.057763 0.040328 0.8 0 0
0.221696 0.055613 0.114498 0.8 0 0
0.781834 0.050772 0.059911 0.8 0 0
0.363226 0.051274 0.070798 0.8 0 0
0.599234 0.057403 0.068586 0.8 0 0
0.201521 0.072950 0.089437 0.8 0 0
0.034906 0.051909 0.072861 0.8 0 0
0.317743 0.051512 0.072128 0.8 0 0
0.368651 0.065447 0.081064 0.8 0 0
0.212573 0.043409 0.118116 0.8 0 0
0.327094 0.048408 0.125228 0.8 0 0
0.058275 0.033911 0.063969 0.8 0 0
0.039600 0.069411 0.068633 0.8 0 0
0.232361 0.050811 0.036413 0.8 0 0
0.116372 0.051512 0.062053 0.8 0 0
0.666828 0.025000 0.108945 0.8 0 0
0.112198 0.051512 0.044847 0.8 0 0
0.803451 0.075814 0.089307 0.8 0 0
0.793837 0.114326 0.075787 0.8 0 0
0.265211 0.051512 0.063036 0.8 0 0
0.167228 0.074649 0.098663 0.8 0 0
0.623707 0.050257 0.105013 0.8 0 0
0.245652 0.025000 0.037584 0.8 0 0
0.372970 0.051365 0.079511 0.8 0 0
0.818139 0.025000 0.088790 0.8 0 0
0.398022 0.050488 0.099385 0.8 0 0
0.449318 0.036635 0.025390 0.8 0 0
0.139441 0.025000 0.083603 0.8 0 0
0.353450 0.065746 0.046730 0.8 0 0
0.930386 0.051512 0.079340 0.8 0 0
0.547537 0.050536 0.053583 0.8 0 0
0.041874 0.069330 0.067589 0.8 0 0
0.458938 0.025000 0.027487 0.8 0 0
0.343502 0.025000 0.114282 0.8 0 0
0.728872 0.025000 0.088691 0.8 0 0
0.947653 0.027598 0.088839 0.8 0 0
0.601171 0.047442 0.126282 0.8 0 0
0.760629 0.051287 0.081134 0.8 0 0
0.097985 0.029987 0.049474 0.8 0 0
0.349630 0.025000 0.032779 0.8 0 0
0.646715 0.034597 0.026522 0.8 0 0
0.082486 0.025000 0.060125 0.8 0 0
0.318281 0.075446 0.076493 0.8 0 0
0.028559 0.065292 0.074720 0.8 0 0
0.329917 0.075446 0.052269 0.8 0 0
0.668356 0.084141 0.057070 0.8 0 0
0.785415 0.025000 0.040169 0.8 0 0
0.653004 0.025000 0.065620 0.8 0 0
0.578328 0.058494 0.062411 0.8 0 0
0.323251 0.096434 0.066127 0.8 0 0
0.133634 0.076145 0.061243 0.8 0 0
0.201173 0.051512 0.097943 0.8 0 0
0.673022 0.032087 0.125621 0.8 0 0
0.559897 0.046280 0.025608 0.8 0 0
0.551979 0.050509 0.052961 0.8 0 0
0.217201 0.025000 0.047269 0.8 0 0
0.696139 0.025000 0.102663 0.8 0 0
0.663857 0.066686 0.087118 0.8 0 0
0.496294 0.025000 0.063972 0.8 0 0
0.593937 0.025000 0.084968 0.8 0 0
0.285436 0.025000 0.107947 0.8 0 0
0.258283 0.025000 0.044853 0.8 0 0
0.333674 0.096434 0.071662 0.8 0 0
0.283642 0.050837 0.068542 0.8 0 0
0.391466 0.039307 0.025781 0.8 0 0
0.233626 0.051512 0.087647 0.8 0 0
0.348717 0.075446 0.085806 0.8 0 0
0.155202 0.025000 0.051916 0.8 0 0
0.317328 0.081100 0.122578 0.8 0 0
0.242362 0.050681 0.116749 0.8 0 0
0.881820 0.050871 0.055458 0.8 0 0
0.216695 0.059889 0.034425 0.8 0 0
0.521447 0.096397 0.066240 0.8 0 0
0.267444 0.046978 0.030759 0.8 0 0
0.372691 0.123081 0.079961 0.8 0 0
0.501084 0.025000 0.066545 0.8 0 0
0.743367 0.058140 0.083978 0.8 0 0
0.141800 0.051512 0.049289 0.8 0 0
0.367412 0.025000 0.037527 0.8 0 0
0.719852 0.048062 0.027447 0.8 0 0
0.329607 0.047776 0.125333 0.8 0 0
0.821216 0.050191 0.109740 0.8 0 0
0.341079 0.066077 0.079195 0.8 0 0
0.282682 0.050826 0.104786 0.8 0 0
0.697186 0.026331 0.125470 0.8 0 0
0.946655 0.029975 0.089160 0.8 0 0
0.759840 0.055936 0.073470 0.8 0 0
0.902723 0.029091 0.103226 0.8 0 0
0.569444 0.050260 0.105177 0.8 0 0
0.339456 0.050322 0.048343 0.8 0 0
0.464930 0.051122 0.067359 0.8 0 0
0.459943 0.069889 0.100249 0.8 0 0
0.604456 0.030821 0.126316 0.8 0 0
0.881031 0.025000 0.103222 0.8 0 0
0.418035 0.025000 0.101314 0.8 0 0
0.546572 0.049917 0.039244 0.8 0 0
0.320909 0.239400 0.074341 0.8 0 0
0.423039 0.025000 0.120204 0.8 0 0
0.840695 0.051286 0.071210 0.8 0 0
0.759422 0.025706 0.029796 0.8 0 0
0.866740 0.050603 0.103276 0.8 0 0
0.880126 0.025000 0.103214 0.8 0 0
0.403715 0.025000 0.109895 0.8 0 0
0.800467 0.075814 0.089131 0.8 0 0
0.510583 0.097407 0.077747 0.8 0 0
0.298139 0.044114 0.123220 0.8 0 0
0.160153 0.025000 0.084937 0.8 0 0
0.318293 0.081915 0.092167 0.8 0 0
0.169548 0.052398 0.056947 0.8 0 0
0.709231 0.042959 0.125100 0.8 0 0
0.451524 0.025000 0.094363 0.8 0 0
0.406235 0.051036 0.086964 0.8 0 0
0.807966 0.051319 0.080422 0.8 0 0
0.070952 0.045961 0.094630 0.8 0 0
0.502486 0.049582 0.031497 0.8 0 0
0.301687 0.051512 0.083624 0.8 0 0
0.314050 0.068361 0.121635 0.8 0 0
0.470194 0.049920 0.112811 0.8 0 0
0.424002 0.025000 0.058191 0.8 0 0
0.506941 0.050056 0.042457 0.8 0 0
0.935033 0.051396 0.086763 0.8 0 0
0.151385 0.051512 0.088419 0.8 0 0
0.533014 0.082524 0.084407 0.8 0 0
0.060647 0.049040 0.091350 0.8 0 0
0.490900 0.025000 0.030426 0.8 0 0
0.450900 0.025000 0.036260 0.8 0 0
0.891300 0.025000 0.076140 0.8 0 0
0.424405 0.058123 0.118895 0.8 0 0
0.555017 0.050595 0.097413 0.8 0 0
0.447752 0.050739 0.093689 0.8 0 0
0.391062 0.051012 0.087501 0.8 0 0
0.366065 0.050489 0.099359 0.8 0 0
0.753090 0.058026 0.064139 0.8 0 0
0.125635 0.025000 0.049559 0.8 0 0
0.285624 0.053565 0.082633 0.8 0 0
0.465494 0.049906 0.039254 0.8 0 0
0.242524 0.051512 0.077941 0.8 0 0
0.552068 0.025000 0.063419 0.8 0 0
0.680426 0.025000 0.055177 0.8 0 0
0.731712 0.025000 0.035402 0.8 0 0
0.251108 0.038744 0.120068 0.8 0 0
0.892708 0.030259 0.106433 0.8 0 0
0.556995 0.025000 0.042692 0.8 0 0
0.269492 0.026124 0.121206 0.8 0 0
0.382111 0.025000 0.070194 0.8 0 0
0.900144 0.025000 0.086687 0.8 0 0
0.109057 0.051512 0.047281 0.8 0 0
0.249995 0.025000 0.083687 0.8 0 0
0.122067 0.064857 0.041541 0.8 0 0
0.854631 0.050865 0.058886 0.8 0 0
0.294373 0.051418 0.088873 0.8 0 0
0.663857 0.056603 0.088932 0.8 0 0
0.735030 0.025979 0.124761 0.8 0 0
0.089969 0.063408 0.103987 0.8 0 0
0.695982 0.049549 0.032589 0.8 0 0
0.314050 0.080777 0.087367 0.8 0 0
0.400652 0.050646 0.095801 0.8 0 0
0.110793 0.076222 0.075255 0.8 0 0
0.634424 0.025000 0.029911 0.8 0 0
0.941607 0.051305 0.090345 0.8 0 0
0.325478 0.075446 0.086206 0.8 0 0
0.756926 0.025000 0.088325 0.8 0 0
0.614085 0.028906 0.126250 0.8 0 0
0.135977 0.077290 0.072891 0.8 0 0
0.754478 0.051443 0.074675 0.8 0 0
0.729762 0.048436 0.124815 0.8 0 0
0.362712 0.025000 0.058888 0.8 0 0
0.826267 0.075814 0.074350 0.8 0 0
0.461193 0.025000 0.115247 0.8 0 0
0.341433 0.071128 0.076953 0.8 0 0
0.443047 0.025000 0.111157 0.8 0 0
0.503189 0.049348 0.126271 0.8 0 0
0.679184 0.063407 0.072132 0.8 0 0
0.792890 0.050939 0.063589 0.8 0 0
0.124684 0.069860 0.049718 0.8 0 0
0.659769 0.073605 0.064615 0.8 0 0
0.779356 0.025000 0.109446 0.8 0 0
0.586642 0.050170 0.045091 0.8 0 0
0.131172 0.061007 0.113077 0.8 0 0
0.134966 0.025000 0.077529 0.8 0 0
0.140074 0.033813 0.041201 0.8 0 0
0.233122 0.025000 0.057048 0.8 0 0
0.483855 0.051360 0.072737 0.8 0 0
0.315359 0.035459 0.028027 0.8 0 0
0.314050 0.083377 0.121298 0.8 0 0
0.763632 0.038416 0.121708 0.8 0 0
0.677114 0.049670 0.035034 0.8 0 0
0.766408 0.049712 0.116973 0.8 0 0
0.372312 0.026891 0.126455 0.8 0 0
0.507058 0.050660 0.056460 0.8 0 0
0.217162 0.025000 0.042155 0.8 0 0
0.669025 0.050174 0.046042 0.8 0 0
0.101577 0.060974 0.044634 0.8 0 0
0.676897 0.087229 0.076581 0.8 0 0
0.556119 0.025000 0.085044 0.8 0 0
0.359704 0.051356 0.072646 0.8 0 0
0.441320 0.051473 0.077066 0.8 0 0
0.679246 0.087947 0.075723 0.8 0 0
0.957829 0.042904 0.085557 0.8 0 0
0.346547 0.109797 0.083477 0.8 0 0
0.074263 0.072998 0.088342 0.8 0 0
0.482159 0.049764 0.035861 0.8 0 0
0.653465 0.070463 0.072132 0.8 0 0
0.673644 0.049631 0.118219 0.8 0 0
0.139273 0.051512 0.047365 0.8 0 0
0.450316 0.025000 0.082886 0.8 0 0
0.170468 0.043102 0.056952 0.8 0 0
0.509583 0.025000 0.055212 0.8 0 0
0.638851 0.025000 0.099161 0.8 0 0
0.231259 0.050925 0.113588 0.8 0 0
0.582070 0.025000 0.120861 0.8 0 0
0.243705 0.025000 0.077860 0.8 0 0
0.330267 0.025000 0.031930 0.8 0 0
0.776370 0.049757 0.116957 0.8 0 0
0.743121 0.032856 0.028518 0.8 0 0
0.137093 0.058395 0.063197 0.8 0 0
0.133797 0.070680 0.089154 0.8 0 0
0.520149 0.050774 0.059091 0.8 0 0
0.703038 0.042590 0.125166 0.8 0 0
0.793837 0.062826 0.075365 0.8 0 0
0.573057 0.025000 0.027947 0.8 0 0
0.175822 0.077307 0.079667 0.8 0 0
0.678131 0.051001 0.072132 0.8 0 0
0.885610 0.051002 0.059079 0.8 0 0
0.314050 0.052978 0.069835 0.8 0 0
0.805864 0.061327 0.092384 0.8 0 0
0.097529 0.025000 0.061941 0.8 0 0
0.127585 0.028593 0.043548 0.8 0 0
0.136171 0.053334 0.089164 0.8 0 0
0.689699 0.050336 0.102525 0.8 0 0
0.563661 0.049901 0.038860 0.8 0 0
0.274708 0.050834 0.046039 0.8 0 0
0.764484 0.025000 0.050143 0.8 0 0
0.201806 0.025000 0.096712 0.8 0 0
0.319858 0.049828 0.119414 0.8 0 0
0.585369 0.025000 0.093534 0.8 0 0
0.354604 0.050277 0.048193 0.8 0 0
0.293808 0.025000 0.099139 0.8 0 0
0.413110 0.044240 0.025634 0.8 0 0
0.572380 0.050342 0.049092 0.8 0 0
0.309265 0.025000 0.065079 0.8 0 0
0.175215 0.064783 0.056976 0.8 0 0
0.944938 0.038410 0.062649 0.8 0 0
0.592505 0.057625 0.062223 0.8 0 0
0.321783 0.171499 0.075416 0.8 0 0
0.482713 0.025000 0.119259 0.8 0 0
0.245966 0.025000 0.094920 0.8 0 0
0.700931 0.062753 0.092841 0.8 0 0
0.252653 0.051512 0.058907 0.8 0 0
0.885536 0.050570 0.045705 0.8 0 0
0.250476 0.050363 0.031526 0.8 0 0
0.625007 0.050649 0.096176 0.8 0 0
0.214392 0.051512 0.070290 0.8 0 0
0.651875 0.050769 0.093386 0.8 0 0
0.492931 0.025000 0.123684 0.8 0 0
0.696871 0.051422 0.074111 0.8 0 0
0.279716 0.069504 0.070499 0.8 0 0
0.878328 0.027999 0.041457 0.8 0 0
0.628169 0.025000 0.097198 0.8 0 0
0.843633 0.025000 0.048872 0.8 0 0
0.539941 0.025000 0.050748 0.8 0 0
0.483092 0.025000 0.084783 0.8 0 0
0.178559 0.051512 0.053460 0.8 0 0
0.123215 0.043287 0.056714 0.8 0 0
0.082629 0.025000 0.079718 0.8 0 0
0.651259 0.051508 0.076106 0.8 0 0
0.503468 0.025000 0.119437 0.8 0 0
0.728663 0.054520 0.074721 0.8 0 0
0.055900 0.025000 0.067993 0.8 0 0
0.416154 0.025000 0.101665 0.8 0 0
0.579039 0.037362 0.126536 0.8 0 0
0.198375 0.051512 0.063432 0.8 0 0
0.960660 0.025000 0.070739 0.8 0 0
0.132199 0.025000 0.066720 0.8 0 0
0.581926 0.025000 0.033507 0.8 0 0
0.570397 0.061745 0.060993 0.8 0 0
0.511917 0.051221 0.082905 0.8 0 0
0.694668 0.041654 0.027101 0.8 0 0
0.839642 0.025000 0.069214 0.8 0 0
0.631755 0.050157 0.107133 0.8 0 0
0.370115 0.086328 0.077135 0.8 0 0
0.327847 0.075446 0.115937 0.8 0 0
0.603935 0.025000 0.068042 0.8 0 0
0.623857 0.050941 0.062972 0.8 0 0
0.067624 0.070106 0.060518 0.8 0 0
0.590625 0.025000 0.100211 0.8 0 0
0.095185 0.053472 0.047975 0.8 0 0
0.318101 0.221976 0.077423 0.8 0 0
0.187938 0.051512 0.101537 0.8 0 0
0.122520 0.068406 0.095654 0.8 0 0
0.623597 0.039251 0.026340 0.8 0 0
0.666825 0.083094 0.094685 0.8 0 0
0.109707 0.039803 0.045268 0.8 0 0
0.408450 0.025000 0.028096 0.8 0 0
0.927076 0.046451 0.057263 0.8 0 0
0.300126 0.025000 0.029363 0.8 0 0
0.314050 0.055155 0.109767 0.8 0 0
0.644812 0.050785 0.093025 0.8 0 0
0.061000 0.035352 0.089576 0.8 0 0
0.299018 0.025000 0.040803 0.8 0 0
0.473163 0.025000 0.051102 0.8 0 0
0.309225 0.025000 0.067267 0.8 0 0
0.715691 0.049567 0.033228 0.8 0 0
0.698493 0.049575 0.119162 0.8 0 0
0.864270 0.025000 0.060052 0.8 0 0
0.248568 0.049275 0.031715 0.8 0 0
0.306343 0.050549 0.105976 0.8 0 0
0.613126 0.025000 0.035656 0.8 0 0
0.828405 0.055582 0.069554 0.8 0 0
0.534229 0.102123 0.084739 0.8 0 0
0.475338 0.050455 0.100450 0.8 0 0
0.638537 0.025000 0.107127 0.8 0 0
0.586108 0.049986 0.111411 0.8 0 0
0.497596 0.050248 0.105400 0.8 0 0
0.155409 0.051512 0.044400 0.8 0 0
0.675643 0.025000 0.069732 0.8 0 0
0.717758 0.051322 0.080504 0.8 0 0
0.120696 0.025000 0.057886 0.8 0 0
0.719298 0.041203 0.027337 0.8 0 0
0.584897 0.033419 0.025895 0.8 0 0
0.744621 0.051161 0.068458 0.8 0 0
0.323742 0.025000 0.079829 0.8 0 0
0.282475 0.025000 0.111291 0.8 0 0
0.247001 0.050621 0.117105 0.8 0 0
0.587942 0.025000 0.101097 0.8 0 0
0.833355 0.051057 0.066183 0.8 0 0
0.749870 0.050071 0.092677 0.8 0 0
0.556318 0.051282 0.081512 0.8 0 0
0.301620 0.025000 0.081889 0.8 0 0
0.184306 0.029076 0.115451 0.8 0 0
0.278765 0.051491 0.090557 0.8 0 0
0.350572 0.119277 0.085460 0.8 0 0
0.402757 0.050866 0.061552 0.8 0 0
0.453954 0.025000 0.082184 0.8 0 0
0.375545 0.050615 0.096509 0.8 0 0
0.287304 0.055998 0.070984 0.8 0 0
0.497810 0.050867 0.061312 0.8 0 0
0.815512 0.075918 0.082810 0.8 0 0
0.054930 0.025000 0.067695 0.8 0 0
0.565406 0.049489 0.122584 0.8 0 0
0.335185 0.062071 0.029787 0.8 0 0
0.868554 0.025000 0.041126 0.8 0 0
0.671957 0.058149 0.080482 0.8 0 0
0.591473 0.036377 0.025971 0.8 0 0
0.661702 0.025000 0.035223 0.8 0 0
0.118223 0.056549 0.089089 0.8 0 0
0.441151 0.051435 0.077911 0.8 0 0
0.402702 0.025000 0.090986 0.8 0 0
0.353450 0.061406 0.093535 0.8 0 0
0.651649 0.025000 0.120378 0.8 0 0
0.605633 0.025000 0.107892 0.8 0 0
0.436276 0.025000 0.083150 0.8 0 0
0.280550 0.051099 0.099065 0.8 0 0
0.668662 0.049425 0.029555 0.8 0 0
0.539305 0.037995 0.025371 0.8 0 0
0.805462 0.045148 0.034947 0.8 0 0
0.320037 0.212287 0.074341 0.8 0 0
0.288492 0.076302 0.077330 0.8 0 0
0.331656 0.075446 0.119381 0.8 0 0
0.175009 0.077622 0.073236 0.8 0 0
0.410127 0.035943 0.126710 0.8 0 0
0.150220 0.035438 0.039475 0.8 0 0
0.372559 0.121200 0.078247 0.8 0 0
0.615631 0.050396 0.102036 0.8 0 0
0.345966 0.090034 0.084277 0.8 0 0
0.785187 0.051501 0.075946 0.8 0 0
0.256761 0.044116 0.120775 0.8 0 0
0.801357 0.025000 0.111029 0.8 0 0
0.578306 0.025000 0.050462 0.8 0 0
0.194933 0.051433 0.109880 0.8 0 0
0.749490 0.050249 0.103968 0.8 0 0
0.524338 0.025000 0.060643 0.8 0 0
0.346056 0.084364 0.068216 0.8 0 0
0.330484 0.081684 0.029787 0.8 0 0
0.133594 0.060559 0.038961 0.8 0 0
0.799879 0.050702 0.093993 0.8 0 0
0.817103 0.053076 0.069554 0.8 0 0
0.362762 0.025000 0.124474 0.8 0 0
0.178563 0.043898 0.089341 0.8 0 0
0.163287 0.051512 0.047950 0.8 0 0
0.439624 0.050540 0.054115 0.8 0 0
0.641753 0.051133 0.067397 0.8 0 0
0.145115 0.025000 0.089716 0.8 0 0
0.353450 0.065546 0.050287 0.8 0 0
0.434076 0.050126 0.044573 0.8 0 0
0.334373 0.096434 0.084231 0.8 0 0
0.730097 0.049498 0.031866 0.8 0 0
0.489438 0.025000 0.047490 0.8 0 0
0.807298 0.050942 0.063655 0.8 0 0
0.443890 0.049335 0.026184 0.8 0 0
0.523722 0.025000 0.056038 0.8 0 0
0.657627 0.073605 0.079236 0.8 0 0
0.142125 0.077152 0.061105 0.8 0 0
0.399983 0.050299 0.048704 0.8 0 0
0.323166 0.029931 0.124871 0.8 0 0
0.392255 0.025000 0.092634 0.8 0 0
0.314050 0.052014 0.079704 0.8 0 0
0.049182 0.058867 0.088198 0.8 0 0
0.094280 0.025000 0.076820 0.8 0 0
0.213380 0.059396 0.036837 0.8 0 0
0.362772 0.133155 0.078199 0.8 0 0
0.533237 0.081774 0.084224 0.8 0 0
0.138313 0.025000 0.072213 0.8 0 0
0.427425 0.025000 0.046393 0.8 0 0
0.674426 0.075446 0.092670 0.8 0 0
0.543958 0.051210 0.083181 0.8 0 0
0.329149 0.096434 0.081661 0.8 0 0
0.314050 0.075446 0.090094 0.8 0 0
0.594656 0.050925 0.062597 0.8 0 0
0.130735 0.025000 0.094787 0.8 0 0
0.785340 0.025000 0.052016 0.8 0 0
0.671957 0.052762 0.090714 0.8 0 0
0.292789 0.050040 0.031933 0.8 0 0
0.878315 0.050582 0.105447 0.8 0 0
0.487158 0.025000 0.080357 0.8 0 0
0.156311 0.025000 0.053596 0.8 0 0
0.801601 0.077436 0.092384 0.8 0 0
0.527677 0.025000 0.107613 0.8 0 0
0.386836 0.025000 0.099548 0.8 0 0
0.139838 0.051512 0.057255 0.8 0 0
0.410571 0.050770 0.059368 0.8 0 0
0.309632 0.208216 0.078350 0.8 0 0
0.687030 0.049701 0.116520 0.8 0 0
0.657973 0.075613 0.090751 0.8 0 0
0.723938 0.025000 0.072958 0.8 0 0
0.752323 0.025000 0.053195 0.8 0 0
0.215393 0.025000 0.101143 0.8 0 0
0.314050 0.071649 0.032970 0.8 0 0
0.557625 0.047600 0.025582 0.8 0 0
0.698719 0.029158 0.125412 0.8 0 0
0.737771 0.025000 0.099028 0.8 0 0
0.483336 0.025000 0.100745 0.8 0 0
0.516798 0.060943 0.066240 0.8 0 0
0.409882 0.050260 0.104549 0.8 0 0
0.164519 0.047488 0.063082 0.8 0 0
0.314050 0.072373 0.071169 0.8 0 0
0.128412 0.065981 0.095624 0.8 0 0
0.060101 0.067599 0.094289 0.8 0 0
0.526288 0.072794 0.066240 0.8 0 0
0.860506 0.025000 0.105594 0.8 0 0
0.294574 0.050240 0.115512 0.8 0 0
0.364412 0.132589 0.084390 0.8 0 0
0.509533 0.081350 0.081159 0.8 0 0
0.833084 0.050785 0.092964 0.8 0 0
0.830247 0.081720 0.082810 0.8 0 0
0.759108 0.025000 0.083570 0.8 0 0
0.161906 0.077434 0.080961 0.8 0 0
0.814948 0.025000 0.093208 0.8 0 0
0.868554 0.049494 0.111033 0.8 0 0
0.161507 0.025000 0.070628 0.8 0 0
0.422306 0.104809 0.117209 0.8 0 0
0.126501 0.067213 0.108654 0.8 0 0
0.551726 0.025000 0.119410 0.8 0 0
0.615617 0.025000 0.040711 0.8 0 0
0.503274 0.025000 0.027396 0.8 0 0
0.510370 0.086023 0.082161 0.8 0 0
0.546230 0.049354 0.026589 0.8 0 0
0.496548 0.035937 0.025071 0.8 0 0
0.359599 0.051446 0.077666 0.8 0 0
0.431384 0.055372 0.060241 0.8 0 0
0.140683 0.056761 0.056802 0.8 0 0
0.122478 0.051512 0.088610 0.8 0 0
0.490955 0.025000 0.093474 0.8 0 0
0.374462 0.051348 0.079888 0.8 0 0
0.830462 0.061006 0.082810 0.8 0 0
0.819299 0.065157 0.069554 0.8 0 0
0.582084 0.025000 0.056654 0.8 0 0
0.218505 0.035071 0.034477 0.8 0 0
0.360741 0.133762 0.079276 0.8 0 0
0.796854 0.143163 0.073973 0.8 0 0
0.654913 0.049670 0.117567 0.8 0 0
0.182571 0.051512 0.049280 0.8 0 0
0.150435 0.048458 0.063141 0.8 0 0
0.513445 0.055605 0.066240 0.8 0 0
0.314262 0.050315 0.109579 0.8 0 0
0.407038 0.050291 0.048522 0.8 0 0
0.391860 0.025000 0.123429 0.8 0 0
0.172831 0.044380 0.056964 0.8 0 0
0.137907 0.061238 0.095576 0.8 0 0
0.589304 0.047878 0.025946 0.8 0 0
0.383074 0.050053 0.109255 0.8 0 0
0.605243 0.053957 0.090118 0.8 0 0
0.144427 0.072046 0.063166 0.8 0 0
0.144033 0.057316 0.037839 0.8 0 0
0.266576 0.025000 0.039570 0.8 0 0
0.670654 0.026250 0.026631 0.8 0 0
0.242569 0.025000 0.090417 0.8 0 0
0.298705 0.050593 0.045731 0.8 0 0
0.075671 0.065087 0.099287 0.8 0 0
0.643758 0.035348 0.125860 0.8 0 0
0.641917 0.025000 0.080056 0.8 0 0
0.333396 0.025000 0.124655 0.8 0 0
0.320998 0.081153 0.029787 0.8 0 0
0.719315 0.059638 0.085562 0.8 0 0
0.749477 0.025000 0.112158 0.8 0 0
0.154962 0.025000 0.086971 0.8 0 0
0.576691 0.051274 0.081688 0.8 0 0
0.127860 0.051512 0.084330 0.8 0 0
0.347015 0.081273 0.122578 0.8 0 0
0.105210 0.025000 0.079637 0.8 0 0
0.783775 0.035339 0.032627 0.8 0 0
0.531874 0.105608 0.086124 0.8 0 0
0.326339 0.051317 0.084277 0.8 0 0
0.521539 0.025000 0.068543 0.8 0 0
0.797615 0.025000 0.096301 0.8 0 0
0.158219 0.077413 0.081786 0.8 0 0
0.364284 0.025000 0.120278 0.8 0 0
0.772200 0.025000 0.037126 0.8 0 0
0.270807 0.051182 0.053087 0.8 0 0
0.135435 0.051512 0.090969 0.8 0 0
0.436081 0.047020 0.025479 0.8 0 0
0.424881 0.051804 0.097917 0.8 0 0
0.539551 0.025000 0.105450 0.8 0 0
0.795496 0.085596 0.078392 0.8 0 0
0.465777 0.056591 0.061214 0.8 0 0
0.568876 0.025000 0.082403 0.8 0 0
0.492312 0.049588 0.031714 0.8 0 0
0.339537 0.096434 0.068600 0.8 0 0
0.886004 0.050567 0.045558 0.8 0 0
0.640378 0.025000 0.098959 0.8 0 0
0.359464 0.049035 0.025997 0.8 0 0
0.910639 0.051339 0.085702 0.8 0 0
0.537238 0.025000 0.045330 0.8 0 0
0.298760 0.050955 0.085766 0.8 0 0
0.110756 0.055604 0.043316 0.8 0 0
0.194290 0.051512 0.070805 0.8 0 0
0.675599 0.049031 0.072132 0.8 0 0
0.374073 0.025000 0.035001 0.8 0 0
0.385055 0.051389 0.073404 0.8 0 0
0.262072 0.025000 0.069710 0.8 0 0
0.353450 0.078232 0.081853 0.8 0 0
0.803586 0.031631 0.118165 0.8 0 0
0.671957 0.060019 0.085695 0.8 0 0
0.173938 0.068975 0.063043 0.8 0 0
0.592534 0.049852 0.114287 0.8 0 0
0.696871 0.025000 0.115231 0.8 0 0
0.520286 0.050030 0.110499 0.8 0 0
0.604521 0.051541 0.061277 0.8 0 0
0.098802 0.025000 0.102262 0.8 0 0
0.600945 0.025877 0.025939 0.8 0 0
0.827983 0.075814 0.081696 0.8 0 0
0.726511 0.051492 0.076637 0.8 0 0
0.155837 0.063911 0.037183 0.8 0 0
0.560198 0.036652 0.025612 0.8 0 0
0.315290 0.069886 0.029787 0.8 0 0
0.365651 0.047479 0.126410 0.8 0 0
0.116369 0.073683 0.063284 0.8 0 0
0.664662 0.073605 0.058643 0.8 0 0
0.511370 0.092732 0.069969 0.8 0 0
0.742575 0.030947 0.028434 0.8 0 0
0.484314 0.049589 0.031800 0.8 0 0
0.655331 0.025000 0.090169 0.8 0 0
0.121902 0.049111 0.089104 0.8 0 0
0.368161 0.025000 0.107742 0.8 0 0
0.772886 0.025000 0.037115 0.8 0 0
0.821430 0.051341 0.079944 0.8 0 0
0.116831 0.060456 0.095682 0.8 0 0
0.902975 0.051213 0.088726 0.8 0 0
0.362906 0.125796 0.066240 0.8 0 0
0.142998 0.025000 0.043120 0.8 0 0
0.896034 0.051145 0.062318 0.8 0 0
0.254052 0.051157 0.103434 0.8 0 0
0.357057 0.098824 0.066240 0.8 0 0
0.546997 0.025000 0.042941 0.8 0 0
0.877531 0.051208 0.085935 0.8 0 0
0.594723 0.058140 0.063534 0.8 0 0
0.189690 0.025000 0.101144 0.8 0 0
0.580818 0.050082 0.109292 0.8 0 0
0.510007 0.044550 0.025035 0.8 0 0
0.179996 0.076649 0.093118 0.8 0 0
0.350188 0.136766 0.082230 0.8 0 0
0.105579 0.051512 0.102230 0.8 0 0
0.686134 0.044418 0.027059 0.8 0 0
0.541563 0.025000 0.032888 0.8 0 0
0.135955 0.080161 0.070764 0.8 0 0
0.794114 0.145727 0.078392 0.8 0 0
0.683372 0.060502 0.073178 0.8 0 0
0.665377 0.026420 0.026582 0.8 0 0
0.593951 0.051199 0.083427 0.8 0 0
0.645373 0.025000 0.088107 0.8 0 0
0.637291 0.047890 0.026498 0.8 0 0
0.767395 0.057593 0.083967 0.8 0 0
0.146106 0.063275 0.095535 0.8 0 0
0.803127 0.041995 0.117699 0.8 0 0
0.848231 0.050750 0.056198 0.8 0 0
0.738969 0.050387 0.051446 0.8 0 0
0.346532 0.119260 0.069569 0.8 0 0
0.719140 0.025000 0.063911 0.8 0 0
0.145462 0.057114 0.095538 0.8 0 0
0.793837 0.196818 0.075636 0.8 0 0
0.891119 0.048915 0.046769 0.8 0 0
0.177674 0.074207 0.063027 0.8 0 0
0.514383 0.054784 0.066240 0.8 0 0
0.141677 0.077321 0.074119 0.8 0 0
0.798992 0.061182 0.079717 0.8 0 0
0.394220 0.025000 0.055499 0.8 0 0
0.756410 0.049991 0.109632 0.8 0 0
0.210642 0.051512 0.094822 0.8 0 0
0.290713 0.050738 0.047305 0.8 0 0
0.404319 0.025000 0.061598 0.8 0 0
0.136174 0.056613 0.056779 0.8 0 0
0.087503 0.065632 0.048844 0.8 0 0
0.192552 0.055912 0.036505 0.8 0 0
0.804780 0.025000 0.060580 0.8 0 0
0.145024 0.067867 0.089201 0.8 0 0
0.159132 0.094141 0.075788 0.8 0 0
0.372470 0.119935 0.075457 0.8 0 0
0.309360 0.033879 0.028436 0.8 0 0
0.349824 0.048806 0.086124 0.8 0 0
0.858972 0.027973 0.113447 0.8 0 0
0.866932 0.051497 0.075851 0.8 0 0
0.193383 0.047494 0.117266 0.8 0 0
0.124523 0.073789 0.089115 0.8 0 0
0.838995 0.050414 0.105275 0.8 0 0
0.590152 0.049304 0.126368 0.8 0 0
0.460530 0.051341 0.072314 0.8 0 0
0.704468 0.033909 0.125284 0.8 0 0
0.579490 0.050619 0.055495 0.8 0 0
0.221739 0.050902 0.036190 0.8 0 0
0.723411 0.028330 0.125182 0.8 0 0
0.538045 0.025000 0.106209 0.8 0 0
0.527720 0.067439 0.066240 0.8 0 0
0.663857 0.071290 0.090000 0.8 0 0
0.800583 0.050776 0.059989 0.8 0 0
0.746439 0.025000 0.064596 0.8 0 0
0.507905 0.053710 0.070545 0.8 0 0
0.124051 0.047195 0.063251 0.8 0 0
0.788593 0.050932 0.088936 0.8 0 0
0.314050 0.052332 0.053028 0.8 0 0
0.926247 0.025000 0.072127 0.8 0 0
0.292840 0.025000 0.055200 0.8 0 0
0.336015 0.050046 0.111014 0.8 0 0
0.588818 0.025000 0.058540 0.8 0 0
0.744306 0.047456 0.028858 0.8 0 0
0.554970 0.048818 0.126813 0.8 0 0
0.361525 0.025000 0.102766 0.8 0 0
0.787980 0.050857 0.090584 0.8 0 0
0.798992 0.053827 0.074824 0.8 0 0
0.343089 0.094755 0.078082 0.8 0 0
0.497776 0.025000 0.099145 0.8 0 0
0.602512 0.025000 0.121896 0.8 0 0
0.657110 0.050702 0.094851 0.8 0 0
0.372716 0.050670 0.057109 0.8 0 0
0.903785 0.025000 0.050310 0.8 0 0
0.090251 0.070011 0.097175 0.8 0 0
0.667827 0.050889 0.090612 0.8 0 0
0.442797 0.025000 0.116410 0.8 0 0
0.204766 0.036791 0.035169 0.8 0 0
0.411718 0.050990 0.064350 0.8 0 0
0.351554 0.107536 0.086124 0.8 0 0
0.272044 0.050228 0.031733 0.8 0 0
0.750701 0.025000 0.055347 0.8 0 0
0.290075 0.025000 0.074636 0.8 0 0
0.299096 0.043535 0.123236 0.8 0 0
0.424812 0.054671 0.061922 0.8 0 0
0.368245 0.051291 0.081192 0.8 0 0
0.526965 0.121061 0.086124 0.8 0 0
0.153454 0.070415 0.044961 0.8 0 0
0.751899 0.050924 0.089110 0.8 0 0
0.422555 0.025000 0.090931 0.8 0 0
0.462984 0.051059 0.086434 0.8 0 0
0.730980 0.057751 0.067422 0.8 0 0
0.565132 0.044525 0.126696 0.8 0 0
0.666486 0.057481 0.060717 0.8 0 0
0.663543 0.025000 0.091879 0.8 0 0
0.723233 0.045300 0.027438 0.8 0 0
0.600897 0.050618 0.055473 0.8 0 0
0.766565 0.030373 0.121587 0.8 0 0
0.245316 0.034623 0.119556 0.8 0 0
0.315028 0.057262 0.029787 0.8 0 0
0.164014 0.051512 0.111994 0.8 0 0
0.125870 0.028897 0.108564 0.8 0 0
0.520640 0.069309 0.086124 0.8 0 0
0.110107 0.076049 0.063932 0.8 0 0
0.582953 0.029302 0.126551 0.8 0 0
0.714364 0.032188 0.027152 0.8 0 0
0.375415 0.025000 0.074474 0.8 0 0
0.661059 0.025000 0.040982 0.8 0 0
0.429376 0.025000 0.059579 0.8 0 0
0.178945 0.048679 0.056994 0.8 0 0
0.349935 0.094868 0.066240 0.8 0 0
0.361694 0.025000 0.050567 0.8 0 0
0.579497 0.025000 0.116375 0.8 0 0
0.169824 0.046295 0.063060 0.8 0 0
0.918751 0.033664 0.098097 0.8 0 0
0.395902 0.025000 0.125639 0.8 0 0
0.635929 0.025000 0.118165 0.8 0 0
0.440342 0.025000 0.097950 0.8 0 0
0.748857 0.025000 0.073475 0.8 0 0
0.321783 0.156265 0.077763 0.8 0 0
0.106985 0.049239 0.044748 0.8 0 0
0.691575 0.051104 0.066767 0.8 0 0
0.471506 0.073036 0.089376 0.8 0 0
0.178346 0.046161 0.056991 0.8 0 0
0.304189 0.025000 0.058560 0.8 0 0
0.139324 0.052620 0.089177 0.8 0 0
0.248489 0.051512 0.057941 0.8 0 0
0.327033 0.025000 0.102049 0.8 0 0
0.451988 0.025000 0.068736 0.8 0 0
0.166397 0.068826 0.089290 0.8 0 0
0.557680 0.037596 0.025583 0.8 0 0
0.295271 0.080785 0.078977 0.8 0 0
0.330805 0.029842 0.026972 0.8 0 0
0.363590 0.040762 0.025969 0.8 0 0
0.242199 0.025000 0.097620 0.8 0 0
0.398651 0.050382 0.101789 0.8 0 0
0.540130 0.132434 0.078859 0.8 0 0
0.070205 0.032017 0.059869 0.8 0 0
0.347793 0.075446 0.097275 0.8 0 0
0.605729 0.039288 0.026135 0.8 0 0
0.473692 0.035580 0.127139 0.8 0 0
0.907311 0.039242 0.050874 0.8 0 0
0.575480 0.025000 0.082154 0.8 0 0
0.638229 0.049315 0.026784 0.8 0 0
0.671957 0.069949 0.087837 0.8 0 0
0.331459 0.025000 0.113499 0.8 0 0
0.344390 0.054497 0.122578 0.8 0 0
0.602361 0.046009 0.026096 0.8 0 0
0.814826 0.051327 0.083504 0.8 0 0
0.221191 0.025000 0.094906 0.8 0 0
0.763024 0.051480 0.076869 0.8 0 0
0.356297 0.133953 0.066240 0.8 0 0
0.683684 0.025000 0.042237 0.8 0 0
0.715465 0.039452 0.027273 0.8 0 0
0.588390 0.054607 0.063570 0.8 0 0
0.305242 0.116255 0.081177 0.8 0 0
0.160249 0.049522 0.063100 0.8 0 0
0.759122 0.060412 0.072546 0.8 0 0
0.231604 0.056382 0.113539 0.8 0 0
0.047601 0.056754 0.065367 0.8 0 0
0.346789 0.085008 0.067639 0.8 0 0
0.652971 0.080537 0.084523 0.8 0 0
0.387510 0.048406 0.025807 0.8 0 0
0.850583 0.042185 0.039192 0.8 0 0
0.511834 0.051376 0.079333 0.8 0 0
0.540482 0.049348 0.026385 0.8 0 0
0.876624 0.050888 0.056601 0.8 0 0
0.094196 0.029907 0.101438 0.8 0 0
0.869747 0.050997 0.060872 0.8 0 0
0.426633 0.061590 0.103585 0.8 0 0
0.575275 0.026117 0.126674 0.8 0 0
0.878592 0.025000 0.073207 0.8 0 0
0.340182 0.096434 0.083453 0.8 0 0
0.575514 0.048105 0.126577 0.8 0 0
0.101973 0.038125 0.105203 0.8 0 0
0.159479 0.051512 0.090629 0.8 0 0
0.742142 0.052784 0.091193 0.8 0 0
0.211697 0.057123 0.114520 0.8 0 0
0.632514 0.050105 0.108268 0.8 0 0
0.669449 0.040791 0.125525 0.8 0 0
0.584835 0.052557 0.087631 0.8 0 0
0.176617 0.077494 0.089393 0.8 0 0
0.626095 0.025000 0.041657 0.8 0 0
0.363540 0.073693 0.067104 0.8 0 0
0.154555 0.025000 0.074867 0.8 0 0
0.851960 0.025000 0.057469 0.8 0 0
0.261490 0.025000 0.101025 0.8 0 0
0.358850 0.050140 0.045085 0.8 0 0
0.357738 0.132923 0.066240 0.8 0 0
0.448650 0.025000 0.060436 0.8 0 0
0.798992 0.065829 0.069600 0.8 0 0
0.203792 0.025000 0.106893 0.8 0 0
0.133298 0.025000 0.079059 0.8 0 0
0.388652 0.044903 0.025800 0.8 0 0
0.523462 0.027350 0.127175 0.8 0 0
0.413664 0.025000 0.066714 0.8 0 0
0.404209 0.049374 0.125014 0.8 0 0
0.533884 0.025000 0.080536 0.8 0 0
