0.039677 0.049126 0.432467 0.8 0 0
0.047098 0.066575 0.221318 0.8 0 0
0.039579 0.096398 0.319473 0.8 0 0
0.037141 0.104730 0.258739 0.8 0 0
0.037216 0.041099 0.842416 0.8 0 0
0.034536 0.083802 0.506367 0.8 0 0
0.047436 0.068485 0.214029 0.8 0 0
0.036443 0.099377 0.746695 0.8 0 0
0.038217 0.108641 0.269651 0.8 0 0
0.038880 0.058176 0.921097 0.8 0 0
0.047615 0.076428 0.152499 0.8 0 0
0.037275 0.105804 0.827460 0.8 0 0
0.040968 0.060585 0.423600 0.8 0 0
0.042053 0.077043 0.642781 0.8 0 0
0.035965 0.095073 0.754173 0.8 0 0
0.038604 0.042015 0.850048 0.8 0 0
0.036131 0.095809 0.781459 0.8 0 0
0.035245 0.089954 0.522161 0.8 0 0
0.040764 0.060836 0.791541 0.8 0 0
0.034882 0.086154 0.726556 0.8 0 0
0.037066 0.040065 0.653414 0.8 0 0
0.038621 0.105750 0.414493 0.8 0 0
0.037180 0.105994 0.394898 0.8 0 0
0.033964 0.079155 0.700481 0.8 0 0
0.048000 0.073885 0.188979 0.8 0 0
0.037723 0.035814 0.833297 0.8 0 0
0.039342 0.045619 0.629418 0.8 0 0
0.035150 0.058037 0.372410 0.8 0 0
0.036487 0.098921 0.785231 0.8 0 0
0.040486 0.057127 0.357755 0.8 0 0
0.048508 0.066600 0.034241 0.8 0 0
0.037108 0.106082 0.606775 0.8 0 0
0.050760 0.080089 0.228822 0.8 0 0
0.030682 0.057559 0.148606 0.8 0 0
0.028101 0.072789 0.129587 0.8 0 0
0.038497 0.038718 0.730605 0.8 0 0
0.041295 0.078487 0.837226 0.8 0 0
0.040804 0.087063 0.462741 0.8 0 0
0.039506 0.086979 0.898361 0.8 0 0
0.036454 0.100561 0.655393 0.8 0 0
0.040646 0.057009 0.707680 0.8 0 0
0.036282 0.074185 0.926273 0.8 0 0
0.042089 0.051963 0.200330 0.8 0 0
0.035709 0.093084 0.414748 0.8 0 0
0.041902 0.068104 0.480396 0.8 0 0
0.038863 0.104169 0.514403 0.8 0 0
0.041365 0.082914 0.629442 0.8 0 0
0.041452 0.065836 0.759962 0.8 0 0
0.041175 0.084497 0.607501 0.8 0 0
0.036628 0.101370 0.730847 0.8 0 0
0.037139 0.106389 0.647108 0.8 0 0
0.039136 0.102038 0.680610 0.8 0 0
0.035818 0.050909 0.549643 0.8 0 0
0.042190 0.070399 0.497912 0.8 0 0
0.044553 0.056646 0.058933 0.8 0 0
0.031782 0.090694 0.154257 0.8 0 0
0.033692 0.076661 0.551195 0.8 0 0
0.039550 0.049123 0.324130 0.8 0 0
0.034739 0.062912 0.302873 0.8 0 0
0.038739 0.041543 0.336619 0.8 0 0
0.039260 0.045524 0.426811 0.8 0 0
0.029316 0.061632 0.188297 0.8 0 0
0.033619 0.070932 0.731331 0.8 0 0
0.039212 0.101342 0.635529 0.8 0 0
0.041510 0.080548 0.436560 0.8 0 0
0.033930 0.067231 0.519528 0.8 0 0
0.040614 0.086365 0.282135 0.8 0 0
0.038186 0.037279 0.834067 0.8 0 0
0.039555 0.098471 0.685835 0.8 0 0
0.041134 0.084789 0.584209 0.8 0 0
0.035804 0.094588 0.475308 0.8 0 0
0.037061 0.041356 0.781927 0.8 0 0
0.033631 0.073542 0.347799 0.8 0 0
0.037328 0.105568 0.848396 0.8 0 0
0.035365 0.056276 0.363191 0.8 0 0
0.039034 0.043083 0.544383 0.8 0 0
0.050637 0.096196 0.225323 0.8 0 0
0.041824 0.077109 0.745565 0.8 0 0
0.035742 0.054550 0.244766 0.8 0 0
0.039561 0.098227 0.557036 0.8 0 0
0.039969 0.094202 0.448672 0.8 0 0
0.033966 0.078397 0.720153 0.8 0 0
0.038503 0.104002 0.866857 0.8 0 0
0.050078 0.035307 0.225323 0.8 0 0
0.035086 0.058839 0.359212 0.8 0 0
0.033789 0.069414 0.730135 0.8 0 0
0.033996 0.067596 0.434907 0.8 0 0
0.038815 0.041911 0.386979 0.8 0 0
0.036624 0.045684 0.789892 0.8 0 0
0.037490 0.040308 0.880143 0.8 0 0
0.028567 0.067230 0.219822 0.8 0 0
0.043421 0.089581 0.094662 0.8 0 0
0.038450 0.107906 0.702019 0.8 0 0
0.038954 0.100485 0.849160 0.8 0 0
0.039821 0.097784 0.231745 0.8 0 0
0.036474 0.046688 0.325100 0.8 0 0
0.035024 0.062598 0.847994 0.8 0 0
0.036515 0.044900 0.549945 0.8 0 0
0.030110 0.059137 0.160416 0.8 0 0
0.040666 0.088816 0.592928 0.8 0 0
0.036122 0.051056 0.237180 0.8 0 0
0.034426 0.064201 0.742799 0.8 0 0
0.035056 0.057167 0.698134 0.8 0 0
0.039876 0.050262 0.593890 0.8 0 0
0.039989 0.094488 0.528427 0.8 0 0
0.040523 0.090186 0.677812 0.8 0 0
0.034467 0.064744 0.345235 0.8 0 0
0.037768 0.106245 0.904703 0.8 0 0
0.038465 0.038123 0.634038 0.8 0 0
0.041941 0.076491 0.418873 0.8 0 0
0.038502 0.106977 0.441448 0.8 0 0
0.037780 0.033932 0.698235 0.8 0 0
0.035906 0.049990 0.637608 0.8 0 0
0.039181 0.056532 0.905951 0.8 0 0
0.039475 0.057164 0.895644 0.8 0 0
0.029313 0.079448 0.082489 0.8 0 0
0.040722 0.059270 0.752712 0.8 0 0
0.033601 0.070421 0.473292 0.8 0 0
0.045318 0.102408 0.225323 0.8 0 0
0.035738 0.054656 0.239795 0.8 0 0
0.031303 0.058096 0.094500 0.8 0 0
0.037063 0.105020 0.400272 0.8 0 0
0.037946 0.105977 0.910640 0.8 0 0
0.035750 0.094189 0.716226 0.8 0 0
0.038104 0.036105 0.279107 0.8 0 0
0.036607 0.100072 0.784913 0.8 0 0
0.040911 0.059234 0.545274 0.8 0 0
0.041822 0.075857 0.319613 0.8 0 0
0.033538 0.072056 0.408103 0.8 0 0
0.040226 0.054825 0.362380 0.8 0 0
0.039058 0.102582 0.564115 0.8 0 0
0.034033 0.076257 0.790763 0.8 0 0
0.041341 0.080623 0.343033 0.8 0 0
0.039701 0.096680 0.456272 0.8 0 0
0.038052 0.110131 0.262730 0.8 0 0
0.041705 0.068135 0.364137 0.8 0 0
0.039013 0.042759 0.679006 0.8 0 0
0.041618 0.077745 0.320711 0.8 0 0
0.037056 0.093741 0.915577 0.8 0 0
0.039935 0.051655 0.417873 0.8 0 0
0.039240 0.049065 0.862829 0.8 0 0
0.034598 0.084445 0.547102 0.8 0 0
0.038098 0.110897 0.683876 0.8 0 0
0.035397 0.078393 0.887202 0.8 0 0
0.032778 0.091798 0.214510 0.8 0 0
0.035403 0.090625 0.434545 0.8 0 0
0.041619 0.066072 0.726108 0.8 0 0
0.037372 0.042777 0.896137 0.8 0 0
0.037283 0.038324 0.534829 0.8 0 0
0.041376 0.082082 0.456769 0.8 0 0
0.041151 0.063832 0.320226 0.8 0 0
0.040013 0.053371 0.782612 0.8 0 0
0.046260 0.065861 0.077660 0.8 0 0
0.044339 0.111114 0.231745 0.8 0 0
0.039581 0.092469 0.875299 0.8 0 0
0.041042 0.063898 0.263097 0.8 0 0
0.037907 0.112518 0.674465 0.8 0 0
0.045621 0.048311 0.231745 0.8 0 0
0.042067 0.069036 0.599442 0.8 0 0
0.034055 0.070235 0.812679 0.8 0 0
0.038433 0.107415 0.407724 0.8 0 0
0.033407 0.052290 0.179251 0.8 0 0
0.042231 0.073127 0.375958 0.8 0 0
0.035589 0.054687 0.067715 0.8 0 0
0.041328 0.065045 0.346736 0.8 0 0
0.036827 0.043134 0.751738 0.8 0 0
0.038425 0.107935 0.505552 0.8 0 0
0.036072 0.086316 0.893304 0.8 0 0
0.034859 0.094606 0.127338 0.8 0 0
0.039507 0.097994 0.406094 0.8 0 0
0.039077 0.101993 0.445462 0.8 0 0
0.037698 0.034659 0.654885 0.8 0 0
0.038533 0.038650 0.696818 0.8 0 0
0.037337 0.108130 0.691095 0.8 0 0
0.036281 0.098899 0.537173 0.8 0 0
0.035815 0.093838 0.751866 0.8 0 0
0.047130 0.029614 0.231745 0.8 0 0
0.033662 0.072213 0.336480 0.8 0 0
0.030440 0.027649 0.231557 0.8 0 0
0.039841 0.049963 0.706919 0.8 0 0
0.039994 0.091926 0.272865 0.8 0 0
0.033944 0.076642 0.360022 0.8 0 0
0.039969 0.053105 0.786929 0.8 0 0
0.034083 0.066529 0.455297 0.8 0 0
0.041943 0.068694 0.464334 0.8 0 0
0.033371 0.072371 0.474961 0.8 0 0
0.036396 0.099656 0.469270 0.8 0 0
0.037922 0.052125 0.047300 0.8 0 0
0.035040 0.084671 0.818796 0.8 0 0
0.039669 0.096470 0.403172 0.8 0 0
0.039556 0.057705 0.893589 0.8 0 0
0.039567 0.096795 0.346338 0.8 0 0
0.036453 0.047766 0.244621 0.8 0 0
0.041075 0.052027 0.045556 0.8 0 0
0.035404 0.055603 0.744422 0.8 0 0
0.045203 0.092709 0.231745 0.8 0 0
0.039334 0.092411 0.075269 0.8 0 0
0.039072 0.070075 0.935478 0.8 0 0
0.036639 0.045659 0.798098 0.8 0 0
0.038492 0.038716 0.451945 0.8 0 0
0.030884 0.059680 0.092343 0.8 0 0
0.041804 0.067932 0.435117 0.8 0 0
0.040087 0.053554 0.369851 0.8 0 0
0.040274 0.092244 0.642348 0.8 0 0
0.035599 0.095018 0.127437 0.8 0 0
0.037860 0.112560 0.708802 0.8 0 0
0.029021 0.036015 0.225323 0.8 0 0
0.040899 0.085374 0.743377 0.8 0 0
0.027730 0.084501 0.040539 0.8 0 0
0.029050 0.107755 0.231745 0.8 0 0
0.035130 0.046867 0.225323 0.8 0 0
0.042082 0.073456 0.780380 0.8 0 0
0.039106 0.100967 0.756931 0.8 0 0
0.047028 0.063819 0.206382 0.8 0 0
0.029117 0.082624 0.134562 0.8 0 0
0.037000 0.080382 0.939009 0.8 0 0
0.038651 0.053287 0.919657 0.8 0 0
0.036226 0.047841 0.435343 0.8 0 0
0.038108 0.035882 0.329869 0.8 0 0
0.028081 0.072211 0.136124 0.8 0 0
0.040974 0.081987 0.236348 0.8 0 0
0.035214 0.089868 0.612802 0.8 0 0
0.040600 0.058275 0.351711 0.8 0 0
0.034559 0.080188 0.815712 0.8 0 0
0.037397 0.037272 0.710628 0.8 0 0
0.041395 0.082650 0.629056 0.8 0 0
0.038240 0.109542 0.517246 0.8 0 0
0.036401 0.051995 0.884314 0.8 0 0
0.038609 0.041252 0.831046 0.8 0 0
0.034218 0.081515 0.686005 0.8 0 0
0.038956 0.044171 0.264068 0.8 0 0
0.036191 0.048453 0.403239 0.8 0 0
0.035000 0.088200 0.696742 0.8 0 0
0.039680 0.096888 0.460500 0.8 0 0
0.039246 0.064350 0.919249 0.8 0 0
0.038569 0.106734 0.549116 0.8 0 0
0.035786 0.093305 0.369112 0.8 0 0
0.036654 0.054060 0.037030 0.8 0 0
0.036949 0.104674 0.709839 0.8 0 0
0.037421 0.037229 0.486195 0.8 0 0
0.039615 0.052127 0.853471 0.8 0 0
0.036794 0.100727 0.840127 0.8 0 0
0.033301 0.072708 0.500766 0.8 0 0
0.044992 0.062064 0.072815 0.8 0 0
0.040989 0.085797 0.709687 0.8 0 0
0.040337 0.061016 0.868997 0.8 0 0
0.039207 0.044747 0.484709 0.8 0 0
0.037575 0.109192 0.319939 0.8 0 0
0.041316 0.036684 0.231745 0.8 0 0
0.032526 0.054152 0.140445 0.8 0 0
0.038543 0.107075 0.659361 0.8 0 0
0.033837 0.067985 0.533912 0.8 0 0
0.036962 0.104771 0.540138 0.8 0 0
0.040829 0.084211 0.272663 0.8 0 0
0.039056 0.056917 0.911792 0.8 0 0
0.035456 0.054231 0.486623 0.8 0 0
0.040137 0.055555 0.250312 0.8 0 0
0.034690 0.085416 0.620110 0.8 0 0
0.037725 0.111308 0.511694 0.8 0 0
0.041168 0.084321 0.520390 0.8 0 0
0.041744 0.066166 0.641520 0.8 0 0
0.037364 0.076000 0.956368 0.8 0 0
0.038092 0.110427 0.741957 0.8 0 0
0.033832 0.069636 0.744952 0.8 0 0
0.042302 0.072879 0.402858 0.8 0 0
0.033989 0.077845 0.411800 0.8 0 0
0.035367 0.054734 0.577058 0.8 0 0
0.036361 0.098182 0.765911 0.8 0 0
0.039347 0.048820 0.840985 0.8 0 0
0.032618 0.092247 0.178066 0.8 0 0
0.044894 0.056669 0.158634 0.8 0 0
0.034979 0.050669 0.159293 0.8 0 0
0.041851 0.074849 0.796216 0.8 0 0
0.037319 0.101244 0.903472 0.8 0 0
0.038869 0.104212 0.583077 0.8 0 0
0.034062 0.075359 0.247950 0.8 0 0
0.035028 0.086181 0.340681 0.8 0 0
0.027521 0.060011 0.231745 0.8 0 0
0.040652 0.061729 0.844892 0.8 0 0
0.037929 0.034459 0.287097 0.8 0 0
0.037746 0.034433 0.483845 0.8 0 0
0.037738 0.069199 0.966465 0.8 0 0
0.041794 0.076778 0.761375 0.8 0 0
0.038451 0.106573 0.292415 0.8 0 0
0.041301 0.080242 0.297411 0.8 0 0
0.041988 0.074874 0.349428 0.8 0 0
0.041997 0.069081 0.469144 0.8 0 0
0.040243 0.056639 0.245284 0.8 0 0
0.042300 0.071025 0.600343 0.8 0 0
0.035778 0.053720 0.278329 0.8 0 0
0.035067 0.057145 0.653787 0.8 0 0
0.025200 0.055515 0.225323 0.8 0 0
0.040003 0.080970 0.892320 0.8 0 0
0.035900 0.050307 0.496528 0.8 0 0
0.039964 0.094727 0.543099 0.8 0 0
0.036450 0.100163 0.476110 0.8 0 0
0.034938 0.069312 0.872337 0.8 0 0
0.037046 0.104144 0.294804 0.8 0 0
0.034403 0.081122 0.383827 0.8 0 0
0.038657 0.078394 0.944434 0.8 0 0
0.039382 0.046526 0.727124 0.8 0 0
0.046745 0.065393 0.105651 0.8 0 0
0.041969 0.068250 0.578967 0.8 0 0
0.041496 0.080941 0.723104 0.8 0 0
0.034780 0.059684 0.603126 0.8 0 0
0.040722 0.064411 0.861432 0.8 0 0
0.041554 0.079360 0.753386 0.8 0 0
0.037487 0.107937 0.249136 0.8 0 0
0.034266 0.078500 0.790700 0.8 0 0
0.039756 0.050162 0.404240 0.8 0 0
0.034276 0.065191 0.428034 0.8 0 0
0.034795 0.086174 0.558228 0.8 0 0
0.039915 0.095151 0.543587 0.8 0 0
0.038479 0.094139 0.088598 0.8 0 0
0.041685 0.066882 0.436913 0.8 0 0
0.042147 0.074242 0.746747 0.8 0 0
0.043846 0.057894 0.082714 0.8 0 0
0.041007 0.086018 0.653358 0.8 0 0
0.038361 0.039079 0.836712 0.8 0 0
0.036816 0.102261 0.321387 0.8 0 0
0.028699 0.065285 0.134656 0.8 0 0
0.036768 0.103138 0.562836 0.8 0 0
0.040867 0.058872 0.706317 0.8 0 0
0.028814 0.082075 0.150061 0.8 0 0
0.040867 0.058580 0.681763 0.8 0 0
0.036707 0.101418 0.760016 0.8 0 0
0.034999 0.084240 0.820186 0.8 0 0
0.036118 0.098409 0.231745 0.8 0 0
0.039328 0.046467 0.743246 0.8 0 0
0.026603 0.084832 0.057503 0.8 0 0
0.041951 0.077064 0.463026 0.8 0 0
0.041099 0.055578 0.064206 0.8 0 0
0.036539 0.101315 0.687979 0.8 0 0
0.039351 0.045790 0.559773 0.8 0 0
0.047839 0.074700 0.207303 0.8 0 0
0.038861 0.041459 0.685671 0.8 0 0
0.046713 0.065155 0.104883 0.8 0 0
0.037015 0.103443 0.820328 0.8 0 0
0.039783 0.093517 0.245178 0.8 0 0
0.038263 0.054773 0.035695 0.8 0 0
0.039844 0.095947 0.639932 0.8 0 0
0.041884 0.071754 0.267114 0.8 0 0
0.037193 0.106899 0.690854 0.8 0 0
0.039023 0.031116 0.231745 0.8 0 0
0.038010 0.096723 0.180888 0.8 0 0
0.036736 0.047019 0.866863 0.8 0 0
0.039846 0.069534 0.908662 0.8 0 0
0.036089 0.054493 0.876511 0.8 0 0
0.039776 0.051380 0.306303 0.8 0 0
0.041452 0.081396 0.456537 0.8 0 0
0.037251 0.039317 0.373884 0.8 0 0
0.041508 0.064378 0.549720 0.8 0 0
0.036612 0.044589 0.421843 0.8 0 0
0.037398 0.041452 0.882820 0.8 0 0
0.035018 0.058914 0.397035 0.8 0 0
0.034141 0.079263 0.740365 0.8 0 0
0.033507 0.072262 0.412205 0.8 0 0
0.048729 0.085641 0.041585 0.8 0 0
0.039749 0.049536 0.462978 0.8 0 0
0.037917 0.028988 0.231745 0.8 0 0
0.040516 0.061662 0.859704 0.8 0 0
0.038870 0.104182 0.565565 0.8 0 0
0.033952 0.066707 0.644527 0.8 0 0
0.035482 0.079932 0.886398 0.8 0 0
0.035000 0.059376 0.375177 0.8 0 0
0.038187 0.109176 0.319541 0.8 0 0
0.040286 0.050447 0.196033 0.8 0 0
0.046760 0.071410 0.074243 0.8 0 0
0.041230 0.084156 0.672097 0.8 0 0
0.038595 0.105546 0.777809 0.8 0 0
0.037184 0.062169 0.939835 0.8 0 0
0.040764 0.058021 0.526118 0.8 0 0
0.033423 0.053797 0.105062 0.8 0 0
0.033424 0.074356 0.554143 0.8 0 0
0.040861 0.059221 0.717728 0.8 0 0
0.028607 0.050484 0.231745 0.8 0 0
0.037527 0.042670 0.906864 0.8 0 0
0.037483 0.108153 0.790365 0.8 0 0
0.047949 0.074328 0.180598 0.8 0 0
0.042657 0.087545 0.030986 0.8 0 0
0.035655 0.055310 0.820505 0.8 0 0
0.049157 0.055891 0.041668 0.8 0 0
0.034265 0.067804 0.802205 0.8 0 0
0.039219 0.098601 0.834671 0.8 0 0
0.040937 0.059493 0.532888 0.8 0 0
0.039700 0.092147 0.866608 0.8 0 0
0.037860 0.034893 0.843031 0.8 0 0
0.041614 0.072845 0.845775 0.8 0 0
0.040766 0.051724 0.225069 0.8 0 0
0.036302 0.098701 0.725668 0.8 0 0
0.041551 0.067369 0.777539 0.8 0 0
0.041184 0.065195 0.265747 0.8 0 0
0.035508 0.053603 0.536293 0.8 0 0
0.041981 0.068865 0.474866 0.8 0 0
0.028677 0.066779 0.223062 0.8 0 0
0.040001 0.093126 0.375760 0.8 0 0
0.028789 0.069483 0.093649 0.8 0 0
0.037070 0.041031 0.766244 0.8 0 0
0.038965 0.048123 0.884678 0.8 0 0
0.028990 0.066138 0.102717 0.8 0 0
0.048030 0.083082 0.050798 0.8 0 0
0.041479 0.079453 0.349613 0.8 0 0
0.028335 0.079664 0.202143 0.8 0 0
0.034341 0.073466 0.853600 0.8 0 0
0.039157 0.044593 0.435072 0.8 0 0
0.040670 0.087021 0.752867 0.8 0 0
0.047144 0.065603 0.214053 0.8 0 0
0.037684 0.050685 0.936840 0.8 0 0
0.041115 0.084009 0.425608 0.8 0 0
0.034728 0.081398 0.234996 0.8 0 0
0.032344 0.054089 0.186344 0.8 0 0
0.036477 0.046992 0.783625 0.8 0 0
0.041693 0.079793 0.521884 0.8 0 0
0.036697 0.074977 0.937779 0.8 0 0
0.034540 0.074529 0.859743 0.8 0 0
0.037516 0.038689 0.854237 0.8 0 0
0.039718 0.094423 0.263612 0.8 0 0
0.038076 0.119282 0.225323 0.8 0 0
0.036577 0.101263 0.717878 0.8 0 0
0.037325 0.107970 0.625966 0.8 0 0
0.041614 0.076181 0.248318 0.8 0 0
0.034139 0.079931 0.462068 0.8 0 0
0.044750 0.056734 0.138847 0.8 0 0
0.041803 0.078082 0.446100 0.8 0 0
0.040155 0.052545 0.702366 0.8 0 0
0.037759 0.034426 0.453790 0.8 0 0
0.038544 0.106771 0.473479 0.8 0 0
0.038278 0.037679 0.284970 0.8 0 0
0.038259 0.039424 0.864893 0.8 0 0
0.035104 0.076706 0.878808 0.8 0 0
0.041807 0.068697 0.748837 0.8 0 0
0.030696 0.060874 0.085300 0.8 0 0
0.037104 0.039847 0.554599 0.8 0 0
0.040082 0.091190 0.277305 0.8 0 0
0.039433 0.099503 0.681610 0.8 0 0
0.039041 0.045097 0.252558 0.8 0 0
0.039417 0.098782 0.402906 0.8 0 0
0.032779 0.054399 0.117801 0.8 0 0
0.035067 0.057493 0.495997 0.8 0 0
0.027730 0.073245 0.045245 0.8 0 0
0.036706 0.088500 0.914519 0.8 0 0
0.036528 0.100758 0.463581 0.8 0 0
0.046012 0.054301 0.036579 0.8 0 0
0.040166 0.092935 0.515954 0.8 0 0
0.037651 0.110733 0.576861 0.8 0 0
0.040651 0.057488 0.460426 0.8 0 0
0.041656 0.083727 0.231745 0.8 0 0
0.038612 0.105881 0.422875 0.8 0 0
0.039929 0.050664 0.621826 0.8 0 0
0.036698 0.045153 0.263242 0.8 0 0
0.039693 0.055362 0.881272 0.8 0 0
0.028957 0.079208 0.101605 0.8 0 0
0.034574 0.064466 0.300006 0.8 0 0
0.034120 0.069980 0.245887 0.8 0 0
0.042081 0.052353 0.210416 0.8 0 0
0.038273 0.036430 0.701710 0.8 0 0
0.035988 0.115119 0.231745 0.8 0 0
0.028411 0.065493 0.185705 0.8 0 0
0.038531 0.066784 0.947364 0.8 0 0
0.042748 0.053421 0.135843 0.8 0 0
0.035421 0.055914 0.350712 0.8 0 0
0.040922 0.062831 0.259267 0.8 0 0
0.035885 0.050398 0.516592 0.8 0 0
0.034997 0.087778 0.508420 0.8 0 0
0.046392 0.084377 0.198622 0.8 0 0
0.047330 0.077380 0.219213 0.8 0 0
0.034271 0.066409 0.353738 0.8 0 0
0.043395 0.054098 0.198267 0.8 0 0
0.042025 0.075844 0.424078 0.8 0 0
0.038106 0.109807 0.297713 0.8 0 0
0.035368 0.086246 0.850810 0.8 0 0
0.036669 0.074338 0.937833 0.8 0 0
0.040236 0.092554 0.632094 0.8 0 0
0.038545 0.039046 0.724984 0.8 0 0
0.040933 0.085770 0.445114 0.8 0 0
0.036783 0.042483 0.651053 0.8 0 0
0.036488 0.099658 0.360351 0.8 0 0
0.042556 0.092410 0.124438 0.8 0 0
0.037538 0.109203 0.749391 0.8 0 0
0.038063 0.067843 0.963339 0.8 0 0
0.040741 0.059117 0.380143 0.8 0 0
0.038530 0.095933 0.211456 0.8 0 0
0.033300 0.057697 0.063554 0.8 0 0
0.037070 0.040247 0.491982 0.8 0 0
0.042105 0.076490 0.603143 0.8 0 0
0.039309 0.046614 0.755451 0.8 0 0
0.042051 0.070597 0.401537 0.8 0 0
0.034584 0.061280 0.644687 0.8 0 0
0.050760 0.074618 0.231593 0.8 0 0
0.036798 0.103325 0.518521 0.8 0 0
0.038619 0.105232 0.783499 0.8 0 0
0.041743 0.079782 0.677762 0.8 0 0
0.034226 0.081353 0.591175 0.8 0 0
0.038222 0.036950 0.326028 0.8 0 0
0.034491 0.062055 0.653257 0.8 0 0
0.036219 0.048247 0.398402 0.8 0 0
0.038975 0.042523 0.596806 0.8 0 0
0.037262 0.085557 0.029355 0.8 0 0
0.042131 0.076130 0.554244 0.8 0 0
0.042219 0.070217 0.642389 0.8 0 0
0.033716 0.069105 0.508048 0.8 0 0
0.036801 0.042414 0.568731 0.8 0 0
0.038497 0.053093 0.925349 0.8 0 0
0.035613 0.052490 0.650270 0.8 0 0
0.039731 0.049733 0.422709 0.8 0 0
0.042242 0.072007 0.420302 0.8 0 0
0.033731 0.070189 0.413725 0.8 0 0
0.039536 0.083267 0.905367 0.8 0 0
0.037893 0.063748 0.962889 0.8 0 0
0.037819 0.095682 0.940637 0.8 0 0
0.040675 0.088834 0.644781 0.8 0 0
0.039206 0.045262 0.390857 0.8 0 0
0.034198 0.077771 0.296515 0.8 0 0
0.038239 0.108141 0.829564 0.8 0 0
0.034383 0.066495 0.290020 0.8 0 0
0.035772 0.057621 0.874125 0.8 0 0
0.042007 0.052349 0.212689 0.8 0 0
0.036991 0.105059 0.584711 0.8 0 0
0.041380 0.078392 0.821107 0.8 0 0
0.041478 0.065546 0.745727 0.8 0 0
0.037794 0.074024 0.971276 0.8 0 0
0.039488 0.075596 0.025264 0.8 0 0
0.041979 0.071631 0.308544 0.8 0 0
0.038456 0.107057 0.381893 0.8 0 0
0.033598 0.075432 0.475474 0.8 0 0
0.040761 0.086622 0.385239 0.8 0 0
0.038851 0.041971 0.431923 0.8 0 0
0.034479 0.065220 0.784196 0.8 0 0
0.033835 0.077928 0.567741 0.8 0 0
0.037696 0.110254 0.309965 0.8 0 0
0.028055 0.083493 0.063897 0.8 0 0
0.038151 0.109526 0.773496 0.8 0 0
0.035484 0.091301 0.433214 0.8 0 0
0.047207 0.072119 0.092627 0.8 0 0
0.039499 0.098359 0.444887 0.8 0 0
0.038711 0.041559 0.309320 0.8 0 0
0.035836 0.093604 0.354225 0.8 0 0
0.035757 0.053684 0.294304 0.8 0 0
0.039729 0.052907 0.848772 0.8 0 0
0.036896 0.104102 0.714132 0.8 0 0
0.039621 0.049086 0.388837 0.8 0 0
0.036091 0.078522 0.912015 0.8 0 0
0.041304 0.064368 0.375253 0.8 0 0
0.034906 0.087332 0.661210 0.8 0 0
0.038506 0.073266 0.956839 0.8 0 0
0.036193 0.097964 0.480340 0.8 0 0
0.038616 0.104999 0.289352 0.8 0 0
0.037530 0.109468 0.727156 0.8 0 0
0.039781 0.094172 0.794078 0.8 0 0
0.033552 0.075478 0.559077 0.8 0 0
0.037156 0.106116 0.735469 0.8 0 0
0.035364 0.054577 0.676634 0.8 0 0
0.035142 0.085515 0.241194 0.8 0 0
0.036189 0.050259 0.816092 0.8 0 0
0.038517 0.039792 0.791821 0.8 0 0
0.042456 0.073371 0.569032 0.8 0 0
0.034014 0.079028 0.476706 0.8 0 0
0.038663 0.071327 0.950342 0.8 0 0
0.029112 0.065491 0.098128 0.8 0 0
0.038006 0.091275 0.055777 0.8 0 0
0.038400 0.108082 0.483112 0.8 0 0
0.043477 0.054308 0.154275 0.8 0 0
0.037670 0.034977 0.544522 0.8 0 0
0.031847 0.089467 0.106280 0.8 0 0
0.038972 0.103244 0.521988 0.8 0 0
0.038557 0.106732 0.722199 0.8 0 0
0.028955 0.083029 0.180498 0.8 0 0
0.033587 0.070890 0.449411 0.8 0 0
0.037961 0.033829 0.604776 0.8 0 0
0.041792 0.067790 0.729587 0.8 0 0
0.038528 0.106535 0.406636 0.8 0 0
0.040685 0.086371 0.325548 0.8 0 0
0.039657 0.050529 0.283746 0.8 0 0
0.034069 0.077032 0.779926 0.8 0 0
0.041134 0.084255 0.465818 0.8 0 0
0.039449 0.046680 0.535749 0.8 0 0
0.033665 0.076108 0.482034 0.8 0 0
0.039038 0.047206 0.864752 0.8 0 0
0.037876 0.033842 0.335349 0.8 0 0
0.035157 0.056433 0.627038 0.8 0 0
0.041693 0.069459 0.288129 0.8 0 0
0.034387 0.081497 0.417131 0.8 0 0
0.034201 0.080134 0.438738 0.8 0 0
0.028411 0.077609 0.138046 0.8 0 0
0.041907 0.067598 0.626796 0.8 0 0
0.035574 0.054740 0.337086 0.8 0 0
0.037532 0.036203 0.515926 0.8 0 0
0.047261 0.071735 0.099537 0.8 0 0
0.041514 0.067414 0.787591 0.8 0 0
0.035741 0.093311 0.408665 0.8 0 0
0.034902 0.087354 0.697772 0.8 0 0
0.040727 0.113508 0.231745 0.8 0 0
0.049040 0.062092 0.029244 0.8 0 0
0.033534 0.074902 0.713133 0.8 0 0
0.034245 0.081695 0.656604 0.8 0 0
0.034373 0.081691 0.437140 0.8 0 0
0.037952 0.106897 0.903313 0.8 0 0
0.033874 0.068624 0.436382 0.8 0 0
0.033553 0.074730 0.454486 0.8 0 0
0.040717 0.086990 0.383323 0.8 0 0
0.037796 0.112019 0.664482 0.8 0 0
0.037508 0.109417 0.500006 0.8 0 0
0.040583 0.056413 0.543603 0.8 0 0
0.039622 0.095739 0.290011 0.8 0 0
0.040235 0.091901 0.457236 0.8 0 0
0.036803 0.101839 0.792743 0.8 0 0
0.039781 0.049530 0.543335 0.8 0 0
0.038138 0.035860 0.383561 0.8 0 0
0.045085 0.087313 0.220811 0.8 0 0
0.039001 0.103040 0.543719 0.8 0 0
0.039581 0.090806 0.885743 0.8 0 0
0.036989 0.040712 0.669775 0.8 0 0
0.040873 0.058675 0.655889 0.8 0 0
0.038033 0.034512 0.514528 0.8 0 0
0.031315 0.089056 0.119254 0.8 0 0
0.038504 0.039788 0.290450 0.8 0 0
0.036639 0.043664 0.699327 0.8 0 0
0.041493 0.068594 0.822673 0.8 0 0
0.037676 0.109900 0.276010 0.8 0 0
0.034522 0.062202 0.493913 0.8 0 0
0.035548 0.089538 0.819063 0.8 0 0
0.038270 0.107855 0.828180 0.8 0 0
0.034407 0.069676 0.848131 0.8 0 0
0.031844 0.090047 0.122272 0.8 0 0
0.037231 0.107141 0.610108 0.8 0 0
0.034769 0.061026 0.404953 0.8 0 0
0.037849 0.039306 0.225323 0.8 0 0
0.039129 0.102078 0.668746 0.8 0 0
0.038971 0.043918 0.778755 0.8 0 0
0.036351 0.046801 0.428230 0.8 0 0
0.036616 0.044541 0.423641 0.8 0 0
0.033228 0.062958 0.027637 0.8 0 0
0.036592 0.100148 0.316578 0.8 0 0
0.028428 0.065293 0.196364 0.8 0 0
0.039094 0.088835 0.910501 0.8 0 0
0.027751 0.111439 0.225323 0.8 0 0
0.036611 0.043908 0.690014 0.8 0 0
0.039631 0.095947 0.775276 0.8 0 0
0.040785 0.058041 0.593078 0.8 0 0
0.041730 0.069440 0.304301 0.8 0 0
0.036813 0.042879 0.417296 0.8 0 0
0.040219 0.056304 0.816887 0.8 0 0
0.037612 0.035438 0.587598 0.8 0 0
0.037545 0.036090 0.513959 0.8 0 0
0.034768 0.083628 0.330343 0.8 0 0
0.025513 0.096204 0.225323 0.8 0 0
0.041147 0.084811 0.643857 0.8 0 0
0.037817 0.112105 0.514430 0.8 0 0
0.033358 0.087081 0.030606 0.8 0 0
0.034397 0.062802 0.684086 0.8 0 0
0.038430 0.038464 0.752452 0.8 0 0
0.035415 0.090542 0.416673 0.8 0 0
0.034164 0.065159 0.542418 0.8 0 0
0.036243 0.047830 0.416656 0.8 0 0
0.039792 0.095025 0.373358 0.8 0 0
0.035197 0.087861 0.348684 0.8 0 0
0.034645 0.063498 0.776196 0.8 0 0
0.037945 0.111636 0.380556 0.8 0 0
0.028495 0.069122 0.123524 0.8 0 0
0.035609 0.055683 0.250277 0.8 0 0
0.035112 0.060388 0.251013 0.8 0 0
0.039107 0.043611 0.634785 0.8 0 0
0.039227 0.097465 0.856701 0.8 0 0
0.036235 0.049130 0.298834 0.8 0 0
0.037304 0.039181 0.313739 0.8 0 0
0.039569 0.050520 0.832885 0.8 0 0
0.036490 0.056185 0.904377 0.8 0 0
0.034320 0.066018 0.349942 0.8 0 0
0.045975 0.084533 0.218892 0.8 0 0
0.048009 0.072158 0.203932 0.8 0 0
0.046784 0.063544 0.139406 0.8 0 0
0.037111 0.039727 0.611232 0.8 0 0
0.036783 0.096236 0.896619 0.8 0 0
0.035067 0.057146 0.654745 0.8 0 0
0.040476 0.090582 0.673703 0.8 0 0
0.035521 0.053243 0.671370 0.8 0 0
0.048030 0.065811 0.039681 0.8 0 0
0.047031 0.029070 0.229980 0.8 0 0
0.037223 0.059398 0.936429 0.8 0 0
0.036237 0.047903 0.733405 0.8 0 0
0.042176 0.070238 0.509075 0.8 0 0
0.037497 0.109041 0.422911 0.8 0 0
0.040414 0.056691 0.344017 0.8 0 0
0.041746 0.074681 0.239630 0.8 0 0
0.040876 0.059457 0.457115 0.8 0 0
0.038921 0.095736 0.901331 0.8 0 0
0.036553 0.101435 0.687712 0.8 0 0
0.035171 0.087551 0.344385 0.8 0 0
0.036768 0.044301 0.790219 0.8 0 0
0.039389 0.047413 0.345746 0.8 0 0
0.037095 0.039874 0.599232 0.8 0 0
0.039576 0.096394 0.315922 0.8 0 0
0.037168 0.106360 0.478694 0.8 0 0
0.041625 0.079013 0.745670 0.8 0 0
0.037522 0.049276 0.158973 0.8 0 0
0.032375 0.091306 0.133415 0.8 0 0
0.037444 0.038341 0.819747 0.8 0 0
0.046181 0.062058 0.125182 0.8 0 0
0.039804 0.093150 0.828707 0.8 0 0
0.038218 0.082830 0.951756 0.8 0 0
0.035682 0.093818 0.584392 0.8 0 0
0.036204 0.098111 0.715598 0.8 0 0
0.038701 0.044528 0.874308 0.8 0 0
0.036245 0.097464 0.754709 0.8 0 0
0.045028 0.027845 0.231745 0.8 0 0
0.035663 0.090815 0.261737 0.8 0 0
0.041891 0.076919 0.418704 0.8 0 0
0.036310 0.048536 0.286585 0.8 0 0
0.036747 0.102465 0.728284 0.8 0 0
0.037235 0.038791 0.497359 0.8 0 0
0.036062 0.068270 0.912713 0.8 0 0
0.029582 0.085078 0.192447 0.8 0 0
0.039288 0.083048 0.915076 0.8 0 0
0.039375 0.047243 0.349436 0.8 0 0
0.037385 0.108234 0.466597 0.8 0 0
0.041465 0.081203 0.451400 0.8 0 0
0.034365 0.052233 0.043467 0.8 0 0
0.040090 0.093696 0.574066 0.8 0 0
0.039446 0.097957 0.350448 0.8 0 0
0.037249 0.107230 0.540236 0.8 0 0
0.038219 0.109857 0.679301 0.8 0 0
0.036784 0.101682 0.790789 0.8 0 0
0.036172 0.095243 0.827079 0.8 0 0
0.044985 0.062284 0.070897 0.8 0 0
0.036852 0.063140 0.930707 0.8 0 0
0.035040 0.087205 0.405465 0.8 0 0
0.037281 0.107488 0.716109 0.8 0 0
0.034409 0.082030 0.437660 0.8 0 0
0.037638 0.087914 0.947115 0.8 0 0
0.038665 0.041158 0.790112 0.8 0 0
0.035335 0.057826 0.276097 0.8 0 0
0.033741 0.068545 0.629984 0.8 0 0
0.045862 0.086115 0.192409 0.8 0 0
0.034204 0.065279 0.463766 0.8 0 0
0.038633 0.105705 0.424785 0.8 0 0
0.038205 0.037007 0.284428 0.8 0 0
0.035316 0.055194 0.562821 0.8 0 0
0.037983 0.111135 0.335077 0.8 0 0
0.039534 0.072921 0.926497 0.8 0 0
0.041519 0.093728 0.223614 0.8 0 0
0.037284 0.038279 0.577075 0.8 0 0
0.033512 0.071534 0.449460 0.8 0 0
0.035957 0.077940 0.908424 0.8 0 0
0.027721 0.072443 0.174617 0.8 0 0
0.037221 0.050133 0.121216 0.8 0 0
0.039616 0.049960 0.299192 0.8 0 0
0.037317 0.049680 0.137353 0.8 0 0
0.041533 0.064594 0.549343 0.8 0 0
0.036486 0.093539 0.891898 0.8 0 0
0.040221 0.086373 0.868877 0.8 0 0
0.034331 0.079542 0.778574 0.8 0 0
0.027831 0.074622 0.194322 0.8 0 0
0.034567 0.081341 0.302497 0.8 0 0
0.039015 0.103028 0.644157 0.8 0 0
0.038719 0.041211 0.365043 0.8 0 0
0.025000 0.054518 0.230875 0.8 0 0
0.038711 0.105589 0.613062 0.8 0 0
0.040046 0.051616 0.652046 0.8 0 0
0.041106 0.072904 0.870284 0.8 0 0
0.037711 0.034522 0.695103 0.8 0 0
0.035616 0.090023 0.239589 0.8 0 0
0.039932 0.095094 0.591583 0.8 0 0
0.048030 0.078330 0.037948 0.8 0 0
0.033446 0.071269 0.563231 0.8 0 0
0.047969 0.073180 0.208408 0.8 0 0
0.037639 0.109246 0.832598 0.8 0 0
0.035622 0.091018 0.791709 0.8 0 0
0.035389 0.056489 0.771057 0.8 0 0
0.030482 0.088036 0.193524 0.8 0 0
0.038961 0.101210 0.830766 0.8 0 0
0.040448 0.056138 0.421558 0.8 0 0
0.037643 0.036452 0.821618 0.8 0 0
0.032101 0.090645 0.215262 0.8 0 0
0.037971 0.034010 0.497695 0.8 0 0
0.037875 0.057846 0.954699 0.8 0 0
0.034393 0.082928 0.641645 0.8 0 0
0.041838 0.068142 0.440953 0.8 0 0
0.039389 0.099728 0.563595 0.8 0 0
0.038579 0.039604 0.436987 0.8 0 0
0.037685 0.034859 0.536041 0.8 0 0
0.034730 0.060061 0.630263 0.8 0 0
0.034587 0.061402 0.582106 0.8 0 0
0.034682 0.094835 0.204876 0.8 0 0
0.038480 0.106493 0.323005 0.8 0 0
0.039135 0.101684 0.479688 0.8 0 0
0.034923 0.083950 0.265031 0.8 0 0
0.034778 0.090565 0.057107 0.8 0 0
0.041188 0.061646 0.537295 0.8 0 0
0.040731 0.057841 0.492895 0.8 0 0
0.040451 0.056312 0.406301 0.8 0 0
0.040840 0.059516 0.420807 0.8 0 0
0.038963 0.044288 0.257099 0.8 0 0
0.036157 0.098007 0.638905 0.8 0 0
0.036766 0.101012 0.822926 0.8 0 0
0.038401 0.038162 0.402307 0.8 0 0
0.036520 0.053131 0.896253 0.8 0 0
0.040728 0.087610 0.722107 0.8 0 0
0.041970 0.077730 0.635177 0.8 0 0
0.042395 0.073434 0.475846 0.8 0 0
0.047637 0.068549 0.204271 0.8 0 0
0.044833 0.056449 0.195749 0.8 0 0
0.041871 0.077758 0.718477 0.8 0 0
0.039161 0.054474 0.065107 0.8 0 0
0.039248 0.100426 0.728975 0.8 0 0
0.034086 0.075660 0.250366 0.8 0 0
0.035469 0.053671 0.682657 0.8 0 0
0.035714 0.092982 0.400830 0.8 0 0
0.037802 0.034014 0.466689 0.8 0 0
0.039283 0.045506 0.720558 0.8 0 0
0.035875 0.073901 0.912887 0.8 0 0
0.029417 0.052297 0.042818 0.8 0 0
0.028801 0.064543 0.131217 0.8 0 0
0.038899 0.050160 0.126408 0.8 0 0
0.038787 0.040844 0.671853 0.8 0 0
0.034771 0.084143 0.361370 0.8 0 0
0.040753 0.058499 0.447150 0.8 0 0
0.037129 0.039581 0.602370 0.8 0 0
0.040840 0.084819 0.317410 0.8 0 0
0.037744 0.034385 0.503336 0.8 0 0
0.035802 0.094065 0.738462 0.8 0 0
0.039041 0.100977 0.274464 0.8 0 0
0.030129 0.086934 0.172961 0.8 0 0
0.036145 0.047901 0.702257 0.8 0 0
0.040137 0.052630 0.529798 0.8 0 0
0.027702 0.073174 0.168534 0.8 0 0
0.039462 0.096784 0.805703 0.8 0 0
0.049157 0.086408 0.037161 0.8 0 0
0.038688 0.104122 0.811737 0.8 0 0
0.033678 0.070282 0.438167 0.8 0 0
0.039887 0.094861 0.731238 0.8 0 0
0.041772 0.066862 0.488564 0.8 0 0
0.035177 0.066510 0.026108 0.8 0 0
0.039786 0.049498 0.585122 0.8 0 0
0.037650 0.035307 0.471784 0.8 0 0
0.048656 0.102152 0.231745 0.8 0 0
0.041951 0.073622 0.274153 0.8 0 0
0.038166 0.035603 0.574550 0.8 0 0
0.042597 0.053793 0.116780 0.8 0 0
0.036424 0.100332 0.685309 0.8 0 0
0.046507 0.084000 0.190999 0.8 0 0
0.036219 0.098118 0.467647 0.8 0 0
0.040008 0.088045 0.873811 0.8 0 0
0.039953 0.094829 0.118187 0.8 0 0
0.034029 0.079307 0.486093 0.8 0 0
0.028441 0.066174 0.155693 0.8 0 0
0.037985 0.034993 0.802209 0.8 0 0
0.037318 0.039288 0.801367 0.8 0 0
0.033995 0.093865 0.127771 0.8 0 0
0.039549 0.048018 0.426040 0.8 0 0
0.037228 0.106704 0.442762 0.8 0 0
0.038403 0.037654 0.568361 0.8 0 0
0.038105 0.038831 0.881463 0.8 0 0
0.041018 0.059635 0.231745 0.8 0 0
0.039471 0.098052 0.381161 0.8 0 0
0.039123 0.098431 0.857399 0.8 0 0
0.040139 0.053434 0.425562 0.8 0 0
0.032650 0.044353 0.231745 0.8 0 0
0.045635 0.058899 0.167548 0.8 0 0
0.035399 0.055758 0.385006 0.8 0 0
0.036680 0.043563 0.504227 0.8 0 0
0.038921 0.042351 0.471698 0.8 0 0
0.032096 0.090497 0.034626 0.8 0 0
0.040296 0.056922 0.812555 0.8 0 0
0.034151 0.065058 0.619137 0.8 0 0
0.039652 0.097547 0.612114 0.8 0 0
0.035953 0.050115 0.451741 0.8 0 0
0.040959 0.083053 0.794507 0.8 0 0
0.041318 0.082719 0.716264 0.8 0 0
0.034358 0.075963 0.846448 0.8 0 0
0.040167 0.091860 0.751385 0.8 0 0
0.038277 0.109319 0.614095 0.8 0 0
0.037097 0.104946 0.335663 0.8 0 0
0.037290 0.039396 0.792385 0.8 0 0
0.039709 0.061791 0.896814 0.8 0 0
0.035985 0.050302 0.407626 0.8 0 0
0.036993 0.041538 0.379704 0.8 0 0
0.039524 0.048898 0.322942 0.8 0 0
0.027917 0.075340 0.171738 0.8 0 0
0.027675 0.030109 0.231386 0.8 0 0
0.041975 0.077298 0.496556 0.8 0 0
0.037896 0.034289 0.258345 0.8 0 0
0.037051 0.068456 0.025518 0.8 0 0
0.038736 0.041692 0.780773 0.8 0 0
0.033860 0.075458 0.337107 0.8 0 0
0.027241 0.093155 0.043855 0.8 0 0
0.035900 0.095593 0.525424 0.8 0 0
0.046575 0.083775 0.198004 0.8 0 0
0.036100 0.048648 0.484776 0.8 0 0
0.041269 0.064245 0.759795 0.8 0 0
0.037893 0.033284 0.558219 0.8 0 0
0.036961 0.091833 0.916453 0.8 0 0
0.038879 0.102019 0.234345 0.8 0 0
0.037687 0.111090 0.659786 0.8 0 0
0.036509 0.069130 0.929401 0.8 0 0
0.040723 0.088399 0.631412 0.8 0 0
0.038442 0.104981 0.859337 0.8 0 0
0.036735 0.102709 0.493665 0.8 0 0
0.042614 0.088105 0.065063 0.8 0 0
0.039281 0.046198 0.366414 0.8 0 0
0.037449 0.108200 0.348547 0.8 0 0
0.035964 0.051181 0.343364 0.8 0 0
0.038831 0.045362 0.867482 0.8 0 0
0.041706 0.069867 0.274803 0.8 0 0
0.050760 0.087502 0.226518 0.8 0 0
0.040066 0.093888 0.708981 0.8 0 0
0.037673 0.110142 0.773627 0.8 0 0
0.038785 0.042703 0.250227 0.8 0 0
0.037410 0.040560 0.870962 0.8 0 0
0.038695 0.042077 0.830765 0.8 0 0
0.047514 0.077183 0.149208 0.8 0 0
0.041662 0.065570 0.599075 0.8 0 0
0.037115 0.061750 0.936880 0.8 0 0
0.040755 0.057602 0.694098 0.8 0 0
0.038564 0.105099 0.826114 0.8 0 0
0.037962 0.033781 0.698129 0.8 0 0
0.036815 0.102672 0.746232 0.8 0 0
0.041079 0.065265 0.836326 0.8 0 0
0.039619 0.096300 0.344712 0.8 0 0
0.036065 0.094413 0.248925 0.8 0 0
0.040589 0.089302 0.517452 0.8 0 0
0.038797 0.104103 0.391030 0.8 0 0
0.035496 0.061180 0.873040 0.8 0 0
0.037019 0.041696 0.322996 0.8 0 0
0.036223 0.098487 0.585321 0.8 0 0
0.040114 0.053164 0.430719 0.8 0 0
0.038581 0.105612 0.327674 0.8 0 0
0.039107 0.046045 0.232076 0.8 0 0
0.035601 0.093313 0.689444 0.8 0 0
0.038886 0.102507 0.793390 0.8 0 0
0.031980 0.090922 0.148607 0.8 0 0
0.036524 0.060034 0.913222 0.8 0 0
0.034274 0.068624 0.241052 0.8 0 0
0.036345 0.099639 0.664748 0.8 0 0
0.040511 0.087966 0.325458 0.8 0 0
0.036459 0.047121 0.292115 0.8 0 0
0.040397 0.054853 0.527197 0.8 0 0
0.039651 0.058231 0.890903 0.8 0 0
0.035134 0.086396 0.291393 0.8 0 0
0.042122 0.069465 0.615281 0.8 0 0
0.034759 0.061216 0.398892 0.8 0 0
0.035517 0.091707 0.444866 0.8 0 0
0.042103 0.076443 0.578230 0.8 0 0
0.039718 0.049761 0.408500 0.8 0 0
0.036625 0.043796 0.686297 0.8 0 0
0.039692 0.096018 0.380471 0.8 0 0
0.037959 0.035827 0.852169 0.8 0 0
0.042152 0.087901 0.231745 0.8 0 0
0.036461 0.049921 0.869523 0.8 0 0
0.034541 0.065261 0.800395 0.8 0 0
0.039785 0.077097 0.909154 0.8 0 0
0.025968 0.049520 0.231745 0.8 0 0
0.047841 0.072120 0.147669 0.8 0 0
0.039551 0.098186 0.494071 0.8 0 0
0.039889 0.054806 0.852907 0.8 0 0
0.038029 0.110136 0.832248 0.8 0 0
0.035416 0.091470 0.543852 0.8 0 0
0.041710 0.065934 0.616797 0.8 0 0
0.031555 0.089502 0.219895 0.8 0 0
0.038033 0.110237 0.817948 0.8 0 0
0.039862 0.095619 0.548905 0.8 0 0
0.036890 0.103636 0.420372 0.8 0 0
0.038802 0.040950 0.689669 0.8 0 0
0.041520 0.064718 0.712142 0.8 0 0
0.037688 0.110171 0.307840 0.8 0 0
0.046015 0.085622 0.184090 0.8 0 0
0.036946 0.072108 0.947001 0.8 0 0
0.040720 0.086100 0.328662 0.8 0 0
0.026603 0.055304 0.052151 0.8 0 0
0.034453 0.062421 0.632015 0.8 0 0
0.041877 0.069738 0.361140 0.8 0 0
0.041483 0.081657 0.539352 0.8 0 0
0.042261 0.071000 0.499769 0.8 0 0
0.040990 0.061024 0.404519 0.8 0 0
0.035543 0.053336 0.518049 0.8 0 0
0.041230 0.082395 0.390560 0.8 0 0
0.041825 0.067247 0.497409 0.8 0 0
0.036012 0.096812 0.676913 0.8 0 0
0.039244 0.077409 0.927589 0.8 0 0
0.038499 0.050714 0.919788 0.8 0 0
0.039932 0.050889 0.516416 0.8 0 0
0.037012 0.104748 0.431276 0.8 0 0
0.037296 0.107618 0.530770 0.8 0 0
0.036951 0.088496 0.923604 0.8 0 0
0.041392 0.082531 0.572321 0.8 0 0
0.039880 0.050208 0.642119 0.8 0 0
0.039834 0.052961 0.235485 0.8 0 0
0.040359 0.054469 0.561929 0.8 0 0
0.036814 0.103172 0.454462 0.8 0 0
0.041714 0.094332 0.205749 0.8 0 0
0.037550 0.074392 0.964029 0.8 0 0
0.034418 0.063377 0.465662 0.8 0 0
0.038831 0.100573 0.869643 0.8 0 0
0.038113 0.110248 0.397458 0.8 0 0
0.040937 0.061456 0.346310 0.8 0 0
0.036071 0.094329 0.823460 0.8 0 0
0.038389 0.037640 0.491123 0.8 0 0
0.049157 0.065226 0.064089 0.8 0 0
0.035581 0.093156 0.693232 0.8 0 0
0.042357 0.071301 0.675650 0.8 0 0
0.035063 0.086388 0.765205 0.8 0 0
0.037263 0.105673 0.235112 0.8 0 0
0.035055 0.058064 0.031200 0.8 0 0
0.038586 0.086726 0.932879 0.8 0 0
0.041519 0.077103 0.819946 0.8 0 0
0.036314 0.047144 0.423695 0.8 0 0
0.040168 0.053659 0.428422 0.8 0 0
0.039179 0.101631 0.645336 0.8 0 0
0.033935 0.077128 0.395129 0.8 0 0
0.041694 0.079874 0.553371 0.8 0 0
0.041325 0.081551 0.747584 0.8 0 0
0.039516 0.098720 0.612824 0.8 0 0
0.034920 0.075106 0.875635 0.8 0 0
0.038339 0.038240 0.790302 0.8 0 0
0.038247 0.092828 0.934367 0.8 0 0
0.040372 0.070390 0.891776 0.8 0 0
0.027930 0.116043 0.230431 0.8 0 0
0.035824 0.095196 0.663782 0.8 0 0
0.035600 0.092169 0.420241 0.8 0 0
0.037908 0.034290 0.282150 0.8 0 0
0.046732 0.077230 0.085062 0.8 0 0
0.047589 0.077923 0.181268 0.8 0 0
0.034443 0.063534 0.435666 0.8 0 0
0.041774 0.066563 0.590311 0.8 0 0
0.035477 0.054746 0.418857 0.8 0 0
0.040186 0.052973 0.573115 0.8 0 0
0.044014 0.090154 0.213458 0.8 0 0
0.041688 0.078585 0.413647 0.8 0 0
0.040540 0.088201 0.357147 0.8 0 0
0.037731 0.085038 0.954816 0.8 0 0
0.037691 0.035407 0.760572 0.8 0 0
0.040880 0.083770 0.796022 0.8 0 0
0.033817 0.069538 0.407752 0.8 0 0
0.034398 0.081594 0.416591 0.8 0 0
0.036779 0.045074 0.837272 0.8 0 0
0.042129 0.071960 0.759570 0.8 0 0
0.026603 0.058173 0.045323 0.8 0 0
0.039906 0.092585 0.814270 0.8 0 0
0.037659 0.035627 0.363201 0.8 0 0
0.037660 0.058246 0.948755 0.8 0 0
0.039461 0.047290 0.421246 0.8 0 0
0.039858 0.050894 0.423144 0.8 0 0
0.036717 0.102832 0.686459 0.8 0 0
0.035169 0.087446 0.338752 0.8 0 0
0.039163 0.044754 0.415685 0.8 0 0
0.036892 0.102298 0.817875 0.8 0 0
0.038605 0.039279 0.685347 0.8 0 0
0.037957 0.111821 0.461593 0.8 0 0
0.039792 0.049510 0.605493 0.8 0 0
0.038321 0.037285 0.426108 0.8 0 0
0.041324 0.083307 0.649275 0.8 0 0
0.047527 0.079020 0.231745 0.8 0 0
0.036934 0.112121 0.231745 0.8 0 0
0.039398 0.096576 0.841269 0.8 0 0
0.037190 0.051154 0.096742 0.8 0 0
0.039554 0.097269 0.749320 0.8 0 0
0.035377 0.091217 0.589820 0.8 0 0
0.040136 0.050430 0.150966 0.8 0 0
0.036273 0.098838 0.539324 0.8 0 0
0.035593 0.055388 0.280331 0.8 0 0
0.033829 0.077551 0.710622 0.8 0 0
0.034653 0.060837 0.580364 0.8 0 0
0.036522 0.101142 0.660440 0.8 0 0
0.038232 0.108947 0.351833 0.8 0 0
0.028329 0.082698 0.231745 0.8 0 0
0.041221 0.064953 0.791329 0.8 0 0
0.036875 0.102042 0.824317 0.8 0 0
0.034812 0.083719 0.310475 0.8 0 0
0.038131 0.035249 0.651840 0.8 0 0
0.036756 0.103083 0.607377 0.8 0 0
0.036183 0.096038 0.281394 0.8 0 0
0.029390 0.055194 0.034908 0.8 0 0
0.037748 0.100919 0.926364 0.8 0 0
0.037193 0.039113 0.524030 0.8 0 0
0.040008 0.094470 0.606614 0.8 0 0
0.037297 0.107662 0.713606 0.8 0 0
0.049157 0.079919 0.063323 0.8 0 0
0.041503 0.081748 0.638037 0.8 0 0
0.039632 0.096257 0.762613 0.8 0 0
0.035118 0.056872 0.569358 0.8 0 0
0.039972 0.090296 0.854237 0.8 0 0
0.025000 0.050005 0.228484 0.8 0 0
0.041407 0.064028 0.720261 0.8 0 0
0.030215 0.074140 0.231745 0.8 0 0
0.040147 0.092176 0.409982 0.8 0 0
0.041487 0.077240 0.242387 0.8 0 0
0.036421 0.098967 0.352691 0.8 0 0
0.033404 0.073585 0.464541 0.8 0 0
0.039307 0.089734 0.900034 0.8 0 0
0.036695 0.096056 0.196683 0.8 0 0
0.038900 0.102132 0.256261 0.8 0 0
0.039978 0.094802 0.647014 0.8 0 0
0.033887 0.068025 0.716558 0.8 0 0
0.041541 0.066408 0.384039 0.8 0 0
0.036300 0.047580 0.391146 0.8 0 0
0.035018 0.088315 0.674252 0.8 0 0
0.034593 0.063984 0.777248 0.8 0 0
0.040931 0.051966 0.105627 0.8 0 0
0.033801 0.068030 0.630868 0.8 0 0
0.041509 0.078526 0.308536 0.8 0 0
0.037305 0.080055 0.949018 0.8 0 0
0.033764 0.074006 0.785164 0.8 0 0
0.033543 0.070617 0.501135 0.8 0 0
0.037419 0.037042 0.646396 0.8 0 0
0.049157 0.061727 0.058693 0.8 0 0
0.042002 0.075354 0.383128 0.8 0 0
0.037099 0.041163 0.792621 0.8 0 0
0.041890 0.077562 0.461560 0.8 0 0
0.028565 0.064087 0.168728 0.8 0 0
0.036265 0.098236 0.418774 0.8 0 0
0.029113 0.091589 0.055191 0.8 0 0
0.036586 0.044252 0.568859 0.8 0 0
0.041689 0.080143 0.639605 0.8 0 0
0.040955 0.086168 0.524866 0.8 0 0
0.038529 0.106015 0.317538 0.8 0 0
0.034133 0.065298 0.589824 0.8 0 0
0.037992 0.034317 0.725651 0.8 0 0
0.030596 0.062124 0.076716 0.8 0 0
0.040217 0.055108 0.329283 0.8 0 0
0.033398 0.073938 0.491033 0.8 0 0
0.035555 0.054639 0.761866 0.8 0 0
0.035473 0.053701 0.643893 0.8 0 0
0.038716 0.104711 0.375180 0.8 0 0
0.040165 0.054321 0.359993 0.8 0 0
0.048094 0.067278 0.065919 0.8 0 0
0.026603 0.090935 0.048179 0.8 0 0
0.041175 0.083591 0.435407 0.8 0 0
0.045632 0.086008 0.133840 0.8 0 0
0.033829 0.077209 0.719149 0.8 0 0
0.038153 0.041514 0.225323 0.8 0 0
0.042060 0.068817 0.659978 0.8 0 0
0.035786 0.059006 0.879956 0.8 0 0
0.036253 0.047506 0.454085 0.8 0 0
0.033884 0.067167 0.690553 0.8 0 0
0.036232 0.089316 0.892150 0.8 0 0
0.039024 0.097854 0.880793 0.8 0 0
0.038621 0.105790 0.746308 0.8 0 0
0.035357 0.055719 0.732461 0.8 0 0
0.034706 0.061552 0.736356 0.8 0 0
0.039209 0.084505 0.915271 0.8 0 0
0.041389 0.065485 0.354224 0.8 0 0
0.041631 0.069865 0.246818 0.8 0 0
0.036545 0.045970 0.330999 0.8 0 0
0.036280 0.050330 0.847347 0.8 0 0
0.036526 0.100419 0.405623 0.8 0 0
0.038951 0.049811 0.899286 0.8 0 0
0.035931 0.094786 0.383204 0.8 0 0
0.036415 0.097243 0.837131 0.8 0 0
0.038209 0.050179 0.114330 0.8 0 0
0.027826 0.074526 0.187694 0.8 0 0
0.042233 0.075392 0.601864 0.8 0 0
0.035820 0.093023 0.313854 0.8 0 0
0.035293 0.088489 0.332791 0.8 0 0
0.039629 0.050133 0.292284 0.8 0 0
0.042316 0.073628 0.446411 0.8 0 0
0.037004 0.105236 0.648165 0.8 0 0
0.040861 0.058769 0.557739 0.8 0 0
0.035424 0.054151 0.630711 0.8 0 0
0.034372 0.081271 0.411639 0.8 0 0
0.036441 0.100490 0.699687 0.8 0 0
0.040603 0.069348 0.879575 0.8 0 0
0.035098 0.057205 0.501927 0.8 0 0
0.036999 0.081066 0.937813 0.8 0 0
0.041124 0.084968 0.623205 0.8 0 0
0.041010 0.082081 0.255422 0.8 0 0
0.037135 0.040881 0.796713 0.8 0 0
0.038564 0.106900 0.666236 0.8 0 0
0.038063 0.109869 0.238775 0.8 0 0
0.035804 0.089655 0.861055 0.8 0 0
0.035089 0.056974 0.643915 0.8 0 0
0.030336 0.082624 0.074360 0.8 0 0
0.033610 0.075931 0.544466 0.8 0 0
0.040532 0.089912 0.567889 0.8 0 0
0.035464 0.108636 0.225323 0.8 0 0
0.033915 0.077177 0.738748 0.8 0 0
0.041094 0.085047 0.553046 0.8 0 0
0.038527 0.038989 0.460056 0.8 0 0
0.037087 0.105272 0.747401 0.8 0 0
0.038702 0.042160 0.831836 0.8 0 0
0.040636 0.089210 0.669588 0.8 0 0
0.031470 0.087223 0.083415 0.8 0 0
0.037470 0.036658 0.584849 0.8 0 0
0.040503 0.090028 0.509376 0.8 0 0
0.035617 0.092033 0.753608 0.8 0 0
0.035939 0.053180 0.838135 0.8 0 0
0.035835 0.060138 0.885913 0.8 0 0
0.034207 0.064984 0.026571 0.8 0 0
0.038898 0.103882 0.518372 0.8 0 0
0.037863 0.109379 0.876827 0.8 0 0
0.037561 0.109760 0.468968 0.8 0 0
0.035531 0.091293 0.392424 0.8 0 0
0.029865 0.060546 0.139557 0.8 0 0
0.038315 0.054633 0.035957 0.8 0 0
0.035836 0.052229 0.355130 0.8 0 0
0.040829 0.061666 0.799182 0.8 0 0
0.041632 0.080510 0.702203 0.8 0 0
0.041283 0.062199 0.641293 0.8 0 0
0.037298 0.039770 0.243041 0.8 0 0
0.035717 0.093970 0.502186 0.8 0 0
0.038447 0.074158 0.957330 0.8 0 0
0.049157 0.090276 0.037632 0.8 0 0
0.040230 0.053120 0.696859 0.8 0 0
0.029038 0.034714 0.231745 0.8 0 0
0.039993 0.075589 0.904941 0.8 0 0
0.035238 0.089918 0.531882 0.8 0 0
0.046261 0.081330 0.088013 0.8 0 0
0.037154 0.040543 0.315409 0.8 0 0
0.049180 0.113162 0.231745 0.8 0 0
0.033563 0.070383 0.522744 0.8 0 0
0.038562 0.060973 0.936951 0.8 0 0
0.038796 0.041264 0.474523 0.8 0 0
0.041162 0.083632 0.429166 0.8 0 0
0.035924 0.050221 0.475071 0.8 0 0
0.039702 0.095000 0.788443 0.8 0 0
0.037824 0.111162 0.255571 0.8 0 0
0.041931 0.071097 0.780946 0.8 0 0
0.034843 0.061873 0.778549 0.8 0 0
0.037404 0.037235 0.580262 0.8 0 0
0.034014 0.068513 0.362819 0.8 0 0
0.036663 0.102244 0.567061 0.8 0 0
0.040518 0.056753 0.420129 0.8 0 0
0.037727 0.064620 0.960050 0.8 0 0
0.034382 0.064676 0.398949 0.8 0 0
0.040463 0.090332 0.496159 0.8 0 0
0.037180 0.039106 0.641168 0.8 0 0
0.041902 0.072127 0.259583 0.8 0 0
0.037758 0.110581 0.812314 0.8 0 0
0.041744 0.066382 0.559013 0.8 0 0
0.038773 0.090929 0.918514 0.8 0 0
0.036623 0.044387 0.726075 0.8 0 0
0.033462 0.073638 0.729178 0.8 0 0
0.035450 0.054176 0.500230 0.8 0 0
0.037880 0.094218 0.944977 0.8 0 0
0.041504 0.081204 0.478814 0.8 0 0
0.035416 0.113826 0.231745 0.8 0 0
0.035204 0.104932 0.225323 0.8 0 0
0.040974 0.065418 0.026440 0.8 0 0
0.040741 0.066181 0.865311 0.8 0 0
0.041041 0.060282 0.572800 0.8 0 0
0.040810 0.087773 0.694955 0.8 0 0
0.039219 0.078324 0.926781 0.8 0 0
0.041024 0.064324 0.236789 0.8 0 0
0.034594 0.062205 0.727383 0.8 0 0
0.028949 0.062834 0.184974 0.8 0 0
0.039365 0.046351 0.726203 0.8 0 0
0.039377 0.046113 0.509955 0.8 0 0
0.033603 0.070807 0.446101 0.8 0 0
0.040198 0.091915 0.426912 0.8 0 0
0.034808 0.059459 0.702317 0.8 0 0
0.029768 0.084056 0.225323 0.8 0 0
0.039922 0.057040 0.874623 0.8 0 0
0.036034 0.050726 0.325969 0.8 0 0
0.033276 0.072382 0.675449 0.8 0 0
0.036251 0.047283 0.713939 0.8 0 0
0.027730 0.065571 0.054346 0.8 0 0
0.038376 0.108158 0.446813 0.8 0 0
0.041783 0.071012 0.813401 0.8 0 0
0.035803 0.056443 0.867243 0.8 0 0
0.036459 0.097624 0.837971 0.8 0 0
0.039572 0.097657 0.432481 0.8 0 0
0.035465 0.055522 0.762484 0.8 0 0
0.037980 0.037633 0.883015 0.8 0 0
0.035500 0.055796 0.310827 0.8 0 0
0.038202 0.108848 0.283089 0.8 0 0
0.036819 0.042806 0.422501 0.8 0 0
0.038354 0.038401 0.284501 0.8 0 0
0.034864 0.060386 0.389953 0.8 0 0
0.044183 0.090161 0.143993 0.8 0 0
0.035080 0.057395 0.493977 0.8 0 0
0.029131 0.063608 0.124109 0.8 0 0
0.040203 0.052908 0.688735 0.8 0 0
0.043834 0.090795 0.206884 0.8 0 0
0.037178 0.040169 0.339846 0.8 0 0
0.037694 0.034690 0.655643 0.8 0 0
0.040811 0.058077 0.697644 0.8 0 0
0.037839 0.110891 0.839389 0.8 0 0
0.027989 0.069723 0.184553 0.8 0 0
0.038079 0.034825 0.623769 0.8 0 0
0.037389 0.095358 0.924807 0.8 0 0
0.028432 0.080507 0.168500 0.8 0 0
0.041479 0.081920 0.626183 0.8 0 0
0.033892 0.067222 0.644888 0.8 0 0
0.043224 0.052335 0.042436 0.8 0 0
0.039671 0.048483 0.596327 0.8 0 0
0.041824 0.076607 0.362087 0.8 0 0
0.033907 0.066970 0.689083 0.8 0 0
0.035656 0.052665 0.468942 0.8 0 0
0.042267 0.070828 0.571861 0.8 0 0
0.034005 0.076711 0.332839 0.8 0 0
0.034502 0.079734 0.257261 0.8 0 0
0.038382 0.108002 0.737795 0.8 0 0
0.037727 0.072764 0.970550 0.8 0 0
0.040634 0.087580 0.371932 0.8 0 0
0.041172 0.071207 0.861644 0.8 0 0
0.028670 0.074688 0.090902 0.8 0 0
0.039626 0.095679 0.787539 0.8 0 0
0.042288 0.071012 0.570940 0.8 0 0
0.027730 0.074330 0.045818 0.8 0 0
0.033696 0.071317 0.368798 0.8 0 0
0.038546 0.106616 0.449273 0.8 0 0
0.040031 0.093213 0.409761 0.8 0 0
0.042027 0.068990 0.498943 0.8 0 0
0.038436 0.105339 0.853032 0.8 0 0
0.034252 0.068990 0.235232 0.8 0 0
0.036244 0.047150 0.595908 0.8 0 0
0.041804 0.066689 0.637284 0.8 0 0
0.038776 0.105070 0.645389 0.8 0 0
0.045462 0.087489 0.175125 0.8 0 0
0.038029 0.109731 0.842715 0.8 0 0
0.035608 0.054246 0.356983 0.8 0 0
0.036080 0.092272 0.862517 0.8 0 0
0.040233 0.090143 0.300411 0.8 0 0
0.036715 0.102303 0.450927 0.8 0 0
0.047116 0.081587 0.208281 0.8 0 0
0.033469 0.074823 0.578541 0.8 0 0
0.040204 0.054681 0.357657 0.8 0 0
0.034708 0.060341 0.587050 0.8 0 0
0.037841 0.034045 0.361021 0.8 0 0
0.042028 0.069248 0.713661 0.8 0 0
0.039183 0.101619 0.670384 0.8 0 0
0.040492 0.055880 0.483952 0.8 0 0
0.040174 0.056077 0.240979 0.8 0 0
0.028148 0.076881 0.157761 0.8 0 0
0.028368 0.083374 0.027900 0.8 0 0
0.040537 0.088432 0.371886 0.8 0 0
0.040005 0.062650 0.887314 0.8 0 0
0.039486 0.047829 0.389771 0.8 0 0
0.028962 0.066695 0.100693 0.8 0 0
0.045318 0.062809 0.074983 0.8 0 0
0.034455 0.083428 0.627314 0.8 0 0
0.036300 0.057799 0.900629 0.8 0 0
0.035044 0.050863 0.206087 0.8 0 0
0.034653 0.060921 0.548389 0.8 0 0
0.036348 0.046143 0.699257 0.8 0 0
0.033600 0.093904 0.173517 0.8 0 0
0.039349 0.056128 0.898314 0.8 0 0
0.039441 0.099397 0.643737 0.8 0 0
0.041047 0.083237 0.337358 0.8 0 0
0.038247 0.108947 0.376066 0.8 0 0
0.035792 0.051683 0.443472 0.8 0 0
0.035096 0.059394 0.317960 0.8 0 0
0.039569 0.095603 0.815533 0.8 0 0
0.041346 0.080413 0.774320 0.8 0 0
0.036617 0.044659 0.401695 0.8 0 0
0.035374 0.050446 0.159716 0.8 0 0
0.038618 0.106332 0.568218 0.8 0 0
0.040112 0.091422 0.786141 0.8 0 0
0.038392 0.108236 0.525829 0.8 0 0
0.040520 0.087512 0.301117 0.8 0 0
0.050760 0.081064 0.225777 0.8 0 0
0.048006 0.072541 0.162508 0.8 0 0
0.039918 0.050492 0.664354 0.8 0 0
0.034336 0.079291 0.786898 0.8 0 0
0.035792 0.051550 0.455930 0.8 0 0
0.038448 0.107793 0.561997 0.8 0 0
0.036055 0.048974 0.496360 0.8 0 0
0.035614 0.065229 0.891189 0.8 0 0
0.038543 0.107071 0.653135 0.8 0 0
0.038122 0.110262 0.422323 0.8 0 0
0.036808 0.042642 0.467792 0.8 0 0
0.039343 0.079625 0.919549 0.8 0 0
0.034300 0.081976 0.586745 0.8 0 0
0.040551 0.095004 0.137904 0.8 0 0
0.031016 0.084878 0.075844 0.8 0 0
0.037698 0.110355 0.776219 0.8 0 0
0.041340 0.064753 0.371702 0.8 0 0
0.033401 0.071417 0.640631 0.8 0 0
0.044781 0.057453 0.122971 0.8 0 0
0.035254 0.088859 0.387455 0.8 0 0
0.039508 0.078017 0.917068 0.8 0 0
0.032358 0.090366 0.107622 0.8 0 0
0.040353 0.058907 0.846679 0.8 0 0
