0.067445 0.709597 0.189654 0.8 0 0
0.070097 0.559782 0.144544 0.8 0 0
0.072460 0.105445 0.130731 0.8 0 0
0.066444 0.706054 0.202126 0.8 0 0
0.068852 0.393217 0.138886 0.8 0 0
0.072759 0.698291 0.210862 0.8 0 0
0.076334 0.878824 0.134638 0.8 0 0
0.069146 0.223327 0.141857 0.8 0 0
0.075469 0.836017 0.123089 0.8 0 0
0.064081 0.871276 0.124640 0.8 0 0
0.071424 0.087293 0.125304 0.8 0 0
0.062079 0.749577 0.136759 0.8 0 0
0.070482 0.798862 0.142569 0.8 0 0
0.069476 0.699655 0.210061 0.8 0 0
0.075971 0.701616 0.056367 0.8 0 0
0.072279 0.114953 0.129278 0.8 0 0
0.067349 0.408374 0.130118 0.8 0 0
0.069930 0.603779 0.167505 0.8 0 0
0.070457 0.711430 0.090417 0.8 0 0
0.070019 0.042697 0.123552 0.8 0 0
0.066278 0.855282 0.121216 0.8 0 0
0.064969 0.710685 0.171052 0.8 0 0
0.071876 0.477537 0.126833 0.8 0 0
0.076947 0.734535 0.122042 0.8 0 0
0.070519 0.351375 0.141522 0.8 0 0
0.075082 0.771377 0.120995 0.8 0 0
0.070631 0.357208 0.119995 0.8 0 0
0.076941 0.874309 0.129013 0.8 0 0
0.070607 0.412270 0.119627 0.8 0 0
0.068811 0.643314 0.138268 0.8 0 0
0.028392 0.712871 0.119814 0.8 0 0
0.069653 0.295888 0.117608 0.8 0 0
0.070567 0.619453 0.134360 0.8 0 0
0.075135 0.770351 0.140685 0.8 0 0
0.082972 0.702409 0.205166 0.8 0 0
0.068647 0.093415 0.136603 0.8 0 0
0.064800 0.709411 0.173771 0.8 0 0
0.069988 0.749217 0.117194 0.8 0 0
0.068338 0.892581 0.137032 0.8 0 0
0.068033 0.707315 0.089337 0.8 0 0
0.060838 0.728348 0.128608 0.8 0 0
0.070272 0.639883 0.117792 0.8 0 0
0.070221 0.198139 0.118326 0.8 0 0
0.069831 0.617832 0.116399 0.8 0 0
0.069937 0.394982 0.144639 0.8 0 0
0.069556 0.920834 0.138404 0.8 0 0
0.068553 0.261492 0.124245 0.8 0 0
0.077067 0.851916 0.135006 0.8 0 0
0.077616 0.787858 0.129371 0.8 0 0
0.070298 0.719289 0.144679 0.8 0 0
0.069133 0.323739 0.141027 0.8 0 0
0.070925 0.146056 0.138633 0.8 0 0
0.072354 0.273295 0.131538 0.8 0 0
0.067827 0.813123 0.140207 0.8 0 0
0.070383 0.711622 0.147823 0.8 0 0
0.066600 0.898124 0.124253 0.8 0 0
0.067867 0.129598 0.126886 0.8 0 0
0.072559 0.709246 0.191094 0.8 0 0
0.071232 0.069761 0.136565 0.8 0 0
0.070005 0.699938 0.213720 0.8 0 0
0.070967 0.394346 0.138599 0.8 0 0
0.070266 0.703602 0.198824 0.8 0 0
0.068916 0.291481 0.139236 0.8 0 0
0.068422 0.555321 0.136695 0.8 0 0
0.067955 0.766587 0.143481 0.8 0 0
0.071975 0.772395 0.143239 0.8 0 0
0.072089 0.245392 0.133648 0.8 0 0
0.081992 0.702157 0.058123 0.8 0 0
0.055605 0.703270 0.210688 0.8 0 0
0.070453 0.839918 0.138728 0.8 0 0
0.072152 0.675460 0.128252 0.8 0 0
0.068914 0.543989 0.140365 0.8 0 0
0.069673 0.637070 0.144726 0.8 0 0
0.068557 0.448572 0.124151 0.8 0 0
0.068728 0.348808 0.123558 0.8 0 0
0.067533 0.278412 0.129621 0.8 0 0
0.069925 0.500499 0.144950 0.8 0 0
0.067485 0.404287 0.129161 0.8 0 0
0.067379 0.692071 0.130550 0.8 0 0
0.069616 0.608496 0.111734 0.8 0 0
0.070155 0.609615 0.168583 0.8 0 0
0.074955 0.701207 0.053609 0.8 0 0
0.070292 0.709999 0.152120 0.8 0 0
0.070062 0.807386 0.142340 0.8 0 0
0.070351 0.610158 0.119083 0.8 0 0
0.068316 0.705635 0.136454 0.8 0 0
0.062343 0.698349 0.050680 0.8 0 0
0.070988 0.255283 0.123738 0.8 0 0
0.073059 0.707076 0.065770 0.8 0 0
0.069712 0.706860 0.072975 0.8 0 0
0.077142 0.712969 0.127837 0.8 0 0
0.068159 0.100546 0.134930 0.8 0 0
0.069185 0.488199 0.142263 0.8 0 0
0.067512 0.665061 0.129450 0.8 0 0
0.067505 0.641458 0.132193 0.8 0 0
0.072429 0.136901 0.130736 0.8 0 0
0.075325 0.849803 0.138862 0.8 0 0
0.070587 0.347379 0.141445 0.8 0 0
0.069676 0.695118 0.033408 0.8 0 0
0.069014 0.353034 0.121102 0.8 0 0
0.068667 0.147582 0.136465 0.8 0 0
0.055478 0.700243 0.212728 0.8 0 0
0.069509 0.412506 0.142782 0.8 0 0
0.070139 0.592437 0.117264 0.8 0 0
0.077734 0.781024 0.128859 0.8 0 0
0.067699 0.787975 0.119135 0.8 0 0
0.067708 0.522764 0.127933 0.8 0 0
0.065798 0.844796 0.121195 0.8 0 0
0.069449 0.712131 0.107344 0.8 0 0
0.070973 0.709599 0.186811 0.8 0 0
0.065447 0.939405 0.128939 0.8 0 0
0.068345 0.704036 0.136561 0.8 0 0
0.067575 0.136884 0.132793 0.8 0 0
0.069610 0.709483 0.113344 0.8 0 0
0.074604 0.889694 0.138094 0.8 0 0
0.064953 0.719355 0.132048 0.8 0 0
0.071716 0.165578 0.126475 0.8 0 0
0.069557 0.199238 0.142992 0.8 0 0
0.071343 0.096722 0.124369 0.8 0 0
0.063444 0.765079 0.122668 0.8 0 0
0.068954 0.240307 0.140285 0.8 0 0
0.069117 0.055161 0.137208 0.8 0 0
0.066596 0.926992 0.125412 0.8 0 0
0.060980 0.709683 0.111474 0.8 0 0
0.067795 0.699739 0.206269 0.8 0 0
0.059048 0.708265 0.130319 0.8 0 0
0.067788 0.354874 0.133757 0.8 0 0
0.069152 0.094409 0.141172 0.8 0 0
0.062247 0.850951 0.132829 0.8 0 0
0.071713 0.268869 0.125890 0.8 0 0
0.068880 0.258061 0.138826 0.8 0 0
0.068912 0.642800 0.122238 0.8 0 0
0.068105 0.374203 0.125904 0.8 0 0
0.067364 0.574682 0.131017 0.8 0 0
0.074399 0.832354 0.121290 0.8 0 0
0.065563 0.707376 0.194841 0.8 0 0
0.076182 0.756335 0.121797 0.8 0 0
0.069245 0.610612 0.143032 0.8 0 0
0.075292 0.818195 0.140569 0.8 0 0
0.072172 0.214779 0.132883 0.8 0 0
0.070382 0.565700 0.143454 0.8 0 0
0.066965 0.961788 0.126952 0.8 0 0
0.068293 0.167085 0.135918 0.8 0 0
0.064524 0.895832 0.128801 0.8 0 0
0.070447 0.706404 0.065856 0.8 0 0
0.077567 0.735826 0.123382 0.8 0 0
0.065090 0.704732 0.124891 0.8 0 0
0.074393 0.940424 0.132199 0.8 0 0
0.076097 0.708481 0.145273 0.8 0 0
0.065337 0.714208 0.147640 0.8 0 0
0.091278 0.709549 0.150815 0.8 0 0
0.069978 0.606827 0.085388 0.8 0 0
0.072534 0.850723 0.141215 0.8 0 0
0.070986 0.080861 0.124103 0.8 0 0
0.070850 0.477192 0.122115 0.8 0 0
0.067664 0.467081 0.133220 0.8 0 0
0.075089 0.705461 0.191703 0.8 0 0
0.068855 0.256221 0.138453 0.8 0 0
0.069037 0.147986 0.140579 0.8 0 0
0.072034 0.458516 0.133891 0.8 0 0
0.072465 0.686896 0.130857 0.8 0 0
0.070733 0.582471 0.142171 0.8 0 0
0.071043 0.599889 0.138075 0.8 0 0
0.069919 0.307264 0.144741 0.8 0 0
0.078417 0.706024 0.200263 0.8 0 0
0.067515 0.706640 0.129426 0.8 0 0
0.069434 0.680995 0.118273 0.8 0 0
0.063608 0.705952 0.063750 0.8 0 0
0.066842 0.847189 0.120608 0.8 0 0
0.070885 0.103514 0.139789 0.8 0 0
0.068406 0.715819 0.115924 0.8 0 0
0.070044 0.619858 0.098752 0.8 0 0
0.071278 0.190713 0.136923 0.8 0 0
0.070954 0.601808 0.122921 0.8 0 0
0.072178 0.379172 0.132213 0.8 0 0
0.070890 0.147663 0.122033 0.8 0 0
0.070250 0.349180 0.117914 0.8 0 0
0.070184 0.707269 0.186342 0.8 0 0
0.075008 0.706575 0.197916 0.8 0 0
0.067475 0.680770 0.129758 0.8 0 0
0.068364 0.087192 0.136089 0.8 0 0
0.031228 0.709695 0.141253 0.8 0 0
0.069058 0.069813 0.121521 0.8 0 0
0.070149 0.620198 0.109244 0.8 0 0
0.074060 0.714970 0.116484 0.8 0 0
0.103671 0.713091 0.145175 0.8 0 0
0.069962 0.255604 0.117229 0.8 0 0
0.065507 0.947313 0.129978 0.8 0 0
0.068851 0.682783 0.122962 0.8 0 0
0.071869 0.357196 0.126593 0.8 0 0
0.070877 0.294572 0.139563 0.8 0 0
0.075986 0.702781 0.211959 0.8 0 0
0.070983 0.674182 0.138599 0.8 0 0
0.070879 0.240171 0.122197 0.8 0 0
0.069009 0.712441 0.101476 0.8 0 0
0.069751 0.614717 0.155469 0.8 0 0
0.069074 0.814017 0.142816 0.8 0 0
0.072354 0.505261 0.129963 0.8 0 0
0.071710 0.713511 0.116069 0.8 0 0
0.069639 0.614030 0.149870 0.8 0 0
0.070359 0.057956 0.140087 0.8 0 0
0.071307 0.814246 0.118863 0.8 0 0
0.070915 0.344538 0.139094 0.8 0 0
0.074500 0.890508 0.138159 0.8 0 0
0.071904 0.385088 0.134286 0.8 0 0
0.067470 0.459503 0.129529 0.8 0 0
0.068594 0.646328 0.137464 0.8 0 0
0.070015 0.495502 0.144594 0.8 0 0
0.071651 0.415772 0.125928 0.8 0 0
0.067544 0.949177 0.136503 0.8 0 0
0.068482 0.322680 0.124320 0.8 0 0
0.072131 0.288284 0.127816 0.8 0 0
0.070337 0.411614 0.118383 0.8 0 0
0.039542 0.713515 0.111633 0.8 0 0
0.083459 0.714117 0.149487 0.8 0 0
0.072140 0.122855 0.132518 0.8 0 0
0.072312 0.664605 0.129581 0.8 0 0
0.067435 0.573512 0.130113 0.8 0 0
0.069645 0.095471 0.117581 0.8 0 0
0.068851 0.268868 0.123037 0.8 0 0
0.069501 0.848052 0.119738 0.8 0 0
0.067444 0.472668 0.131611 0.8 0 0
0.068331 0.546943 0.125348 0.8 0 0
0.072126 0.088532 0.133241 0.8 0 0
0.068966 0.665803 0.141824 0.8 0 0
0.068668 0.409274 0.136579 0.8 0 0
0.067536 0.612355 0.132444 0.8 0 0
0.068795 0.708676 0.153357 0.8 0 0
0.075083 0.710815 0.110435 0.8 0 0
0.069097 0.197902 0.141404 0.8 0 0
0.070191 0.598170 0.144470 0.8 0 0
0.072402 0.241943 0.130982 0.8 0 0
0.072843 0.958028 0.135461 0.8 0 0
0.074269 0.922591 0.134448 0.8 0 0
0.061541 0.728705 0.124971 0.8 0 0
0.069640 0.697560 0.117304 0.8 0 0
0.062210 0.857354 0.130876 0.8 0 0
0.074328 0.697069 0.218495 0.8 0 0
0.070247 0.418426 0.118489 0.8 0 0
0.072198 0.444133 0.128091 0.8 0 0
0.069012 0.149889 0.121028 0.8 0 0
0.070458 0.280918 0.142621 0.8 0 0
0.067680 0.276017 0.128308 0.8 0 0
0.067754 0.539149 0.127552 0.8 0 0
0.069542 0.704070 0.196049 0.8 0 0
0.067636 0.301473 0.132891 0.8 0 0
0.069483 0.712242 0.116397 0.8 0 0
0.070551 0.611276 0.125553 0.8 0 0
0.068789 0.713013 0.114533 0.8 0 0
0.068836 0.555554 0.138629 0.8 0 0
0.078356 0.701698 0.200276 0.8 0 0
0.070701 0.166065 0.120755 0.8 0 0
0.069529 0.095034 0.142511 0.8 0 0
0.068898 0.258551 0.122635 0.8 0 0
0.072414 0.522562 0.131255 0.8 0 0
0.069974 0.706597 0.069001 0.8 0 0
0.073388 0.697284 0.046639 0.8 0 0
0.072288 0.529394 0.132264 0.8 0 0
0.067515 0.524179 0.132213 0.8 0 0
0.071953 0.704619 0.207054 0.8 0 0
0.070101 0.655471 0.144866 0.8 0 0
0.069511 0.278823 0.119125 0.8 0 0
0.068842 0.552733 0.138743 0.8 0 0
0.065857 0.710936 0.080374 0.8 0 0
0.067790 0.459546 0.134038 0.8 0 0
0.070398 0.264043 0.141931 0.8 0 0
0.069689 0.607531 0.104219 0.8 0 0
0.070975 0.499420 0.123499 0.8 0 0
0.069584 0.517291 0.143869 0.8 0 0
0.064420 0.897074 0.130292 0.8 0 0
0.067596 0.478520 0.128855 0.8 0 0
0.079391 0.712160 0.138895 0.8 0 0
0.072233 0.243699 0.128844 0.8 0 0
0.072015 0.330554 0.134117 0.8 0 0
0.068533 0.914950 0.138374 0.8 0 0
0.071653 0.705565 0.184374 0.8 0 0
0.070803 0.220440 0.141470 0.8 0 0
0.070410 0.113689 0.142667 0.8 0 0
0.111879 0.710350 0.142039 0.8 0 0
0.072060 0.509955 0.134071 0.8 0 0
0.074493 0.707568 0.175200 0.8 0 0
0.067381 0.544325 0.131149 0.8 0 0
0.068677 0.400302 0.124119 0.8 0 0
0.074171 0.699271 0.053557 0.8 0 0
0.072150 0.707043 0.148308 0.8 0 0
0.070919 0.514944 0.139710 0.8 0 0
0.072378 0.835089 0.119907 0.8 0 0
0.067659 0.268100 0.127858 0.8 0 0
0.067500 0.524066 0.132097 0.8 0 0
0.065597 0.711420 0.115201 0.8 0 0
0.072371 0.537828 0.130092 0.8 0 0
0.070916 0.504400 0.139753 0.8 0 0
0.076185 0.749521 0.140304 0.8 0 0
0.068867 0.069569 0.138437 0.8 0 0
0.069050 0.726449 0.116509 0.8 0 0
0.069675 0.414502 0.143560 0.8 0 0
0.067997 0.057416 0.128921 0.8 0 0
0.068433 0.082568 0.125473 0.8 0 0
0.071507 0.704162 0.127025 0.8 0 0
0.111598 0.713182 0.142809 0.8 0 0
0.073423 0.859694 0.138227 0.8 0 0
0.069677 0.449205 0.117312 0.8 0 0
0.071388 0.519224 0.136618 0.8 0 0
0.077159 0.837745 0.133418 0.8 0 0
0.069571 0.619511 0.146539 0.8 0 0
0.072241 0.575485 0.129026 0.8 0 0
0.068920 0.387717 0.139885 0.8 0 0
0.070019 0.710100 0.104289 0.8 0 0
0.068885 0.707548 0.086269 0.8 0 0
0.076169 0.864994 0.125230 0.8 0 0
0.063737 0.812945 0.134612 0.8 0 0
0.068963 0.284728 0.140757 0.8 0 0
0.080858 0.701781 0.200136 0.8 0 0
0.072253 0.583083 0.129119 0.8 0 0
0.077002 0.792692 0.135330 0.8 0 0
0.038299 0.713191 0.149974 0.8 0 0
0.064828 0.700334 0.052530 0.8 0 0
0.068636 0.057073 0.134799 0.8 0 0
0.068117 0.832583 0.119348 0.8 0 0
0.068661 0.265881 0.123759 0.8 0 0
0.072295 0.132294 0.132111 0.8 0 0
0.076196 0.716849 0.139304 0.8 0 0
0.072320 0.205866 0.131173 0.8 0 0
0.067360 0.553442 0.130711 0.8 0 0
0.072402 0.601822 0.131377 0.8 0 0
0.070945 0.256330 0.138624 0.8 0 0
0.075318 0.970887 0.127545 0.8 0 0
0.067730 0.758666 0.143728 0.8 0 0
0.070325 0.610003 0.143469 0.8 0 0
0.066514 0.702322 0.197340 0.8 0 0
0.070968 0.462823 0.138282 0.8 0 0
0.066310 0.915939 0.136394 0.8 0 0
0.072086 0.366186 0.128093 0.8 0 0
0.074099 0.953494 0.132414 0.8 0 0
0.073429 0.893013 0.135389 0.8 0 0
0.066710 0.706099 0.081445 0.8 0 0
0.071442 0.673630 0.136639 0.8 0 0
0.070858 0.268700 0.121925 0.8 0 0
0.071112 0.167515 0.137241 0.8 0 0
0.072030 0.693018 0.127246 0.8 0 0
0.068858 0.165868 0.138759 0.8 0 0
0.075890 0.710314 0.146729 0.8 0 0
0.071296 0.229552 0.136313 0.8 0 0
0.067487 0.171102 0.131605 0.8 0 0
0.067694 0.513611 0.128059 0.8 0 0
0.060785 0.731440 0.130098 0.8 0 0
0.067971 0.085212 0.126842 0.8 0 0
0.069611 0.857463 0.141637 0.8 0 0
0.071177 0.684337 0.124099 0.8 0 0
0.066408 0.889635 0.122328 0.8 0 0
0.069863 0.616339 0.171664 0.8 0 0
0.069411 0.225745 0.119206 0.8 0 0
0.070580 0.424056 0.120022 0.8 0 0
0.068950 0.259949 0.121956 0.8 0 0
0.069832 0.121627 0.116741 0.8 0 0
0.067350 0.476727 0.130901 0.8 0 0
0.062759 0.822712 0.127725 0.8 0 0
0.070147 0.617371 0.161306 0.8 0 0
0.069685 0.451465 0.143542 0.8 0 0
0.071930 0.629637 0.134870 0.8 0 0
0.072427 0.468885 0.131033 0.8 0 0
0.074257 0.950954 0.130481 0.8 0 0
0.062119 0.782541 0.128609 0.8 0 0
0.115692 0.711954 0.129492 0.8 0 0
0.073679 0.708209 0.161323 0.8 0 0
0.072264 0.703444 0.192747 0.8 0 0
0.070278 0.217846 0.143200 0.8 0 0
0.065090 0.863616 0.127583 0.8 0 0
0.069130 0.427483 0.141697 0.8 0 0
0.067648 0.654813 0.128326 0.8 0 0
0.100530 0.710080 0.150079 0.8 0 0
0.071397 0.958938 0.129829 0.8 0 0
0.070032 0.711555 0.107918 0.8 0 0
0.071575 0.225248 0.125870 0.8 0 0
0.072238 0.146151 0.128473 0.8 0 0
0.069092 0.638223 0.120098 0.8 0 0
0.069012 0.634061 0.121046 0.8 0 0
0.068478 0.885082 0.140600 0.8 0 0
0.068535 0.237318 0.136074 0.8 0 0
0.071522 0.238318 0.125123 0.8 0 0
0.071941 0.622266 0.126867 0.8 0 0
0.064714 0.894975 0.128763 0.8 0 0
0.066239 0.907862 0.125062 0.8 0 0
0.071277 0.385102 0.136396 0.8 0 0
0.070007 0.324682 0.143554 0.8 0 0
0.061678 0.737683 0.136385 0.8 0 0
0.065826 0.970348 0.137131 0.8 0 0
0.081937 0.704303 0.057695 0.8 0 0
0.082093 0.701910 0.058230 0.8 0 0
0.071632 0.691652 0.225952 0.8 0 0
0.076854 0.717627 0.138408 0.8 0 0
0.070218 0.489560 0.118127 0.8 0 0
0.070162 0.608190 0.165125 0.8 0 0
0.070730 0.407854 0.120130 0.8 0 0
0.069831 0.709116 0.181901 0.8 0 0
0.069422 0.537321 0.118738 0.8 0 0
0.070653 0.813311 0.120158 0.8 0 0
0.072440 0.569415 0.130648 0.8 0 0
0.067748 0.117699 0.127368 0.8 0 0
0.071205 0.548838 0.124378 0.8 0 0
0.077488 0.790069 0.128472 0.8 0 0
0.070942 0.414364 0.122971 0.8 0 0
0.072341 0.468689 0.129746 0.8 0 0
0.073527 0.822329 0.121379 0.8 0 0
0.070854 0.293639 0.121598 0.8 0 0
0.067396 0.494857 0.131264 0.8 0 0
0.071366 0.119257 0.135953 0.8 0 0
0.069799 0.431717 0.116855 0.8 0 0
0.068348 0.375448 0.124991 0.8 0 0
0.066335 0.826407 0.121148 0.8 0 0
0.064308 0.864871 0.123928 0.8 0 0
0.070993 0.404572 0.123263 0.8 0 0
0.069310 0.858016 0.124421 0.8 0 0
0.070312 0.902509 0.138976 0.8 0 0
0.059102 0.707486 0.129415 0.8 0 0
0.071896 0.502289 0.134819 0.8 0 0
0.070090 0.254322 0.143804 0.8 0 0
0.053167 0.710863 0.152467 0.8 0 0
0.067647 0.706666 0.195781 0.8 0 0
0.069871 0.055531 0.141043 0.8 0 0
0.078489 0.742395 0.134539 0.8 0 0
0.105745 0.710670 0.117805 0.8 0 0
0.062402 0.797914 0.132133 0.8 0 0
0.068935 0.261627 0.139741 0.8 0 0
0.063277 0.833831 0.136796 0.8 0 0
0.066400 0.857372 0.140482 0.8 0 0
0.065738 0.708243 0.191208 0.8 0 0
0.069254 0.422640 0.142517 0.8 0 0
0.075490 0.712310 0.134971 0.8 0 0
0.069135 0.138663 0.141743 0.8 0 0
0.070039 0.321306 0.143256 0.8 0 0
0.069250 0.402030 0.119510 0.8 0 0
0.073675 0.764100 0.142490 0.8 0 0
0.072144 0.616914 0.133513 0.8 0 0
0.069754 0.333189 0.144033 0.8 0 0
0.072770 0.713425 0.107588 0.8 0 0
0.070859 0.379654 0.121648 0.8 0 0
0.065811 0.708896 0.150106 0.8 0 0
0.062304 0.831025 0.131879 0.8 0 0
0.062507 0.802877 0.129717 0.8 0 0
0.069978 0.307773 0.117708 0.8 0 0
0.058561 0.709646 0.149667 0.8 0 0
0.070052 0.692167 0.231915 0.8 0 0
0.070791 0.280147 0.141459 0.8 0 0
0.069837 0.417621 0.117209 0.8 0 0
0.062097 0.744299 0.137331 0.8 0 0
0.065099 0.897342 0.126729 0.8 0 0
0.071781 0.529015 0.126447 0.8 0 0
0.068762 0.541442 0.123843 0.8 0 0
0.070945 0.064353 0.137214 0.8 0 0
0.069226 0.328669 0.119795 0.8 0 0
0.072290 0.469677 0.129362 0.8 0 0
0.070267 0.592547 0.144108 0.8 0 0
0.072797 0.854367 0.140936 0.8 0 0
0.068841 0.103724 0.138042 0.8 0 0
0.067785 0.072316 0.127524 0.8 0 0
0.076476 0.841547 0.133831 0.8 0 0
0.069440 0.466332 0.142990 0.8 0 0
0.065612 0.833267 0.121129 0.8 0 0
0.072358 0.439338 0.130918 0.8 0 0
0.068335 0.581309 0.125264 0.8 0 0
0.069581 0.620034 0.113623 0.8 0 0
0.068855 0.452157 0.138348 0.8 0 0
0.069835 0.199404 0.117149 0.8 0 0
0.079970 0.706118 0.059918 0.8 0 0
0.070265 0.138182 0.118776 0.8 0 0
0.071835 0.157242 0.126624 0.8 0 0
0.069602 0.619262 0.112137 0.8 0 0
0.068557 0.688215 0.137327 0.8 0 0
0.068988 0.406846 0.121168 0.8 0 0
0.070248 0.705445 0.197909 0.8 0 0
0.062291 0.698372 0.050741 0.8 0 0
0.061444 0.760147 0.130339 0.8 0 0
0.074637 0.912295 0.127747 0.8 0 0
0.068169 0.711202 0.180475 0.8 0 0
0.064644 0.834535 0.122392 0.8 0 0
0.063395 0.814175 0.139103 0.8 0 0
0.072077 0.317204 0.127383 0.8 0 0
0.071715 0.697690 0.213316 0.8 0 0
0.070916 0.601607 0.140133 0.8 0 0
0.070140 0.618331 0.165787 0.8 0 0
0.072398 0.329584 0.131117 0.8 0 0
0.070601 0.616695 0.126869 0.8 0 0
0.069122 0.360172 0.141582 0.8 0 0
0.070152 0.609223 0.175408 0.8 0 0
0.069040 0.316514 0.121030 0.8 0 0
0.072297 0.226649 0.129387 0.8 0 0
0.075022 0.708188 0.175005 0.8 0 0
0.064925 0.700354 0.211565 0.8 0 0
0.064861 0.711849 0.146096 0.8 0 0
0.085142 0.700065 0.055945 0.8 0 0
0.067776 0.637397 0.134436 0.8 0 0
0.074357 0.939046 0.128938 0.8 0 0
0.068195 0.704822 0.074208 0.8 0 0
0.071261 0.180855 0.124286 0.8 0 0
0.068182 0.069576 0.135266 0.8 0 0
0.076107 0.826938 0.136732 0.8 0 0
0.068416 0.440597 0.124469 0.8 0 0
0.063326 0.755864 0.139343 0.8 0 0
0.072428 0.132541 0.130538 0.8 0 0
0.070149 0.229350 0.117840 0.8 0 0
0.108107 0.710691 0.120378 0.8 0 0
0.065080 0.845041 0.121985 0.8 0 0
0.071753 0.442515 0.125745 0.8 0 0
0.069484 0.102691 0.118586 0.8 0 0
0.068839 0.653783 0.138905 0.8 0 0
0.072039 0.071590 0.127606 0.8 0 0
0.069678 0.352068 0.117410 0.8 0 0
0.074344 0.703875 0.053057 0.8 0 0
0.070221 0.250655 0.118740 0.8 0 0
0.068575 0.051995 0.133564 0.8 0 0
0.069660 0.621372 0.107265 0.8 0 0
0.069455 0.027767 0.130701 0.8 0 0
0.069230 0.610662 0.119239 0.8 0 0
0.078342 0.714064 0.140702 0.8 0 0
0.065806 0.840274 0.124096 0.8 0 0
0.072435 0.703632 0.130597 0.8 0 0
0.068056 0.679945 0.228008 0.8 0 0
0.072460 0.414442 0.130584 0.8 0 0
0.070333 0.686783 0.029753 0.8 0 0
0.074739 0.925878 0.131750 0.8 0 0
0.069119 0.590713 0.119881 0.8 0 0
0.067841 0.116178 0.127002 0.8 0 0
0.072013 0.709125 0.070400 0.8 0 0
0.069598 0.251305 0.118646 0.8 0 0
0.071103 0.685383 0.137868 0.8 0 0
0.072236 0.597243 0.132738 0.8 0 0
0.071009 0.143566 0.123622 0.8 0 0
0.073275 0.701836 0.050382 0.8 0 0
0.071922 0.698379 0.126799 0.8 0 0
0.067691 0.160903 0.133615 0.8 0 0
0.071929 0.491661 0.127003 0.8 0 0
0.070704 0.574541 0.120168 0.8 0 0
0.067378 0.199443 0.130280 0.8 0 0
0.077495 0.792469 0.132469 0.8 0 0
0.059363 0.710395 0.148449 0.8 0 0
0.069755 0.230733 0.143527 0.8 0 0
0.072137 0.640832 0.133572 0.8 0 0
0.070478 0.722156 0.116295 0.8 0 0
0.067627 0.504709 0.128597 0.8 0 0
0.068134 0.694206 0.125902 0.8 0 0
0.071930 0.057735 0.129688 0.8 0 0
0.062030 0.716145 0.122470 0.8 0 0
0.072695 0.706094 0.065295 0.8 0 0
0.073463 0.702211 0.063715 0.8 0 0
0.072631 0.704323 0.072848 0.8 0 0
0.069015 0.231003 0.121243 0.8 0 0
0.065516 0.881937 0.136916 0.8 0 0
0.071202 0.223417 0.124757 0.8 0 0
0.070768 0.376174 0.140771 0.8 0 0
0.068945 0.456233 0.140409 0.8 0 0
0.068103 0.397396 0.126289 0.8 0 0
0.077101 0.714449 0.142590 0.8 0 0
0.067604 0.098494 0.128085 0.8 0 0
0.069753 0.687581 0.116769 0.8 0 0
0.028409 0.709700 0.126069 0.8 0 0
0.069063 0.226489 0.121051 0.8 0 0
0.068839 0.423588 0.123687 0.8 0 0
0.071114 0.133784 0.124469 0.8 0 0
0.071312 0.331578 0.124957 0.8 0 0
0.065509 0.828011 0.121809 0.8 0 0
0.068907 0.180886 0.139179 0.8 0 0
0.069712 0.749446 0.144475 0.8 0 0
0.072185 0.371053 0.128482 0.8 0 0
0.070045 0.624971 0.145086 0.8 0 0
0.070030 0.600535 0.176579 0.8 0 0
0.061933 0.699131 0.209896 0.8 0 0
0.070374 0.602572 0.118277 0.8 0 0
0.068701 0.255322 0.137189 0.8 0 0
0.068452 0.054953 0.127206 0.8 0 0
0.070036 0.712878 0.114245 0.8 0 0
0.070447 0.166299 0.142576 0.8 0 0
0.068919 0.441763 0.139486 0.8 0 0
0.072377 0.688031 0.039906 0.8 0 0
0.076963 0.846489 0.125887 0.8 0 0
0.071404 0.692451 0.034336 0.8 0 0
0.074940 0.796141 0.139729 0.8 0 0
0.072287 0.334251 0.129590 0.8 0 0
0.070563 0.656120 0.143032 0.8 0 0
0.068105 0.686796 0.026856 0.8 0 0
0.070587 0.270616 0.119761 0.8 0 0
0.068838 0.410568 0.137771 0.8 0 0
0.071214 0.083212 0.137146 0.8 0 0
0.068056 0.943292 0.137102 0.8 0 0
0.069993 0.469660 0.144494 0.8 0 0
0.070915 0.455609 0.139283 0.8 0 0
0.068705 0.217731 0.124360 0.8 0 0
0.070114 0.706827 0.189012 0.8 0 0
0.071128 0.810912 0.119707 0.8 0 0
0.069098 0.318792 0.120217 0.8 0 0
0.066859 0.700771 0.204076 0.8 0 0
0.072382 0.158898 0.131435 0.8 0 0
0.072384 0.710925 0.144310 0.8 0 0
0.071485 0.051155 0.128714 0.8 0 0
0.065842 0.707968 0.094201 0.8 0 0
0.067609 0.596061 0.133037 0.8 0 0
0.078582 0.727548 0.135608 0.8 0 0
0.068148 0.693986 0.231784 0.8 0 0
0.074863 0.775690 0.120932 0.8 0 0
0.071398 0.517664 0.125118 0.8 0 0
0.071520 0.092807 0.135440 0.8 0 0
0.069161 0.365287 0.142053 0.8 0 0
0.077731 0.848114 0.131567 0.8 0 0
0.069666 0.611263 0.150851 0.8 0 0
0.071146 0.331443 0.137103 0.8 0 0
0.068719 0.704775 0.188073 0.8 0 0
0.067585 0.579165 0.132819 0.8 0 0
0.076177 0.887919 0.135427 0.8 0 0
0.068662 0.713362 0.145806 0.8 0 0
0.074165 0.875972 0.139173 0.8 0 0
0.070206 0.696948 0.042996 0.8 0 0
0.071229 0.566739 0.137275 0.8 0 0
0.068567 0.346753 0.124258 0.8 0 0
0.069683 0.619171 0.105987 0.8 0 0
0.068846 0.308496 0.138644 0.8 0 0
0.067653 0.189247 0.133270 0.8 0 0
0.070602 0.516138 0.142422 0.8 0 0
0.067930 0.139103 0.126928 0.8 0 0
0.064530 0.718488 0.136591 0.8 0 0
0.111778 0.713292 0.133626 0.8 0 0
0.064352 0.705177 0.057405 0.8 0 0
0.112700 0.709778 0.122430 0.8 0 0
0.069430 0.122206 0.118451 0.8 0 0
0.070921 0.177160 0.138528 0.8 0 0
0.070138 0.635904 0.117161 0.8 0 0
0.078895 0.737136 0.130316 0.8 0 0
0.067393 0.645542 0.130434 0.8 0 0
0.111326 0.711700 0.127238 0.8 0 0
0.070769 0.663520 0.120727 0.8 0 0
0.068597 0.071629 0.136719 0.8 0 0
0.072367 0.083568 0.130238 0.8 0 0
0.069506 0.607939 0.144194 0.8 0 0
0.074521 0.907205 0.134797 0.8 0 0
0.068047 0.130155 0.126330 0.8 0 0
0.080712 0.709697 0.130274 0.8 0 0
0.071401 0.305109 0.125424 0.8 0 0
0.071251 0.707112 0.137331 0.8 0 0
0.054193 0.711003 0.152399 0.8 0 0
0.071737 0.639146 0.126129 0.8 0 0
0.069504 0.128930 0.142750 0.8 0 0
0.065061 0.706418 0.064329 0.8 0 0
0.073188 0.707575 0.196832 0.8 0 0
0.071555 0.280534 0.125995 0.8 0 0
0.069712 0.286596 0.117649 0.8 0 0
0.035025 0.713270 0.113608 0.8 0 0
0.077909 0.779700 0.130558 0.8 0 0
0.071040 0.707894 0.092500 0.8 0 0
0.071411 0.462125 0.136189 0.8 0 0
0.077686 0.785226 0.132227 0.8 0 0
0.068221 0.428065 0.125664 0.8 0 0
0.107281 0.711970 0.119880 0.8 0 0
0.072093 0.536306 0.133839 0.8 0 0
0.073338 0.706657 0.115408 0.8 0 0
0.069115 0.622412 0.130608 0.8 0 0
0.067858 0.611418 0.134793 0.8 0 0
0.069692 0.612535 0.104593 0.8 0 0
0.072152 0.690472 0.133448 0.8 0 0
0.065069 0.861091 0.136487 0.8 0 0
0.077361 0.795634 0.128526 0.8 0 0
0.075219 0.812155 0.130884 0.8 0 0
0.107762 0.713186 0.141731 0.8 0 0
0.067832 0.701146 0.056090 0.8 0 0
0.074999 0.710234 0.179198 0.8 0 0
0.072334 0.540667 0.129799 0.8 0 0
0.066201 0.757771 0.142792 0.8 0 0
0.069307 0.198349 0.142140 0.8 0 0
0.070673 0.702996 0.142595 0.8 0 0
0.071597 0.729974 0.116814 0.8 0 0
0.073869 0.708274 0.160949 0.8 0 0
0.070858 0.212166 0.140267 0.8 0 0
0.068466 0.711797 0.087306 0.8 0 0
0.061165 0.720728 0.126428 0.8 0 0
0.077704 0.712705 0.119176 0.8 0 0
0.071399 0.713082 0.102463 0.8 0 0
0.069751 0.601737 0.080172 0.8 0 0
0.070939 0.353620 0.138370 0.8 0 0
0.064871 0.709767 0.115330 0.8 0 0
0.027724 0.710215 0.139314 0.8 0 0
0.072810 0.942038 0.136140 0.8 0 0
0.072443 0.327848 0.130296 0.8 0 0
0.073350 0.707775 0.167550 0.8 0 0
0.043002 0.712372 0.110089 0.8 0 0
0.070986 0.345210 0.137537 0.8 0 0
0.072021 0.338798 0.134316 0.8 0 0
0.074241 0.712799 0.111270 0.8 0 0
0.062521 0.804912 0.130125 0.8 0 0
0.072309 0.192750 0.129854 0.8 0 0
0.029467 0.712584 0.134522 0.8 0 0
0.029808 0.710253 0.137145 0.8 0 0
0.107098 0.711777 0.142056 0.8 0 0
0.068703 0.342512 0.124129 0.8 0 0
0.069776 0.605504 0.162527 0.8 0 0
0.067356 0.552655 0.130952 0.8 0 0
0.070902 0.527757 0.140132 0.8 0 0
0.071153 0.199868 0.124181 0.8 0 0
0.067784 0.476447 0.134327 0.8 0 0
0.072476 0.704282 0.072386 0.8 0 0
0.071360 0.344542 0.136103 0.8 0 0
0.077757 0.844210 0.129465 0.8 0 0
0.069345 0.629216 0.118694 0.8 0 0
0.069779 0.363838 0.144277 0.8 0 0
0.067771 0.162304 0.127774 0.8 0 0
0.069258 0.713745 0.146342 0.8 0 0
0.032582 0.714369 0.143939 0.8 0 0
0.065932 0.776786 0.141864 0.8 0 0
0.059326 0.706130 0.201673 0.8 0 0
0.066929 0.791886 0.119787 0.8 0 0
0.068362 0.111417 0.136361 0.8 0 0
0.070984 0.213968 0.123554 0.8 0 0
0.067720 0.176063 0.127233 0.8 0 0
0.070778 0.286566 0.141012 0.8 0 0
0.071837 0.704477 0.073161 0.8 0 0
0.069286 0.602364 0.143195 0.8 0 0
0.070717 0.611080 0.129867 0.8 0 0
0.068627 0.858704 0.122961 0.8 0 0
0.068246 0.550885 0.125648 0.8 0 0
0.069632 0.611104 0.110669 0.8 0 0
0.068684 0.291651 0.123693 0.8 0 0
0.072125 0.557022 0.128087 0.8 0 0
0.074164 0.826568 0.121904 0.8 0 0
0.068892 0.340074 0.139409 0.8 0 0
0.070294 0.327796 0.118462 0.8 0 0
0.065158 0.881505 0.136124 0.8 0 0
0.071968 0.384429 0.126813 0.8 0 0
0.074153 0.712230 0.115303 0.8 0 0
0.068600 0.696871 0.216059 0.8 0 0
0.070376 0.379880 0.118418 0.8 0 0
0.070867 0.353123 0.139849 0.8 0 0
0.071811 0.705873 0.182440 0.8 0 0
0.065058 0.925559 0.129866 0.8 0 0
0.067589 0.421711 0.129193 0.8 0 0
0.067792 0.713481 0.113473 0.8 0 0
0.062375 0.698314 0.050054 0.8 0 0
0.067795 0.695260 0.041496 0.8 0 0
0.070725 0.687303 0.120201 0.8 0 0
0.069286 0.168170 0.142155 0.8 0 0
0.066600 0.961007 0.130999 0.8 0 0
0.070379 0.498315 0.143221 0.8 0 0
0.075022 0.704490 0.129996 0.8 0 0
0.070227 0.709377 0.169697 0.8 0 0
0.072004 0.627284 0.127097 0.8 0 0
0.064833 0.704343 0.066902 0.8 0 0
0.070929 0.434362 0.138620 0.8 0 0
0.068471 0.433150 0.124404 0.8 0 0
0.063995 0.882254 0.131479 0.8 0 0
0.028954 0.713590 0.134369 0.8 0 0
0.072447 0.192328 0.131230 0.8 0 0
0.077132 0.866525 0.129548 0.8 0 0
0.067594 0.267735 0.132180 0.8 0 0
0.068601 0.766021 0.118063 0.8 0 0
0.071427 0.560560 0.125139 0.8 0 0
0.068298 0.717504 0.118275 0.8 0 0
0.070930 0.555097 0.139568 0.8 0 0
0.053393 0.700345 0.051230 0.8 0 0
0.062982 0.824378 0.133056 0.8 0 0
0.067126 0.708410 0.148863 0.8 0 0
0.056310 0.704083 0.205626 0.8 0 0
0.067543 0.607039 0.129196 0.8 0 0
0.068116 0.301403 0.126120 0.8 0 0
0.071299 0.855858 0.141524 0.8 0 0
0.073615 0.756332 0.118862 0.8 0 0
0.068502 0.628879 0.124567 0.8 0 0
0.068971 0.356984 0.140774 0.8 0 0
0.068532 0.562583 0.124597 0.8 0 0
0.072357 0.256288 0.131465 0.8 0 0
0.072412 0.122000 0.130506 0.8 0 0
0.070734 0.493765 0.120756 0.8 0 0
0.074389 0.931924 0.128464 0.8 0 0
0.068258 0.637782 0.125455 0.8 0 0
0.068958 0.651022 0.141645 0.8 0 0
0.074632 0.874616 0.138695 0.8 0 0
0.070221 0.610685 0.113619 0.8 0 0
0.067360 0.400693 0.130405 0.8 0 0
0.074702 0.796094 0.140016 0.8 0 0
0.072292 0.642543 0.129411 0.8 0 0
0.068393 0.741806 0.117211 0.8 0 0
0.084089 0.700624 0.056885 0.8 0 0
0.074228 0.966670 0.137578 0.8 0 0
0.066150 0.912021 0.136313 0.8 0 0
0.070188 0.735221 0.116718 0.8 0 0
0.072432 0.491199 0.131110 0.8 0 0
0.072659 0.700285 0.209668 0.8 0 0
0.056796 0.702424 0.053484 0.8 0 0
0.070068 0.886527 0.124061 0.8 0 0
0.072217 0.225247 0.128883 0.8 0 0
0.073032 0.933302 0.136229 0.8 0 0
0.072084 0.412821 0.133375 0.8 0 0
0.068203 0.540222 0.135875 0.8 0 0
0.070843 0.422084 0.141396 0.8 0 0
0.107960 0.713925 0.145957 0.8 0 0
0.070119 0.708846 0.180516 0.8 0 0
0.068433 0.047732 0.131638 0.8 0 0
0.069131 0.234347 0.119774 0.8 0 0
0.078221 0.763389 0.132009 0.8 0 0
0.065473 0.713415 0.149819 0.8 0 0
0.070241 0.620874 0.114725 0.8 0 0
0.070727 0.180622 0.120393 0.8 0 0
0.069849 0.376853 0.143687 0.8 0 0
0.067877 0.451422 0.126548 0.8 0 0
0.071054 0.186137 0.137325 0.8 0 0
0.072697 0.919094 0.137188 0.8 0 0
0.069103 0.670116 0.119968 0.8 0 0
0.070991 0.442833 0.123081 0.8 0 0
0.068688 0.325806 0.136755 0.8 0 0
0.070409 0.622165 0.139348 0.8 0 0
0.068394 0.549365 0.136584 0.8 0 0
0.070058 0.570959 0.144741 0.8 0 0
0.065013 0.709997 0.149755 0.8 0 0
0.069793 0.387391 0.117389 0.8 0 0
0.069419 0.146517 0.118601 0.8 0 0
0.071776 0.064538 0.126856 0.8 0 0
0.070493 0.390045 0.119684 0.8 0 0
0.068299 0.713272 0.147426 0.8 0 0
0.071513 0.049199 0.129681 0.8 0 0
0.065662 0.943187 0.133233 0.8 0 0
0.030953 0.709673 0.142972 0.8 0 0
0.065501 0.837142 0.140054 0.8 0 0
0.072220 0.490148 0.128905 0.8 0 0
0.072379 0.692323 0.028495 0.8 0 0
0.067972 0.537307 0.126633 0.8 0 0
0.068869 0.144133 0.138503 0.8 0 0
0.070925 0.566403 0.139734 0.8 0 0
0.067550 0.276990 0.132556 0.8 0 0
0.071274 0.461259 0.136640 0.8 0 0
0.070968 0.527237 0.138664 0.8 0 0
0.068640 0.695159 0.124068 0.8 0 0
0.072193 0.371905 0.132655 0.8 0 0
0.061968 0.714986 0.130631 0.8 0 0
0.075303 0.863550 0.123517 0.8 0 0
0.067507 0.343888 0.131769 0.8 0 0
0.067932 0.477388 0.126836 0.8 0 0
0.052757 0.703833 0.055028 0.8 0 0
0.067060 0.705704 0.182521 0.8 0 0
0.070150 0.607225 0.173838 0.8 0 0
0.069522 0.189455 0.143214 0.8 0 0
0.068816 0.702790 0.050382 0.8 0 0
0.062259 0.786505 0.133639 0.8 0 0
0.067571 0.706684 0.200507 0.8 0 0
0.068936 0.233687 0.121907 0.8 0 0
0.069794 0.223797 0.144198 0.8 0 0
0.066332 0.713011 0.100045 0.8 0 0
0.070186 0.486758 0.117987 0.8 0 0
0.065223 0.928099 0.128823 0.8 0 0
0.066090 0.789556 0.141461 0.8 0 0
0.070130 0.328127 0.143367 0.8 0 0
0.071184 0.140568 0.136929 0.8 0 0
0.069057 0.161228 0.121398 0.8 0 0
0.070960 0.087063 0.138415 0.8 0 0
0.068252 0.232225 0.135233 0.8 0 0
0.068522 0.882247 0.139744 0.8 0 0
0.068179 0.455558 0.125593 0.8 0 0
0.059366 0.710905 0.134541 0.8 0 0
0.069208 0.706565 0.119345 0.8 0 0
0.068325 0.681033 0.125210 0.8 0 0
0.070815 0.200308 0.121604 0.8 0 0
0.068975 0.480979 0.121926 0.8 0 0
0.069330 0.447164 0.142102 0.8 0 0
0.069222 0.698397 0.223479 0.8 0 0
0.075206 0.765118 0.140842 0.8 0 0
0.070715 0.696543 0.120083 0.8 0 0
0.061689 0.716494 0.131743 0.8 0 0
0.068044 0.711512 0.150513 0.8 0 0
0.066199 0.751108 0.143055 0.8 0 0
0.071401 0.056394 0.127085 0.8 0 0
0.068402 0.512202 0.125162 0.8 0 0
0.067724 0.405163 0.127241 0.8 0 0
0.069458 0.616640 0.142430 0.8 0 0
0.067467 0.468573 0.129750 0.8 0 0
0.070804 0.443205 0.120991 0.8 0 0
0.067627 0.485742 0.133090 0.8 0 0
0.066469 0.711721 0.125253 0.8 0 0
0.072444 0.447504 0.130434 0.8 0 0
0.069210 0.447173 0.119359 0.8 0 0
0.070938 0.102772 0.138600 0.8 0 0
0.070781 0.556470 0.121109 0.8 0 0
0.068949 0.589304 0.141353 0.8 0 0
0.077452 0.790448 0.133543 0.8 0 0
0.068715 0.322084 0.123492 0.8 0 0
0.069063 0.236368 0.140687 0.8 0 0
0.071330 0.537613 0.136858 0.8 0 0
0.074019 0.882211 0.137854 0.8 0 0
0.070842 0.937514 0.123946 0.8 0 0
0.069468 0.712572 0.145880 0.8 0 0
0.068875 0.217903 0.139116 0.8 0 0
0.068154 0.701453 0.208211 0.8 0 0
0.069008 0.730827 0.116679 0.8 0 0
0.076421 0.775116 0.123413 0.8 0 0
0.065841 0.957624 0.129004 0.8 0 0
0.068163 0.705908 0.202808 0.8 0 0
0.068270 0.159025 0.125761 0.8 0 0
0.065740 0.811345 0.121612 0.8 0 0
0.066853 0.786801 0.142063 0.8 0 0
0.068841 0.368181 0.138365 0.8 0 0
0.069126 0.672455 0.142558 0.8 0 0
0.068884 0.466159 0.139329 0.8 0 0
0.070170 0.038509 0.135337 0.8 0 0
0.081669 0.712177 0.113700 0.8 0 0
0.069591 0.705739 0.199322 0.8 0 0
0.070629 0.542574 0.142409 0.8 0 0
0.070075 0.495971 0.144367 0.8 0 0
0.069751 0.610786 0.155114 0.8 0 0
0.071340 0.309896 0.125218 0.8 0 0
0.064950 0.842409 0.123268 0.8 0 0
0.067365 0.641567 0.130667 0.8 0 0
0.067604 0.669482 0.133007 0.8 0 0
0.070320 0.611471 0.117878 0.8 0 0
0.069309 0.054386 0.122629 0.8 0 0
0.069483 0.709218 0.096059 0.8 0 0
0.072973 0.701431 0.203257 0.8 0 0
0.069242 0.619361 0.135886 0.8 0 0
0.065627 0.752220 0.119058 0.8 0 0
0.067409 0.318231 0.129774 0.8 0 0
0.076994 0.768650 0.124191 0.8 0 0
0.070745 0.149555 0.120442 0.8 0 0
0.070250 0.682419 0.117686 0.8 0 0
0.074459 0.793813 0.140413 0.8 0 0
0.062156 0.717915 0.136463 0.8 0 0
0.061971 0.775623 0.133275 0.8 0 0
0.069502 0.487189 0.118528 0.8 0 0
0.069791 0.620908 0.161211 0.8 0 0
0.070710 0.260728 0.120264 0.8 0 0
0.070840 0.571789 0.141660 0.8 0 0
0.069135 0.618221 0.130029 0.8 0 0
0.070292 0.631968 0.144107 0.8 0 0
0.076869 0.866042 0.127579 0.8 0 0
0.069571 0.539519 0.143919 0.8 0 0
0.069253 0.695281 0.143062 0.8 0 0
0.068933 0.665064 0.141073 0.8 0 0
0.070230 0.151246 0.117930 0.8 0 0
0.068961 0.504416 0.141282 0.8 0 0
0.068090 0.681842 0.126061 0.8 0 0
0.068522 0.320532 0.135990 0.8 0 0
0.068240 0.712060 0.089267 0.8 0 0
0.072177 0.349405 0.127881 0.8 0 0
0.070640 0.354038 0.119790 0.8 0 0
0.066866 0.872964 0.121341 0.8 0 0
0.065914 0.812194 0.135802 0.8 0 0
0.071784 0.369457 0.126540 0.8 0 0
0.069853 0.602193 0.116295 0.8 0 0
0.063300 0.708591 0.116946 0.8 0 0
0.088787 0.713944 0.109806 0.8 0 0
0.069995 0.082787 0.144417 0.8 0 0
0.069797 0.710079 0.154539 0.8 0 0
0.072700 0.705276 0.184447 0.8 0 0
0.074120 0.701070 0.058037 0.8 0 0
0.068790 0.765848 0.118017 0.8 0 0
0.066796 0.881009 0.138908 0.8 0 0
0.070045 0.624474 0.145086 0.8 0 0
0.072195 0.303380 0.128721 0.8 0 0
0.069912 0.616603 0.145612 0.8 0 0
0.070050 0.615301 0.099256 0.8 0 0
0.069809 0.584240 0.145070 0.8 0 0
0.034350 0.713670 0.114490 0.8 0 0
0.063336 0.778545 0.123698 0.8 0 0
0.071267 0.804834 0.142187 0.8 0 0
0.067938 0.542670 0.134954 0.8 0 0
0.076883 0.825440 0.133330 0.8 0 0
0.070932 0.161591 0.123413 0.8 0 0
0.066728 0.816761 0.142245 0.8 0 0
0.083269 0.701330 0.203793 0.8 0 0
0.071221 0.044102 0.129491 0.8 0 0
0.069495 0.498332 0.118528 0.8 0 0
0.061432 0.751241 0.127985 0.8 0 0
0.065664 0.893831 0.135034 0.8 0 0
0.068800 0.772155 0.118248 0.8 0 0
0.070200 0.181816 0.117919 0.8 0 0
0.069145 0.577408 0.119862 0.8 0 0
0.069282 0.221177 0.120117 0.8 0 0
0.074968 0.707264 0.074295 0.8 0 0
0.065569 0.703560 0.195068 0.8 0 0
0.065842 0.784841 0.141432 0.8 0 0
0.074636 0.705602 0.061492 0.8 0 0
0.072462 0.279240 0.131107 0.8 0 0
0.069830 0.690976 0.033919 0.8 0 0
0.068684 0.579235 0.137673 0.8 0 0
0.067806 0.058184 0.130922 0.8 0 0
0.060379 0.716165 0.130122 0.8 0 0
0.072381 0.551193 0.130175 0.8 0 0
0.069417 0.421805 0.119368 0.8 0 0
0.071557 0.190422 0.135963 0.8 0 0
0.071337 0.387684 0.136402 0.8 0 0
0.071556 0.406739 0.125041 0.8 0 0
0.070706 0.049531 0.134879 0.8 0 0
0.069536 0.612715 0.117792 0.8 0 0
0.052787 0.714127 0.110184 0.8 0 0
0.066433 0.713474 0.114156 0.8 0 0
0.076326 0.700128 0.213523 0.8 0 0
0.065186 0.925054 0.132991 0.8 0 0
0.067998 0.532569 0.135149 0.8 0 0
0.071390 0.150846 0.135716 0.8 0 0
0.069603 0.609966 0.112292 0.8 0 0
0.068882 0.236461 0.138453 0.8 0 0
0.070886 0.215406 0.139930 0.8 0 0
0.071844 0.520491 0.135020 0.8 0 0
0.069842 0.309349 0.144443 0.8 0 0
0.070973 0.556960 0.138625 0.8 0 0
0.071207 0.526819 0.124435 0.8 0 0
0.067778 0.683061 0.228063 0.8 0 0
0.036993 0.709943 0.115859 0.8 0 0
0.069999 0.520123 0.117024 0.8 0 0
0.070555 0.047430 0.135697 0.8 0 0
0.069169 0.444259 0.141424 0.8 0 0
0.066975 0.892282 0.134601 0.8 0 0
0.063119 0.848377 0.125157 0.8 0 0
0.072218 0.410930 0.128349 0.8 0 0
0.071150 0.635239 0.137699 0.8 0 0
0.077854 0.705613 0.130564 0.8 0 0
0.069899 0.506276 0.145026 0.8 0 0
0.070292 0.413802 0.118348 0.8 0 0
0.067761 0.153713 0.127189 0.8 0 0
0.069670 0.690710 0.144715 0.8 0 0
0.069551 0.137686 0.143354 0.8 0 0
0.072615 0.692498 0.030159 0.8 0 0
0.069671 0.709080 0.166866 0.8 0 0
0.061960 0.778922 0.132218 0.8 0 0
0.072410 0.444571 0.130633 0.8 0 0
0.036062 0.714155 0.147546 0.8 0 0
0.069512 0.712142 0.116647 0.8 0 0
0.074412 0.710937 0.085096 0.8 0 0
0.069503 0.150849 0.118230 0.8 0 0
0.072461 0.708408 0.067511 0.8 0 0
0.078209 0.761136 0.132788 0.8 0 0
0.074505 0.858164 0.129699 0.8 0 0
0.072332 0.824210 0.124819 0.8 0 0
0.068876 0.091429 0.122863 0.8 0 0
0.064594 0.711311 0.115115 0.8 0 0
0.071646 0.149973 0.134790 0.8 0 0
0.071418 0.275184 0.136273 0.8 0 0
0.072875 0.949721 0.135756 0.8 0 0
0.068062 0.347101 0.134609 0.8 0 0
0.070902 0.221978 0.123119 0.8 0 0
0.062924 0.883093 0.132409 0.8 0 0
0.067773 0.701549 0.057102 0.8 0 0
0.062156 0.742679 0.137711 0.8 0 0
0.072238 0.349065 0.131859 0.8 0 0
0.068863 0.276426 0.123486 0.8 0 0
0.070085 0.607384 0.107171 0.8 0 0
0.072246 0.679235 0.129031 0.8 0 0
0.070348 0.708533 0.174071 0.8 0 0
0.071411 0.592595 0.136710 0.8 0 0
0.068882 0.470059 0.139378 0.8 0 0
0.068657 0.650511 0.137690 0.8 0 0
0.067294 0.707147 0.063597 0.8 0 0
0.072316 0.235317 0.128875 0.8 0 0
0.077392 0.820987 0.136101 0.8 0 0
0.065107 0.763955 0.141515 0.8 0 0
0.070316 0.702944 0.197450 0.8 0 0
0.070577 0.905061 0.122856 0.8 0 0
0.037101 0.711647 0.111835 0.8 0 0
0.072173 0.077529 0.128752 0.8 0 0
0.065116 0.836050 0.121987 0.8 0 0
0.068405 0.228379 0.125056 0.8 0 0
0.074156 0.938743 0.128173 0.8 0 0
0.062307 0.788309 0.133701 0.8 0 0
0.070451 0.653157 0.143478 0.8 0 0
0.070869 0.647866 0.141227 0.8 0 0
0.069310 0.705178 0.195591 0.8 0 0
0.070010 0.348348 0.143491 0.8 0 0
0.069840 0.344062 0.117077 0.8 0 0
0.072210 0.390515 0.132855 0.8 0 0
0.070148 0.603801 0.171772 0.8 0 0
0.077549 0.755432 0.124862 0.8 0 0
0.072762 0.829148 0.120314 0.8 0 0
0.064080 0.815379 0.121667 0.8 0 0
0.077204 0.816758 0.137770 0.8 0 0
0.069384 0.097721 0.118593 0.8 0 0
0.067704 0.586757 0.127880 0.8 0 0
0.070972 0.550066 0.123348 0.8 0 0
0.073616 0.929935 0.126257 0.8 0 0
0.101345 0.713826 0.111907 0.8 0 0
0.072456 0.416336 0.130768 0.8 0 0
0.067946 0.314418 0.126625 0.8 0 0
0.070957 0.393310 0.138887 0.8 0 0
0.070407 0.705515 0.188966 0.8 0 0
0.064603 0.703097 0.058926 0.8 0 0
0.068974 0.267008 0.121538 0.8 0 0
0.068641 0.707529 0.171223 0.8 0 0
0.070950 0.217603 0.138746 0.8 0 0
0.070809 0.369222 0.141154 0.8 0 0
0.069927 0.610663 0.145554 0.8 0 0
0.071044 0.045021 0.128010 0.8 0 0
0.069711 0.695731 0.116964 0.8 0 0
0.069326 0.845789 0.142000 0.8 0 0
0.025999 0.710083 0.132354 0.8 0 0
0.069620 0.608557 0.111540 0.8 0 0
0.064889 0.708944 0.094463 0.8 0 0
0.069488 0.702657 0.052632 0.8 0 0
0.069094 0.867171 0.141420 0.8 0 0
0.068896 0.488603 0.139808 0.8 0 0
0.074743 0.818378 0.141156 0.8 0 0
0.064881 0.767072 0.120598 0.8 0 0
0.068040 0.241769 0.134750 0.8 0 0
0.062268 0.795558 0.131205 0.8 0 0
0.067523 0.518946 0.129419 0.8 0 0
0.068472 0.170772 0.124804 0.8 0 0
0.069688 0.706881 0.063631 0.8 0 0
0.061896 0.756263 0.126268 0.8 0 0
0.072663 0.884999 0.121691 0.8 0 0
0.064536 0.711125 0.119078 0.8 0 0
0.072447 0.309182 0.130840 0.8 0 0
0.070029 0.610511 0.093775 0.8 0 0
0.072416 0.303482 0.130422 0.8 0 0
0.072362 0.452338 0.131177 0.8 0 0
0.067446 0.232128 0.131053 0.8 0 0
0.062801 0.832249 0.126277 0.8 0 0
0.070389 0.612327 0.120562 0.8 0 0
0.063912 0.885568 0.136293 0.8 0 0
0.069323 0.619034 0.118797 0.8 0 0
0.069012 0.381443 0.121096 0.8 0 0
0.071196 0.150261 0.123944 0.8 0 0
0.065496 0.937803 0.128625 0.8 0 0
0.067561 0.693633 0.030191 0.8 0 0
0.071351 0.054928 0.133770 0.8 0 0
0.077707 0.706299 0.122531 0.8 0 0
0.067611 0.527525 0.128701 0.8 0 0
0.074319 0.824456 0.129114 0.8 0 0
0.071089 0.687849 0.224282 0.8 0 0
0.068910 0.436429 0.139166 0.8 0 0
0.065075 0.711148 0.088130 0.8 0 0
0.071231 0.866752 0.120368 0.8 0 0
0.062871 0.732974 0.139793 0.8 0 0
0.070923 0.692672 0.233661 0.8 0 0
0.071614 0.920513 0.137963 0.8 0 0
0.069062 0.532555 0.120795 0.8 0 0
0.068336 0.913299 0.123390 0.8 0 0
0.072507 0.712805 0.144344 0.8 0 0
0.067749 0.378277 0.126961 0.8 0 0
0.070850 0.212456 0.140467 0.8 0 0
0.077617 0.813853 0.126226 0.8 0 0
0.061043 0.817649 0.129890 0.8 0 0
0.067580 0.360220 0.128935 0.8 0 0
0.068568 0.697166 0.046260 0.8 0 0
0.070970 0.665061 0.123113 0.8 0 0
0.067352 0.963329 0.124552 0.8 0 0
0.074719 0.904927 0.134263 0.8 0 0
0.069372 0.608500 0.123265 0.8 0 0
0.076697 0.758588 0.138718 0.8 0 0
0.069610 0.694562 0.144479 0.8 0 0
0.068862 0.302528 0.138677 0.8 0 0
0.068828 0.681444 0.138664 0.8 0 0
0.071674 0.264656 0.134603 0.8 0 0
0.072313 0.391241 0.129768 0.8 0 0
0.030377 0.709717 0.139906 0.8 0 0
0.072022 0.273220 0.134080 0.8 0 0
0.069501 0.313930 0.142840 0.8 0 0
0.069628 0.027500 0.130130 0.8 0 0
0.062879 0.730353 0.139967 0.8 0 0
0.077970 0.699473 0.047733 0.8 0 0
0.068911 0.684318 0.140561 0.8 0 0
0.070133 0.693652 0.117135 0.8 0 0
0.066323 0.917067 0.136364 0.8 0 0
0.066040 0.708254 0.100580 0.8 0 0
0.069781 0.578762 0.116884 0.8 0 0
0.067526 0.326056 0.128930 0.8 0 0
0.067751 0.114440 0.127625 0.8 0 0
0.070439 0.611482 0.122523 0.8 0 0
0.062985 0.842465 0.127526 0.8 0 0
0.069136 0.091032 0.120120 0.8 0 0
0.070180 0.619529 0.153566 0.8 0 0
0.070282 0.593531 0.117926 0.8 0 0
0.074048 0.704475 0.126340 0.8 0 0
0.067526 0.636379 0.132359 0.8 0 0
0.076736 0.795968 0.136020 0.8 0 0
0.065480 0.943431 0.129339 0.8 0 0
0.066661 0.857776 0.134434 0.8 0 0
0.068820 0.365306 0.124108 0.8 0 0
0.071696 0.545393 0.126133 0.8 0 0
0.027768 0.714304 0.125066 0.8 0 0
0.070790 0.211213 0.121218 0.8 0 0
0.071594 0.823429 0.120798 0.8 0 0
0.067876 0.595364 0.126866 0.8 0 0
0.070477 0.687799 0.232127 0.8 0 0
0.071019 0.930096 0.137952 0.8 0 0
0.069015 0.536123 0.141758 0.8 0 0
0.068850 0.690295 0.139174 0.8 0 0
0.059080 0.710382 0.130514 0.8 0 0
0.070743 0.199363 0.120892 0.8 0 0
0.067639 0.362171 0.133170 0.8 0 0
0.072358 0.220021 0.130210 0.8 0 0
0.071477 0.588938 0.136455 0.8 0 0
0.068952 0.159725 0.140726 0.8 0 0
0.111634 0.709638 0.138026 0.8 0 0
0.062043 0.843875 0.129600 0.8 0 0
0.063930 0.705841 0.140509 0.8 0 0
0.079067 0.729126 0.131592 0.8 0 0
0.036676 0.714242 0.114066 0.8 0 0
0.076777 0.723159 0.121011 0.8 0 0
0.072244 0.236760 0.131799 0.8 0 0
0.065648 0.953969 0.129966 0.8 0 0
0.070570 0.044350 0.126551 0.8 0 0
0.079625 0.714158 0.137000 0.8 0 0
0.070804 0.286573 0.140914 0.8 0 0
0.070862 0.168506 0.140454 0.8 0 0
0.072284 0.161505 0.129597 0.8 0 0
0.069821 0.427642 0.117095 0.8 0 0
0.080496 0.709772 0.112934 0.8 0 0
0.068889 0.615643 0.140057 0.8 0 0
0.070298 0.581231 0.118127 0.8 0 0
0.066330 0.894894 0.137258 0.8 0 0
0.069809 0.408640 0.116676 0.8 0 0
0.069043 0.200341 0.121057 0.8 0 0
0.070475 0.577782 0.118998 0.8 0 0
0.069733 0.313868 0.117663 0.8 0 0
0.065264 0.703413 0.196797 0.8 0 0
0.056242 0.710956 0.109506 0.8 0 0
0.070875 0.389266 0.140296 0.8 0 0
0.072116 0.589664 0.127971 0.8 0 0
0.071136 0.101813 0.136765 0.8 0 0
0.071952 0.418515 0.127161 0.8 0 0
0.075414 0.714222 0.122294 0.8 0 0
0.078798 0.702883 0.058589 0.8 0 0
0.071931 0.152102 0.133996 0.8 0 0
0.073126 0.797396 0.141525 0.8 0 0
0.071808 0.652945 0.126385 0.8 0 0
0.069839 0.554698 0.145007 0.8 0 0
0.067455 0.429771 0.131355 0.8 0 0
0.066115 0.912008 0.136246 0.8 0 0
0.069178 0.751464 0.117406 0.8 0 0
0.069770 0.132540 0.117707 0.8 0 0
0.073130 0.710925 0.149172 0.8 0 0
0.069044 0.390383 0.141465 0.8 0 0
0.114892 0.709941 0.131405 0.8 0 0
0.067851 0.682513 0.126928 0.8 0 0
0.075580 0.704222 0.064533 0.8 0 0
0.067931 0.405959 0.126193 0.8 0 0
0.070226 0.694031 0.030513 0.8 0 0
0.069785 0.416087 0.144100 0.8 0 0
0.079590 0.712564 0.138076 0.8 0 0
0.067852 0.596213 0.134747 0.8 0 0
0.070319 0.083390 0.119111 0.8 0 0
0.078923 0.726681 0.127720 0.8 0 0
0.073643 0.706879 0.197955 0.8 0 0
0.070287 0.050600 0.138591 0.8 0 0
0.068815 0.290195 0.137195 0.8 0 0
0.067898 0.537544 0.126888 0.8 0 0
0.063136 0.862768 0.127023 0.8 0 0
0.078662 0.732815 0.134803 0.8 0 0
0.068437 0.325979 0.135923 0.8 0 0
0.078113 0.705867 0.134304 0.8 0 0
0.030384 0.711393 0.124598 0.8 0 0
0.070989 0.098802 0.137169 0.8 0 0
0.069645 0.611405 0.149996 0.8 0 0
0.072465 0.674031 0.130853 0.8 0 0
0.072396 0.717029 0.118381 0.8 0 0
0.067500 0.100463 0.129052 0.8 0 0
0.071373 0.749811 0.144197 0.8 0 0
0.063461 0.828616 0.136639 0.8 0 0
0.070798 0.696148 0.142102 0.8 0 0
0.070963 0.202009 0.137954 0.8 0 0
0.069995 0.807399 0.142353 0.8 0 0
0.067507 0.580308 0.132170 0.8 0 0
0.069185 0.689603 0.036282 0.8 0 0
0.085295 0.703505 0.060706 0.8 0 0
0.066366 0.884702 0.139579 0.8 0 0
0.069032 0.599343 0.120839 0.8 0 0
0.070648 0.568048 0.142419 0.8 0 0
0.066952 0.712013 0.144926 0.8 0 0
0.072368 0.171903 0.129686 0.8 0 0
0.073357 0.881198 0.124240 0.8 0 0
0.069081 0.178921 0.120279 0.8 0 0
0.076167 0.803379 0.124596 0.8 0 0
0.068227 0.562539 0.125697 0.8 0 0
0.069951 0.710599 0.156677 0.8 0 0
0.068059 0.714173 0.147574 0.8 0 0
0.070882 0.617848 0.122061 0.8 0 0
0.076178 0.840299 0.125911 0.8 0 0
0.068540 0.288511 0.136309 0.8 0 0
0.076567 0.835214 0.136393 0.8 0 0
0.071016 0.517648 0.123789 0.8 0 0
0.076480 0.813126 0.127020 0.8 0 0
0.069704 0.621041 0.099165 0.8 0 0
0.068808 0.513806 0.137954 0.8 0 0
0.074567 0.796819 0.140145 0.8 0 0
0.072214 0.073469 0.132730 0.8 0 0
0.068563 0.378582 0.136075 0.8 0 0
0.069940 0.604572 0.080992 0.8 0 0
0.077730 0.702853 0.211205 0.8 0 0
0.069406 0.274381 0.119242 0.8 0 0
0.067644 0.649404 0.133343 0.8 0 0
0.066133 0.814265 0.119861 0.8 0 0
0.071463 0.311537 0.125507 0.8 0 0
0.067699 0.462148 0.127785 0.8 0 0
0.067472 0.147885 0.131051 0.8 0 0
0.072420 0.415482 0.130979 0.8 0 0
0.068610 0.249944 0.137287 0.8 0 0
0.032002 0.714321 0.142894 0.8 0 0
0.076891 0.877526 0.132577 0.8 0 0
0.081448 0.699553 0.209630 0.8 0 0
0.066503 0.704848 0.056652 0.8 0 0
0.067778 0.400083 0.133948 0.8 0 0
0.068438 0.062635 0.135237 0.8 0 0
0.069702 0.548320 0.117389 0.8 0 0
0.067654 0.130895 0.128297 0.8 0 0
0.075174 0.704875 0.195118 0.8 0 0
0.071787 0.693475 0.029600 0.8 0 0
0.069896 0.500350 0.144996 0.8 0 0
0.078096 0.766743 0.132549 0.8 0 0
0.070851 0.695358 0.121696 0.8 0 0
0.069544 0.883372 0.120828 0.8 0 0
0.069188 0.709279 0.146416 0.8 0 0
0.070963 0.328851 0.123300 0.8 0 0
0.067877 0.220079 0.134756 0.8 0 0
0.067159 0.892583 0.125690 0.8 0 0
0.065582 0.801252 0.140363 0.8 0 0
0.071553 0.260542 0.135296 0.8 0 0
0.070162 0.495230 0.117854 0.8 0 0
0.069039 0.481257 0.141689 0.8 0 0
0.085305 0.713793 0.151680 0.8 0 0
0.066890 0.769113 0.142788 0.8 0 0
0.070557 0.607789 0.134658 0.8 0 0
0.067510 0.248296 0.129703 0.8 0 0
0.070211 0.634695 0.117504 0.8 0 0
0.036166 0.711947 0.112353 0.8 0 0
0.074232 0.922280 0.134609 0.8 0 0
0.066311 0.946323 0.134846 0.8 0 0
0.067518 0.595386 0.132288 0.8 0 0
0.069179 0.506484 0.119936 0.8 0 0
0.074810 0.924543 0.131257 0.8 0 0
0.070930 0.561031 0.122844 0.8 0 0
0.068272 0.955589 0.124882 0.8 0 0
0.070333 0.193601 0.143123 0.8 0 0
0.074831 0.885556 0.138082 0.8 0 0
0.073463 0.920539 0.125464 0.8 0 0
0.070424 0.263410 0.118655 0.8 0 0
0.069052 0.373377 0.120931 0.8 0 0
0.067650 0.398780 0.128317 0.8 0 0
0.064033 0.860663 0.127171 0.8 0 0
0.065012 0.712072 0.147757 0.8 0 0
0.067492 0.259234 0.131546 0.8 0 0
0.069112 0.068024 0.140984 0.8 0 0
0.069011 0.703470 0.065978 0.8 0 0
0.068858 0.541152 0.139089 0.8 0 0
0.072101 0.356067 0.127637 0.8 0 0
0.067367 0.068084 0.130826 0.8 0 0
0.070872 0.646864 0.141150 0.8 0 0
0.067545 0.551858 0.129229 0.8 0 0
0.069518 0.357862 0.142860 0.8 0 0
0.067838 0.429499 0.126857 0.8 0 0
0.077461 0.797833 0.131363 0.8 0 0
0.070985 0.560030 0.138358 0.8 0 0
0.067698 0.498936 0.133662 0.8 0 0
0.064730 0.912497 0.130473 0.8 0 0
0.072221 0.561226 0.132830 0.8 0 0
0.070765 0.098844 0.140663 0.8 0 0
0.069641 0.615803 0.109472 0.8 0 0
0.075076 0.884380 0.132386 0.8 0 0
0.060990 0.736001 0.132749 0.8 0 0
0.068315 0.269354 0.125189 0.8 0 0
0.070953 0.041662 0.132244 0.8 0 0
0.069713 0.607691 0.089028 0.8 0 0
0.067388 0.181660 0.130665 0.8 0 0
0.067414 0.274962 0.130270 0.8 0 0
0.070035 0.668840 0.145127 0.8 0 0
0.075755 0.813524 0.138000 0.8 0 0
0.068150 0.386155 0.135197 0.8 0 0
0.078519 0.738028 0.134844 0.8 0 0
0.067993 0.390197 0.126742 0.8 0 0
0.067594 0.235985 0.131969 0.8 0 0
0.070915 0.187921 0.123023 0.8 0 0
0.070829 0.563223 0.121655 0.8 0 0
0.068934 0.095843 0.139610 0.8 0 0
0.077387 0.702539 0.199407 0.8 0 0
0.067660 0.705440 0.065379 0.8 0 0
0.068864 0.106981 0.138828 0.8 0 0
0.068812 0.208631 0.137068 0.8 0 0
0.071992 0.619055 0.134644 0.8 0 0
0.076627 0.827270 0.135157 0.8 0 0
0.067505 0.662740 0.129508 0.8 0 0
0.070382 0.087050 0.119132 0.8 0 0
0.067892 0.664499 0.126780 0.8 0 0
0.069744 0.704170 0.061098 0.8 0 0
