0.045482 0.187208 0.102862 0.8 0 0
0.064296 0.663678 0.073065 0.8 0 0
0.039072 0.189118 0.050858 0.8 0 0
0.064781 0.816878 0.077579 0.8 0 0
0.059274 0.210745 0.047011 0.8 0 0
0.064104 0.528831 0.072053 0.8 0 0
0.070046 0.208285 0.094179 0.8 0 0
0.072430 0.185381 0.106255 0.8 0 0
0.066486 0.671428 0.080440 0.8 0 0
0.065846 0.869893 0.078457 0.8 0 0
0.071768 0.654548 0.074949 0.8 0 0
0.105604 0.182000 0.065419 0.8 0 0
0.088313 0.201801 0.094832 0.8 0 0
0.077384 0.049264 0.076656 0.8 0 0
0.044150 0.206605 0.059477 0.8 0 0
0.098965 0.196289 0.068212 0.8 0 0
0.053730 0.212841 0.092295 0.8 0 0
0.074656 0.146408 0.071425 0.8 0 0
0.075034 0.062369 0.082042 0.8 0 0
0.075393 0.214659 0.089033 0.8 0 0
0.066600 0.360079 0.082829 0.8 0 0
0.063579 0.195560 0.100713 0.8 0 0
0.055422 0.234543 0.073400 0.8 0 0
0.048175 0.184340 0.106702 0.8 0 0
0.071574 0.195824 0.037732 0.8 0 0
0.066528 0.197168 0.043853 0.8 0 0
0.060221 0.269615 0.075346 0.8 0 0
0.060386 0.196720 0.072961 0.8 0 0
0.058732 0.088245 0.075796 0.8 0 0
0.082616 0.230103 0.073029 0.8 0 0
0.064208 0.185670 0.112185 0.8 0 0
0.065290 0.384028 0.082268 0.8 0 0
0.083395 0.225649 0.079868 0.8 0 0
0.072734 0.411307 0.072559 0.8 0 0
0.100171 0.179390 0.097164 0.8 0 0
0.066383 0.179404 0.110212 0.8 0 0
0.068321 0.213668 0.097492 0.8 0 0
0.059230 0.113490 0.078079 0.8 0 0
0.066682 0.917437 0.074043 0.8 0 0
0.068331 0.115865 0.067910 0.8 0 0
0.074938 0.182244 0.030999 0.8 0 0
0.068184 0.497487 0.081861 0.8 0 0
0.075935 0.082323 0.072246 0.8 0 0
0.073244 0.206073 0.070529 0.8 0 0
0.064143 0.764182 0.076870 0.8 0 0
0.084237 0.189646 0.038612 0.8 0 0
0.089341 0.177534 0.034505 0.8 0 0
0.072041 0.455617 0.080564 0.8 0 0
0.075126 0.299762 0.076616 0.8 0 0
0.072889 0.435440 0.073138 0.8 0 0
0.094164 0.177038 0.098931 0.8 0 0
0.069465 0.715127 0.072757 0.8 0 0
0.047301 0.175401 0.032467 0.8 0 0
0.071326 0.525106 0.072230 0.8 0 0
0.069144 0.422731 0.082202 0.8 0 0
0.063541 0.678621 0.077201 0.8 0 0
0.071372 0.617286 0.079044 0.8 0 0
0.063178 0.514394 0.079749 0.8 0 0
0.084671 0.213369 0.078298 0.8 0 0
0.048723 0.212755 0.057920 0.8 0 0
0.038686 0.178655 0.102991 0.8 0 0
0.092905 0.200966 0.088176 0.8 0 0
0.072008 0.193069 0.069595 0.8 0 0
0.080028 0.217127 0.053347 0.8 0 0
0.065031 0.570419 0.071822 0.8 0 0
0.066522 0.220656 0.056772 0.8 0 0
0.071868 0.283551 0.082288 0.8 0 0
0.096401 0.187882 0.060426 0.8 0 0
0.034365 0.178890 0.081194 0.8 0 0
0.062387 0.422065 0.079767 0.8 0 0
0.080747 0.191053 0.100412 0.8 0 0
0.063244 0.078722 0.068833 0.8 0 0
0.072193 0.616022 0.075399 0.8 0 0
0.025811 0.174146 0.070154 0.8 0 0
0.070794 0.192943 0.108349 0.8 0 0
0.057885 0.196515 0.104838 0.8 0 0
0.072260 0.621745 0.075960 0.8 0 0
0.070932 0.725430 0.074805 0.8 0 0
0.063514 0.732929 0.076209 0.8 0 0
0.059473 0.154925 0.074788 0.8 0 0
0.060401 0.155220 0.080192 0.8 0 0
0.068220 0.119872 0.084893 0.8 0 0
0.045394 0.189588 0.093012 0.8 0 0
0.073212 0.512763 0.076452 0.8 0 0
0.071430 0.580630 0.079544 0.8 0 0
0.061096 0.228006 0.072304 0.8 0 0
0.066411 0.267877 0.083472 0.8 0 0
0.074857 0.065821 0.070563 0.8 0 0
0.056235 0.214856 0.085875 0.8 0 0
0.085442 0.213312 0.088476 0.8 0 0
0.061506 0.169139 0.070922 0.8 0 0
0.069562 0.834527 0.073931 0.8 0 0
0.068909 0.479521 0.070748 0.8 0 0
0.062181 0.246153 0.081817 0.8 0 0
0.063421 0.682275 0.076674 0.8 0 0
0.105398 0.182048 0.079918 0.8 0 0
0.037360 0.175227 0.050597 0.8 0 0
0.067653 0.504206 0.070657 0.8 0 0
0.064650 0.227153 0.069229 0.8 0 0
0.062185 0.186757 0.033181 0.8 0 0
0.056333 0.232451 0.079809 0.8 0 0
0.064352 0.204422 0.101904 0.8 0 0
0.059931 0.231294 0.075384 0.8 0 0
0.061851 0.250965 0.071497 0.8 0 0
0.069911 0.340042 0.069808 0.8 0 0
0.045896 0.190311 0.051191 0.8 0 0
0.055195 0.202622 0.093047 0.8 0 0
0.063104 0.643392 0.075155 0.8 0 0
0.063960 0.439127 0.071393 0.8 0 0
0.070342 0.795034 0.075017 0.8 0 0
0.059149 0.158313 0.076516 0.8 0 0
0.076115 0.026887 0.080980 0.8 0 0
0.070104 0.867287 0.075900 0.8 0 0
0.072203 0.506323 0.079473 0.8 0 0
0.074103 0.401755 0.075616 0.8 0 0
0.064561 0.755084 0.078612 0.8 0 0
0.072968 0.465882 0.078637 0.8 0 0
0.063749 0.211515 0.052351 0.8 0 0
0.038197 0.181870 0.099065 0.8 0 0
0.073081 0.161697 0.082698 0.8 0 0
0.096879 0.190538 0.073917 0.8 0 0
0.047067 0.209128 0.087201 0.8 0 0
0.043356 0.192259 0.046856 0.8 0 0
0.099531 0.192177 0.084353 0.8 0 0
0.069583 0.867643 0.077475 0.8 0 0
0.072127 0.277314 0.082198 0.8 0 0
0.081560 0.199069 0.049712 0.8 0 0
0.040381 0.190281 0.082968 0.8 0 0
0.062842 0.575573 0.077695 0.8 0 0
0.060504 0.266548 0.074171 0.8 0 0
0.061534 0.157740 0.082066 0.8 0 0
0.077573 0.032060 0.076514 0.8 0 0
0.059391 0.076515 0.079735 0.8 0 0
0.070019 0.854264 0.076562 0.8 0 0
0.059072 0.209106 0.098172 0.8 0 0
0.056115 0.202509 0.093796 0.8 0 0
0.068270 0.855826 0.078744 0.8 0 0
0.067834 0.700114 0.080374 0.8 0 0
0.069699 0.853411 0.077525 0.8 0 0
0.061166 0.228831 0.080433 0.8 0 0
0.033216 0.174146 0.093035 0.8 0 0
0.076492 0.152420 0.076270 0.8 0 0
0.059405 0.153978 0.075030 0.8 0 0
0.065116 0.161475 0.068620 0.8 0 0
0.065092 0.868036 0.077201 0.8 0 0
0.062740 0.471850 0.073234 0.8 0 0
0.068756 0.050356 0.085306 0.8 0 0
0.065723 0.558030 0.080977 0.8 0 0
0.075049 0.179924 0.080117 0.8 0 0
0.069947 0.578967 0.071825 0.8 0 0
0.073204 0.107379 0.069574 0.8 0 0
0.074611 0.076514 0.082480 0.8 0 0
0.051340 0.213043 0.064300 0.8 0 0
0.069738 0.765988 0.079043 0.8 0 0
0.097582 0.174236 0.096024 0.8 0 0
0.064446 0.819313 0.075396 0.8 0 0
0.065464 0.915318 0.077366 0.8 0 0
0.041178 0.187016 0.045352 0.8 0 0
0.053990 0.176390 0.109158 0.8 0 0
0.060499 0.212070 0.047472 0.8 0 0
0.064498 0.451610 0.071166 0.8 0 0
0.100874 0.193268 0.070414 0.8 0 0
0.071231 0.338881 0.070479 0.8 0 0
0.061653 0.034458 0.069511 0.8 0 0
0.070361 0.723565 0.078989 0.8 0 0
0.064470 0.517616 0.080743 0.8 0 0
0.067808 0.721333 0.080215 0.8 0 0
0.061810 0.448992 0.077688 0.8 0 0
0.075762 0.205663 0.049955 0.8 0 0
0.066264 0.680380 0.072331 0.8 0 0
0.106236 0.181305 0.077338 0.8 0 0
0.063372 0.498285 0.072583 0.8 0 0
0.053024 0.183136 0.033279 0.8 0 0
0.074445 0.270584 0.079597 0.8 0 0
0.068345 0.726870 0.080039 0.8 0 0
0.072970 0.343041 0.080858 0.8 0 0
0.065256 0.726988 0.079416 0.8 0 0
0.096296 0.187218 0.085537 0.8 0 0
0.066319 0.157867 0.084295 0.8 0 0
0.040118 0.180771 0.051439 0.8 0 0
0.091074 0.187378 0.102160 0.8 0 0
0.075188 0.095241 0.071431 0.8 0 0
0.060772 0.097617 0.071113 0.8 0 0
0.072719 0.331377 0.081363 0.8 0 0
0.074328 0.259301 0.079972 0.8 0 0
0.054659 0.195289 0.104364 0.8 0 0
0.065083 0.177535 0.116851 0.8 0 0
0.080545 0.226222 0.084004 0.8 0 0
0.064859 0.348858 0.070110 0.8 0 0
0.070106 0.802221 0.077826 0.8 0 0
0.063829 0.660207 0.078761 0.8 0 0
0.072313 0.433390 0.080475 0.8 0 0
0.060216 0.030550 0.081736 0.8 0 0
0.058009 0.238231 0.076958 0.8 0 0
0.073722 0.125647 0.082680 0.8 0 0
0.077245 0.229276 0.085143 0.8 0 0
0.045430 0.202198 0.066387 0.8 0 0
0.067263 0.328732 0.083259 0.8 0 0
0.072881 0.518791 0.074603 0.8 0 0
0.049294 0.187870 0.098280 0.8 0 0
0.068944 0.757203 0.079291 0.8 0 0
0.048677 0.207910 0.053292 0.8 0 0
0.064720 0.198585 0.099299 0.8 0 0
0.060008 0.206199 0.078262 0.8 0 0
0.073701 0.435762 0.075087 0.8 0 0
0.100067 0.184515 0.072939 0.8 0 0
0.064833 0.515206 0.071488 0.8 0 0
0.070125 0.426844 0.070598 0.8 0 0
0.058718 0.082407 0.075664 0.8 0 0
0.074022 0.335015 0.079160 0.8 0 0
0.079948 0.199616 0.102398 0.8 0 0
0.073878 0.420880 0.075324 0.8 0 0
0.105607 0.180180 0.060399 0.8 0 0
0.067509 0.140013 0.084762 0.8 0 0
0.088301 0.208352 0.088585 0.8 0 0
0.061460 0.272080 0.080370 0.8 0 0
0.066305 0.488287 0.070884 0.8 0 0
0.070420 0.546268 0.071846 0.8 0 0
0.048593 0.220036 0.068579 0.8 0 0
0.072600 0.554053 0.074734 0.8 0 0
0.067385 0.732752 0.080237 0.8 0 0
0.061273 0.378738 0.074483 0.8 0 0
0.103572 0.183687 0.085480 0.8 0 0
0.032687 0.174146 0.048707 0.8 0 0
0.033283 0.177863 0.094866 0.8 0 0
0.070026 0.322045 0.069685 0.8 0 0
0.076421 0.123186 0.077894 0.8 0 0
0.067760 0.511624 0.070806 0.8 0 0
0.086394 0.179534 0.110690 0.8 0 0
0.094809 0.193209 0.092574 0.8 0 0
0.067955 0.203669 0.068479 0.8 0 0
0.034862 0.186768 0.088819 0.8 0 0
0.107819 0.178737 0.075680 0.8 0 0
0.052186 0.184929 0.102314 0.8 0 0
0.040815 0.175828 0.037511 0.8 0 0
0.070176 0.475594 0.071023 0.8 0 0
0.070354 0.771000 0.078009 0.8 0 0
0.060558 0.101560 0.081235 0.8 0 0
0.096774 0.185226 0.086684 0.8 0 0
0.047465 0.210271 0.086745 0.8 0 0
0.060368 0.291281 0.077125 0.8 0 0
0.065372 0.610994 0.080264 0.8 0 0
0.068762 0.131456 0.084654 0.8 0 0
0.094074 0.191339 0.085193 0.8 0 0
0.075426 0.243353 0.077538 0.8 0 0
0.054082 0.205540 0.097289 0.8 0 0
0.059190 0.079253 0.079004 0.8 0 0
0.049573 0.188888 0.039547 0.8 0 0
0.075718 0.091921 0.080528 0.8 0 0
0.032396 0.176624 0.076575 0.8 0 0
0.095844 0.190043 0.081010 0.8 0 0
0.032394 0.175757 0.065363 0.8 0 0
0.072863 0.525971 0.077166 0.8 0 0
0.066141 0.856800 0.078566 0.8 0 0
0.107420 0.174146 0.057963 0.8 0 0
0.063472 0.234293 0.065742 0.8 0 0
0.042806 0.174146 0.106479 0.8 0 0
0.091780 0.189178 0.091067 0.8 0 0
0.065141 0.641277 0.072338 0.8 0 0
0.065511 0.563975 0.080755 0.8 0 0
0.069343 0.070911 0.067741 0.8 0 0
0.073648 0.209130 0.045504 0.8 0 0
0.095896 0.186796 0.047315 0.8 0 0
0.070533 0.685829 0.073303 0.8 0 0
0.065259 0.195663 0.068854 0.8 0 0
0.067122 0.221639 0.093040 0.8 0 0
0.068064 0.634646 0.080825 0.8 0 0
0.073074 0.137619 0.069769 0.8 0 0
0.068600 0.116370 0.067963 0.8 0 0
0.060243 0.064306 0.071425 0.8 0 0
0.068442 0.174146 0.116373 0.8 0 0
0.068604 0.193984 0.102361 0.8 0 0
0.072801 0.390390 0.072343 0.8 0 0
0.065542 0.922360 0.077687 0.8 0 0
0.066497 0.253439 0.068986 0.8 0 0
0.066090 0.631315 0.071990 0.8 0 0
0.037590 0.198855 0.073466 0.8 0 0
0.035746 0.174582 0.102106 0.8 0 0
0.060810 0.289206 0.073653 0.8 0 0
0.058757 0.175245 0.027600 0.8 0 0
0.069707 0.556342 0.080792 0.8 0 0
0.063610 0.382787 0.081415 0.8 0 0
0.074775 0.310458 0.077618 0.8 0 0
0.073876 0.391868 0.074043 0.8 0 0
0.076061 0.190850 0.076880 0.8 0 0
0.059816 0.161997 0.078845 0.8 0 0
0.075706 0.089078 0.080592 0.8 0 0
0.066568 0.242635 0.062955 0.8 0 0
0.061107 0.348640 0.078090 0.8 0 0
0.067672 0.674119 0.080616 0.8 0 0
0.062590 0.399828 0.080401 0.8 0 0
0.094118 0.183868 0.042126 0.8 0 0
0.044967 0.192305 0.054655 0.8 0 0
0.063998 0.694704 0.078552 0.8 0 0
0.104845 0.174146 0.078509 0.8 0 0
0.061130 0.329731 0.078716 0.8 0 0
0.069938 0.650159 0.072478 0.8 0 0
0.062935 0.027321 0.076203 0.8 0 0
0.064396 0.221100 0.086845 0.8 0 0
0.052935 0.187648 0.036271 0.8 0 0
0.058637 0.234192 0.081912 0.8 0 0
0.055219 0.232372 0.066274 0.8 0 0
0.061901 0.426405 0.078612 0.8 0 0
0.061825 0.224738 0.071155 0.8 0 0
0.066495 0.194359 0.036419 0.8 0 0
0.065227 0.560681 0.080628 0.8 0 0
0.063684 0.115175 0.083711 0.8 0 0
0.082525 0.228349 0.065945 0.8 0 0
0.070595 0.064381 0.084730 0.8 0 0
0.059410 0.108119 0.078952 0.8 0 0
0.062616 0.341687 0.071473 0.8 0 0
0.082042 0.180395 0.037951 0.8 0 0
0.066467 0.193985 0.036220 0.8 0 0
0.076001 0.114324 0.072796 0.8 0 0
0.059506 0.209274 0.046152 0.8 0 0
0.041793 0.181820 0.094626 0.8 0 0
0.070010 0.810087 0.078160 0.8 0 0
0.086132 0.201466 0.055891 0.8 0 0
0.037485 0.194810 0.060256 0.8 0 0
0.080378 0.188911 0.042253 0.8 0 0
0.073994 0.405728 0.077163 0.8 0 0
0.065872 0.942592 0.077951 0.8 0 0
0.061029 0.088242 0.082210 0.8 0 0
0.068885 0.191373 0.109630 0.8 0 0
0.041913 0.204773 0.063315 0.8 0 0
0.067625 0.073399 0.067555 0.8 0 0
0.064432 0.703666 0.079121 0.8 0 0
0.043557 0.174747 0.109532 0.8 0 0
0.066583 0.221580 0.068793 0.8 0 0
0.063610 0.227202 0.061041 0.8 0 0
0.039372 0.192493 0.090684 0.8 0 0
0.070781 0.211049 0.051828 0.8 0 0
0.066447 0.213082 0.097599 0.8 0 0
0.057076 0.238291 0.072141 0.8 0 0
0.075269 0.209334 0.098355 0.8 0 0
0.076784 0.040637 0.079731 0.8 0 0
0.075951 0.153414 0.073740 0.8 0 0
0.060460 0.052925 0.070968 0.8 0 0
0.068362 0.143196 0.068114 0.8 0 0
0.091486 0.199855 0.091591 0.8 0 0
0.070844 0.624535 0.079720 0.8 0 0
0.054589 0.216795 0.062592 0.8 0 0
0.073873 0.431994 0.076655 0.8 0 0
0.075402 0.209248 0.073593 0.8 0 0
0.076390 0.211916 0.054246 0.8 0 0
0.078232 0.224120 0.056564 0.8 0 0
0.040449 0.202215 0.079984 0.8 0 0
0.067448 0.364912 0.069653 0.8 0 0
0.068463 0.220103 0.050405 0.8 0 0
0.063431 0.215747 0.048853 0.8 0 0
0.069643 0.902746 0.075666 0.8 0 0
0.063450 0.712190 0.075832 0.8 0 0
0.077491 0.185841 0.110790 0.8 0 0
0.064635 0.169300 0.083741 0.8 0 0
0.044295 0.208984 0.082536 0.8 0 0
0.103777 0.174991 0.078756 0.8 0 0
0.049627 0.209752 0.064065 0.8 0 0
0.067684 0.191515 0.109731 0.8 0 0
0.081958 0.204183 0.097958 0.8 0 0
0.042906 0.208790 0.075394 0.8 0 0
0.073525 0.258039 0.081321 0.8 0 0
0.067131 0.839218 0.079357 0.8 0 0
0.060400 0.266703 0.077946 0.8 0 0
0.086035 0.175577 0.037760 0.8 0 0
0.064432 0.670807 0.073031 0.8 0 0
0.069891 0.895940 0.076084 0.8 0 0
0.061970 0.047581 0.083369 0.8 0 0
0.066046 0.943535 0.077956 0.8 0 0
0.062568 0.422000 0.080057 0.8 0 0
0.074666 0.161432 0.071652 0.8 0 0
0.060834 0.270144 0.079241 0.8 0 0
0.100752 0.182079 0.075887 0.8 0 0
0.070182 0.861688 0.076259 0.8 0 0
0.070879 0.620357 0.072806 0.8 0 0
0.077053 0.029881 0.078962 0.8 0 0
0.062873 0.453232 0.072751 0.8 0 0
0.067207 0.965198 0.078393 0.8 0 0
0.076064 0.224899 0.062430 0.8 0 0
0.061760 0.483446 0.076523 0.8 0 0
0.067914 0.091375 0.067656 0.8 0 0
0.075416 0.219894 0.078438 0.8 0 0
0.090296 0.214787 0.072909 0.8 0 0
0.060482 0.233370 0.069338 0.8 0 0
0.061977 0.342643 0.072620 0.8 0 0
0.062127 0.182319 0.070443 0.8 0 0
0.048017 0.209265 0.055694 0.8 0 0
0.039551 0.188617 0.049585 0.8 0 0
0.050742 0.193864 0.041916 0.8 0 0
0.063088 0.551689 0.073788 0.8 0 0
0.091804 0.174146 0.037724 0.8 0 0
0.061431 0.274171 0.072495 0.8 0 0
0.070883 0.466307 0.071421 0.8 0 0
0.070209 0.450186 0.081537 0.8 0 0
0.062625 0.206433 0.049802 0.8 0 0
0.064156 0.631276 0.072881 0.8 0 0
0.066768 0.196786 0.106632 0.8 0 0
0.060886 0.197825 0.080380 0.8 0 0
0.067115 0.108043 0.084895 0.8 0 0
0.033920 0.174146 0.094561 0.8 0 0
0.072599 0.096406 0.083572 0.8 0 0
0.070981 0.144581 0.068555 0.8 0 0
0.048905 0.174942 0.030990 0.8 0 0
0.076753 0.178919 0.114759 0.8 0 0
0.042447 0.207937 0.075213 0.8 0 0
0.063220 0.555017 0.073644 0.8 0 0
0.074300 0.344630 0.078239 0.8 0 0
0.072681 0.551870 0.075044 0.8 0 0
0.069770 0.803245 0.073833 0.8 0 0
0.084544 0.177514 0.106405 0.8 0 0
0.058615 0.026802 0.078403 0.8 0 0
0.060716 0.303318 0.074427 0.8 0 0
0.087683 0.207455 0.053852 0.8 0 0
0.064542 0.830180 0.076597 0.8 0 0
0.065997 0.427669 0.082143 0.8 0 0
0.048902 0.202227 0.095632 0.8 0 0
0.070361 0.310449 0.082771 0.8 0 0
0.067674 0.176497 0.117989 0.8 0 0
0.064096 0.228130 0.055518 0.8 0 0
0.064487 0.028164 0.084841 0.8 0 0
0.076846 0.052765 0.078937 0.8 0 0
0.063284 0.662270 0.075015 0.8 0 0
0.076905 0.060310 0.074257 0.8 0 0
0.060221 0.270169 0.077210 0.8 0 0
0.061436 0.187662 0.071268 0.8 0 0
0.091886 0.200173 0.074885 0.8 0 0
0.061850 0.349021 0.072884 0.8 0 0
0.100094 0.189074 0.087888 0.8 0 0
0.063078 0.066125 0.068836 0.8 0 0
0.071566 0.634940 0.074323 0.8 0 0
0.072791 0.185620 0.038282 0.8 0 0
0.052467 0.174146 0.031196 0.8 0 0
0.074251 0.300390 0.073064 0.8 0 0
0.073152 0.321769 0.071810 0.8 0 0
0.065289 0.533900 0.080898 0.8 0 0
0.061148 0.182717 0.113140 0.8 0 0
0.065431 0.594244 0.071821 0.8 0 0
0.060569 0.053909 0.081957 0.8 0 0
0.044284 0.211439 0.075690 0.8 0 0
0.030129 0.180769 0.062114 0.8 0 0
0.071496 0.211674 0.052328 0.8 0 0
0.071340 0.065571 0.068002 0.8 0 0
0.071141 0.703915 0.077364 0.8 0 0
0.100937 0.192368 0.068278 0.8 0 0
0.069534 0.876003 0.077229 0.8 0 0
0.074922 0.264827 0.078749 0.8 0 0
0.069408 0.025814 0.067557 0.8 0 0
0.050916 0.188659 0.038412 0.8 0 0
0.057534 0.189863 0.102523 0.8 0 0
0.073420 0.376591 0.073009 0.8 0 0
0.091028 0.201012 0.053103 0.8 0 0
0.066868 0.415129 0.082491 0.8 0 0
0.059434 0.192857 0.037138 0.8 0 0
0.072123 0.457449 0.080399 0.8 0 0
0.070522 0.632798 0.072699 0.8 0 0
0.066065 0.178308 0.068586 0.8 0 0
0.062330 0.458177 0.078929 0.8 0 0
0.071962 0.602327 0.077901 0.8 0 0
0.102411 0.177990 0.066309 0.8 0 0
0.073704 0.443809 0.075456 0.8 0 0
0.063589 0.645455 0.078133 0.8 0 0
0.075658 0.073170 0.080922 0.8 0 0
0.065453 0.244177 0.083374 0.8 0 0
0.087262 0.200325 0.047764 0.8 0 0
0.036346 0.174754 0.092518 0.8 0 0
0.091755 0.197322 0.093609 0.8 0 0
0.068952 0.813953 0.073407 0.8 0 0
0.061222 0.201886 0.041713 0.8 0 0
0.056847 0.235145 0.066286 0.8 0 0
0.084412 0.183892 0.035008 0.8 0 0
0.062841 0.369442 0.071546 0.8 0 0
0.072318 0.611315 0.075824 0.8 0 0
0.044506 0.183653 0.097313 0.8 0 0
0.058472 0.069308 0.076548 0.8 0 0
0.073955 0.126122 0.070265 0.8 0 0
0.086441 0.211822 0.088278 0.8 0 0
0.084593 0.210657 0.082045 0.8 0 0
0.100161 0.183573 0.069302 0.8 0 0
0.098526 0.177216 0.042342 0.8 0 0
0.064440 0.323679 0.070153 0.8 0 0
0.074195 0.395543 0.075786 0.8 0 0
0.069793 0.854334 0.077103 0.8 0 0
0.057556 0.206258 0.051903 0.8 0 0
0.059225 0.089114 0.073695 0.8 0 0
0.045191 0.196331 0.086130 0.8 0 0
0.067539 0.253959 0.068854 0.8 0 0
0.074516 0.290852 0.073322 0.8 0 0
0.037875 0.184435 0.059053 0.8 0 0
0.081133 0.222655 0.072138 0.8 0 0
0.066599 0.129267 0.084590 0.8 0 0
0.064475 0.633378 0.072688 0.8 0 0
0.062044 0.133210 0.070084 0.8 0 0
0.068258 0.135444 0.084759 0.8 0 0
0.070759 0.185985 0.068840 0.8 0 0
0.061600 0.371235 0.078993 0.8 0 0
0.070853 0.218266 0.049917 0.8 0 0
0.068967 0.043797 0.085309 0.8 0 0
0.066735 0.874826 0.078824 0.8 0 0
0.066687 0.747147 0.079925 0.8 0 0
0.068408 0.124791 0.067989 0.8 0 0
0.076766 0.103385 0.075473 0.8 0 0
0.075347 0.207261 0.073267 0.8 0 0
0.042999 0.197902 0.091404 0.8 0 0
0.068430 0.673285 0.080434 0.8 0 0
0.063472 0.706430 0.075580 0.8 0 0
0.081383 0.216195 0.081952 0.8 0 0
0.071835 0.214179 0.082892 0.8 0 0
0.070073 0.387334 0.082246 0.8 0 0
0.053507 0.227627 0.064485 0.8 0 0
0.077416 0.217921 0.051943 0.8 0 0
0.060429 0.302082 0.077028 0.8 0 0
0.061989 0.358517 0.080014 0.8 0 0
0.096410 0.186626 0.085922 0.8 0 0
0.060765 0.153600 0.080812 0.8 0 0
0.059790 0.094415 0.080110 0.8 0 0
0.069302 0.646290 0.080150 0.8 0 0
0.065707 0.235021 0.058956 0.8 0 0
0.069567 0.197353 0.038134 0.8 0 0
0.068493 0.766564 0.079536 0.8 0 0
0.067251 0.219804 0.084086 0.8 0 0
0.075996 0.161361 0.078211 0.8 0 0
0.065129 0.230640 0.062568 0.8 0 0
0.066342 0.379917 0.070066 0.8 0 0
0.073598 0.198372 0.070699 0.8 0 0
0.084014 0.209940 0.051614 0.8 0 0
0.046200 0.191433 0.043678 0.8 0 0
0.084034 0.196529 0.101398 0.8 0 0
0.064884 0.831233 0.077595 0.8 0 0
0.077116 0.049908 0.074857 0.8 0 0
0.060984 0.082469 0.070599 0.8 0 0
0.085350 0.205441 0.058463 0.8 0 0
0.067885 0.701039 0.080354 0.8 0 0
0.088685 0.194387 0.053222 0.8 0 0
0.095923 0.191790 0.075740 0.8 0 0
0.075670 0.151864 0.079630 0.8 0 0
0.061805 0.295819 0.072227 0.8 0 0
0.070953 0.110256 0.084257 0.8 0 0
0.061292 0.374279 0.074279 0.8 0 0
0.048179 0.175456 0.105514 0.8 0 0
0.069951 0.215557 0.090201 0.8 0 0
0.063514 0.712654 0.075597 0.8 0 0
0.045844 0.193630 0.045364 0.8 0 0
0.067120 0.332745 0.083187 0.8 0 0
0.064630 0.078542 0.068075 0.8 0 0
0.075857 0.188734 0.109556 0.8 0 0
0.059999 0.082744 0.072014 0.8 0 0
0.060326 0.179726 0.079710 0.8 0 0
0.066510 0.920632 0.074094 0.8 0 0
0.063687 0.211021 0.046198 0.8 0 0
0.077284 0.039373 0.077516 0.8 0 0
0.073929 0.244330 0.080875 0.8 0 0
0.068639 0.817328 0.073378 0.8 0 0
0.071265 0.703870 0.074963 0.8 0 0
0.072417 0.451341 0.080013 0.8 0 0
0.107239 0.174146 0.090054 0.8 0 0
0.065320 0.892575 0.077574 0.8 0 0
0.054941 0.232533 0.068028 0.8 0 0
0.065496 0.890253 0.074176 0.8 0 0
0.064182 0.416863 0.081423 0.8 0 0
0.091178 0.200373 0.066077 0.8 0 0
0.097216 0.183560 0.056753 0.8 0 0
0.076211 0.141923 0.078052 0.8 0 0
0.104685 0.185097 0.075433 0.8 0 0
0.053056 0.197121 0.095044 0.8 0 0
0.102420 0.174940 0.086404 0.8 0 0
0.069388 0.498539 0.070970 0.8 0 0
0.069872 0.805097 0.078473 0.8 0 0
0.074057 0.121371 0.082539 0.8 0 0
0.075250 0.243980 0.068933 0.8 0 0
0.063472 0.673806 0.077095 0.8 0 0
0.073160 0.445072 0.073719 0.8 0 0
0.066671 0.256211 0.083636 0.8 0 0
0.066550 0.702560 0.072452 0.8 0 0
0.067458 0.174146 0.117419 0.8 0 0
0.061751 0.094497 0.082850 0.8 0 0
0.074141 0.143130 0.082173 0.8 0 0
0.074763 0.205061 0.049406 0.8 0 0
0.060809 0.307845 0.074201 0.8 0 0
0.073565 0.232262 0.085910 0.8 0 0
0.045852 0.209566 0.084776 0.8 0 0
0.069594 0.593627 0.071804 0.8 0 0
0.062438 0.230068 0.087379 0.8 0 0
0.069296 0.807113 0.073493 0.8 0 0
0.060460 0.180552 0.079913 0.8 0 0
0.060615 0.185839 0.072490 0.8 0 0
0.063896 0.266745 0.070010 0.8 0 0
0.067950 0.725589 0.080147 0.8 0 0
0.060652 0.211227 0.072762 0.8 0 0
0.103591 0.174146 0.056521 0.8 0 0
0.064161 0.092551 0.084171 0.8 0 0
0.069215 0.895585 0.074730 0.8 0 0
0.093349 0.174924 0.108567 0.8 0 0
0.100160 0.174146 0.051075 0.8 0 0
0.062749 0.437690 0.080129 0.8 0 0
0.067366 0.181695 0.115063 0.8 0 0
0.090989 0.182150 0.098661 0.8 0 0
0.059287 0.158267 0.075686 0.8 0 0
0.069001 0.107617 0.084778 0.8 0 0
0.071852 0.210939 0.069665 0.8 0 0
0.065321 0.290706 0.069557 0.8 0 0
0.082623 0.218906 0.070016 0.8 0 0
0.068970 0.470241 0.081876 0.8 0 0
0.062163 0.313976 0.080912 0.8 0 0
0.049171 0.174146 0.113597 0.8 0 0
0.066988 0.896292 0.073629 0.8 0 0
0.070137 0.698050 0.079443 0.8 0 0
0.072129 0.272407 0.070467 0.8 0 0
0.036601 0.186446 0.072671 0.8 0 0
0.066337 0.344916 0.069805 0.8 0 0
0.064062 0.744565 0.077147 0.8 0 0
0.071411 0.514494 0.080415 0.8 0 0
0.060126 0.175102 0.079458 0.8 0 0
0.049167 0.177236 0.032286 0.8 0 0
0.070064 0.307106 0.082871 0.8 0 0
0.051376 0.210697 0.091955 0.8 0 0
0.055609 0.220013 0.064039 0.8 0 0
0.093966 0.174146 0.038370 0.8 0 0
0.048686 0.190021 0.047888 0.8 0 0
0.057057 0.222219 0.080528 0.8 0 0
0.071808 0.379316 0.071224 0.8 0 0
0.064401 0.480434 0.081013 0.8 0 0
0.073381 0.189147 0.082290 0.8 0 0
0.068521 0.893660 0.078309 0.8 0 0
0.066709 0.741804 0.072711 0.8 0 0
0.062775 0.559871 0.074345 0.8 0 0
0.062091 0.476534 0.077888 0.8 0 0
0.049516 0.196180 0.051274 0.8 0 0
0.090409 0.185793 0.047716 0.8 0 0
0.064701 0.646987 0.079801 0.8 0 0
0.072012 0.624310 0.076873 0.8 0 0
0.100558 0.179821 0.061120 0.8 0 0
0.069191 0.904196 0.075019 0.8 0 0
0.097549 0.183153 0.056907 0.8 0 0
0.105230 0.178276 0.054409 0.8 0 0
0.072294 0.607538 0.075537 0.8 0 0
0.049234 0.217001 0.083124 0.8 0 0
0.058867 0.197020 0.104775 0.8 0 0
0.061124 0.161051 0.081319 0.8 0 0
0.067233 0.229273 0.055461 0.8 0 0
0.051425 0.207325 0.050148 0.8 0 0
0.102585 0.178723 0.069294 0.8 0 0
0.032141 0.176445 0.068665 0.8 0 0
0.071110 0.727132 0.076649 0.8 0 0
0.070299 0.851754 0.076161 0.8 0 0
0.067470 0.397355 0.069875 0.8 0 0
0.090741 0.174864 0.103569 0.8 0 0
0.064138 0.342818 0.082007 0.8 0 0
0.053801 0.222893 0.084922 0.8 0 0
0.089625 0.176234 0.040825 0.8 0 0
0.064641 0.206524 0.083429 0.8 0 0
0.032844 0.184492 0.057395 0.8 0 0
0.071448 0.400902 0.071197 0.8 0 0
0.036894 0.194968 0.063961 0.8 0 0
0.072451 0.284091 0.070768 0.8 0 0
0.073622 0.198800 0.104509 0.8 0 0
0.071022 0.381677 0.070732 0.8 0 0
0.061748 0.256260 0.071745 0.8 0 0
0.092217 0.189715 0.044523 0.8 0 0
0.070169 0.514003 0.080963 0.8 0 0
0.065852 0.327640 0.069751 0.8 0 0
0.049652 0.200644 0.047116 0.8 0 0
0.039468 0.191103 0.075645 0.8 0 0
0.062824 0.442931 0.080176 0.8 0 0
0.085546 0.195131 0.050086 0.8 0 0
0.037614 0.194909 0.084507 0.8 0 0
0.078134 0.234066 0.063971 0.8 0 0
0.091148 0.191662 0.089696 0.8 0 0
0.062081 0.192452 0.070558 0.8 0 0
0.060477 0.057983 0.071010 0.8 0 0
0.071214 0.666131 0.078326 0.8 0 0
0.060337 0.163872 0.072599 0.8 0 0
0.070684 0.683550 0.079105 0.8 0 0
0.082419 0.200076 0.100284 0.8 0 0
0.075109 0.187757 0.079898 0.8 0 0
0.051154 0.211415 0.091326 0.8 0 0
0.060559 0.244201 0.069227 0.8 0 0
0.049323 0.194504 0.043375 0.8 0 0
0.068038 0.534974 0.071051 0.8 0 0
0.070284 0.830693 0.075492 0.8 0 0
0.069017 0.690771 0.079874 0.8 0 0
0.084909 0.223235 0.064988 0.8 0 0
0.062681 0.203434 0.048140 0.8 0 0
0.068695 0.174371 0.119023 0.8 0 0
0.068768 0.540053 0.071201 0.8 0 0
0.075743 0.205768 0.050009 0.8 0 0
0.059305 0.066904 0.079739 0.8 0 0
0.094705 0.195408 0.071854 0.8 0 0
0.075724 0.145998 0.072881 0.8 0 0
0.092840 0.188244 0.054097 0.8 0 0
0.073866 0.426240 0.075499 0.8 0 0
0.072255 0.141212 0.083335 0.8 0 0
0.055790 0.212762 0.050466 0.8 0 0
0.053514 0.217740 0.055369 0.8 0 0
0.076339 0.113395 0.078677 0.8 0 0
0.056802 0.225264 0.067277 0.8 0 0
0.048258 0.207512 0.078885 0.8 0 0
0.100843 0.193538 0.070990 0.8 0 0
0.058944 0.088103 0.077760 0.8 0 0
0.069020 0.313994 0.083078 0.8 0 0
0.064776 0.850406 0.075328 0.8 0 0
0.064455 0.730982 0.078778 0.8 0 0
0.071670 0.509307 0.072392 0.8 0 0
0.072381 0.260289 0.082212 0.8 0 0
0.060943 0.372573 0.076819 0.8 0 0
0.073572 0.472813 0.075973 0.8 0 0
0.062044 0.351913 0.072646 0.8 0 0
0.043128 0.174146 0.036323 0.8 0 0
0.067596 0.274587 0.068984 0.8 0 0
0.075043 0.203757 0.095577 0.8 0 0
0.071869 0.196144 0.043868 0.8 0 0
0.061748 0.240194 0.063884 0.8 0 0
0.083582 0.174146 0.032039 0.8 0 0
0.065822 0.963932 0.074976 0.8 0 0
0.052004 0.206387 0.056743 0.8 0 0
0.069607 0.706815 0.079557 0.8 0 0
0.086327 0.211272 0.074937 0.8 0 0
0.076263 0.216835 0.086982 0.8 0 0
0.061008 0.246110 0.072015 0.8 0 0
0.070097 0.214050 0.068945 0.8 0 0
0.063697 0.410482 0.081233 0.8 0 0
0.063035 0.538471 0.073690 0.8 0 0
0.063902 0.701504 0.074600 0.8 0 0
0.072758 0.557332 0.076514 0.8 0 0
0.047354 0.184661 0.105891 0.8 0 0
0.072831 0.299578 0.071138 0.8 0 0
0.074313 0.175214 0.111435 0.8 0 0
0.068093 0.800530 0.073139 0.8 0 0
0.069919 0.830263 0.074934 0.8 0 0
0.047405 0.207391 0.074504 0.8 0 0
0.072019 0.524408 0.079484 0.8 0 0
0.065862 0.114075 0.068148 0.8 0 0
0.040899 0.193506 0.052111 0.8 0 0
0.065412 0.777514 0.073293 0.8 0 0
0.067761 0.777370 0.079792 0.8 0 0
0.031649 0.178425 0.091629 0.8 0 0
0.094145 0.192497 0.083618 0.8 0 0
0.089945 0.201085 0.061799 0.8 0 0
0.080300 0.195655 0.104710 0.8 0 0
0.065763 0.952886 0.074939 0.8 0 0
0.068371 0.040484 0.067359 0.8 0 0
0.065410 0.188327 0.039234 0.8 0 0
0.063040 0.182588 0.113625 0.8 0 0
0.062483 0.226152 0.083138 0.8 0 0
0.068536 0.849736 0.073612 0.8 0 0
0.071190 0.586947 0.079838 0.8 0 0
0.060935 0.218045 0.080170 0.8 0 0
0.063727 0.423680 0.071417 0.8 0 0
0.072069 0.624785 0.075160 0.8 0 0
0.068733 0.580285 0.081081 0.8 0 0
0.075796 0.191831 0.107866 0.8 0 0
0.071061 0.244881 0.064763 0.8 0 0
0.084493 0.215938 0.072148 0.8 0 0
0.056575 0.190505 0.042403 0.8 0 0
0.064483 0.090902 0.068190 0.8 0 0
0.062110 0.116627 0.082852 0.8 0 0
0.057420 0.214418 0.093984 0.8 0 0
0.073391 0.465461 0.077328 0.8 0 0
0.074406 0.227511 0.080394 0.8 0 0
0.059252 0.104849 0.074084 0.8 0 0
0.068622 0.636176 0.071932 0.8 0 0
0.064427 0.047094 0.084673 0.8 0 0
0.031196 0.176405 0.092846 0.8 0 0
0.088348 0.205438 0.064432 0.8 0 0
0.039772 0.201842 0.067049 0.8 0 0
0.060559 0.302980 0.075021 0.8 0 0
0.035282 0.174999 0.100937 0.8 0 0
0.076877 0.078006 0.077732 0.8 0 0
0.071867 0.113239 0.083825 0.8 0 0
0.063866 0.281900 0.070152 0.8 0 0
0.068597 0.229847 0.068786 0.8 0 0
0.085818 0.175180 0.113937 0.8 0 0
0.101629 0.180739 0.074744 0.8 0 0
0.032619 0.185520 0.061476 0.8 0 0
0.056689 0.203175 0.093787 0.8 0 0
0.095834 0.195125 0.089027 0.8 0 0
0.056274 0.204985 0.052019 0.8 0 0
0.102631 0.175235 0.047178 0.8 0 0
0.064534 0.180777 0.035273 0.8 0 0
0.071731 0.174146 0.031304 0.8 0 0
0.054196 0.206827 0.096538 0.8 0 0
0.061000 0.215566 0.080316 0.8 0 0
0.060768 0.212594 0.079963 0.8 0 0
0.063502 0.447452 0.080832 0.8 0 0
0.082820 0.216748 0.065276 0.8 0 0
0.074521 0.178393 0.080995 0.8 0 0
0.067953 0.130443 0.067947 0.8 0 0
0.063768 0.675104 0.077963 0.8 0 0
0.064302 0.833394 0.076086 0.8 0 0
0.070672 0.077382 0.084602 0.8 0 0
0.066547 0.910661 0.078277 0.8 0 0
0.073604 0.201771 0.082056 0.8 0 0
0.051242 0.214759 0.075347 0.8 0 0
0.061109 0.250281 0.072639 0.8 0 0
0.061039 0.183440 0.071817 0.8 0 0
0.104978 0.174709 0.072898 0.8 0 0
0.037108 0.177798 0.101225 0.8 0 0
0.073010 0.124859 0.069605 0.8 0 0
0.062115 0.204549 0.048877 0.8 0 0
0.104205 0.174146 0.093989 0.8 0 0
0.074530 0.312095 0.073840 0.8 0 0
0.068706 0.766767 0.079320 0.8 0 0
0.073143 0.204891 0.070449 0.8 0 0
0.069941 0.828221 0.074936 0.8 0 0
0.071734 0.516502 0.080082 0.8 0 0
0.091005 0.198804 0.061330 0.8 0 0
0.064357 0.025000 0.070935 0.8 0 0
0.062942 0.430862 0.072311 0.8 0 0
0.060964 0.128411 0.081518 0.8 0 0
0.083865 0.188412 0.037538 0.8 0 0
0.061888 0.081692 0.083026 0.8 0 0
0.098524 0.174146 0.043422 0.8 0 0
0.059658 0.216591 0.057062 0.8 0 0
0.066560 0.205054 0.048183 0.8 0 0
0.069493 0.671472 0.079824 0.8 0 0
0.087159 0.174707 0.113258 0.8 0 0
0.059520 0.183098 0.075491 0.8 0 0
0.070255 0.589086 0.072129 0.8 0 0
0.077495 0.034763 0.076756 0.8 0 0
0.033054 0.176125 0.081592 0.8 0 0
0.063764 0.745264 0.075586 0.8 0 0
0.075026 0.092322 0.081569 0.8 0 0
0.075674 0.233392 0.072684 0.8 0 0
0.067264 0.972623 0.073964 0.8 0 0
0.081384 0.230664 0.066037 0.8 0 0
0.060946 0.309198 0.078657 0.8 0 0
0.087741 0.197204 0.089924 0.8 0 0
0.066545 0.357364 0.069865 0.8 0 0
0.066314 0.625748 0.080736 0.8 0 0
0.035926 0.189061 0.088343 0.8 0 0
0.070767 0.567316 0.072265 0.8 0 0
0.063727 0.196574 0.106083 0.8 0 0
0.070543 0.601902 0.072436 0.8 0 0
0.063300 0.694780 0.076363 0.8 0 0
0.062407 0.361255 0.072184 0.8 0 0
0.062667 0.563928 0.077410 0.8 0 0
0.070918 0.334664 0.070225 0.8 0 0
0.079787 0.223163 0.087240 0.8 0 0
0.071094 0.602401 0.073112 0.8 0 0
0.072983 0.482332 0.078330 0.8 0 0
0.070267 0.553988 0.071812 0.8 0 0
0.085874 0.196694 0.044388 0.8 0 0
0.058881 0.187663 0.040298 0.8 0 0
0.071920 0.062245 0.068271 0.8 0 0
0.059440 0.108169 0.079070 0.8 0 0
0.067569 0.214972 0.084211 0.8 0 0
0.062291 0.499216 0.077945 0.8 0 0
0.075162 0.167768 0.080141 0.8 0 0
0.041852 0.194421 0.092895 0.8 0 0
0.059601 0.103509 0.079674 0.8 0 0
0.068555 0.583219 0.081102 0.8 0 0
0.063319 0.551760 0.079454 0.8 0 0
0.063301 0.486686 0.072531 0.8 0 0
0.072883 0.337263 0.071676 0.8 0 0
0.065198 0.874844 0.075037 0.8 0 0
0.087622 0.189259 0.047803 0.8 0 0
0.096938 0.178771 0.092681 0.8 0 0
0.068023 0.172419 0.068264 0.8 0 0
0.065642 0.141162 0.068386 0.8 0 0
0.070871 0.339109 0.082251 0.8 0 0
0.105183 0.177837 0.090421 0.8 0 0
0.092632 0.200830 0.088758 0.8 0 0
0.062058 0.185481 0.070515 0.8 0 0
0.061504 0.217075 0.071543 0.8 0 0
0.051648 0.175391 0.115061 0.8 0 0
0.074022 0.235517 0.069018 0.8 0 0
0.071685 0.609158 0.078446 0.8 0 0
0.064589 0.184047 0.083599 0.8 0 0
0.070179 0.392239 0.070330 0.8 0 0
0.073239 0.426621 0.078863 0.8 0 0
0.075719 0.224658 0.075660 0.8 0 0
0.068459 0.476911 0.081952 0.8 0 0
0.059687 0.027487 0.079406 0.8 0 0
0.073759 0.422708 0.074808 0.8 0 0
0.080481 0.222668 0.075757 0.8 0 0
0.037422 0.174146 0.101836 0.8 0 0
0.094552 0.193093 0.079720 0.8 0 0
0.066665 0.485614 0.081898 0.8 0 0
0.053894 0.219713 0.076318 0.8 0 0
0.070745 0.057699 0.067851 0.8 0 0
0.060688 0.280926 0.078556 0.8 0 0
0.075306 0.146406 0.080270 0.8 0 0
0.065953 0.859113 0.078538 0.8 0 0
0.073413 0.193503 0.101573 0.8 0 0
0.062673 0.175089 0.111774 0.8 0 0
0.065844 0.781877 0.079070 0.8 0 0
0.066074 0.189173 0.083990 0.8 0 0
0.090223 0.199889 0.061096 0.8 0 0
0.063368 0.667794 0.074935 0.8 0 0
0.077593 0.031657 0.076448 0.8 0 0
0.066372 0.517564 0.081571 0.8 0 0
0.094798 0.195322 0.072196 0.8 0 0
0.064456 0.694332 0.079291 0.8 0 0
0.070209 0.802233 0.077369 0.8 0 0
0.070913 0.174146 0.116979 0.8 0 0
0.061352 0.202270 0.081111 0.8 0 0
0.063371 0.295199 0.082012 0.8 0 0
0.090319 0.176416 0.109826 0.8 0 0
0.063311 0.227965 0.082540 0.8 0 0
0.050217 0.190910 0.047340 0.8 0 0
0.073753 0.436622 0.076962 0.8 0 0
0.072260 0.108413 0.068939 0.8 0 0
0.090434 0.194217 0.098194 0.8 0 0
0.070509 0.178439 0.033833 0.8 0 0
0.073185 0.456293 0.078464 0.8 0 0
0.072601 0.040082 0.068528 0.8 0 0
0.067097 0.235173 0.064630 0.8 0 0
0.061901 0.284404 0.080905 0.8 0 0
0.075057 0.176336 0.033671 0.8 0 0
0.065642 0.099185 0.084565 0.8 0 0
0.071498 0.603659 0.073716 0.8 0 0
0.047477 0.194597 0.052748 0.8 0 0
0.066613 0.195946 0.101165 0.8 0 0
0.064872 0.268187 0.083022 0.8 0 0
0.041456 0.199406 0.087403 0.8 0 0
0.076031 0.147513 0.073856 0.8 0 0
0.066482 0.196163 0.084051 0.8 0 0
0.064165 0.218672 0.056196 0.8 0 0
0.065542 0.796026 0.078953 0.8 0 0
0.064784 0.822843 0.077385 0.8 0 0
0.044246 0.197504 0.050483 0.8 0 0
0.062282 0.397465 0.079940 0.8 0 0
0.063917 0.289644 0.070185 0.8 0 0
0.071258 0.577794 0.079874 0.8 0 0
0.069527 0.244742 0.083489 0.8 0 0
0.062246 0.270915 0.081646 0.8 0 0
0.064281 0.201149 0.097793 0.8 0 0
0.067842 0.193219 0.041393 0.8 0 0
0.073743 0.203549 0.101871 0.8 0 0
0.063731 0.719706 0.076693 0.8 0 0
0.066180 0.042146 0.085163 0.8 0 0
0.037093 0.193031 0.086410 0.8 0 0
0.065886 0.559003 0.071480 0.8 0 0
0.066272 0.260062 0.083491 0.8 0 0
0.066636 0.124777 0.068102 0.8 0 0
0.096159 0.180883 0.091912 0.8 0 0
0.087588 0.203780 0.083791 0.8 0 0
0.069953 0.217178 0.095204 0.8 0 0
0.095402 0.201254 0.082089 0.8 0 0
0.074201 0.371458 0.074784 0.8 0 0
0.032058 0.176380 0.075381 0.8 0 0
0.066550 0.558544 0.081313 0.8 0 0
0.037339 0.179545 0.044417 0.8 0 0
0.083034 0.184201 0.034195 0.8 0 0
0.082599 0.177969 0.107539 0.8 0 0
0.068747 0.648666 0.080546 0.8 0 0
0.029544 0.178491 0.085277 0.8 0 0
0.075000 0.209931 0.079717 0.8 0 0
0.070989 0.734865 0.076810 0.8 0 0
0.045576 0.210230 0.060650 0.8 0 0
0.071769 0.653430 0.076749 0.8 0 0
0.067102 0.182397 0.084328 0.8 0 0
0.065631 0.244839 0.083420 0.8 0 0
0.071679 0.480215 0.080579 0.8 0 0
0.064183 0.364166 0.070638 0.8 0 0
0.056606 0.205973 0.045462 0.8 0 0
0.066153 0.395947 0.070216 0.8 0 0
0.096791 0.190856 0.070807 0.8 0 0
0.060446 0.148816 0.080358 0.8 0 0
0.082156 0.195202 0.103639 0.8 0 0
0.069393 0.763352 0.073154 0.8 0 0
0.103486 0.182110 0.089066 0.8 0 0
0.091639 0.202817 0.088464 0.8 0 0
0.087659 0.209075 0.073647 0.8 0 0
0.061662 0.444724 0.074910 0.8 0 0
0.069631 0.697652 0.079620 0.8 0 0
0.071092 0.750607 0.075757 0.8 0 0
0.060346 0.303559 0.075859 0.8 0 0
0.072053 0.572066 0.074060 0.8 0 0
0.061068 0.208740 0.051412 0.8 0 0
0.070276 0.541866 0.080676 0.8 0 0
0.071915 0.648571 0.076531 0.8 0 0
0.067712 0.873757 0.079055 0.8 0 0
0.061873 0.131363 0.070182 0.8 0 0
0.061886 0.090496 0.082952 0.8 0 0
0.108025 0.175030 0.059532 0.8 0 0
0.059883 0.185529 0.078384 0.8 0 0
0.048900 0.177504 0.111670 0.8 0 0
0.067177 0.868273 0.073258 0.8 0 0
0.076258 0.154893 0.075201 0.8 0 0
0.071710 0.304087 0.070484 0.8 0 0
0.075595 0.107119 0.080469 0.8 0 0
0.074078 0.323343 0.079264 0.8 0 0
0.059298 0.039302 0.080135 0.8 0 0
0.108355 0.176640 0.078515 0.8 0 0
0.067517 0.593782 0.071237 0.8 0 0
0.063471 0.676131 0.077026 0.8 0 0
0.061444 0.435112 0.075470 0.8 0 0
0.061007 0.341184 0.077948 0.8 0 0
0.100094 0.184639 0.092194 0.8 0 0
0.062630 0.076380 0.069219 0.8 0 0
0.068504 0.191351 0.034600 0.8 0 0
0.077741 0.179255 0.035864 0.8 0 0
0.084681 0.210595 0.062367 0.8 0 0
0.071445 0.224862 0.083005 0.8 0 0
0.102810 0.189092 0.069573 0.8 0 0
0.067655 0.165174 0.068195 0.8 0 0
0.063246 0.608841 0.074315 0.8 0 0
0.063136 0.192946 0.042272 0.8 0 0
0.065262 0.683143 0.072609 0.8 0 0
0.089220 0.193095 0.091479 0.8 0 0
0.071974 0.621680 0.077125 0.8 0 0
0.069000 0.837448 0.073598 0.8 0 0
0.059913 0.193806 0.074272 0.8 0 0
0.059416 0.088553 0.072921 0.8 0 0
0.058798 0.195057 0.105839 0.8 0 0
0.072839 0.352042 0.080928 0.8 0 0
0.074544 0.315469 0.078357 0.8 0 0
0.061187 0.353137 0.078242 0.8 0 0
0.086453 0.221206 0.067919 0.8 0 0
0.071090 0.183901 0.113258 0.8 0 0
0.075302 0.109313 0.071786 0.8 0 0
0.070320 0.741003 0.078774 0.8 0 0
0.064594 0.211118 0.069125 0.8 0 0
0.065741 0.814566 0.073429 0.8 0 0
0.059832 0.231968 0.069055 0.8 0 0
0.055632 0.222685 0.066614 0.8 0 0
0.044277 0.182871 0.097694 0.8 0 0
0.047560 0.204902 0.052210 0.8 0 0
0.063612 0.677941 0.077475 0.8 0 0
0.067107 0.414743 0.070088 0.8 0 0
0.071778 0.309012 0.070577 0.8 0 0
0.087923 0.176801 0.039942 0.8 0 0
0.069396 0.298212 0.083107 0.8 0 0
0.099930 0.194600 0.075451 0.8 0 0
0.066304 0.898753 0.078283 0.8 0 0
0.069027 0.496933 0.070903 0.8 0 0
0.066406 0.146271 0.084408 0.8 0 0
0.049435 0.215901 0.059804 0.8 0 0
0.075783 0.037852 0.071402 0.8 0 0
0.060858 0.345335 0.077303 0.8 0 0
0.053413 0.221913 0.085234 0.8 0 0
0.069533 0.766439 0.079142 0.8 0 0
0.060240 0.075687 0.081107 0.8 0 0
0.069815 0.888937 0.075706 0.8 0 0
0.072931 0.457334 0.078890 0.8 0 0
0.071585 0.524206 0.072584 0.8 0 0
0.049726 0.222139 0.076193 0.8 0 0
0.056538 0.190473 0.107865 0.8 0 0
0.075112 0.039624 0.070528 0.8 0 0
0.094919 0.196038 0.054681 0.8 0 0
0.079016 0.233398 0.079553 0.8 0 0
0.060844 0.216022 0.055821 0.8 0 0
0.062681 0.526151 0.078418 0.8 0 0
0.072836 0.206037 0.082430 0.8 0 0
0.098815 0.175940 0.041579 0.8 0 0
0.067362 0.025000 0.072528 0.8 0 0
0.064340 0.620132 0.079840 0.8 0 0
0.036758 0.191556 0.057036 0.8 0 0
0.068458 0.174792 0.025483 0.8 0 0
0.064238 0.203000 0.069278 0.8 0 0
0.073883 0.389378 0.073970 0.8 0 0
0.032938 0.189374 0.073955 0.8 0 0
0.046268 0.174162 0.111904 0.8 0 0
0.089811 0.200676 0.061182 0.8 0 0
0.066035 0.227846 0.068940 0.8 0 0
0.095831 0.200075 0.082978 0.8 0 0
0.068997 0.194203 0.068601 0.8 0 0
0.073586 0.196251 0.082115 0.8 0 0
0.068341 0.480552 0.070670 0.8 0 0
0.055668 0.210630 0.049173 0.8 0 0
0.060865 0.346789 0.075121 0.8 0 0
0.071288 0.608856 0.079320 0.8 0 0
0.084709 0.211624 0.080914 0.8 0 0
0.076178 0.102099 0.072858 0.8 0 0
0.080418 0.205262 0.052890 0.8 0 0
0.030220 0.183104 0.076259 0.8 0 0
0.061941 0.049821 0.069450 0.8 0 0
0.071004 0.252749 0.082991 0.8 0 0
0.090326 0.210438 0.061101 0.8 0 0
0.096507 0.185200 0.057179 0.8 0 0
0.076308 0.129661 0.078131 0.8 0 0
0.070567 0.745203 0.078069 0.8 0 0
0.059386 0.193964 0.037757 0.8 0 0
0.073718 0.236298 0.083179 0.8 0 0
0.068470 0.065119 0.085258 0.8 0 0
0.066327 0.377997 0.082615 0.8 0 0
0.065683 0.039364 0.085058 0.8 0 0
0.068415 0.304161 0.069301 0.8 0 0
0.061020 0.325688 0.078443 0.8 0 0
0.064652 0.151456 0.068618 0.8 0 0
0.043455 0.188924 0.100259 0.8 0 0
0.074440 0.268883 0.072845 0.8 0 0
0.062663 0.205289 0.082406 0.8 0 0
0.047197 0.175541 0.111691 0.8 0 0
0.059995 0.252940 0.076908 0.8 0 0
0.031992 0.184451 0.082335 0.8 0 0
0.065297 0.909060 0.076782 0.8 0 0
0.068051 0.599061 0.081105 0.8 0 0
0.049894 0.174146 0.032079 0.8 0 0
0.063894 0.662133 0.078838 0.8 0 0
0.070432 0.763603 0.077834 0.8 0 0
0.040871 0.190884 0.060315 0.8 0 0
0.072968 0.475397 0.078483 0.8 0 0
0.069446 0.659414 0.072290 0.8 0 0
0.043787 0.174146 0.034873 0.8 0 0
0.065182 0.843582 0.074505 0.8 0 0
0.068502 0.562670 0.071338 0.8 0 0
0.089819 0.193875 0.054591 0.8 0 0
0.049682 0.209061 0.063162 0.8 0 0
0.062685 0.091241 0.069307 0.8 0 0
0.096572 0.182373 0.100193 0.8 0 0
0.081387 0.190618 0.044102 0.8 0 0
0.037512 0.195513 0.082272 0.8 0 0
0.053378 0.219392 0.087624 0.8 0 0
0.073313 0.446520 0.078357 0.8 0 0
0.090391 0.198501 0.060025 0.8 0 0
0.067235 0.962051 0.078452 0.8 0 0
0.066947 0.372580 0.069834 0.8 0 0
0.076127 0.161435 0.077681 0.8 0 0
0.027909 0.174146 0.088230 0.8 0 0
0.068681 0.462770 0.070583 0.8 0 0
0.065538 0.498797 0.071083 0.8 0 0
0.076070 0.172853 0.075085 0.8 0 0
0.070642 0.524811 0.080756 0.8 0 0
0.080085 0.180870 0.037265 0.8 0 0
0.098809 0.183032 0.060328 0.8 0 0
0.097417 0.178143 0.041418 0.8 0 0
0.037650 0.181738 0.056441 0.8 0 0
0.064033 0.686187 0.074213 0.8 0 0
0.098482 0.190771 0.088895 0.8 0 0
0.085167 0.207481 0.084182 0.8 0 0
0.074484 0.087489 0.070338 0.8 0 0
0.062167 0.143185 0.082662 0.8 0 0
0.047900 0.217654 0.078498 0.8 0 0
0.065342 0.884623 0.078060 0.8 0 0
0.057237 0.200607 0.041881 0.8 0 0
0.073458 0.483378 0.076479 0.8 0 0
0.071111 0.293449 0.082560 0.8 0 0
0.068462 0.201627 0.040243 0.8 0 0
0.037170 0.174920 0.104121 0.8 0 0
0.064240 0.192918 0.083329 0.8 0 0
0.067778 0.760382 0.072732 0.8 0 0
0.063343 0.506940 0.072756 0.8 0 0
0.062270 0.095349 0.083112 0.8 0 0
0.073346 0.387486 0.079514 0.8 0 0
0.052093 0.214174 0.064158 0.8 0 0
0.070166 0.411961 0.081914 0.8 0 0
0.069549 0.467127 0.081756 0.8 0 0
0.064699 0.174146 0.027145 0.8 0 0
0.067341 0.224860 0.084070 0.8 0 0
0.061240 0.102942 0.070473 0.8 0 0
0.063649 0.234242 0.065580 0.8 0 0
0.088272 0.216503 0.064974 0.8 0 0
0.058965 0.032131 0.079608 0.8 0 0
0.042181 0.185238 0.091946 0.8 0 0
0.074792 0.309883 0.077574 0.8 0 0
0.052285 0.216387 0.067713 0.8 0 0
0.089824 0.199882 0.094301 0.8 0 0
0.069097 0.263488 0.083451 0.8 0 0
0.069589 0.351501 0.069849 0.8 0 0
0.086194 0.188125 0.098309 0.8 0 0
0.068629 0.811310 0.078940 0.8 0 0
0.061015 0.392512 0.075875 0.8 0 0
0.067474 0.328538 0.083322 0.8 0 0
0.074418 0.218209 0.072105 0.8 0 0
0.051216 0.211913 0.063406 0.8 0 0
0.060925 0.302207 0.078783 0.8 0 0
0.068638 0.059183 0.067544 0.8 0 0
0.064238 0.134751 0.083841 0.8 0 0
0.068660 0.033526 0.085471 0.8 0 0
0.069881 0.879556 0.076440 0.8 0 0
0.031718 0.177127 0.051322 0.8 0 0
0.096537 0.184612 0.046250 0.8 0 0
0.072082 0.171283 0.083148 0.8 0 0
0.061978 0.512906 0.075681 0.8 0 0
0.026925 0.174612 0.081517 0.8 0 0
0.064836 0.385269 0.081960 0.8 0 0
0.058653 0.083198 0.075974 0.8 0 0
0.065913 0.201551 0.083848 0.8 0 0
0.063764 0.194247 0.042851 0.8 0 0
0.090972 0.201064 0.077476 0.8 0 0
0.074281 0.215601 0.089229 0.8 0 0
0.087428 0.186424 0.098505 0.8 0 0
0.076664 0.078972 0.073875 0.8 0 0
0.081812 0.221134 0.057468 0.8 0 0
0.075354 0.060268 0.081593 0.8 0 0
0.071186 0.542382 0.072298 0.8 0 0
0.064421 0.630568 0.079795 0.8 0 0
0.068085 0.459168 0.070464 0.8 0 0
0.047689 0.184952 0.045332 0.8 0 0
0.069871 0.306272 0.069538 0.8 0 0
0.061708 0.197842 0.070986 0.8 0 0
0.087569 0.177371 0.033097 0.8 0 0
0.076429 0.131357 0.075018 0.8 0 0
0.073396 0.343200 0.072451 0.8 0 0
0.074933 0.220534 0.072879 0.8 0 0
0.075831 0.071972 0.071958 0.8 0 0
0.030931 0.182598 0.081589 0.8 0 0
0.068374 0.076671 0.067633 0.8 0 0
0.048138 0.198070 0.046558 0.8 0 0
0.071269 0.264383 0.069815 0.8 0 0
0.064138 0.754631 0.074971 0.8 0 0
0.066820 0.928625 0.074013 0.8 0 0
0.044428 0.199393 0.080155 0.8 0 0
0.060866 0.067948 0.070588 0.8 0 0
0.074534 0.101340 0.082206 0.8 0 0
0.067968 0.572801 0.081329 0.8 0 0
0.070666 0.225861 0.054054 0.8 0 0
0.072425 0.410417 0.072131 0.8 0 0
0.063402 0.351758 0.081565 0.8 0 0
0.040982 0.194319 0.069201 0.8 0 0
0.051443 0.205920 0.095104 0.8 0 0
0.063762 0.220858 0.086839 0.8 0 0
0.056752 0.218679 0.053598 0.8 0 0
0.073861 0.390125 0.078285 0.8 0 0
0.063044 0.620118 0.074767 0.8 0 0
0.044824 0.200303 0.064497 0.8 0 0
0.072370 0.554314 0.078075 0.8 0 0
0.072702 0.403188 0.072398 0.8 0 0
0.060037 0.150499 0.079679 0.8 0 0
0.089027 0.189338 0.102394 0.8 0 0
0.060646 0.326823 0.077085 0.8 0 0
0.063374 0.619166 0.078164 0.8 0 0
0.074544 0.107976 0.082085 0.8 0 0
0.095793 0.185643 0.056432 0.8 0 0
0.037810 0.194965 0.085439 0.8 0 0
0.076778 0.105837 0.075639 0.8 0 0
0.041256 0.176873 0.098545 0.8 0 0
0.074030 0.399217 0.077264 0.8 0 0
0.058854 0.188319 0.040664 0.8 0 0
0.069991 0.437135 0.081779 0.8 0 0
0.092213 0.180419 0.098859 0.8 0 0
0.067435 0.417045 0.082641 0.8 0 0
0.035899 0.179165 0.046419 0.8 0 0
0.102374 0.177842 0.065690 0.8 0 0
0.029126 0.179740 0.064814 0.8 0 0
0.066671 0.162084 0.084362 0.8 0 0
0.064043 0.685633 0.078749 0.8 0 0
0.067734 0.106917 0.067770 0.8 0 0
0.053349 0.206555 0.096093 0.8 0 0
0.066140 0.297988 0.069484 0.8 0 0
0.071054 0.734407 0.075129 0.8 0 0
0.083225 0.205717 0.055248 0.8 0 0
0.065942 0.519034 0.081435 0.8 0 0
0.062288 0.185129 0.112063 0.8 0 0
0.071669 0.228302 0.061511 0.8 0 0
0.069321 0.184212 0.113473 0.8 0 0
0.063625 0.222296 0.086018 0.8 0 0
0.065104 0.135910 0.084131 0.8 0 0
0.069450 0.852685 0.074078 0.8 0 0
0.066299 0.174146 0.027615 0.8 0 0
0.073951 0.214390 0.081340 0.8 0 0
0.069762 0.067879 0.067781 0.8 0 0
0.070880 0.164297 0.083822 0.8 0 0
0.068691 0.716344 0.072570 0.8 0 0
0.059816 0.207368 0.093364 0.8 0 0
0.075452 0.207402 0.044949 0.8 0 0
0.039889 0.182223 0.053226 0.8 0 0
0.073883 0.221580 0.052403 0.8 0 0
0.067707 0.363461 0.069622 0.8 0 0
0.070380 0.830378 0.075675 0.8 0 0
0.060023 0.150333 0.072868 0.8 0 0
0.039384 0.187168 0.048452 0.8 0 0
0.062822 0.510042 0.073618 0.8 0 0
0.071594 0.221040 0.051606 0.8 0 0
0.059433 0.145564 0.077878 0.8 0 0
0.063342 0.483788 0.080437 0.8 0 0
0.065026 0.895867 0.076555 0.8 0 0
0.066024 0.527475 0.071222 0.8 0 0
0.082690 0.222887 0.083709 0.8 0 0
0.069385 0.562813 0.071473 0.8 0 0
0.055039 0.191957 0.044474 0.8 0 0
0.075166 0.060788 0.081868 0.8 0 0
0.061734 0.424977 0.074056 0.8 0 0
0.099389 0.177351 0.043896 0.8 0 0
0.063188 0.646386 0.076880 0.8 0 0
0.073953 0.263192 0.080530 0.8 0 0
0.086325 0.184664 0.100458 0.8 0 0
0.088582 0.200570 0.059055 0.8 0 0
0.074727 0.329050 0.077113 0.8 0 0
0.069592 0.553000 0.080879 0.8 0 0
0.081841 0.198005 0.042274 0.8 0 0
0.040404 0.200734 0.060493 0.8 0 0
0.089402 0.184332 0.098412 0.8 0 0
0.059933 0.073007 0.080656 0.8 0 0
0.038620 0.185546 0.048134 0.8 0 0
0.067870 0.526271 0.070957 0.8 0 0
0.075602 0.216472 0.049970 0.8 0 0
0.065498 0.509899 0.081233 0.8 0 0
0.064701 0.185675 0.106395 0.8 0 0
0.109613 0.174146 0.067511 0.8 0 0
0.065410 0.878516 0.074203 0.8 0 0
0.074057 0.174146 0.116664 0.8 0 0
0.061491 0.403280 0.074360 0.8 0 0
0.093645 0.205159 0.063319 0.8 0 0
0.049512 0.214463 0.058281 0.8 0 0
0.076833 0.241447 0.070683 0.8 0 0
0.067280 0.240614 0.067583 0.8 0 0
0.055115 0.219343 0.064201 0.8 0 0
0.079643 0.186835 0.040449 0.8 0 0
0.065332 0.654446 0.079927 0.8 0 0
0.059027 0.205692 0.044286 0.8 0 0
0.069088 0.215205 0.068770 0.8 0 0
0.058397 0.059050 0.076291 0.8 0 0
0.030062 0.180476 0.082654 0.8 0 0
0.078625 0.185453 0.039466 0.8 0 0
0.076334 0.095933 0.079435 0.8 0 0
0.098755 0.174940 0.093408 0.8 0 0
0.061706 0.108918 0.070103 0.8 0 0
0.058485 0.217081 0.058241 0.8 0 0
0.094559 0.176750 0.098560 0.8 0 0
0.032094 0.174146 0.058670 0.8 0 0
0.069290 0.952771 0.075925 0.8 0 0
0.081815 0.219124 0.078181 0.8 0 0
0.089138 0.182749 0.037739 0.8 0 0
0.092805 0.198404 0.090829 0.8 0 0
0.076163 0.148065 0.078020 0.8 0 0
0.075471 0.198966 0.046208 0.8 0 0
0.084669 0.187318 0.037419 0.8 0 0
0.071039 0.707323 0.074680 0.8 0 0
0.071942 0.072999 0.068389 0.8 0 0
0.088161 0.204981 0.081681 0.8 0 0
0.062796 0.044475 0.068841 0.8 0 0
0.074175 0.346904 0.078653 0.8 0 0
0.086340 0.199211 0.046363 0.8 0 0
0.082273 0.199505 0.043565 0.8 0 0
0.067689 0.202148 0.046337 0.8 0 0
0.070540 0.684832 0.073298 0.8 0 0
0.066746 0.295242 0.069344 0.8 0 0
0.064881 0.117720 0.084220 0.8 0 0
0.070396 0.116847 0.084341 0.8 0 0
0.074113 0.185186 0.071197 0.8 0 0
0.063828 0.284135 0.082332 0.8 0 0
0.067905 0.215439 0.090714 0.8 0 0
0.070047 0.855371 0.075525 0.8 0 0
0.038646 0.176388 0.104857 0.8 0 0
0.061474 0.201143 0.071385 0.8 0 0
0.069445 0.866477 0.078182 0.8 0 0
0.068435 0.686814 0.072300 0.8 0 0
0.060379 0.184224 0.038078 0.8 0 0
0.076940 0.232622 0.061130 0.8 0 0
0.065912 0.222245 0.051884 0.8 0 0
0.059230 0.228836 0.077682 0.8 0 0
0.064531 0.275859 0.069707 0.8 0 0
0.074088 0.309548 0.072960 0.8 0 0
0.075797 0.130237 0.079788 0.8 0 0
0.068468 0.712304 0.072505 0.8 0 0
0.076382 0.126181 0.077944 0.8 0 0
0.079893 0.198776 0.096029 0.8 0 0
0.060125 0.245541 0.075015 0.8 0 0
0.037092 0.174146 0.099510 0.8 0 0
0.093753 0.190971 0.047841 0.8 0 0
0.068194 0.538601 0.081539 0.8 0 0
0.059182 0.174146 0.029088 0.8 0 0
0.074655 0.048638 0.082855 0.8 0 0
0.067985 0.128215 0.084890 0.8 0 0
0.038999 0.186619 0.095774 0.8 0 0
0.067605 0.086035 0.067647 0.8 0 0
0.071459 0.545093 0.080073 0.8 0 0
0.064765 0.227730 0.089175 0.8 0 0
0.069513 0.689937 0.072556 0.8 0 0
0.045486 0.181788 0.044899 0.8 0 0
0.081165 0.221489 0.069095 0.8 0 0
0.069195 0.846676 0.073790 0.8 0 0
0.071873 0.382379 0.071291 0.8 0 0
0.073346 0.208962 0.051241 0.8 0 0
0.090274 0.175350 0.110552 0.8 0 0
0.068581 0.550246 0.071253 0.8 0 0
0.089032 0.204313 0.079219 0.8 0 0
0.038927 0.179550 0.052215 0.8 0 0
0.076852 0.181754 0.107282 0.8 0 0
0.059979 0.191156 0.078571 0.8 0 0
0.068858 0.176934 0.068450 0.8 0 0
0.064054 0.391650 0.070939 0.8 0 0
0.063913 0.705783 0.077705 0.8 0 0
0.059884 0.180527 0.108172 0.8 0 0
0.075770 0.187519 0.039978 0.8 0 0
0.060488 0.261795 0.078399 0.8 0 0
0.086305 0.181206 0.102716 0.8 0 0
0.075131 0.103372 0.071471 0.8 0 0
0.071944 0.495943 0.072738 0.8 0 0
0.073199 0.246328 0.067751 0.8 0 0
