0.106089 0.128216 0.933023 0.8 0 0
0.097431 0.123332 0.924254 0.8 0 0
0.103655 0.112638 0.723554 0.8 0 0
0.106803 0.093419 0.936917 0.8 0 0
0.079058 0.158620 0.822895 0.8 0 0
0.109833 0.103822 0.416363 0.8 0 0
0.117160 0.127573 0.975000 0.8 0 0
0.121965 0.185743 0.826759 0.8 0 0
0.127971 0.111237 0.940165 0.8 0 0
0.171279 0.137989 0.822895 0.8 0 0
0.104092 0.112804 0.418930 0.8 0 0
0.111040 0.115815 0.201989 0.8 0 0
0.105674 0.116204 0.681566 0.8 0 0
0.053185 0.116933 0.822895 0.8 0 0
0.070256 0.121518 0.830717 0.8 0 0
0.081302 0.150410 0.822895 0.8 0 0
0.122798 0.098369 0.918147 0.8 0 0
0.114818 0.035642 0.822895 0.8 0 0
0.112913 0.112724 0.116130 0.8 0 0
0.087863 0.119887 0.831563 0.8 0 0
0.117822 0.113680 0.524837 0.8 0 0
0.116064 0.136267 0.831526 0.8 0 0
0.148170 0.043124 0.826359 0.8 0 0
0.144346 0.057961 0.828820 0.8 0 0
0.127055 0.116671 0.895890 0.8 0 0
0.171119 0.154512 0.822895 0.8 0 0
0.126303 0.118446 0.937130 0.8 0 0
0.126854 0.117145 0.911976 0.8 0 0
0.121223 0.122024 0.950551 0.8 0 0
0.096035 0.121679 0.944712 0.8 0 0
0.120274 0.172128 0.828920 0.8 0 0
0.115803 0.092579 0.961008 0.8 0 0
0.107471 0.109287 0.280897 0.8 0 0
0.118294 0.109233 0.617363 0.8 0 0
0.162243 0.096696 0.822895 0.8 0 0
0.110607 0.118388 0.640286 0.8 0 0
0.109030 0.115068 0.190727 0.8 0 0
0.115171 0.109259 0.188127 0.8 0 0
0.176767 0.129945 0.828062 0.8 0 0
0.159956 0.132606 0.829793 0.8 0 0
0.107373 0.115748 0.245473 0.8 0 0
0.114814 0.135367 0.822895 0.8 0 0
0.123125 0.050865 0.828993 0.8 0 0
0.177793 0.062797 0.822895 0.8 0 0
0.183932 0.102203 0.822895 0.8 0 0
0.095121 0.041095 0.822895 0.8 0 0
0.031232 0.079822 0.822895 0.8 0 0
0.104165 0.140545 0.822895 0.8 0 0
0.074692 0.098806 0.822895 0.8 0 0
0.113609 0.103873 0.674220 0.8 0 0
0.106500 0.105140 0.523970 0.8 0 0
0.108532 0.093206 0.886296 0.8 0 0
0.133134 0.129736 0.822895 0.8 0 0
0.068416 0.037836 0.822895 0.8 0 0
0.068922 0.169308 0.822895 0.8 0 0
0.092543 0.113111 0.833707 0.8 0 0
0.053966 0.125158 0.829324 0.8 0 0
0.104911 0.115359 0.723306 0.8 0 0
0.048811 0.065054 0.822895 0.8 0 0
0.109605 0.104431 0.272064 0.8 0 0
0.180996 0.063763 0.823889 0.8 0 0
0.117573 0.108360 0.263334 0.8 0 0
0.093388 0.188475 0.822895 0.8 0 0
0.084599 0.122644 0.822895 0.8 0 0
0.100114 0.125492 0.822895 0.8 0 0
0.103625 0.109288 0.744512 0.8 0 0
0.068220 0.051818 0.827231 0.8 0 0
0.158332 0.150691 0.828940 0.8 0 0
0.073177 0.089132 0.830631 0.8 0 0
0.065451 0.055501 0.822895 0.8 0 0
0.112982 0.122690 0.822895 0.8 0 0
0.057582 0.051133 0.822895 0.8 0 0
0.120248 0.142064 0.831273 0.8 0 0
0.108981 0.091817 0.961670 0.8 0 0
0.123749 0.122437 0.857491 0.8 0 0
0.082932 0.060943 0.829482 0.8 0 0
0.106845 0.117290 0.773242 0.8 0 0
0.107199 0.182978 0.822895 0.8 0 0
0.151305 0.162356 0.822895 0.8 0 0
0.093371 0.116724 0.873487 0.8 0 0
0.104806 0.130347 0.974939 0.8 0 0
0.121786 0.039040 0.822895 0.8 0 0
0.149151 0.101121 0.830872 0.8 0 0
0.104047 0.112469 0.371384 0.8 0 0
0.117901 0.070524 0.830776 0.8 0 0
0.104023 0.112484 0.393758 0.8 0 0
0.181695 0.084295 0.822895 0.8 0 0
0.058578 0.140343 0.829134 0.8 0 0
0.105690 0.047823 0.828727 0.8 0 0
0.105748 0.105746 0.585500 0.8 0 0
0.092494 0.108773 0.924934 0.8 0 0
0.117900 0.108222 0.556328 0.8 0 0
0.099975 0.049319 0.822895 0.8 0 0
0.094762 0.119806 0.834114 0.8 0 0
0.099034 0.027196 0.823767 0.8 0 0
0.102221 0.123156 0.975000 0.8 0 0
0.107758 0.077808 0.822895 0.8 0 0
0.120410 0.125473 0.930571 0.8 0 0
0.147262 0.147951 0.829945 0.8 0 0
0.033946 0.148334 0.822895 0.8 0 0
0.099353 0.046875 0.822895 0.8 0 0
0.116068 0.108865 0.841056 0.8 0 0
0.086988 0.099704 0.831506 0.8 0 0
0.150492 0.158821 0.828906 0.8 0 0
0.114554 0.104440 0.564400 0.8 0 0
0.118581 0.111980 0.757983 0.8 0 0
0.110671 0.118144 0.440101 0.8 0 0
0.077726 0.104887 0.831198 0.8 0 0
0.090768 0.114882 0.972503 0.8 0 0
0.108276 0.104277 0.417266 0.8 0 0
0.104341 0.107260 0.768462 0.8 0 0
0.108194 0.128615 0.888629 0.8 0 0
0.109266 0.105569 0.233875 0.8 0 0
0.149847 0.112422 0.830897 0.8 0 0
0.102897 0.127136 0.853806 0.8 0 0
0.094676 0.119636 0.897013 0.8 0 0
0.112279 0.108900 0.955411 0.8 0 0
0.097017 0.108959 0.950551 0.8 0 0
0.111786 0.103256 0.825833 0.8 0 0
0.152758 0.081140 0.822895 0.8 0 0
0.066726 0.142801 0.822895 0.8 0 0
0.096650 0.098991 0.953598 0.8 0 0
0.081917 0.096803 0.831282 0.8 0 0
0.108416 0.128626 0.951476 0.8 0 0
0.055356 0.135141 0.829092 0.8 0 0
0.096952 0.065624 0.830350 0.8 0 0
0.111827 0.035858 0.826841 0.8 0 0
0.095456 0.120912 0.925370 0.8 0 0
0.130179 0.040371 0.822895 0.8 0 0
0.113969 0.129144 0.958659 0.8 0 0
0.187063 0.093403 0.826227 0.8 0 0
0.158074 0.104476 0.822895 0.8 0 0
0.072480 0.122170 0.830828 0.8 0 0
0.188348 0.130343 0.822895 0.8 0 0
0.124918 0.108026 0.831878 0.8 0 0
0.100407 0.096022 0.836219 0.8 0 0
0.107039 0.128435 0.900907 0.8 0 0
0.109793 0.131723 0.822895 0.8 0 0
0.135842 0.058638 0.829424 0.8 0 0
0.111316 0.118098 0.416133 0.8 0 0
0.100572 0.112624 0.822895 0.8 0 0
0.104115 0.169803 0.822895 0.8 0 0
0.095429 0.097498 0.971680 0.8 0 0
0.135358 0.184327 0.826441 0.8 0 0
0.149911 0.075062 0.822895 0.8 0 0
0.105806 0.052575 0.829337 0.8 0 0
0.056820 0.172441 0.822895 0.8 0 0
0.119319 0.095651 0.894303 0.8 0 0
0.109904 0.103536 0.636091 0.8 0 0
0.169090 0.119091 0.822895 0.8 0 0
0.091546 0.047690 0.828379 0.8 0 0
0.112104 0.115248 0.185315 0.8 0 0
0.075711 0.150650 0.829835 0.8 0 0
0.113725 0.103787 0.773702 0.8 0 0
0.172483 0.131192 0.828559 0.8 0 0
0.115174 0.028079 0.824765 0.8 0 0
0.125207 0.120426 0.849853 0.8 0 0
0.134360 0.108820 0.831606 0.8 0 0
0.182787 0.155786 0.822895 0.8 0 0
0.105528 0.106507 0.297374 0.8 0 0
0.116881 0.094444 0.907560 0.8 0 0
0.118325 0.111099 0.497117 0.8 0 0
0.074670 0.043444 0.826579 0.8 0 0
0.116343 0.105389 0.802131 0.8 0 0
0.133565 0.173789 0.822895 0.8 0 0
0.180198 0.155308 0.822895 0.8 0 0
0.115819 0.105546 0.419302 0.8 0 0
0.105122 0.106920 0.371649 0.8 0 0
0.110730 0.128745 0.885157 0.8 0 0
0.098398 0.113617 0.955411 0.8 0 0
0.108539 0.104243 0.359542 0.8 0 0
0.105002 0.106712 0.554009 0.8 0 0
0.114402 0.107773 0.194492 0.8 0 0
0.111534 0.103563 0.542026 0.8 0 0
0.059112 0.087229 0.829490 0.8 0 0
0.113543 0.103934 0.608087 0.8 0 0
0.108157 0.093253 0.879972 0.8 0 0
0.105678 0.099373 0.975000 0.8 0 0
0.123581 0.122618 0.864554 0.8 0 0
0.110067 0.103450 0.677937 0.8 0 0
0.113530 0.117819 0.535317 0.8 0 0
0.105198 0.114852 0.276504 0.8 0 0
0.055225 0.090001 0.829219 0.8 0 0
0.112558 0.116491 0.234461 0.8 0 0
0.119349 0.103449 0.975000 0.8 0 0
0.115232 0.104514 0.795528 0.8 0 0
0.113501 0.118878 0.950551 0.8 0 0
0.105353 0.114612 0.272994 0.8 0 0
0.152300 0.110312 0.830760 0.8 0 0
0.104940 0.115418 0.735431 0.8 0 0
0.075837 0.050247 0.822895 0.8 0 0
0.031750 0.111548 0.825831 0.8 0 0
0.108161 0.117419 0.337485 0.8 0 0
0.109681 0.111211 0.071553 0.8 0 0
0.106495 0.105044 0.592050 0.8 0 0
0.195504 0.116014 0.823507 0.8 0 0
0.096022 0.100080 0.839262 0.8 0 0
0.108772 0.117869 0.517421 0.8 0 0
0.102025 0.126767 0.839837 0.8 0 0
0.111257 0.091883 0.960044 0.8 0 0
0.102147 0.108368 0.822895 0.8 0 0
0.104298 0.094125 0.953227 0.8 0 0
0.128452 0.167906 0.822895 0.8 0 0
0.103996 0.113002 0.543707 0.8 0 0
0.148802 0.108085 0.830956 0.8 0 0
0.034080 0.107963 0.822895 0.8 0 0
0.118571 0.121317 0.833087 0.8 0 0
0.105378 0.106211 0.541973 0.8 0 0
0.114780 0.118523 0.831940 0.8 0 0
0.125065 0.132480 0.831529 0.8 0 0
0.113230 0.103580 0.796289 0.8 0 0
0.077967 0.058627 0.822895 0.8 0 0
0.149160 0.094154 0.822895 0.8 0 0
0.118382 0.108940 0.759311 0.8 0 0
0.094484 0.127373 0.831614 0.8 0 0
0.108586 0.114566 0.183277 0.8 0 0
0.192217 0.132328 0.823933 0.8 0 0
0.158655 0.052052 0.822895 0.8 0 0
0.098370 0.037595 0.822895 0.8 0 0
0.132508 0.067959 0.830286 0.8 0 0
0.131227 0.171209 0.828711 0.8 0 0
0.111091 0.103864 0.300631 0.8 0 0
0.123190 0.119552 0.833087 0.8 0 0
0.118629 0.109821 0.815265 0.8 0 0
0.127690 0.114121 0.914130 0.8 0 0
0.113024 0.103455 0.836825 0.8 0 0
0.105643 0.116228 0.713376 0.8 0 0
0.115641 0.105447 0.384660 0.8 0 0
0.117966 0.112813 0.413442 0.8 0 0
0.103788 0.109415 0.587341 0.8 0 0
0.060693 0.157285 0.822895 0.8 0 0
0.112224 0.053907 0.822895 0.8 0 0
0.112505 0.103443 0.767542 0.8 0 0
0.189912 0.103737 0.822895 0.8 0 0
0.112093 0.103435 0.975000 0.8 0 0
0.118366 0.146648 0.822895 0.8 0 0
0.104452 0.113369 0.273282 0.8 0 0
0.110252 0.105837 0.215609 0.8 0 0
0.064550 0.141414 0.829635 0.8 0 0
0.100827 0.126036 0.846175 0.8 0 0
0.103738 0.111181 0.490391 0.8 0 0
0.129298 0.100927 0.831692 0.8 0 0
0.123635 0.099225 0.860444 0.8 0 0
0.090160 0.088780 0.831376 0.8 0 0
0.103911 0.111962 0.424807 0.8 0 0
0.096546 0.033917 0.826072 0.8 0 0
0.117033 0.114693 0.322935 0.8 0 0
0.117991 0.110642 0.950551 0.8 0 0
0.114951 0.112638 0.179724 0.8 0 0
0.095448 0.100966 0.919860 0.8 0 0
0.075038 0.049578 0.822895 0.8 0 0
0.107593 0.122821 0.950551 0.8 0 0
0.188282 0.074648 0.822895 0.8 0 0
0.127819 0.100557 0.822895 0.8 0 0
0.117210 0.115485 0.825142 0.8 0 0
0.069110 0.105817 0.822895 0.8 0 0
0.103952 0.108115 0.761134 0.8 0 0
0.096887 0.030441 0.822895 0.8 0 0
0.111746 0.110929 0.046750 0.8 0 0
0.161004 0.178027 0.822895 0.8 0 0
0.118535 0.126615 0.905417 0.8 0 0
0.067026 0.080158 0.829788 0.8 0 0
0.100724 0.095784 0.920779 0.8 0 0
0.072542 0.179445 0.822895 0.8 0 0
0.130188 0.056843 0.829457 0.8 0 0
0.103839 0.112132 0.501383 0.8 0 0
0.169308 0.108908 0.822895 0.8 0 0
0.117064 0.115391 0.680469 0.8 0 0
0.117430 0.107771 0.362976 0.8 0 0
0.116994 0.106673 0.513526 0.8 0 0
0.170672 0.077114 0.828040 0.8 0 0
0.086694 0.138259 0.831034 0.8 0 0
0.134512 0.182666 0.822895 0.8 0 0
0.158278 0.143313 0.829461 0.8 0 0
0.098401 0.059423 0.829844 0.8 0 0
0.117875 0.112851 0.348726 0.8 0 0
0.118117 0.112972 0.567392 0.8 0 0
0.105173 0.150879 0.822895 0.8 0 0
0.088854 0.173258 0.822895 0.8 0 0
0.122281 0.095493 0.964265 0.8 0 0
0.104061 0.108581 0.540025 0.8 0 0
0.109463 0.104088 0.265299 0.8 0 0
0.185088 0.084617 0.822895 0.8 0 0
0.079800 0.132642 0.830956 0.8 0 0
0.104336 0.108217 0.436560 0.8 0 0
0.116548 0.105943 0.600688 0.8 0 0
0.112961 0.121641 0.950551 0.8 0 0
0.153578 0.084412 0.822895 0.8 0 0
0.118588 0.111771 0.752301 0.8 0 0
0.097146 0.136900 0.822895 0.8 0 0
0.117850 0.114212 0.731803 0.8 0 0
0.083296 0.122032 0.831396 0.8 0 0
0.116592 0.106483 0.350514 0.8 0 0
0.104931 0.115380 0.721607 0.8 0 0
0.105852 0.116552 0.803104 0.8 0 0
0.125924 0.035575 0.826510 0.8 0 0
0.061825 0.157799 0.828152 0.8 0 0
0.118141 0.183289 0.827287 0.8 0 0
0.106859 0.105230 0.297746 0.8 0 0
0.115241 0.104601 0.736440 0.8 0 0
0.167506 0.110083 0.822895 0.8 0 0
0.107801 0.103957 0.813778 0.8 0 0
0.127655 0.114275 0.896383 0.8 0 0
0.108207 0.104450 0.306827 0.8 0 0
0.118148 0.113595 0.740122 0.8 0 0
0.112028 0.103529 0.634144 0.8 0 0
0.156642 0.176933 0.825468 0.8 0 0
0.123450 0.098979 0.946283 0.8 0 0
0.093268 0.116387 0.853515 0.8 0 0
0.104241 0.113908 0.595626 0.8 0 0
0.105998 0.109200 0.822895 0.8 0 0
0.107839 0.120296 0.950551 0.8 0 0
0.124193 0.121961 0.851312 0.8 0 0
0.189440 0.088715 0.825102 0.8 0 0
0.103474 0.111394 0.729165 0.8 0 0
0.104047 0.111684 0.286098 0.8 0 0
0.096877 0.058613 0.822895 0.8 0 0
0.113508 0.111389 0.975000 0.8 0 0
0.121035 0.113746 0.950551 0.8 0 0
0.117606 0.108246 0.316846 0.8 0 0
0.107581 0.128560 0.877052 0.8 0 0
0.112984 0.075042 0.831078 0.8 0 0
0.108893 0.128651 0.855915 0.8 0 0
0.070887 0.112247 0.822895 0.8 0 0
0.041444 0.074850 0.826096 0.8 0 0
0.129738 0.067164 0.822895 0.8 0 0
0.190797 0.130688 0.822895 0.8 0 0
0.115968 0.108946 0.220224 0.8 0 0
0.087856 0.136012 0.831177 0.8 0 0
0.111326 0.110140 0.261033 0.8 0 0
0.106968 0.104874 0.495258 0.8 0 0
0.121598 0.124576 0.907474 0.8 0 0
0.103871 0.113245 0.702879 0.8 0 0
0.170210 0.137093 0.828532 0.8 0 0
0.106207 0.116886 0.819708 0.8 0 0
0.161963 0.090962 0.822895 0.8 0 0
0.113139 0.104621 0.271674 0.8 0 0
0.112688 0.117780 0.308809 0.8 0 0
0.178263 0.133714 0.822895 0.8 0 0
0.118223 0.111545 0.437711 0.8 0 0
0.056602 0.096340 0.829556 0.8 0 0
0.104795 0.092461 0.962990 0.8 0 0
0.103994 0.094930 0.833087 0.8 0 0
0.112453 0.103720 0.534184 0.8 0 0
0.114253 0.104409 0.460935 0.8 0 0
0.096251 0.123555 0.963197 0.8 0 0
0.117533 0.125100 0.950551 0.8 0 0
0.180237 0.094390 0.827595 0.8 0 0
0.181700 0.126553 0.827320 0.8 0 0
0.027066 0.110316 0.824053 0.8 0 0
0.049481 0.130970 0.822895 0.8 0 0
0.115903 0.116387 0.524094 0.8 0 0
0.095957 0.116898 0.975000 0.8 0 0
0.125356 0.063154 0.822895 0.8 0 0
0.107237 0.173422 0.828837 0.8 0 0
0.108728 0.129790 0.822895 0.8 0 0
0.108180 0.099679 0.950551 0.8 0 0
0.115684 0.116197 0.284594 0.8 0 0
0.107686 0.104280 0.603078 0.8 0 0
0.091206 0.175215 0.828216 0.8 0 0
0.127894 0.112710 0.931758 0.8 0 0
0.092373 0.111105 0.917079 0.8 0 0
0.077459 0.188569 0.822895 0.8 0 0
0.171606 0.063298 0.826432 0.8 0 0
0.105310 0.106176 0.604671 0.8 0 0
0.108736 0.117540 0.270627 0.8 0 0
0.093439 0.116944 0.875566 0.8 0 0
0.069428 0.150988 0.829444 0.8 0 0
0.116093 0.162301 0.829972 0.8 0 0
0.105864 0.113928 0.831968 0.8 0 0
0.113645 0.103747 0.782287 0.8 0 0
0.156394 0.166390 0.827514 0.8 0 0
0.091472 0.051338 0.828833 0.8 0 0
0.092492 0.108819 0.859301 0.8 0 0
0.109480 0.118386 0.776340 0.8 0 0
0.117049 0.115535 0.740388 0.8 0 0
0.039834 0.125612 0.827316 0.8 0 0
0.098085 0.062721 0.830122 0.8 0 0
0.103698 0.124850 0.950551 0.8 0 0
0.078362 0.184827 0.825404 0.8 0 0
0.100384 0.068975 0.822895 0.8 0 0
0.091883 0.118794 0.973437 0.8 0 0
0.109679 0.059451 0.822895 0.8 0 0
0.098626 0.096653 0.955839 0.8 0 0
0.178554 0.154655 0.822895 0.8 0 0
0.125477 0.057003 0.822895 0.8 0 0
0.106512 0.116762 0.576685 0.8 0 0
0.117118 0.107108 0.391581 0.8 0 0
0.082893 0.090765 0.822895 0.8 0 0
0.117592 0.110121 0.268675 0.8 0 0
0.117860 0.107592 0.746530 0.8 0 0
0.084685 0.134076 0.831123 0.8 0 0
0.105304 0.106446 0.478637 0.8 0 0
0.146526 0.066564 0.822895 0.8 0 0
0.140851 0.084671 0.822895 0.8 0 0
0.108038 0.114230 0.186393 0.8 0 0
0.113583 0.117727 0.481965 0.8 0 0
0.033270 0.137048 0.824955 0.8 0 0
0.046279 0.069496 0.826502 0.8 0 0
0.116648 0.026201 0.823533 0.8 0 0
0.086654 0.030586 0.822895 0.8 0 0
0.042819 0.161614 0.823410 0.8 0 0
0.105465 0.103298 0.975000 0.8 0 0
0.114704 0.104470 0.605804 0.8 0 0
0.116955 0.115141 0.486886 0.8 0 0
0.054971 0.126102 0.822895 0.8 0 0
0.070722 0.118302 0.822895 0.8 0 0
0.144770 0.065854 0.822895 0.8 0 0
0.116492 0.116093 0.686452 0.8 0 0
0.126038 0.102868 0.869440 0.8 0 0
0.129679 0.114387 0.966479 0.8 0 0
0.101652 0.187374 0.826455 0.8 0 0
0.105808 0.093662 0.851327 0.8 0 0
0.185450 0.106680 0.822895 0.8 0 0
0.074884 0.060728 0.828915 0.8 0 0
0.154105 0.107702 0.822895 0.8 0 0
0.068861 0.142386 0.822895 0.8 0 0
0.039163 0.065500 0.822895 0.8 0 0
0.107384 0.128514 0.900078 0.8 0 0
0.122949 0.123297 0.874170 0.8 0 0
0.067036 0.062237 0.822895 0.8 0 0
0.109159 0.118122 0.606300 0.8 0 0
0.058405 0.082888 0.822895 0.8 0 0
0.118014 0.108849 0.490939 0.8 0 0
0.056607 0.156042 0.827657 0.8 0 0
0.147920 0.160842 0.822895 0.8 0 0
0.134564 0.132919 0.831285 0.8 0 0
0.117136 0.114473 0.286824 0.8 0 0
0.136141 0.154911 0.830061 0.8 0 0
0.167063 0.139311 0.828784 0.8 0 0
0.104297 0.108371 0.412610 0.8 0 0
0.106043 0.128206 0.940605 0.8 0 0
0.063532 0.101871 0.830265 0.8 0 0
0.146806 0.076283 0.822895 0.8 0 0
0.128558 0.155083 0.822895 0.8 0 0
0.066393 0.119339 0.822895 0.8 0 0
0.089800 0.032543 0.825213 0.8 0 0
0.111338 0.114794 0.163581 0.8 0 0
0.123189 0.098733 0.905506 0.8 0 0
0.107292 0.104912 0.321094 0.8 0 0
0.149922 0.062449 0.828866 0.8 0 0
0.133621 0.089490 0.831351 0.8 0 0
0.051286 0.056968 0.822895 0.8 0 0
0.033791 0.123798 0.822895 0.8 0 0
0.084871 0.045035 0.822895 0.8 0 0
0.115533 0.156300 0.822895 0.8 0 0
0.118654 0.110587 0.760621 0.8 0 0
0.071492 0.167273 0.822895 0.8 0 0
0.109329 0.118139 0.593909 0.8 0 0
0.109153 0.104034 0.362816 0.8 0 0
0.107064 0.095844 0.950551 0.8 0 0
0.054308 0.135706 0.828939 0.8 0 0
0.038719 0.085509 0.822895 0.8 0 0
0.062165 0.044143 0.822895 0.8 0 0
0.117277 0.106623 0.721855 0.8 0 0
0.114184 0.103981 0.749699 0.8 0 0
0.106519 0.104781 0.763435 0.8 0 0
0.171246 0.110214 0.829124 0.8 0 0
0.123884 0.055062 0.822895 0.8 0 0
0.195412 0.112580 0.822895 0.8 0 0
0.091547 0.058276 0.822895 0.8 0 0
0.037547 0.069762 0.824041 0.8 0 0
0.108022 0.117061 0.831958 0.8 0 0
0.111871 0.097566 0.822895 0.8 0 0
0.109982 0.103314 0.803246 0.8 0 0
0.111428 0.118226 0.524342 0.8 0 0
0.056299 0.139229 0.822895 0.8 0 0
0.093902 0.099259 0.972966 0.8 0 0
0.116830 0.115452 0.552700 0.8 0 0
0.145241 0.092051 0.822895 0.8 0 0
0.073344 0.115718 0.830954 0.8 0 0
0.117041 0.115100 0.524660 0.8 0 0
0.074542 0.180174 0.826090 0.8 0 0
0.118592 0.094101 0.956961 0.8 0 0
0.116273 0.106513 0.278562 0.8 0 0
0.157320 0.084298 0.829805 0.8 0 0
0.101596 0.126536 0.936200 0.8 0 0
0.104209 0.183366 0.827275 0.8 0 0
0.150461 0.068532 0.822895 0.8 0 0
0.111031 0.103235 0.822947 0.8 0 0
0.111671 0.092315 0.956470 0.8 0 0
0.104719 0.107760 0.308862 0.8 0 0
0.084651 0.153792 0.822895 0.8 0 0
0.107853 0.104267 0.559762 0.8 0 0
0.185134 0.121069 0.822895 0.8 0 0
0.120115 0.096166 0.872920 0.8 0 0
0.109597 0.128687 0.905547 0.8 0 0
0.098831 0.097028 0.831774 0.8 0 0
0.090328 0.109905 0.973013 0.8 0 0
0.049148 0.166155 0.822895 0.8 0 0
0.085829 0.041812 0.827137 0.8 0 0
0.105788 0.106116 0.341079 0.8 0 0
0.119131 0.100358 0.833087 0.8 0 0
0.117547 0.107271 0.642446 0.8 0 0
0.094085 0.103343 0.943652 0.8 0 0
0.137380 0.058680 0.822895 0.8 0 0
0.092595 0.113534 0.870964 0.8 0 0
0.108891 0.103707 0.673636 0.8 0 0
0.108423 0.103929 0.636941 0.8 0 0
0.092897 0.115178 0.840654 0.8 0 0
0.117631 0.106975 0.818540 0.8 0 0
0.106229 0.105033 0.735485 0.8 0 0
0.117242 0.115202 0.709180 0.8 0 0
0.073849 0.089729 0.830683 0.8 0 0
0.104526 0.127826 0.917583 0.8 0 0
0.101083 0.053753 0.822895 0.8 0 0
0.030452 0.136867 0.823568 0.8 0 0
0.118472 0.109590 0.709464 0.8 0 0
0.117871 0.107587 0.756974 0.8 0 0
0.032450 0.109122 0.826004 0.8 0 0
0.133395 0.150938 0.822895 0.8 0 0
0.077215 0.123350 0.822895 0.8 0 0
0.118707 0.110299 0.832577 0.8 0 0
0.106529 0.025537 0.822895 0.8 0 0
0.116032 0.105182 0.762780 0.8 0 0
0.151912 0.179999 0.825501 0.8 0 0
0.086253 0.085197 0.831085 0.8 0 0
0.085962 0.070342 0.822895 0.8 0 0
0.113522 0.117496 0.285992 0.8 0 0
0.114565 0.110687 0.153249 0.8 0 0
0.111939 0.118208 0.525917 0.8 0 0
0.121176 0.104209 0.975000 0.8 0 0
0.085022 0.168157 0.822895 0.8 0 0
0.109235 0.096621 0.955411 0.8 0 0
0.108978 0.118331 0.819549 0.8 0 0
0.125475 0.101764 0.883925 0.8 0 0
0.118179 0.109746 0.452987 0.8 0 0
0.176651 0.115128 0.828398 0.8 0 0
0.110370 0.183022 0.822895 0.8 0 0
0.095442 0.120893 0.902184 0.8 0 0
0.105547 0.115754 0.515898 0.8 0 0
0.104179 0.109007 0.356886 0.8 0 0
0.127949 0.111659 0.906720 0.8 0 0
0.105835 0.093654 0.949576 0.8 0 0
0.115592 0.105121 0.562347 0.8 0 0
0.078349 0.127093 0.822895 0.8 0 0
0.120962 0.125056 0.871635 0.8 0 0
0.094831 0.119941 0.883817 0.8 0 0
0.070769 0.155389 0.829156 0.8 0 0
0.118325 0.115359 0.833087 0.8 0 0
0.117953 0.113315 0.506463 0.8 0 0
0.126442 0.118118 0.857065 0.8 0 0
0.175422 0.121051 0.822895 0.8 0 0
0.150797 0.092887 0.830624 0.8 0 0
0.119644 0.095861 0.948348 0.8 0 0
0.085413 0.112994 0.831535 0.8 0 0
0.117042 0.106987 0.383739 0.8 0 0
0.035972 0.127329 0.826550 0.8 0 0
0.130671 0.159397 0.829904 0.8 0 0
0.100296 0.089180 0.822895 0.8 0 0
0.105460 0.172511 0.822895 0.8 0 0
0.129798 0.032285 0.822895 0.8 0 0
0.094262 0.119293 0.955468 0.8 0 0
0.128379 0.038266 0.822895 0.8 0 0
0.172203 0.159511 0.826150 0.8 0 0
0.088639 0.070774 0.822895 0.8 0 0
0.133799 0.150411 0.830506 0.8 0 0
0.111596 0.030370 0.825413 0.8 0 0
0.087245 0.115538 0.822895 0.8 0 0
0.175936 0.151759 0.822895 0.8 0 0
0.104069 0.112346 0.332972 0.8 0 0
0.109557 0.118259 0.662130 0.8 0 0
0.191933 0.086433 0.823585 0.8 0 0
0.124304 0.103857 0.955411 0.8 0 0
0.028977 0.114839 0.825010 0.8 0 0
0.106933 0.128411 0.887998 0.8 0 0
0.115934 0.113912 0.234196 0.8 0 0
0.117175 0.114523 0.336919 0.8 0 0
0.114213 0.076569 0.831155 0.8 0 0
0.116039 0.125669 0.831864 0.8 0 0
0.070270 0.130715 0.830530 0.8 0 0
0.142268 0.169356 0.822895 0.8 0 0
0.131359 0.175422 0.828191 0.8 0 0
0.146947 0.144731 0.830167 0.8 0 0
0.142954 0.150762 0.822895 0.8 0 0
0.134357 0.171709 0.822895 0.8 0 0
0.105062 0.106447 0.641189 0.8 0 0
0.068568 0.124823 0.822895 0.8 0 0
0.190740 0.128799 0.825024 0.8 0 0
0.168842 0.097515 0.829251 0.8 0 0
0.106428 0.115307 0.257203 0.8 0 0
0.156519 0.103385 0.830449 0.8 0 0
0.101690 0.111093 0.950551 0.8 0 0
0.151356 0.151060 0.829496 0.8 0 0
0.115743 0.116506 0.503437 0.8 0 0
0.081340 0.030858 0.822895 0.8 0 0
0.104931 0.110444 0.250604 0.8 0 0
0.142451 0.105872 0.831306 0.8 0 0
0.107803 0.115382 0.224910 0.8 0 0
0.137150 0.040505 0.822895 0.8 0 0
0.080237 0.184685 0.822895 0.8 0 0
0.133217 0.030138 0.824168 0.8 0 0
0.112905 0.103950 0.416806 0.8 0 0
0.097954 0.091233 0.831602 0.8 0 0
0.103281 0.094479 0.929268 0.8 0 0
0.150428 0.182585 0.822895 0.8 0 0
0.116312 0.105831 0.507614 0.8 0 0
0.099737 0.096528 0.844798 0.8 0 0
0.107450 0.117699 0.812663 0.8 0 0
0.116049 0.113091 0.261033 0.8 0 0
0.110933 0.114261 0.143534 0.8 0 0
0.115574 0.105446 0.348797 0.8 0 0
0.108632 0.093407 0.831802 0.8 0 0
0.113430 0.103930 0.579216 0.8 0 0
0.106796 0.030705 0.822895 0.8 0 0
0.115369 0.128460 0.955655 0.8 0 0
0.051866 0.140931 0.828342 0.8 0 0
0.093319 0.116553 0.898981 0.8 0 0
0.107066 0.104608 0.634268 0.8 0 0
0.040012 0.077241 0.822895 0.8 0 0
0.110274 0.118346 0.639596 0.8 0 0
0.148554 0.044292 0.822895 0.8 0 0
0.114048 0.130594 0.972111 0.8 0 0
0.108140 0.112180 0.137677 0.8 0 0
0.103552 0.112017 0.726386 0.8 0 0
0.121549 0.105206 0.831902 0.8 0 0
0.108422 0.093220 0.936577 0.8 0 0
0.105345 0.115483 0.506286 0.8 0 0
0.149139 0.150334 0.829679 0.8 0 0
0.103790 0.113503 0.950551 0.8 0 0
0.079951 0.046261 0.827466 0.8 0 0
0.112661 0.103542 0.706702 0.8 0 0
0.190237 0.094467 0.822895 0.8 0 0
0.133850 0.114199 0.831620 0.8 0 0
0.114898 0.109512 0.174897 0.8 0 0
0.111096 0.118510 0.752584 0.8 0 0
0.115930 0.105692 0.387811 0.8 0 0
0.109572 0.103458 0.757505 0.8 0 0
0.134838 0.117330 0.831564 0.8 0 0
0.057872 0.047662 0.822895 0.8 0 0
0.060418 0.163669 0.822895 0.8 0 0
0.031188 0.119797 0.825475 0.8 0 0
0.107290 0.116645 0.275469 0.8 0 0
0.112946 0.061160 0.830141 0.8 0 0
0.104091 0.091585 0.972643 0.8 0 0
0.170868 0.122115 0.822895 0.8 0 0
0.076985 0.183058 0.822895 0.8 0 0
0.185988 0.134393 0.822895 0.8 0 0
0.102323 0.101484 0.950551 0.8 0 0
0.144271 0.186731 0.822895 0.8 0 0
0.115254 0.107376 0.228385 0.8 0 0
0.093802 0.102488 0.975000 0.8 0 0
0.115428 0.127903 0.839370 0.8 0 0
0.097792 0.027885 0.822895 0.8 0 0
0.105875 0.045514 0.828431 0.8 0 0
0.180312 0.096730 0.822895 0.8 0 0
0.109455 0.111887 0.088445 0.8 0 0
0.184936 0.089258 0.826447 0.8 0 0
0.094637 0.119560 0.836204 0.8 0 0
0.107680 0.028775 0.822895 0.8 0 0
0.106879 0.104812 0.578402 0.8 0 0
0.111306 0.118343 0.619151 0.8 0 0
0.066351 0.071216 0.829196 0.8 0 0
0.056574 0.104292 0.829697 0.8 0 0
0.133162 0.144062 0.830839 0.8 0 0
0.139234 0.136764 0.830934 0.8 0 0
0.074827 0.096326 0.830894 0.8 0 0
0.084605 0.051843 0.828543 0.8 0 0
0.100994 0.110116 0.955411 0.8 0 0
0.053942 0.090896 0.829116 0.8 0 0
0.103058 0.127204 0.919039 0.8 0 0
0.076173 0.089131 0.822895 0.8 0 0
0.105561 0.115806 0.533759 0.8 0 0
0.119609 0.053877 0.829430 0.8 0 0
0.115897 0.105559 0.453819 0.8 0 0
0.078749 0.031999 0.823175 0.8 0 0
0.117857 0.137761 0.822895 0.8 0 0
0.125988 0.102770 0.882656 0.8 0 0
0.084258 0.102372 0.822895 0.8 0 0
0.098309 0.124149 0.887811 0.8 0 0
0.108170 0.077161 0.831191 0.8 0 0
0.112199 0.103960 0.304189 0.8 0 0
0.106495 0.103194 0.831936 0.8 0 0
0.069719 0.069016 0.829299 0.8 0 0
0.119141 0.124569 0.975000 0.8 0 0
0.096411 0.096799 0.969599 0.8 0 0
0.127913 0.112362 0.926490 0.8 0 0
0.118044 0.111655 0.296223 0.8 0 0
0.187302 0.137097 0.825441 0.8 0 0
0.074617 0.046822 0.827125 0.8 0 0
0.103946 0.109158 0.513420 0.8 0 0
0.193612 0.126130 0.823996 0.8 0 0
0.132410 0.130345 0.822895 0.8 0 0
0.116404 0.105943 0.507526 0.8 0 0
0.031149 0.115093 0.822895 0.8 0 0
0.115092 0.105149 0.282045 0.8 0 0
0.118417 0.158025 0.830322 0.8 0 0
0.053525 0.170507 0.822895 0.8 0 0
0.108683 0.035243 0.822895 0.8 0 0
0.051427 0.070307 0.827388 0.8 0 0
0.126422 0.101809 0.954660 0.8 0 0
0.167750 0.055682 0.825874 0.8 0 0
0.098480 0.173384 0.828680 0.8 0 0
0.117228 0.109195 0.262505 0.8 0 0
0.052069 0.098028 0.829109 0.8 0 0
0.108432 0.103660 0.839445 0.8 0 0
0.068476 0.089059 0.830311 0.8 0 0
0.118561 0.122376 0.950551 0.8 0 0
0.110920 0.116777 0.238186 0.8 0 0
0.115912 0.117264 0.955411 0.8 0 0
0.127992 0.110051 0.879240 0.8 0 0
0.124953 0.120818 0.917344 0.8 0 0
0.126774 0.166095 0.822895 0.8 0 0
0.114012 0.104084 0.621841 0.8 0 0
0.156118 0.157607 0.828509 0.8 0 0
0.042746 0.059643 0.823138 0.8 0 0
0.102100 0.125574 0.831817 0.8 0 0
0.118139 0.090979 0.831682 0.8 0 0
0.111002 0.114199 0.141207 0.8 0 0
0.095483 0.120948 0.932508 0.8 0 0
0.128700 0.110574 0.975000 0.8 0 0
0.104021 0.108781 0.530343 0.8 0 0
0.173698 0.081758 0.822895 0.8 0 0
0.131585 0.029169 0.822895 0.8 0 0
0.113289 0.108689 0.280897 0.8 0 0
0.086734 0.086708 0.831167 0.8 0 0
0.117368 0.114498 0.470494 0.8 0 0
0.127475 0.106662 0.906940 0.8 0 0
0.103514 0.111610 0.717305 0.8 0 0
0.082126 0.144664 0.822895 0.8 0 0
0.125592 0.163554 0.829705 0.8 0 0
0.096385 0.059526 0.822895 0.8 0 0
0.113293 0.128445 0.890813 0.8 0 0
0.101884 0.095192 0.869134 0.8 0 0
0.164345 0.158535 0.822895 0.8 0 0
0.154098 0.057897 0.822895 0.8 0 0
0.109747 0.108181 0.135670 0.8 0 0
0.095132 0.099754 0.960708 0.8 0 0
0.168265 0.137223 0.822895 0.8 0 0
0.102433 0.072910 0.822895 0.8 0 0
0.159163 0.107361 0.822895 0.8 0 0
0.104284 0.113565 0.454740 0.8 0 0
0.114725 0.116877 0.267423 0.8 0 0
0.107146 0.104644 0.572985 0.8 0 0
0.097431 0.123332 0.860339 0.8 0 0
0.144489 0.148235 0.830100 0.8 0 0
0.067720 0.122398 0.830561 0.8 0 0
0.103618 0.112684 0.764126 0.8 0 0
0.126164 0.055665 0.829474 0.8 0 0
0.094805 0.121784 0.962844 0.8 0 0
0.115465 0.116526 0.360940 0.8 0 0
0.094565 0.191918 0.824789 0.8 0 0
0.123131 0.123101 0.840154 0.8 0 0
0.107755 0.104269 0.590067 0.8 0 0
0.118381 0.109799 0.613539 0.8 0 0
0.111025 0.108583 0.110125 0.8 0 0
0.103500 0.109766 0.755062 0.8 0 0
0.149432 0.079383 0.830132 0.8 0 0
0.096991 0.125882 0.973595 0.8 0 0
0.183888 0.081081 0.822895 0.8 0 0
0.108446 0.118075 0.768728 0.8 0 0
0.178099 0.144244 0.826854 0.8 0 0
0.116221 0.116508 0.779508 0.8 0 0
0.108963 0.093153 0.955400 0.8 0 0
0.122489 0.101370 0.950551 0.8 0 0
0.110803 0.118041 0.357612 0.8 0 0
0.111537 0.105534 0.224894 0.8 0 0
0.098783 0.150902 0.822895 0.8 0 0
0.089754 0.060498 0.829694 0.8 0 0
0.061224 0.125163 0.829959 0.8 0 0
0.051382 0.128814 0.822895 0.8 0 0
0.096578 0.122399 0.864401 0.8 0 0
0.153490 0.172255 0.822895 0.8 0 0
0.105144 0.115719 0.758780 0.8 0 0
0.145776 0.109726 0.822895 0.8 0 0
0.116813 0.119585 0.822895 0.8 0 0
0.085340 0.150771 0.822895 0.8 0 0
0.094416 0.119126 0.856826 0.8 0 0
0.127918 0.103630 0.959724 0.8 0 0
0.123670 0.126023 0.971845 0.8 0 0
0.117749 0.107622 0.654146 0.8 0 0
0.043579 0.121330 0.822895 0.8 0 0
0.091031 0.041897 0.827453 0.8 0 0
0.118182 0.110389 0.392696 0.8 0 0
0.038244 0.093809 0.822895 0.8 0 0
0.026776 0.117347 0.822895 0.8 0 0
0.094897 0.152417 0.830573 0.8 0 0
0.103719 0.111978 0.584934 0.8 0 0
0.144471 0.039383 0.825926 0.8 0 0
0.179451 0.129306 0.822895 0.8 0 0
0.118168 0.110416 0.378447 0.8 0 0
0.109605 0.027923 0.824576 0.8 0 0
0.103918 0.195465 0.823512 0.8 0 0
0.120658 0.089533 0.822895 0.8 0 0
0.148125 0.152868 0.829583 0.8 0 0
0.104603 0.114164 0.430099 0.8 0 0
0.076391 0.124765 0.822895 0.8 0 0
0.175541 0.107206 0.822895 0.8 0 0
0.131930 0.047935 0.822895 0.8 0 0
0.106407 0.116980 0.770587 0.8 0 0
0.119205 0.095576 0.885079 0.8 0 0
0.123907 0.122267 0.855934 0.8 0 0
0.104209 0.113612 0.525882 0.8 0 0
0.119269 0.072141 0.830858 0.8 0 0
0.109514 0.103520 0.716951 0.8 0 0
0.140156 0.174170 0.822895 0.8 0 0
0.129706 0.109094 0.963804 0.8 0 0
0.131159 0.166353 0.829286 0.8 0 0
0.105619 0.109341 0.232923 0.8 0 0
0.066335 0.106813 0.822895 0.8 0 0
0.105601 0.108446 0.245543 0.8 0 0
0.116852 0.110290 0.240365 0.8 0 0
0.050210 0.066198 0.822895 0.8 0 0
0.100756 0.045017 0.828308 0.8 0 0
0.052069 0.147962 0.822895 0.8 0 0
0.112606 0.036702 0.827006 0.8 0 0
0.116608 0.115777 0.564506 0.8 0 0
0.118316 0.113304 0.795811 0.8 0 0
0.046285 0.083688 0.827749 0.8 0 0
0.067868 0.102526 0.830608 0.8 0 0
0.070517 0.147842 0.822895 0.8 0 0
0.101403 0.095438 0.872490 0.8 0 0
0.112588 0.103569 0.675105 0.8 0 0
0.062576 0.153161 0.828605 0.8 0 0
0.039118 0.068057 0.824275 0.8 0 0
0.163018 0.154039 0.828201 0.8 0 0
0.158903 0.115252 0.830277 0.8 0 0
0.095163 0.032112 0.822895 0.8 0 0
0.064742 0.039662 0.822895 0.8 0 0
0.098332 0.124170 0.859768 0.8 0 0
0.110938 0.121337 0.950551 0.8 0 0
0.092964 0.061292 0.822895 0.8 0 0
0.095238 0.102973 0.833087 0.8 0 0
0.148762 0.148570 0.822895 0.8 0 0
0.147958 0.125368 0.830852 0.8 0 0
0.133587 0.057576 0.829421 0.8 0 0
0.114218 0.169126 0.822895 0.8 0 0
0.110028 0.105450 0.231470 0.8 0 0
0.109327 0.110100 0.092264 0.8 0 0
0.147185 0.064560 0.822895 0.8 0 0
0.105137 0.106109 0.753788 0.8 0 0
0.116974 0.115501 0.673335 0.8 0 0
0.111756 0.110580 0.050920 0.8 0 0
0.092972 0.106443 0.854239 0.8 0 0
0.164669 0.079580 0.822895 0.8 0 0
0.117228 0.088318 0.822895 0.8 0 0
0.104562 0.106850 0.784376 0.8 0 0
0.173658 0.064391 0.826162 0.8 0 0
0.125626 0.104587 0.950551 0.8 0 0
0.095401 0.135311 0.822895 0.8 0 0
0.122809 0.098379 0.909225 0.8 0 0
0.122419 0.112548 0.833087 0.8 0 0
0.124746 0.177916 0.822895 0.8 0 0
0.120499 0.074813 0.822895 0.8 0 0
0.113253 0.114164 0.165823 0.8 0 0
0.054818 0.059150 0.826591 0.8 0 0
0.111135 0.103648 0.478867 0.8 0 0
0.113422 0.104402 0.261033 0.8 0 0
0.101153 0.126248 0.928768 0.8 0 0
0.114422 0.104075 0.770339 0.8 0 0
0.110456 0.128731 0.861470 0.8 0 0
0.029452 0.095283 0.824624 0.8 0 0
0.093845 0.169137 0.829063 0.8 0 0
0.173755 0.129112 0.828463 0.8 0 0
0.060603 0.133152 0.822895 0.8 0 0
0.117497 0.170684 0.829147 0.8 0 0
0.113060 0.093923 0.955411 0.8 0 0
0.118015 0.189141 0.822895 0.8 0 0
0.127237 0.116089 0.908937 0.8 0 0
0.108883 0.103982 0.451536 0.8 0 0
0.103012 0.097274 0.955411 0.8 0 0
0.186114 0.073259 0.823940 0.8 0 0
0.115027 0.105046 0.328493 0.8 0 0
0.118174 0.110527 0.372552 0.8 0 0
0.109091 0.185099 0.827013 0.8 0 0
0.089497 0.123179 0.822895 0.8 0 0
0.119280 0.126235 0.911505 0.8 0 0
0.118747 0.095279 0.839560 0.8 0 0
0.109238 0.105295 0.243848 0.8 0 0
0.067897 0.113678 0.822895 0.8 0 0
0.182319 0.145992 0.822895 0.8 0 0
0.125561 0.101933 0.862377 0.8 0 0
0.117425 0.094675 0.846437 0.8 0 0
0.063066 0.082144 0.822895 0.8 0 0
0.113996 0.128342 0.937257 0.8 0 0
0.112153 0.117910 0.321448 0.8 0 0
0.124153 0.099911 0.848598 0.8 0 0
0.032013 0.088808 0.824965 0.8 0 0
0.055699 0.077223 0.822895 0.8 0 0
0.041157 0.157320 0.824236 0.8 0 0
0.126639 0.080737 0.831183 0.8 0 0
0.049245 0.112612 0.822895 0.8 0 0
0.115822 0.105230 0.619186 0.8 0 0
0.110345 0.118392 0.668166 0.8 0 0
0.103414 0.111637 0.955411 0.8 0 0
0.109072 0.117823 0.397635 0.8 0 0
0.115205 0.117118 0.652730 0.8 0 0
0.113083 0.128471 0.933602 0.8 0 0
0.113590 0.156687 0.822895 0.8 0 0
0.060964 0.086778 0.822895 0.8 0 0
0.076119 0.076129 0.822895 0.8 0 0
0.116687 0.094362 0.872640 0.8 0 0
0.041665 0.128305 0.827539 0.8 0 0
0.166085 0.052901 0.825588 0.8 0 0
0.107934 0.117475 0.450633 0.8 0 0
0.107994 0.105200 0.265129 0.8 0 0
0.139347 0.133896 0.822895 0.8 0 0
0.112115 0.123307 0.975000 0.8 0 0
0.110648 0.105471 0.227269 0.8 0 0
0.127055 0.116671 0.954205 0.8 0 0
0.109876 0.109658 0.086110 0.8 0 0
0.104068 0.109750 0.292329 0.8 0 0
0.092139 0.117348 0.966597 0.8 0 0
0.108975 0.120983 0.831921 0.8 0 0
0.114316 0.104440 0.465449 0.8 0 0
0.150584 0.036028 0.823507 0.8 0 0
0.104066 0.157905 0.830330 0.8 0 0
0.116756 0.068196 0.830652 0.8 0 0
0.111654 0.109214 0.090312 0.8 0 0
0.110610 0.118111 0.411088 0.8 0 0
0.104377 0.114994 0.975000 0.8 0 0
0.096450 0.125036 0.970885 0.8 0 0
0.112039 0.093209 0.854060 0.8 0 0
0.118267 0.110711 0.430949 0.8 0 0
0.092186 0.175448 0.822895 0.8 0 0
0.117426 0.107866 0.322917 0.8 0 0
0.104624 0.113007 0.272978 0.8 0 0
0.121961 0.194711 0.822895 0.8 0 0
0.116129 0.093040 0.831769 0.8 0 0
0.116700 0.127513 0.930033 0.8 0 0
0.091252 0.109379 0.831729 0.8 0 0
0.107859 0.128598 0.898208 0.8 0 0
0.112370 0.103520 0.687089 0.8 0 0
0.105227 0.128018 0.873894 0.8 0 0
0.137620 0.051936 0.828572 0.8 0 0
0.104086 0.112691 0.395883 0.8 0 0
0.089699 0.093037 0.822895 0.8 0 0
0.124736 0.100683 0.845742 0.8 0 0
0.086255 0.076313 0.830687 0.8 0 0
0.113700 0.118032 0.752867 0.8 0 0
0.186485 0.073744 0.823882 0.8 0 0
0.106480 0.112574 0.201325 0.8 0 0
0.097124 0.137495 0.831390 0.8 0 0
0.103352 0.110812 0.819513 0.8 0 0
0.118221 0.108854 0.653580 0.8 0 0
0.055821 0.122702 0.829560 0.8 0 0
0.062831 0.146159 0.829200 0.8 0 0
0.104165 0.046613 0.822895 0.8 0 0
0.075122 0.165373 0.828497 0.8 0 0
0.143702 0.070477 0.822895 0.8 0 0
0.109333 0.103781 0.536520 0.8 0 0
0.066395 0.072762 0.822895 0.8 0 0
0.116416 0.105803 0.588173 0.8 0 0
0.151961 0.117509 0.830752 0.8 0 0
0.111021 0.073954 0.831012 0.8 0 0
0.097127 0.098850 0.939146 0.8 0 0
0.116649 0.108629 0.950551 0.8 0 0
0.131044 0.088449 0.822895 0.8 0 0
0.105248 0.106305 0.584562 0.8 0 0
0.106528 0.116667 0.508428 0.8 0 0
0.111567 0.103909 0.263069 0.8 0 0
0.092591 0.108095 0.906820 0.8 0 0
0.112032 0.114663 0.163191 0.8 0 0
0.049954 0.170675 0.823269 0.8 0 0
0.112172 0.108641 0.117450 0.8 0 0
0.100414 0.105100 0.950551 0.8 0 0
0.106913 0.109919 0.180138 0.8 0 0
0.093519 0.102742 0.959520 0.8 0 0
0.121789 0.100030 0.822895 0.8 0 0
0.142610 0.085459 0.830797 0.8 0 0
0.125947 0.068760 0.830557 0.8 0 0
0.136569 0.054899 0.822895 0.8 0 0
0.111488 0.118528 0.775986 0.8 0 0
0.114366 0.117550 0.597042 0.8 0 0
0.104277 0.108407 0.414752 0.8 0 0
0.188969 0.126959 0.825675 0.8 0 0
0.107988 0.096834 0.822895 0.8 0 0
0.045931 0.143742 0.827248 0.8 0 0
0.185715 0.145770 0.822895 0.8 0 0
0.127982 0.111030 0.876996 0.8 0 0
0.126368 0.082202 0.822895 0.8 0 0
0.065224 0.047973 0.826227 0.8 0 0
0.099031 0.125430 0.958225 0.8 0 0
0.074540 0.063603 0.829196 0.8 0 0
0.124084 0.117487 0.955411 0.8 0 0
0.112568 0.093236 0.848124 0.8 0 0
0.117607 0.113879 0.432861 0.8 0 0
0.114153 0.114574 0.199013 0.8 0 0
0.120312 0.067375 0.830575 0.8 0 0
0.093838 0.116208 0.955411 0.8 0 0
0.159980 0.071235 0.828751 0.8 0 0
0.108616 0.117851 0.547212 0.8 0 0
0.095999 0.073393 0.822895 0.8 0 0
0.116512 0.107091 0.272627 0.8 0 0
0.118255 0.111852 0.481186 0.8 0 0
0.141881 0.115379 0.831350 0.8 0 0
0.094905 0.120085 0.939792 0.8 0 0
0.109472 0.168675 0.822895 0.8 0 0
0.074348 0.058238 0.828612 0.8 0 0
0.045147 0.093306 0.828103 0.8 0 0
0.102872 0.121754 0.975000 0.8 0 0
0.116540 0.106413 0.353328 0.8 0 0
0.114114 0.128306 0.851219 0.8 0 0
0.118281 0.112103 0.521103 0.8 0 0
0.097861 0.098062 0.925822 0.8 0 0
0.126837 0.104578 0.857367 0.8 0 0
0.114032 0.117688 0.595820 0.8 0 0
0.113452 0.060380 0.822895 0.8 0 0
0.104703 0.094001 0.930347 0.8 0 0
0.134442 0.142900 0.830854 0.8 0 0
0.149254 0.069407 0.829543 0.8 0 0
0.053807 0.122233 0.822895 0.8 0 0
0.117423 0.106827 0.724244 0.8 0 0
0.112656 0.115952 0.841056 0.8 0 0
0.108423 0.109388 0.134662 0.8 0 0
0.111412 0.103373 0.700524 0.8 0 0
0.156226 0.066761 0.828760 0.8 0 0
0.096774 0.122659 0.947851 0.8 0 0
0.106234 0.116208 0.380819 0.8 0 0
0.115266 0.104683 0.688452 0.8 0 0
0.116274 0.116179 0.612477 0.8 0 0
0.100842 0.126046 0.854284 0.8 0 0
0.121595 0.067040 0.822895 0.8 0 0
0.155143 0.037659 0.822991 0.8 0 0
0.080420 0.069608 0.829992 0.8 0 0
0.090917 0.106623 0.971366 0.8 0 0
0.054609 0.131322 0.822895 0.8 0 0
0.112134 0.103807 0.420948 0.8 0 0
0.104376 0.113329 0.323395 0.8 0 0
0.111013 0.110840 0.025242 0.8 0 0
0.106783 0.117300 0.806556 0.8 0 0
0.101563 0.095356 0.873569 0.8 0 0
0.128049 0.175615 0.822895 0.8 0 0
0.117101 0.106708 0.564046 0.8 0 0
0.174267 0.059005 0.822895 0.8 0 0
0.106588 0.078770 0.822895 0.8 0 0
0.177469 0.128776 0.827998 0.8 0 0
0.093779 0.104067 0.875511 0.8 0 0
0.071649 0.160057 0.822895 0.8 0 0
0.112628 0.114151 0.831993 0.8 0 0
0.111044 0.104098 0.278945 0.8 0 0
0.119357 0.085512 0.831496 0.8 0 0
0.039934 0.101595 0.827510 0.8 0 0
0.117526 0.107779 0.429391 0.8 0 0
0.114830 0.044324 0.822895 0.8 0 0
0.098918 0.098421 0.822895 0.8 0 0
0.176607 0.121046 0.828350 0.8 0 0
0.093725 0.117772 0.867010 0.8 0 0
0.110154 0.103332 0.761807 0.8 0 0
0.115575 0.107041 0.245590 0.8 0 0
0.108946 0.088942 0.831653 0.8 0 0
0.117200 0.115465 0.808114 0.8 0 0
0.108287 0.104237 0.444243 0.8 0 0
0.107560 0.117363 0.526395 0.8 0 0
0.104037 0.110492 0.269282 0.8 0 0
0.105675 0.116252 0.710827 0.8 0 0
0.102962 0.125740 0.955411 0.8 0 0
0.116652 0.106177 0.547902 0.8 0 0
0.170031 0.051198 0.824112 0.8 0 0
0.057059 0.047108 0.824389 0.8 0 0
0.112254 0.162657 0.822895 0.8 0 0
0.106515 0.110140 0.192274 0.8 0 0
0.089135 0.072720 0.822895 0.8 0 0
0.093207 0.116189 0.838765 0.8 0 0
0.175669 0.131141 0.822895 0.8 0 0
0.079486 0.047973 0.827727 0.8 0 0
0.068153 0.139033 0.822895 0.8 0 0
0.039847 0.144045 0.822895 0.8 0 0
0.051006 0.084444 0.822895 0.8 0 0
0.114264 0.117884 0.819142 0.8 0 0
0.075538 0.059972 0.828882 0.8 0 0
0.104479 0.174214 0.828686 0.8 0 0
0.116703 0.107485 0.269542 0.8 0 0
0.117058 0.107052 0.369720 0.8 0 0
0.123126 0.123106 0.877358 0.8 0 0
0.106574 0.116722 0.517845 0.8 0 0
0.097670 0.119234 0.833087 0.8 0 0
0.124297 0.095974 0.972624 0.8 0 0
0.074576 0.119386 0.822895 0.8 0 0
0.119224 0.126263 0.833109 0.8 0 0
0.117298 0.124797 0.950551 0.8 0 0
0.115575 0.057517 0.822895 0.8 0 0
0.108403 0.109983 0.125556 0.8 0 0
0.115444 0.111872 0.188744 0.8 0 0
0.083723 0.054649 0.828828 0.8 0 0
0.175370 0.058206 0.824423 0.8 0 0
0.103441 0.111372 0.753735 0.8 0 0
0.098572 0.190908 0.822895 0.8 0 0
0.099735 0.101131 0.955411 0.8 0 0
0.108644 0.118165 0.783686 0.8 0 0
0.105970 0.116665 0.810043 0.8 0 0
0.125226 0.094130 0.822895 0.8 0 0
0.110428 0.103378 0.717748 0.8 0 0
0.175024 0.136190 0.828008 0.8 0 0
0.103154 0.127245 0.853974 0.8 0 0
0.089161 0.031255 0.822895 0.8 0 0
0.112663 0.117750 0.280965 0.8 0 0
0.043953 0.086135 0.827537 0.8 0 0
0.134585 0.082070 0.822895 0.8 0 0
0.117637 0.107471 0.841056 0.8 0 0
0.115572 0.093912 0.951092 0.8 0 0
0.104605 0.106698 0.828293 0.8 0 0
0.185599 0.077113 0.825040 0.8 0 0
0.118244 0.109108 0.608247 0.8 0 0
0.123916 0.099597 0.850678 0.8 0 0
0.101235 0.131102 0.822895 0.8 0 0
0.117488 0.107033 0.691992 0.8 0 0
0.112170 0.128584 0.883992 0.8 0 0
0.115039 0.104474 0.743132 0.8 0 0
0.115349 0.127928 0.884086 0.8 0 0
0.160160 0.180453 0.823212 0.8 0 0
0.149231 0.059272 0.828611 0.8 0 0
0.058234 0.052284 0.825922 0.8 0 0
0.102146 0.126818 0.904103 0.8 0 0
0.110030 0.103389 0.733962 0.8 0 0
0.128011 0.110466 0.892672 0.8 0 0
0.171341 0.057118 0.822895 0.8 0 0
0.109904 0.128703 0.904263 0.8 0 0
0.104240 0.113315 0.427869 0.8 0 0
0.106675 0.116581 0.375207 0.8 0 0
0.120046 0.125748 0.835088 0.8 0 0
0.190195 0.120463 0.825665 0.8 0 0
0.085600 0.166595 0.822895 0.8 0 0
0.090555 0.031477 0.824950 0.8 0 0
0.075711 0.073516 0.822895 0.8 0 0
0.117283 0.107294 0.440437 0.8 0 0
0.112401 0.195363 0.823665 0.8 0 0
0.060982 0.117055 0.822895 0.8 0 0
0.171685 0.151962 0.822895 0.8 0 0
0.107551 0.052343 0.829316 0.8 0 0
0.126237 0.118602 0.941210 0.8 0 0
0.059493 0.083025 0.829352 0.8 0 0
0.109402 0.116147 0.223590 0.8 0 0
0.118276 0.109478 0.558435 0.8 0 0
0.093029 0.115609 0.842595 0.8 0 0
0.109063 0.093141 0.870706 0.8 0 0
0.050424 0.091093 0.822895 0.8 0 0
0.108666 0.103600 0.810928 0.8 0 0
0.108106 0.104248 0.494072 0.8 0 0
0.062437 0.085087 0.829681 0.8 0 0
0.106356 0.176469 0.828434 0.8 0 0
0.117490 0.106680 0.831019 0.8 0 0
0.107004 0.105683 0.269456 0.8 0 0
0.106724 0.049188 0.822895 0.8 0 0
0.120016 0.195003 0.822895 0.8 0 0
0.092480 0.109045 0.844156 0.8 0 0
0.152908 0.066253 0.822895 0.8 0 0
0.125585 0.123657 0.969335 0.8 0 0
0.095698 0.110124 0.822895 0.8 0 0
0.114988 0.111691 0.170610 0.8 0 0
0.102469 0.094145 0.956518 0.8 0 0
0.111585 0.112072 0.841056 0.8 0 0
0.125995 0.102784 0.873670 0.8 0 0
0.106051 0.112373 0.841056 0.8 0 0
0.091356 0.142250 0.822895 0.8 0 0
0.114368 0.117808 0.795068 0.8 0 0
0.095335 0.120752 0.858398 0.8 0 0
0.029470 0.116452 0.825093 0.8 0 0
0.079495 0.072838 0.822895 0.8 0 0
0.088154 0.170446 0.822895 0.8 0 0
0.118287 0.112929 0.695533 0.8 0 0
0.117873 0.113880 0.633701 0.8 0 0
0.098785 0.159139 0.822895 0.8 0 0
0.082701 0.162318 0.822895 0.8 0 0
0.108314 0.109371 0.138630 0.8 0 0
0.066422 0.163945 0.827920 0.8 0 0
0.125136 0.100353 0.951051 0.8 0 0
0.106059 0.136590 0.822895 0.8 0 0
0.117796 0.109015 0.277495 0.8 0 0
0.149440 0.128962 0.822895 0.8 0 0
0.076422 0.035940 0.822895 0.8 0 0
0.121137 0.117380 0.833087 0.8 0 0
0.074670 0.033691 0.823131 0.8 0 0
0.079666 0.179005 0.822895 0.8 0 0
0.110803 0.103539 0.575711 0.8 0 0
0.108360 0.183478 0.822895 0.8 0 0
0.108254 0.117720 0.545495 0.8 0 0
0.171336 0.055658 0.822895 0.8 0 0
0.117966 0.126905 0.911446 0.8 0 0
0.109310 0.104092 0.288700 0.8 0 0
0.110661 0.117487 0.264919 0.8 0 0
0.084319 0.033549 0.822895 0.8 0 0
0.125499 0.119977 0.947116 0.8 0 0
0.105732 0.115808 0.423709 0.8 0 0
0.158224 0.157715 0.822895 0.8 0 0
0.111052 0.117695 0.272744 0.8 0 0
0.125198 0.135658 0.822895 0.8 0 0
0.127486 0.115008 0.892989 0.8 0 0
0.109794 0.118028 0.442561 0.8 0 0
0.116904 0.115229 0.494710 0.8 0 0
0.045640 0.156470 0.822895 0.8 0 0
0.115739 0.116388 0.831954 0.8 0 0
0.126194 0.122104 0.964946 0.8 0 0
0.080872 0.161130 0.822895 0.8 0 0
0.107419 0.117556 0.723058 0.8 0 0
0.102634 0.164486 0.822895 0.8 0 0
0.181835 0.112910 0.822895 0.8 0 0
0.074058 0.116725 0.830987 0.8 0 0
0.195628 0.103678 0.822895 0.8 0 0
0.159815 0.087440 0.829745 0.8 0 0
0.126835 0.061660 0.822895 0.8 0 0
0.097458 0.104840 0.822895 0.8 0 0
0.186160 0.152541 0.822895 0.8 0 0
0.117882 0.114272 0.776959 0.8 0 0
0.105396 0.115883 0.680115 0.8 0 0
0.113300 0.103951 0.526909 0.8 0 0
0.110245 0.030061 0.825303 0.8 0 0
0.071541 0.168280 0.822895 0.8 0 0
0.095593 0.109426 0.831865 0.8 0 0
0.123404 0.098933 0.884978 0.8 0 0
0.116145 0.126394 0.822895 0.8 0 0
0.102387 0.094935 0.899727 0.8 0 0
0.118126 0.108660 0.626532 0.8 0 0
0.118395 0.108688 0.831834 0.8 0 0
0.111978 0.103412 0.723589 0.8 0 0
0.105115 0.106529 0.566135 0.8 0 0
0.094988 0.099158 0.964935 0.8 0 0
0.113354 0.118144 0.728103 0.8 0 0
0.096031 0.141868 0.822895 0.8 0 0
0.081368 0.130204 0.831111 0.8 0 0
0.103353 0.111298 0.819319 0.8 0 0
0.118037 0.111844 0.300985 0.8 0 0
0.035549 0.137184 0.822895 0.8 0 0
0.119277 0.137407 0.831465 0.8 0 0
0.047883 0.068912 0.822895 0.8 0 0
0.107183 0.125188 0.975000 0.8 0 0
0.076536 0.126292 0.830974 0.8 0 0
0.120103 0.118662 0.975000 0.8 0 0
0.148836 0.126486 0.822895 0.8 0 0
0.149872 0.111409 0.822895 0.8 0 0
0.051215 0.075850 0.822895 0.8 0 0
0.172769 0.134161 0.828386 0.8 0 0
0.131040 0.086574 0.831325 0.8 0 0
0.120059 0.096130 0.857282 0.8 0 0
0.110691 0.108456 0.115693 0.8 0 0
0.029882 0.092900 0.824534 0.8 0 0
0.109267 0.103467 0.803228 0.8 0 0
0.107427 0.128524 0.868880 0.8 0 0
0.108745 0.104195 0.330582 0.8 0 0
0.108059 0.104245 0.511420 0.8 0 0
0.117897 0.108622 0.454474 0.8 0 0
0.157250 0.052213 0.826887 0.8 0 0
0.091043 0.072384 0.822895 0.8 0 0
0.124423 0.096855 0.967494 0.8 0 0
0.186919 0.095582 0.826363 0.8 0 0
0.123804 0.117365 0.950551 0.8 0 0
0.106676 0.116866 0.553248 0.8 0 0
0.044422 0.078882 0.822895 0.8 0 0
0.100211 0.104653 0.975000 0.8 0 0
0.030202 0.127471 0.822895 0.8 0 0
0.057883 0.111875 0.829848 0.8 0 0
0.104695 0.184549 0.822895 0.8 0 0
0.104525 0.107134 0.673954 0.8 0 0
0.063367 0.173644 0.825961 0.8 0 0
0.115862 0.105789 0.290506 0.8 0 0
0.115568 0.093911 0.851189 0.8 0 0
0.126964 0.100367 0.965918 0.8 0 0
0.104904 0.127943 0.844253 0.8 0 0
0.084754 0.071182 0.822895 0.8 0 0
0.164331 0.076141 0.822895 0.8 0 0
0.074168 0.188290 0.823020 0.8 0 0
0.105342 0.106056 0.640994 0.8 0 0
0.111173 0.093164 0.897756 0.8 0 0
0.037504 0.076214 0.825179 0.8 0 0
0.148747 0.046324 0.826867 0.8 0 0
0.152985 0.042579 0.825500 0.8 0 0
0.107300 0.104356 0.702843 0.8 0 0
0.060009 0.128026 0.829778 0.8 0 0
0.105239 0.115118 0.386377 0.8 0 0
0.116333 0.114630 0.261881 0.8 0 0
0.106534 0.109406 0.199146 0.8 0 0
0.028951 0.095230 0.822895 0.8 0 0
0.104949 0.107147 0.379509 0.8 0 0
0.099709 0.096549 0.949837 0.8 0 0
0.080112 0.056225 0.828812 0.8 0 0
0.105908 0.116377 0.663033 0.8 0 0
0.170425 0.105872 0.829195 0.8 0 0
0.118194 0.109114 0.567179 0.8 0 0
0.123927 0.105334 0.975000 0.8 0 0
0.099882 0.125423 0.947079 0.8 0 0
0.174260 0.149744 0.826997 0.8 0 0
0.181707 0.121212 0.827555 0.8 0 0
0.114943 0.104666 0.565604 0.8 0 0
0.076253 0.053041 0.822895 0.8 0 0
0.125316 0.103480 0.975000 0.8 0 0
0.032746 0.131598 0.825319 0.8 0 0
0.104120 0.108118 0.634073 0.8 0 0
0.111761 0.103835 0.349239 0.8 0 0
0.096138 0.112984 0.950551 0.8 0 0
0.153413 0.074910 0.822895 0.8 0 0
0.096009 0.166526 0.829450 0.8 0 0
0.162926 0.143515 0.828981 0.8 0 0
0.111264 0.118338 0.614141 0.8 0 0
0.111553 0.118590 0.829090 0.8 0 0
0.115465 0.116515 0.352726 0.8 0 0
0.078126 0.129040 0.830978 0.8 0 0
0.142046 0.038296 0.825922 0.8 0 0
0.111964 0.093205 0.895938 0.8 0 0
0.108031 0.128606 0.945582 0.8 0 0
0.108380 0.113385 0.154319 0.8 0 0
0.090421 0.106939 0.822895 0.8 0 0
0.105968 0.105228 0.768657 0.8 0 0
0.077370 0.173237 0.822895 0.8 0 0
0.092974 0.106435 0.884526 0.8 0 0
0.082658 0.160719 0.822895 0.8 0 0
0.134161 0.146429 0.830692 0.8 0 0
0.109378 0.094963 0.950551 0.8 0 0
0.178264 0.068047 0.825665 0.8 0 0
0.117420 0.107847 0.325537 0.8 0 0
0.144853 0.083974 0.822895 0.8 0 0
0.094906 0.193085 0.824172 0.8 0 0
0.115004 0.113595 0.950551 0.8 0 0
0.088163 0.054271 0.822895 0.8 0 0
0.128002 0.110653 0.879505 0.8 0 0
0.120679 0.136967 0.831462 0.8 0 0
0.114212 0.104461 0.406946 0.8 0 0
0.106454 0.121004 0.950551 0.8 0 0
0.103981 0.109440 0.426913 0.8 0 0
0.109019 0.103966 0.441623 0.8 0 0
0.106843 0.116933 0.518624 0.8 0 0
0.163818 0.151719 0.822895 0.8 0 0
0.043915 0.102490 0.822895 0.8 0 0
0.104063 0.110006 0.274628 0.8 0 0
0.117447 0.112750 0.270323 0.8 0 0
0.139671 0.139580 0.822895 0.8 0 0
0.083953 0.146475 0.830565 0.8 0 0
0.104596 0.115152 0.820788 0.8 0 0
0.086360 0.161200 0.829589 0.8 0 0
0.092781 0.106018 0.955383 0.8 0 0
0.131005 0.111391 0.831720 0.8 0 0
0.116612 0.106681 0.261175 0.8 0 0
0.107754 0.111053 0.143214 0.8 0 0
0.099281 0.096871 0.841024 0.8 0 0
0.105613 0.106054 0.478566 0.8 0 0
0.092935 0.115300 0.882163 0.8 0 0
0.055479 0.084998 0.822895 0.8 0 0
0.094925 0.101772 0.907892 0.8 0 0
0.102261 0.071906 0.830835 0.8 0 0
0.125983 0.041199 0.827561 0.8 0 0
0.123574 0.070483 0.822895 0.8 0 0
0.118114 0.109849 0.389351 0.8 0 0
0.105778 0.094751 0.950551 0.8 0 0
0.109058 0.114221 0.162910 0.8 0 0
0.130487 0.118388 0.831692 0.8 0 0
0.061957 0.100951 0.830111 0.8 0 0
0.031827 0.086970 0.822895 0.8 0 0
0.103678 0.111052 0.536025 0.8 0 0
0.109687 0.109434 0.097122 0.8 0 0
0.141675 0.060563 0.822895 0.8 0 0
0.101665 0.054534 0.822895 0.8 0 0
0.105431 0.165463 0.829687 0.8 0 0
0.110270 0.103280 0.802237 0.8 0 0
0.062407 0.134070 0.822895 0.8 0 0
0.116979 0.137675 0.822895 0.8 0 0
0.067530 0.168217 0.822895 0.8 0 0
0.095229 0.101303 0.899966 0.8 0 0
0.177189 0.063581 0.825181 0.8 0 0
0.108361 0.093227 0.836663 0.8 0 0
0.116258 0.105987 0.390749 0.8 0 0
0.127168 0.105659 0.951581 0.8 0 0
0.158610 0.132472 0.822895 0.8 0 0
0.116427 0.105697 0.654624 0.8 0 0
0.042748 0.072084 0.826100 0.8 0 0
0.122853 0.134371 0.831513 0.8 0 0
0.168761 0.052041 0.824869 0.8 0 0
0.085834 0.114093 0.822895 0.8 0 0
0.119040 0.111105 0.955411 0.8 0 0
0.181505 0.143266 0.822895 0.8 0 0
0.134422 0.061784 0.822895 0.8 0 0
0.110835 0.118590 0.812964 0.8 0 0
0.099967 0.042773 0.822895 0.8 0 0
0.099628 0.125258 0.886490 0.8 0 0
0.121409 0.114256 0.955411 0.8 0 0
0.156432 0.069236 0.828941 0.8 0 0
0.096218 0.099825 0.891466 0.8 0 0
0.106020 0.109644 0.215304 0.8 0 0
0.109142 0.118071 0.570950 0.8 0 0
0.056451 0.108568 0.829706 0.8 0 0
0.107505 0.104639 0.413230 0.8 0 0
0.107279 0.114690 0.218436 0.8 0 0
0.122927 0.136429 0.831449 0.8 0 0
