0.519414 0.374653 0.166176 0.8 0 0
0.842699 0.048736 0.299226 0.8 0 0
0.357363 0.156944 0.216272 0.8 0 0
0.828724 0.688021 0.226328 0.8 0 0
0.221067 0.594337 0.262500 0.8 0 0
0.738971 0.658597 0.341667 0.8 0 0
0.299090 0.183333 0.114450 0.8 0 0
0.298440 0.354861 0.231970 0.8 0 0
0.662789 0.354861 0.257761 0.8 0 0
0.115138 0.658333 0.152297 0.8 0 0
0.262500 0.380036 0.271505 0.8 0 0
0.660139 0.374653 0.149494 0.8 0 0
0.803472 0.590196 0.251244 0.8 0 0
0.183333 0.497015 0.090843 0.8 0 0
0.340932 0.374653 0.153875 0.8 0 0
0.211850 0.304665 0.302083 0.8 0 0
0.741371 0.688021 0.239841 0.8 0 0
0.206349 0.062767 0.275694 0.8 0 0
0.703133 0.156944 0.261398 0.8 0 0
0.429910 0.667226 0.341667 0.8 0 0
0.073128 0.658333 0.065938 0.8 0 0
0.526675 0.688021 0.231088 0.8 0 0
0.289402 0.156944 0.254298 0.8 0 0
0.638450 0.598831 0.288889 0.8 0 0
0.729413 0.579167 0.268006 0.8 0 0
0.213469 0.658333 0.075119 0.8 0 0
0.499454 0.579167 0.206331 0.8 0 0
0.033366 0.688021 0.204175 0.8 0 0
0.529554 0.688021 0.113445 0.8 0 0
0.595662 0.173484 0.077778 0.8 0 0
0.828947 0.069583 0.086807 0.8 0 0
0.269031 0.658333 0.323556 0.8 0 0
0.599348 0.605556 0.228494 0.8 0 0
0.278569 0.658333 0.161893 0.8 0 0
0.787089 0.301973 0.064583 0.8 0 0
0.777083 0.512448 0.279549 0.8 0 0
0.211094 0.688021 0.232592 0.8 0 0
0.781659 0.426223 0.090972 0.8 0 0
0.135632 0.688021 0.162160 0.8 0 0
0.789506 0.328202 0.302083 0.8 0 0
0.440301 0.688021 0.140339 0.8 0 0
0.183333 0.319027 0.072245 0.8 0 0
0.200043 0.528162 0.302083 0.8 0 0
0.496072 0.658333 0.075727 0.8 0 0
0.696176 0.374653 0.219494 0.8 0 0
0.202559 0.623286 0.090972 0.8 0 0
0.729987 0.354861 0.191195 0.8 0 0
0.618913 0.658333 0.252863 0.8 0 0
0.761906 0.605556 0.082011 0.8 0 0
0.665513 0.579167 0.139004 0.8 0 0
0.716441 0.416591 0.104167 0.8 0 0
0.454032 0.658333 0.150354 0.8 0 0
0.454823 0.374653 0.133929 0.8 0 0
0.575731 0.156944 0.113922 0.8 0 0
0.197738 0.107836 0.302083 0.8 0 0
0.194933 0.458131 0.064583 0.8 0 0
0.688796 0.579167 0.129050 0.8 0 0
0.580382 0.658333 0.120473 0.8 0 0
0.496638 0.168163 0.077778 0.8 0 0
0.183333 0.296519 0.292065 0.8 0 0
0.215179 0.186222 0.090972 0.8 0 0
0.888264 0.688021 0.297356 0.8 0 0
0.933947 0.658333 0.255433 0.8 0 0
0.324261 0.658333 0.032432 0.8 0 0
0.807620 0.688021 0.243541 0.8 0 0
0.149407 0.658333 0.113582 0.8 0 0
0.850056 0.037953 0.297996 0.8 0 0
0.100565 0.688021 0.115868 0.8 0 0
0.531406 0.183333 0.173814 0.8 0 0
0.377850 0.579167 0.239131 0.8 0 0
0.339593 0.354861 0.178843 0.8 0 0
0.216057 0.622122 0.275694 0.8 0 0
0.603919 0.374653 0.252299 0.8 0 0
0.735620 0.205500 0.262500 0.8 0 0
0.231162 0.688021 0.124280 0.8 0 0
0.093654 0.658333 0.038897 0.8 0 0
0.803472 0.165445 0.150852 0.8 0 0
0.504798 0.658333 0.256844 0.8 0 0
0.274933 0.215007 0.104167 0.8 0 0
0.507089 0.658333 0.061270 0.8 0 0
0.501936 0.156944 0.227631 0.8 0 0
0.730903 0.362429 0.104000 0.8 0 0
0.401116 0.688021 0.216288 0.8 0 0
0.697483 0.679668 0.341667 0.8 0 0
0.491926 0.658333 0.068305 0.8 0 0
0.777083 0.292897 0.288807 0.8 0 0
0.725699 0.324684 0.283611 0.8 0 0
0.649357 0.374653 0.159163 0.8 0 0
0.276418 0.156944 0.262480 0.8 0 0
0.269097 0.366973 0.270553 0.8 0 0
0.230462 0.183333 0.142141 0.8 0 0
0.170282 0.658333 0.116394 0.8 0 0
0.836271 0.677376 0.025000 0.8 0 0
0.147609 0.688021 0.079654 0.8 0 0
0.912347 0.658333 0.093896 0.8 0 0
0.197352 0.036586 0.090051 0.8 0 0
0.580381 0.183333 0.083808 0.8 0 0
0.196528 0.162040 0.188935 0.8 0 0
0.880571 0.658333 0.088909 0.8 0 0
0.376332 0.658333 0.331346 0.8 0 0
0.777083 0.516112 0.301865 0.8 0 0
0.568105 0.688021 0.028658 0.8 0 0
0.711111 0.489556 0.274070 0.8 0 0
0.288889 0.535376 0.264217 0.8 0 0
0.704963 0.658333 0.318753 0.8 0 0
0.647971 0.579167 0.122188 0.8 0 0
0.838822 0.658333 0.227310 0.8 0 0
0.222917 0.536210 0.298483 0.8 0 0
0.830777 0.034096 0.275694 0.8 0 0
0.105114 0.688021 0.150436 0.8 0 0
0.253986 0.605556 0.214268 0.8 0 0
0.714524 0.579167 0.126917 0.8 0 0
0.089943 0.658333 0.337946 0.8 0 0
0.083693 0.688021 0.215852 0.8 0 0
0.540797 0.605556 0.204740 0.8 0 0
0.520774 0.583464 0.288889 0.8 0 0
0.437902 0.175246 0.077778 0.8 0 0
0.798059 0.577166 0.302083 0.8 0 0
0.619563 0.374653 0.202047 0.8 0 0
0.326403 0.688021 0.259259 0.8 0 0
0.736845 0.605556 0.169717 0.8 0 0
0.081072 0.670405 0.341667 0.8 0 0
0.726329 0.239712 0.283611 0.8 0 0
0.174908 0.077462 0.291976 0.8 0 0
0.246448 0.579167 0.234460 0.8 0 0
0.311204 0.156944 0.091469 0.8 0 0
0.787563 0.658333 0.122695 0.8 0 0
0.837016 0.688021 0.125775 0.8 0 0
0.212146 0.220005 0.064583 0.8 0 0
0.152187 0.688021 0.187426 0.8 0 0
0.777083 0.653823 0.079150 0.8 0 0
0.636580 0.580718 0.288889 0.8 0 0
0.042309 0.658333 0.151108 0.8 0 0
0.288889 0.464368 0.102531 0.8 0 0
0.191987 0.189365 0.090972 0.8 0 0
0.183333 0.383491 0.288323 0.8 0 0
0.117486 0.658333 0.232616 0.8 0 0
0.766132 0.688021 0.042597 0.8 0 0
0.671047 0.374653 0.234293 0.8 0 0
0.795158 0.329963 0.090972 0.8 0 0
0.781597 0.304257 0.302083 0.8 0 0
0.288889 0.576244 0.263158 0.8 0 0
0.829861 0.600561 0.292216 0.8 0 0
0.385697 0.658333 0.181531 0.8 0 0
0.330264 0.605556 0.247584 0.8 0 0
0.888689 0.658333 0.133693 0.8 0 0
0.244299 0.605556 0.201376 0.8 0 0
0.370476 0.658333 0.276472 0.8 0 0
0.231110 0.591929 0.077778 0.8 0 0
0.730862 0.688021 0.172030 0.8 0 0
0.409117 0.579167 0.159453 0.8 0 0
0.287034 0.261118 0.283611 0.8 0 0
0.555078 0.579167 0.217464 0.8 0 0
0.816792 0.112913 0.068697 0.8 0 0
0.436698 0.605556 0.141458 0.8 0 0
0.388038 0.605556 0.094877 0.8 0 0
0.682331 0.183333 0.163866 0.8 0 0
0.434271 0.582439 0.288889 0.8 0 0
0.682745 0.354861 0.241464 0.8 0 0
0.620131 0.688021 0.165368 0.8 0 0
0.788387 0.140277 0.064583 0.8 0 0
0.789075 0.636819 0.302083 0.8 0 0
0.781198 0.242766 0.064583 0.8 0 0
0.562265 0.579167 0.225286 0.8 0 0
0.272742 0.199690 0.262500 0.8 0 0
0.358160 0.169586 0.077778 0.8 0 0
0.188848 0.458836 0.275694 0.8 0 0
0.766988 0.598363 0.051389 0.8 0 0
0.489284 0.595849 0.077778 0.8 0 0
0.112934 0.658333 0.306673 0.8 0 0
0.441594 0.667442 0.341667 0.8 0 0
0.219338 0.154103 0.064583 0.8 0 0
0.054527 0.688021 0.219647 0.8 0 0
0.280901 0.515818 0.283611 0.8 0 0
0.237705 0.579167 0.234757 0.8 0 0
0.222917 0.209125 0.294009 0.8 0 0
0.541793 0.658333 0.134283 0.8 0 0
0.543097 0.658333 0.213413 0.8 0 0
0.717035 0.374653 0.176689 0.8 0 0
0.222917 0.333966 0.284141 0.8 0 0
0.198063 0.296829 0.090972 0.8 0 0
0.792245 0.688021 0.034705 0.8 0 0
0.678721 0.688021 0.057766 0.8 0 0
0.789825 0.489842 0.090972 0.8 0 0
0.442870 0.683342 0.341667 0.8 0 0
0.406021 0.658333 0.101463 0.8 0 0
0.292033 0.177658 0.077778 0.8 0 0
0.075795 0.658333 0.025860 0.8 0 0
0.393170 0.688021 0.296060 0.8 0 0
0.270000 0.306407 0.283611 0.8 0 0
0.957315 0.658333 0.148876 0.8 0 0
0.541790 0.688021 0.125548 0.8 0 0
0.637950 0.605556 0.162623 0.8 0 0
0.856652 0.658333 0.085682 0.8 0 0
0.897161 0.688021 0.153871 0.8 0 0
0.262500 0.396211 0.274969 0.8 0 0
0.798176 0.688021 0.204790 0.8 0 0
0.965288 0.658333 0.133800 0.8 0 0
0.816667 0.421431 0.286945 0.8 0 0
0.714545 0.330483 0.104167 0.8 0 0
0.285701 0.658333 0.229408 0.8 0 0
0.478411 0.579167 0.116415 0.8 0 0
0.782356 0.579167 0.124205 0.8 0 0
0.814594 0.098248 0.090972 0.8 0 0
0.680265 0.357853 0.275694 0.8 0 0
0.388915 0.658333 0.083729 0.8 0 0
0.777762 0.463416 0.275694 0.8 0 0
0.715622 0.296585 0.262500 0.8 0 0
0.306727 0.374653 0.111656 0.8 0 0
0.616853 0.156944 0.104090 0.8 0 0
0.747216 0.688021 0.174954 0.8 0 0
0.183333 0.453452 0.071898 0.8 0 0
0.360722 0.688021 0.133497 0.8 0 0
0.152906 0.037234 0.090972 0.8 0 0
0.975000 0.670032 0.290659 0.8 0 0
0.330357 0.156944 0.286351 0.8 0 0
0.780634 0.658333 0.098361 0.8 0 0
0.720333 0.374653 0.223649 0.8 0 0
0.712350 0.519068 0.104167 0.8 0 0
0.356153 0.684523 0.341667 0.8 0 0
0.448145 0.183333 0.113439 0.8 0 0
0.457076 0.658333 0.264257 0.8 0 0
0.404393 0.183333 0.190462 0.8 0 0
0.920769 0.688021 0.161621 0.8 0 0
0.389161 0.374653 0.148829 0.8 0 0
0.750404 0.156944 0.180502 0.8 0 0
0.762705 0.688021 0.248263 0.8 0 0
0.374368 0.156944 0.109328 0.8 0 0
0.649823 0.156944 0.152740 0.8 0 0
0.725731 0.183333 0.239408 0.8 0 0
0.513327 0.579167 0.096243 0.8 0 0
0.261859 0.605556 0.191429 0.8 0 0
0.700391 0.183333 0.198593 0.8 0 0
0.350030 0.686599 0.339790 0.8 0 0
0.113031 0.688021 0.190937 0.8 0 0
0.222917 0.188520 0.069660 0.8 0 0
0.071040 0.658333 0.149958 0.8 0 0
0.048654 0.688021 0.222420 0.8 0 0
0.109288 0.688021 0.199340 0.8 0 0
0.209309 0.605556 0.233230 0.8 0 0
0.406524 0.579167 0.196866 0.8 0 0
0.807591 0.688021 0.039313 0.8 0 0
0.959315 0.658333 0.167373 0.8 0 0
0.368288 0.365064 0.275694 0.8 0 0
0.288889 0.318922 0.093202 0.8 0 0
0.960214 0.658333 0.309205 0.8 0 0
0.810694 0.328131 0.275694 0.8 0 0
0.807781 0.658267 0.064583 0.8 0 0
0.923799 0.658333 0.144952 0.8 0 0
0.211445 0.379277 0.064583 0.8 0 0
0.269377 0.362157 0.104167 0.8 0 0
0.202833 0.605556 0.301046 0.8 0 0
0.269097 0.361396 0.232314 0.8 0 0
0.783823 0.658333 0.200512 0.8 0 0
0.777389 0.579459 0.315278 0.8 0 0
0.586731 0.658333 0.053558 0.8 0 0
0.506437 0.605556 0.182164 0.8 0 0
0.263692 0.605556 0.252945 0.8 0 0
0.204907 0.462810 0.064583 0.8 0 0
0.208076 0.144548 0.302083 0.8 0 0
0.633346 0.688021 0.128804 0.8 0 0
0.550629 0.688021 0.169541 0.8 0 0
0.032041 0.688021 0.066680 0.8 0 0
0.810844 0.658333 0.040946 0.8 0 0
0.674840 0.658333 0.130272 0.8 0 0
0.568872 0.658333 0.155003 0.8 0 0
0.181490 0.062218 0.275694 0.8 0 0
0.496470 0.354861 0.218361 0.8 0 0
0.199269 0.605556 0.216266 0.8 0 0
0.274566 0.156944 0.279579 0.8 0 0
0.197451 0.652588 0.302083 0.8 0 0
0.722272 0.658333 0.178748 0.8 0 0
0.204477 0.137177 0.275694 0.8 0 0
0.735381 0.156944 0.285333 0.8 0 0
0.737512 0.183333 0.192878 0.8 0 0
0.779725 0.156944 0.238513 0.8 0 0
0.235297 0.579167 0.288071 0.8 0 0
0.225716 0.658333 0.128929 0.8 0 0
0.388419 0.688021 0.301671 0.8 0 0
0.718453 0.688021 0.242339 0.8 0 0
0.622298 0.605556 0.147502 0.8 0 0
0.801953 0.183333 0.157617 0.8 0 0
0.711111 0.250850 0.087371 0.8 0 0
0.306518 0.579167 0.238687 0.8 0 0
0.235585 0.605556 0.094652 0.8 0 0
0.381036 0.156944 0.167462 0.8 0 0
0.835247 0.056415 0.064583 0.8 0 0
0.816667 0.118178 0.278833 0.8 0 0
0.544687 0.605556 0.125893 0.8 0 0
0.269097 0.369819 0.184283 0.8 0 0
0.200774 0.418528 0.275694 0.8 0 0
0.716692 0.605556 0.266474 0.8 0 0
0.508594 0.688021 0.066415 0.8 0 0
0.777083 0.461062 0.282131 0.8 0 0
0.682313 0.579167 0.244975 0.8 0 0
0.479083 0.688021 0.322480 0.8 0 0
0.729693 0.183333 0.263008 0.8 0 0
0.219521 0.323621 0.302083 0.8 0 0
0.803472 0.175273 0.246019 0.8 0 0
0.489007 0.579167 0.190611 0.8 0 0
0.244851 0.658333 0.025271 0.8 0 0
0.807969 0.188830 0.275694 0.8 0 0
0.660957 0.688021 0.120296 0.8 0 0
0.379906 0.183333 0.182493 0.8 0 0
0.207623 0.605556 0.208090 0.8 0 0
0.728229 0.372135 0.283611 0.8 0 0
0.123569 0.688021 0.262646 0.8 0 0
0.102903 0.658333 0.269872 0.8 0 0
0.690482 0.156944 0.259433 0.8 0 0
0.741494 0.183333 0.128444 0.8 0 0
0.795979 0.454777 0.302083 0.8 0 0
0.189423 0.246205 0.302083 0.8 0 0
0.566322 0.579167 0.110546 0.8 0 0
0.192006 0.688021 0.227586 0.8 0 0
0.469205 0.156944 0.211691 0.8 0 0
0.528127 0.579167 0.157359 0.8 0 0
0.639988 0.592958 0.077778 0.8 0 0
0.730903 0.357485 0.270028 0.8 0 0
0.576232 0.179462 0.077778 0.8 0 0
0.262500 0.251007 0.101112 0.8 0 0
0.183333 0.620513 0.276509 0.8 0 0
0.724127 0.658333 0.084309 0.8 0 0
0.367144 0.183333 0.262577 0.8 0 0
0.409061 0.156944 0.169555 0.8 0 0
0.334006 0.579167 0.084569 0.8 0 0
0.201122 0.605556 0.239028 0.8 0 0
0.708430 0.579167 0.272924 0.8 0 0
0.381254 0.354861 0.275204 0.8 0 0
0.783986 0.579167 0.122845 0.8 0 0
0.725799 0.183333 0.099348 0.8 0 0
0.397799 0.160849 0.288889 0.8 0 0
0.848446 0.688021 0.335822 0.8 0 0
0.797159 0.658333 0.269553 0.8 0 0
0.419212 0.156944 0.162617 0.8 0 0
0.858695 0.688021 0.215001 0.8 0 0
0.257821 0.183333 0.098994 0.8 0 0
0.287976 0.605556 0.262486 0.8 0 0
0.668661 0.579167 0.171843 0.8 0 0
0.617840 0.658333 0.164310 0.8 0 0
0.206530 0.582318 0.077778 0.8 0 0
0.279033 0.658333 0.202135 0.8 0 0
0.170139 0.580253 0.074535 0.8 0 0
0.426576 0.658333 0.092060 0.8 0 0
0.721063 0.183333 0.132780 0.8 0 0
0.968361 0.658863 0.341667 0.8 0 0
0.777083 0.162559 0.293272 0.8 0 0
0.623721 0.371059 0.275694 0.8 0 0
0.326697 0.658333 0.032654 0.8 0 0
0.595308 0.374653 0.183415 0.8 0 0
0.816667 0.497128 0.288070 0.8 0 0
0.827022 0.665290 0.025000 0.8 0 0
0.196528 0.602923 0.130944 0.8 0 0
0.522126 0.688021 0.060245 0.8 0 0
0.429362 0.579167 0.164595 0.8 0 0
0.275186 0.342913 0.104167 0.8 0 0
0.238075 0.605556 0.144177 0.8 0 0
0.052598 0.688021 0.335245 0.8 0 0
0.621168 0.156944 0.196544 0.8 0 0
0.437883 0.183333 0.099078 0.8 0 0
0.614891 0.688021 0.326274 0.8 0 0
0.185813 0.211168 0.302083 0.8 0 0
0.538779 0.374653 0.203433 0.8 0 0
0.412287 0.688021 0.117495 0.8 0 0
0.306065 0.354861 0.267351 0.8 0 0
0.262500 0.296380 0.267112 0.8 0 0
0.708204 0.688021 0.271324 0.8 0 0
0.264214 0.688021 0.299428 0.8 0 0
0.711111 0.344145 0.268260 0.8 0 0
0.190882 0.411763 0.302083 0.8 0 0
0.786005 0.579167 0.199025 0.8 0 0
0.444957 0.354861 0.101914 0.8 0 0
0.788402 0.500736 0.302083 0.8 0 0
0.203327 0.369186 0.302083 0.8 0 0
0.103415 0.688021 0.208982 0.8 0 0
0.724716 0.185749 0.104167 0.8 0 0
0.242224 0.579167 0.177892 0.8 0 0
0.288889 0.530641 0.094123 0.8 0 0
0.269097 0.363800 0.245201 0.8 0 0
0.262500 0.261843 0.275016 0.8 0 0
0.766556 0.156944 0.221742 0.8 0 0
0.816667 0.552995 0.293166 0.8 0 0
0.238849 0.658333 0.263203 0.8 0 0
0.234351 0.603754 0.104167 0.8 0 0
0.719896 0.605556 0.078113 0.8 0 0
0.770968 0.688021 0.038007 0.8 0 0
0.279877 0.270553 0.283611 0.8 0 0
0.718950 0.269852 0.262500 0.8 0 0
0.500750 0.176930 0.077778 0.8 0 0
0.099730 0.688021 0.305314 0.8 0 0
0.369311 0.156944 0.262474 0.8 0 0
0.203916 0.441585 0.064583 0.8 0 0
0.856035 0.025000 0.279250 0.8 0 0
0.789366 0.688021 0.139572 0.8 0 0
0.120125 0.658333 0.331636 0.8 0 0
0.199463 0.688021 0.028450 0.8 0 0
0.844526 0.040275 0.302083 0.8 0 0
0.849770 0.688021 0.234466 0.8 0 0
0.260377 0.605556 0.277337 0.8 0 0
0.444929 0.658333 0.228229 0.8 0 0
0.274028 0.579167 0.093086 0.8 0 0
0.470391 0.183333 0.206917 0.8 0 0
0.707688 0.658333 0.167798 0.8 0 0
0.638413 0.579638 0.288889 0.8 0 0
0.849636 0.677534 0.025000 0.8 0 0
0.820846 0.052729 0.064583 0.8 0 0
0.336080 0.156944 0.227322 0.8 0 0
0.185385 0.269234 0.090972 0.8 0 0
0.493735 0.354861 0.134848 0.8 0 0
0.218881 0.402574 0.275694 0.8 0 0
0.477244 0.183333 0.100637 0.8 0 0
0.407839 0.183333 0.179664 0.8 0 0
0.266250 0.492370 0.104167 0.8 0 0
0.183333 0.206489 0.292858 0.8 0 0
0.194024 0.225022 0.064583 0.8 0 0
0.290788 0.688021 0.208396 0.8 0 0
0.223460 0.183333 0.177280 0.8 0 0
0.180950 0.688021 0.169910 0.8 0 0
0.564794 0.688021 0.215597 0.8 0 0
0.279390 0.303375 0.083056 0.8 0 0
0.782308 0.613894 0.275694 0.8 0 0
0.673866 0.584237 0.077778 0.8 0 0
0.222108 0.605556 0.173105 0.8 0 0
0.780042 0.579167 0.298752 0.8 0 0
0.553351 0.354861 0.182141 0.8 0 0
0.624997 0.688021 0.128463 0.8 0 0
0.656658 0.156944 0.149022 0.8 0 0
0.263652 0.558993 0.104167 0.8 0 0
0.184043 0.069877 0.064583 0.8 0 0
0.711111 0.406395 0.267000 0.8 0 0
0.276191 0.688021 0.214575 0.8 0 0
0.816667 0.459484 0.076126 0.8 0 0
0.543967 0.658333 0.058854 0.8 0 0
0.803453 0.143871 0.275694 0.8 0 0
0.711111 0.458159 0.092185 0.8 0 0
0.895088 0.688021 0.069074 0.8 0 0
0.279257 0.183466 0.283611 0.8 0 0
0.588471 0.658333 0.153321 0.8 0 0
0.210977 0.579167 0.093748 0.8 0 0
0.253820 0.688021 0.185136 0.8 0 0
0.320984 0.579167 0.274657 0.8 0 0
0.638117 0.579167 0.208786 0.8 0 0
0.814571 0.421008 0.064583 0.8 0 0
0.584215 0.156944 0.282691 0.8 0 0
0.682773 0.359287 0.090972 0.8 0 0
0.224739 0.183333 0.208380 0.8 0 0
0.777083 0.411904 0.072034 0.8 0 0
0.764174 0.688021 0.248140 0.8 0 0
0.126387 0.658333 0.283421 0.8 0 0
0.693705 0.156944 0.147051 0.8 0 0
0.508219 0.682189 0.341667 0.8 0 0
0.435771 0.605556 0.227534 0.8 0 0
0.777083 0.157894 0.279023 0.8 0 0
0.618427 0.183333 0.160974 0.8 0 0
0.737500 0.398120 0.280442 0.8 0 0
0.198954 0.120504 0.064583 0.8 0 0
0.416023 0.658333 0.164029 0.8 0 0
0.212669 0.195412 0.064583 0.8 0 0
0.222917 0.608259 0.297095 0.8 0 0
0.816667 0.632830 0.276950 0.8 0 0
0.064863 0.688021 0.042635 0.8 0 0
0.569718 0.688021 0.326757 0.8 0 0
0.558783 0.579167 0.164060 0.8 0 0
0.403782 0.579167 0.187157 0.8 0 0
0.802120 0.605556 0.229119 0.8 0 0
0.351746 0.658333 0.040656 0.8 0 0
0.224146 0.593904 0.077778 0.8 0 0
0.829861 0.599089 0.082297 0.8 0 0
0.970390 0.658333 0.280995 0.8 0 0
0.399700 0.658333 0.237574 0.8 0 0
0.303202 0.165448 0.288889 0.8 0 0
0.288889 0.500923 0.267517 0.8 0 0
0.271352 0.374653 0.170099 0.8 0 0
0.450701 0.156944 0.247436 0.8 0 0
0.346615 0.688021 0.300460 0.8 0 0
0.226239 0.579167 0.191738 0.8 0 0
0.434271 0.579167 0.207600 0.8 0 0
0.170930 0.688021 0.227019 0.8 0 0
0.326407 0.663899 0.025000 0.8 0 0
0.899648 0.658333 0.130378 0.8 0 0
0.708326 0.658333 0.070228 0.8 0 0
0.800082 0.183333 0.170470 0.8 0 0
0.218538 0.112728 0.302083 0.8 0 0
0.793566 0.575770 0.275694 0.8 0 0
0.711924 0.225892 0.104167 0.8 0 0
0.254801 0.156944 0.199018 0.8 0 0
0.172365 0.049576 0.302083 0.8 0 0
0.288889 0.347371 0.266282 0.8 0 0
0.544020 0.173065 0.077778 0.8 0 0
0.218623 0.603144 0.262500 0.8 0 0
0.261248 0.688021 0.214357 0.8 0 0
0.523730 0.658333 0.138883 0.8 0 0
0.419531 0.658333 0.216158 0.8 0 0
0.249096 0.183333 0.107904 0.8 0 0
0.288889 0.518101 0.273144 0.8 0 0
0.203987 0.453424 0.064583 0.8 0 0
0.188872 0.069851 0.064583 0.8 0 0
0.285868 0.354861 0.132915 0.8 0 0
0.249337 0.605556 0.097254 0.8 0 0
0.512889 0.374653 0.122621 0.8 0 0
0.814121 0.082158 0.275694 0.8 0 0
0.720556 0.253616 0.262500 0.8 0 0
0.968158 0.658333 0.276772 0.8 0 0
0.786682 0.251067 0.275694 0.8 0 0
0.625947 0.156944 0.179651 0.8 0 0
0.800346 0.542707 0.302083 0.8 0 0
0.809684 0.658333 0.310848 0.8 0 0
0.711111 0.335279 0.103594 0.8 0 0
0.025000 0.669721 0.297105 0.8 0 0
0.728507 0.374653 0.261910 0.8 0 0
0.654973 0.605556 0.164685 0.8 0 0
0.204109 0.532193 0.090972 0.8 0 0
0.198841 0.090195 0.064583 0.8 0 0
0.500306 0.183333 0.231574 0.8 0 0
0.785745 0.156944 0.257435 0.8 0 0
0.908735 0.688021 0.269942 0.8 0 0
0.808840 0.297759 0.064583 0.8 0 0
0.763889 0.604416 0.075124 0.8 0 0
0.183333 0.253308 0.284143 0.8 0 0
0.713187 0.211661 0.283611 0.8 0 0
0.739475 0.156944 0.132451 0.8 0 0
0.119077 0.688021 0.044452 0.8 0 0
0.777188 0.579167 0.213012 0.8 0 0
0.602293 0.156944 0.285507 0.8 0 0
0.540501 0.579167 0.158023 0.8 0 0
0.516308 0.658333 0.109581 0.8 0 0
0.777475 0.688021 0.276992 0.8 0 0
0.829861 0.583712 0.288186 0.8 0 0
0.644172 0.688021 0.251925 0.8 0 0
0.112023 0.688021 0.237333 0.8 0 0
0.367922 0.156944 0.181990 0.8 0 0
0.226961 0.183333 0.092184 0.8 0 0
0.816760 0.114047 0.290173 0.8 0 0
0.672162 0.156944 0.160510 0.8 0 0
0.804848 0.080299 0.064583 0.8 0 0
0.417174 0.605556 0.170883 0.8 0 0
0.149829 0.037785 0.083428 0.8 0 0
0.782511 0.487939 0.064583 0.8 0 0
0.729452 0.688021 0.096743 0.8 0 0
0.103251 0.658333 0.226102 0.8 0 0
0.765210 0.688021 0.173099 0.8 0 0
0.315664 0.688021 0.223934 0.8 0 0
0.277677 0.579167 0.159137 0.8 0 0
0.640377 0.183333 0.181481 0.8 0 0
0.325316 0.354861 0.106391 0.8 0 0
0.262500 0.463172 0.100411 0.8 0 0
0.737500 0.442745 0.265250 0.8 0 0
0.762610 0.183333 0.179696 0.8 0 0
0.740568 0.183333 0.171849 0.8 0 0
0.730903 0.373598 0.214697 0.8 0 0
0.522486 0.374653 0.159354 0.8 0 0
0.862611 0.688021 0.141560 0.8 0 0
0.492969 0.658333 0.063802 0.8 0 0
0.290804 0.658333 0.286649 0.8 0 0
0.711111 0.433032 0.280616 0.8 0 0
0.849171 0.039251 0.289842 0.8 0 0
0.552152 0.605556 0.085174 0.8 0 0
0.483460 0.658333 0.165092 0.8 0 0
0.797582 0.183333 0.249685 0.8 0 0
0.063589 0.658333 0.108093 0.8 0 0
0.812000 0.306836 0.302083 0.8 0 0
0.277288 0.605556 0.145943 0.8 0 0
0.329005 0.156944 0.118599 0.8 0 0
0.716543 0.605556 0.222734 0.8 0 0
0.067213 0.658333 0.028257 0.8 0 0
0.960012 0.688021 0.218407 0.8 0 0
0.218393 0.358348 0.275694 0.8 0 0
0.040714 0.658333 0.199719 0.8 0 0
0.667235 0.605556 0.151090 0.8 0 0
0.217274 0.579167 0.275610 0.8 0 0
0.503714 0.579167 0.255412 0.8 0 0
0.576120 0.183333 0.103916 0.8 0 0
0.273905 0.367980 0.104167 0.8 0 0
0.579354 0.374653 0.091480 0.8 0 0
0.196528 0.605438 0.200803 0.8 0 0
0.400022 0.605556 0.263350 0.8 0 0
0.260014 0.658333 0.138670 0.8 0 0
0.319971 0.658333 0.178284 0.8 0 0
0.521359 0.354861 0.255895 0.8 0 0
0.584919 0.579167 0.233816 0.8 0 0
0.729398 0.183333 0.155600 0.8 0 0
0.399961 0.659328 0.341667 0.8 0 0
0.222917 0.287950 0.292210 0.8 0 0
0.764666 0.183333 0.108903 0.8 0 0
0.804585 0.061773 0.275694 0.8 0 0
0.362791 0.183333 0.243229 0.8 0 0
0.854492 0.688021 0.284193 0.8 0 0
0.800287 0.246402 0.275694 0.8 0 0
0.789371 0.060415 0.296421 0.8 0 0
0.333135 0.183333 0.102454 0.8 0 0
0.183333 0.639509 0.082270 0.8 0 0
0.660842 0.688021 0.115660 0.8 0 0
0.383240 0.183333 0.189541 0.8 0 0
0.635690 0.156944 0.238738 0.8 0 0
0.212593 0.526358 0.275694 0.8 0 0
0.793597 0.242512 0.275694 0.8 0 0
0.805351 0.423122 0.090972 0.8 0 0
0.310798 0.688021 0.131008 0.8 0 0
0.291123 0.658333 0.309756 0.8 0 0
0.586733 0.688021 0.296239 0.8 0 0
0.283317 0.354861 0.220752 0.8 0 0
0.431520 0.688021 0.229971 0.8 0 0
0.737500 0.192297 0.083069 0.8 0 0
0.294560 0.688021 0.260252 0.8 0 0
0.262500 0.248554 0.277780 0.8 0 0
0.736029 0.365950 0.283611 0.8 0 0
0.394916 0.658333 0.178931 0.8 0 0
0.318608 0.658333 0.076249 0.8 0 0
0.868829 0.658333 0.107803 0.8 0 0
0.794124 0.239708 0.275694 0.8 0 0
0.721228 0.658333 0.341483 0.8 0 0
0.631656 0.364996 0.090972 0.8 0 0
0.288889 0.321290 0.270672 0.8 0 0
0.269788 0.374653 0.159721 0.8 0 0
0.420934 0.584989 0.288889 0.8 0 0
0.905568 0.688021 0.073427 0.8 0 0
0.586382 0.597401 0.288889 0.8 0 0
0.880020 0.658333 0.260091 0.8 0 0
0.752366 0.658333 0.088204 0.8 0 0
0.213184 0.119884 0.302083 0.8 0 0
0.737789 0.579167 0.173273 0.8 0 0
0.633468 0.156944 0.158854 0.8 0 0
0.192983 0.187519 0.302083 0.8 0 0
0.590500 0.658333 0.335579 0.8 0 0
0.781594 0.649360 0.090972 0.8 0 0
0.400713 0.688021 0.028800 0.8 0 0
0.522458 0.354861 0.236317 0.8 0 0
0.421644 0.688021 0.234267 0.8 0 0
0.651583 0.156944 0.253254 0.8 0 0
0.027783 0.658333 0.328514 0.8 0 0
0.262192 0.579167 0.188220 0.8 0 0
0.360234 0.605556 0.136311 0.8 0 0
0.229717 0.586063 0.262500 0.8 0 0
0.469243 0.579167 0.103330 0.8 0 0
0.662623 0.579167 0.247410 0.8 0 0
0.183333 0.421361 0.294774 0.8 0 0
0.874512 0.658333 0.144875 0.8 0 0
0.222917 0.167605 0.084754 0.8 0 0
0.564103 0.688021 0.250155 0.8 0 0
0.510293 0.688021 0.037799 0.8 0 0
0.593462 0.374653 0.255309 0.8 0 0
0.194563 0.605556 0.267965 0.8 0 0
0.549307 0.374653 0.154546 0.8 0 0
0.803472 0.160022 0.102016 0.8 0 0
0.183333 0.136218 0.301967 0.8 0 0
0.236111 0.580317 0.066873 0.8 0 0
0.782668 0.430592 0.302083 0.8 0 0
0.952212 0.658333 0.131722 0.8 0 0
0.115651 0.688021 0.266658 0.8 0 0
0.571394 0.658333 0.060149 0.8 0 0
0.121313 0.658333 0.192036 0.8 0 0
0.784969 0.498129 0.275694 0.8 0 0
0.717673 0.183333 0.219281 0.8 0 0
0.206864 0.605556 0.213540 0.8 0 0
0.809382 0.144252 0.064583 0.8 0 0
0.777083 0.193396 0.276376 0.8 0 0
0.267934 0.165472 0.288889 0.8 0 0
0.288889 0.266349 0.103065 0.8 0 0
0.807800 0.044858 0.275694 0.8 0 0
0.678608 0.605556 0.106165 0.8 0 0
0.792521 0.290417 0.302083 0.8 0 0
0.916105 0.688021 0.223867 0.8 0 0
0.207530 0.239257 0.275694 0.8 0 0
0.620736 0.688021 0.332236 0.8 0 0
0.542464 0.183333 0.089890 0.8 0 0
0.183333 0.270502 0.078038 0.8 0 0
0.816667 0.530798 0.297599 0.8 0 0
0.456265 0.658333 0.225842 0.8 0 0
0.277786 0.658333 0.070354 0.8 0 0
0.752978 0.183333 0.209701 0.8 0 0
0.266479 0.658333 0.262923 0.8 0 0
0.843111 0.027034 0.090972 0.8 0 0
0.511049 0.156944 0.195404 0.8 0 0
0.456787 0.658333 0.198434 0.8 0 0
0.775995 0.676120 0.341667 0.8 0 0
0.538815 0.183333 0.233539 0.8 0 0
0.794952 0.688021 0.083562 0.8 0 0
0.412951 0.605556 0.154801 0.8 0 0
0.752089 0.579167 0.110932 0.8 0 0
0.509323 0.374653 0.129267 0.8 0 0
0.792281 0.235297 0.275694 0.8 0 0
0.737500 0.339338 0.096506 0.8 0 0
0.460351 0.183333 0.237778 0.8 0 0
0.236111 0.603380 0.296901 0.8 0 0
0.334844 0.658333 0.098699 0.8 0 0
0.777083 0.341323 0.295833 0.8 0 0
0.685199 0.688021 0.136175 0.8 0 0
0.604976 0.374653 0.201494 0.8 0 0
0.564710 0.579167 0.163834 0.8 0 0
0.317057 0.183333 0.211028 0.8 0 0
0.754145 0.183333 0.199502 0.8 0 0
0.679247 0.658333 0.030528 0.8 0 0
0.354194 0.354861 0.229800 0.8 0 0
0.217454 0.509474 0.275694 0.8 0 0
0.454978 0.354861 0.124233 0.8 0 0
0.561506 0.183333 0.089652 0.8 0 0
0.365069 0.605556 0.268594 0.8 0 0
0.737500 0.371072 0.084063 0.8 0 0
0.774391 0.605556 0.153262 0.8 0 0
0.780294 0.250659 0.275694 0.8 0 0
0.802375 0.446616 0.302083 0.8 0 0
0.344249 0.605556 0.250567 0.8 0 0
0.663975 0.183333 0.118103 0.8 0 0
0.182147 0.605556 0.275611 0.8 0 0
0.573395 0.658333 0.279797 0.8 0 0
0.312704 0.156944 0.284353 0.8 0 0
0.770594 0.579167 0.143063 0.8 0 0
0.788195 0.321254 0.302083 0.8 0 0
0.868484 0.688021 0.224076 0.8 0 0
0.757667 0.688021 0.090195 0.8 0 0
0.383666 0.183333 0.193194 0.8 0 0
0.727091 0.688021 0.129759 0.8 0 0
0.904577 0.673627 0.025000 0.8 0 0
0.577222 0.658333 0.116897 0.8 0 0
0.306364 0.688021 0.242443 0.8 0 0
0.711111 0.349763 0.083110 0.8 0 0
0.275038 0.424817 0.283611 0.8 0 0
0.452902 0.663274 0.341667 0.8 0 0
0.493359 0.156944 0.249143 0.8 0 0
0.155460 0.025000 0.285833 0.8 0 0
0.065880 0.658333 0.123923 0.8 0 0
0.243340 0.688021 0.113020 0.8 0 0
0.049760 0.658333 0.205305 0.8 0 0
0.737500 0.272509 0.275425 0.8 0 0
0.299328 0.658333 0.075863 0.8 0 0
0.425099 0.354861 0.117271 0.8 0 0
0.872685 0.658333 0.319304 0.8 0 0
0.678334 0.354861 0.198923 0.8 0 0
0.340511 0.688021 0.112272 0.8 0 0
0.357715 0.605556 0.191564 0.8 0 0
0.560493 0.681505 0.025000 0.8 0 0
0.664346 0.579167 0.121247 0.8 0 0
0.222917 0.376247 0.070922 0.8 0 0
0.816667 0.293574 0.086611 0.8 0 0
0.534481 0.156944 0.161811 0.8 0 0
0.324948 0.580426 0.288889 0.8 0 0
0.730650 0.183333 0.272644 0.8 0 0
0.811163 0.658333 0.116733 0.8 0 0
0.708060 0.156944 0.189174 0.8 0 0
0.706782 0.590111 0.077778 0.8 0 0
0.389519 0.605556 0.183304 0.8 0 0
0.506673 0.354861 0.097354 0.8 0 0
0.073186 0.668161 0.025000 0.8 0 0
0.562728 0.156944 0.163770 0.8 0 0
0.772293 0.688021 0.116048 0.8 0 0
0.803472 0.602432 0.078023 0.8 0 0
0.537848 0.374653 0.265028 0.8 0 0
0.414155 0.183333 0.212774 0.8 0 0
0.324930 0.183159 0.288889 0.8 0 0
0.297327 0.354861 0.266482 0.8 0 0
0.458369 0.579167 0.285970 0.8 0 0
0.777083 0.635563 0.075532 0.8 0 0
0.618536 0.658333 0.086919 0.8 0 0
0.286404 0.355803 0.083056 0.8 0 0
0.772057 0.183333 0.246431 0.8 0 0
0.727736 0.501141 0.104167 0.8 0 0
0.025000 0.662468 0.286291 0.8 0 0
0.207825 0.260228 0.302083 0.8 0 0
0.270342 0.579167 0.107086 0.8 0 0
0.405608 0.688021 0.259921 0.8 0 0
0.173393 0.588646 0.051389 0.8 0 0
0.490398 0.688021 0.254243 0.8 0 0
0.777083 0.557998 0.067856 0.8 0 0
0.289006 0.658333 0.210688 0.8 0 0
0.968361 0.688021 0.221208 0.8 0 0
0.730903 0.364481 0.201472 0.8 0 0
0.186190 0.688021 0.324202 0.8 0 0
0.647490 0.579167 0.194122 0.8 0 0
0.088378 0.664910 0.341667 0.8 0 0
0.149291 0.658333 0.337019 0.8 0 0
0.659215 0.156944 0.252487 0.8 0 0
0.206345 0.183333 0.269619 0.8 0 0
0.200325 0.156944 0.127677 0.8 0 0
0.362910 0.688021 0.259751 0.8 0 0
0.266175 0.605556 0.090077 0.8 0 0
0.609332 0.579167 0.235233 0.8 0 0
0.854072 0.673226 0.025000 0.8 0 0
0.668299 0.688021 0.265069 0.8 0 0
0.208144 0.448843 0.275694 0.8 0 0
0.499638 0.658333 0.100864 0.8 0 0
0.575541 0.685301 0.341088 0.8 0 0
0.276313 0.374653 0.251938 0.8 0 0
0.097426 0.688021 0.286937 0.8 0 0
0.610962 0.579167 0.236226 0.8 0 0
0.496471 0.183333 0.198851 0.8 0 0
0.245244 0.579167 0.195642 0.8 0 0
0.157090 0.658333 0.253356 0.8 0 0
0.777252 0.473493 0.302083 0.8 0 0
0.467307 0.688021 0.157372 0.8 0 0
0.596959 0.156944 0.228887 0.8 0 0
0.082772 0.688021 0.252625 0.8 0 0
0.282985 0.282005 0.083056 0.8 0 0
0.924814 0.658333 0.038945 0.8 0 0
0.844041 0.688021 0.122038 0.8 0 0
0.264124 0.472861 0.083056 0.8 0 0
0.494063 0.183333 0.166708 0.8 0 0
0.719303 0.605556 0.273046 0.8 0 0
0.680910 0.688021 0.319679 0.8 0 0
0.262740 0.414489 0.283611 0.8 0 0
0.494563 0.605556 0.205435 0.8 0 0
0.975000 0.665601 0.096708 0.8 0 0
0.501676 0.183333 0.136394 0.8 0 0
0.176804 0.688021 0.123116 0.8 0 0
0.711111 0.422957 0.265694 0.8 0 0
0.197269 0.183333 0.264033 0.8 0 0
0.274392 0.362024 0.083056 0.8 0 0
0.737500 0.213570 0.102427 0.8 0 0
0.570638 0.162453 0.288889 0.8 0 0
0.333080 0.605556 0.214810 0.8 0 0
0.587531 0.605556 0.191500 0.8 0 0
0.825817 0.046312 0.275694 0.8 0 0
0.799657 0.138741 0.090972 0.8 0 0
0.645035 0.658333 0.276511 0.8 0 0
0.282052 0.556154 0.104167 0.8 0 0
0.731751 0.159815 0.288889 0.8 0 0
0.082484 0.688021 0.147020 0.8 0 0
0.777083 0.503061 0.081406 0.8 0 0
0.341786 0.183333 0.164259 0.8 0 0
0.438066 0.357908 0.275694 0.8 0 0
0.222917 0.383900 0.077785 0.8 0 0
0.344601 0.579167 0.178459 0.8 0 0
0.443551 0.183333 0.223868 0.8 0 0
0.565077 0.354861 0.224794 0.8 0 0
0.262500 0.506999 0.091795 0.8 0 0
0.955082 0.658333 0.331317 0.8 0 0
0.208049 0.183333 0.185115 0.8 0 0
0.567213 0.688021 0.032803 0.8 0 0
0.402976 0.658333 0.199294 0.8 0 0
0.711111 0.290594 0.267114 0.8 0 0
0.798765 0.626862 0.275694 0.8 0 0
0.449627 0.183333 0.184516 0.8 0 0
0.214571 0.129186 0.275694 0.8 0 0
0.876599 0.658333 0.050562 0.8 0 0
0.439207 0.688021 0.214196 0.8 0 0
0.342267 0.688021 0.228599 0.8 0 0
0.242465 0.594508 0.077778 0.8 0 0
0.744958 0.183333 0.100598 0.8 0 0
0.795355 0.688021 0.118101 0.8 0 0
0.711805 0.658333 0.038540 0.8 0 0
0.625314 0.688021 0.219155 0.8 0 0
0.588068 0.183333 0.193355 0.8 0 0
0.335300 0.688021 0.325678 0.8 0 0
0.649469 0.688021 0.070579 0.8 0 0
0.262500 0.244544 0.267629 0.8 0 0
0.538241 0.579167 0.185791 0.8 0 0
0.730452 0.191596 0.083056 0.8 0 0
0.269097 0.369056 0.144567 0.8 0 0
0.902287 0.658333 0.313216 0.8 0 0
0.231507 0.688021 0.038386 0.8 0 0
0.968275 0.688021 0.237333 0.8 0 0
0.638784 0.587000 0.077778 0.8 0 0
0.716680 0.559561 0.104167 0.8 0 0
0.207930 0.605556 0.291378 0.8 0 0
0.535704 0.658333 0.316385 0.8 0 0
0.710709 0.602087 0.288889 0.8 0 0
0.290866 0.579167 0.266771 0.8 0 0
0.427103 0.156944 0.191654 0.8 0 0
0.497046 0.156944 0.248821 0.8 0 0
0.467594 0.156944 0.235729 0.8 0 0
0.421953 0.594494 0.288889 0.8 0 0
0.563062 0.354861 0.119633 0.8 0 0
0.675237 0.605556 0.085773 0.8 0 0
0.459425 0.579167 0.140550 0.8 0 0
0.777083 0.250010 0.078276 0.8 0 0
0.205091 0.584549 0.104167 0.8 0 0
0.209568 0.593078 0.077778 0.8 0 0
0.720382 0.314899 0.262500 0.8 0 0
0.753550 0.688021 0.290741 0.8 0 0
0.665330 0.658333 0.167731 0.8 0 0
0.697882 0.364296 0.090972 0.8 0 0
0.209156 0.237340 0.064583 0.8 0 0
0.564025 0.579167 0.194444 0.8 0 0
0.679386 0.156944 0.286744 0.8 0 0
0.735537 0.364996 0.083056 0.8 0 0
0.461741 0.183333 0.181887 0.8 0 0
0.499176 0.594384 0.288889 0.8 0 0
0.714841 0.579167 0.269773 0.8 0 0
0.669384 0.183333 0.200062 0.8 0 0
0.397077 0.156944 0.127690 0.8 0 0
0.085536 0.688021 0.249143 0.8 0 0
0.577290 0.686095 0.026373 0.8 0 0
0.306628 0.354861 0.212087 0.8 0 0
0.816667 0.359659 0.079490 0.8 0 0
0.783608 0.688021 0.151372 0.8 0 0
0.789969 0.658333 0.198598 0.8 0 0
0.273715 0.223621 0.262500 0.8 0 0
0.975000 0.681224 0.330582 0.8 0 0
0.288889 0.199037 0.103402 0.8 0 0
0.281567 0.579167 0.145588 0.8 0 0
0.112152 0.658333 0.031340 0.8 0 0
0.816667 0.624818 0.279202 0.8 0 0
0.533183 0.354861 0.271979 0.8 0 0
0.282441 0.579167 0.280063 0.8 0 0
0.693405 0.688021 0.131926 0.8 0 0
0.341174 0.605556 0.126949 0.8 0 0
0.481876 0.688021 0.167005 0.8 0 0
0.586623 0.605556 0.107505 0.8 0 0
0.786090 0.475367 0.302083 0.8 0 0
0.333098 0.579167 0.165651 0.8 0 0
0.595292 0.156944 0.190475 0.8 0 0
0.338121 0.688021 0.184786 0.8 0 0
0.510197 0.354861 0.091186 0.8 0 0
0.470928 0.156944 0.093569 0.8 0 0
0.446941 0.156944 0.143475 0.8 0 0
0.677159 0.677184 0.025000 0.8 0 0
0.275431 0.235604 0.104167 0.8 0 0
0.406913 0.605556 0.188910 0.8 0 0
0.814184 0.688021 0.297110 0.8 0 0
0.420897 0.183333 0.192679 0.8 0 0
0.534462 0.159348 0.077778 0.8 0 0
0.223100 0.688021 0.105080 0.8 0 0
0.334895 0.579167 0.117304 0.8 0 0
0.727754 0.286281 0.283611 0.8 0 0
0.178134 0.085762 0.295511 0.8 0 0
0.809810 0.135105 0.302083 0.8 0 0
0.262500 0.523247 0.083751 0.8 0 0
0.154648 0.686250 0.340139 0.8 0 0
0.555486 0.156944 0.249762 0.8 0 0
0.091712 0.658333 0.249548 0.8 0 0
0.671292 0.156944 0.115455 0.8 0 0
0.802774 0.377966 0.064583 0.8 0 0
0.498159 0.658333 0.106692 0.8 0 0
0.358790 0.579167 0.239221 0.8 0 0
0.183333 0.254379 0.286103 0.8 0 0
0.682943 0.579167 0.189264 0.8 0 0
0.726842 0.605556 0.166643 0.8 0 0
0.931652 0.688021 0.246351 0.8 0 0
0.711111 0.372389 0.093455 0.8 0 0
0.378026 0.688021 0.047451 0.8 0 0
0.448682 0.183333 0.231136 0.8 0 0
0.911153 0.688021 0.167336 0.8 0 0
0.222917 0.300578 0.285529 0.8 0 0
0.763615 0.658333 0.268693 0.8 0 0
0.199370 0.605556 0.096968 0.8 0 0
0.035466 0.658333 0.138516 0.8 0 0
0.777083 0.418020 0.297099 0.8 0 0
0.465186 0.579167 0.124192 0.8 0 0
0.360994 0.579167 0.215254 0.8 0 0
0.223016 0.156944 0.119997 0.8 0 0
0.812638 0.104024 0.090972 0.8 0 0
0.233222 0.583571 0.077778 0.8 0 0
0.522367 0.183333 0.182744 0.8 0 0
0.188634 0.658333 0.333771 0.8 0 0
0.817367 0.659385 0.341667 0.8 0 0
0.516810 0.156944 0.176984 0.8 0 0
0.809988 0.317195 0.302083 0.8 0 0
0.601647 0.688021 0.134831 0.8 0 0
0.199203 0.688021 0.075272 0.8 0 0
0.815080 0.648392 0.090972 0.8 0 0
0.529591 0.605556 0.098930 0.8 0 0
0.768593 0.183333 0.244975 0.8 0 0
0.262500 0.236063 0.100698 0.8 0 0
0.477574 0.658333 0.215346 0.8 0 0
0.386215 0.374653 0.218327 0.8 0 0
0.406861 0.658333 0.185890 0.8 0 0
0.357013 0.354863 0.275694 0.8 0 0
0.319743 0.156944 0.090966 0.8 0 0
0.183184 0.658333 0.078791 0.8 0 0
0.029825 0.688021 0.270008 0.8 0 0
0.678203 0.658333 0.121903 0.8 0 0
0.352992 0.579167 0.177152 0.8 0 0
0.400244 0.579167 0.255496 0.8 0 0
0.405847 0.658333 0.068383 0.8 0 0
0.689426 0.579167 0.234847 0.8 0 0
0.553998 0.688021 0.283029 0.8 0 0
0.195366 0.323255 0.064583 0.8 0 0
0.792347 0.658333 0.244532 0.8 0 0
0.642803 0.658333 0.187871 0.8 0 0
0.918146 0.658333 0.103995 0.8 0 0
0.646119 0.591130 0.077778 0.8 0 0
0.279181 0.430652 0.262500 0.8 0 0
0.725138 0.157062 0.288889 0.8 0 0
0.389686 0.183333 0.153674 0.8 0 0
0.207646 0.063642 0.090972 0.8 0 0
0.561314 0.354861 0.242146 0.8 0 0
0.242448 0.688021 0.263195 0.8 0 0
0.183333 0.243950 0.066362 0.8 0 0
0.975000 0.679183 0.339145 0.8 0 0
0.231666 0.156944 0.140814 0.8 0 0
0.763889 0.590820 0.084057 0.8 0 0
0.762504 0.688021 0.122662 0.8 0 0
0.735325 0.688021 0.156132 0.8 0 0
0.219271 0.688021 0.268844 0.8 0 0
0.897045 0.688021 0.222372 0.8 0 0
0.502375 0.688021 0.233576 0.8 0 0
0.804872 0.059166 0.090972 0.8 0 0
0.292366 0.579167 0.127297 0.8 0 0
0.198127 0.444559 0.090972 0.8 0 0
0.642310 0.658333 0.114635 0.8 0 0
0.957228 0.658333 0.291056 0.8 0 0
0.711111 0.187899 0.090179 0.8 0 0
0.208547 0.055952 0.089500 0.8 0 0
0.615589 0.374653 0.169485 0.8 0 0
0.703929 0.156944 0.249459 0.8 0 0
0.183333 0.368298 0.088080 0.8 0 0
0.306925 0.156944 0.242282 0.8 0 0
0.816667 0.371807 0.284588 0.8 0 0
0.405550 0.688021 0.275033 0.8 0 0
0.276805 0.533600 0.262500 0.8 0 0
0.304351 0.605556 0.232972 0.8 0 0
0.344973 0.688021 0.176156 0.8 0 0
0.213308 0.177048 0.064583 0.8 0 0
0.550399 0.688021 0.123930 0.8 0 0
0.536176 0.688021 0.122331 0.8 0 0
0.222917 0.150340 0.283862 0.8 0 0
0.196528 0.603791 0.105914 0.8 0 0
0.657966 0.658333 0.055481 0.8 0 0
0.351277 0.354861 0.243893 0.8 0 0
0.522049 0.658333 0.334148 0.8 0 0
0.162367 0.678848 0.025000 0.8 0 0
0.565246 0.354861 0.242619 0.8 0 0
0.257524 0.156944 0.236361 0.8 0 0
0.327770 0.658333 0.085295 0.8 0 0
0.653510 0.597055 0.288889 0.8 0 0
0.711111 0.489145 0.093897 0.8 0 0
0.449182 0.605556 0.143449 0.8 0 0
0.858465 0.688021 0.103869 0.8 0 0
0.225035 0.605556 0.093646 0.8 0 0
0.387537 0.579167 0.191004 0.8 0 0
0.737500 0.207928 0.088712 0.8 0 0
0.777083 0.378361 0.275863 0.8 0 0
0.702522 0.579167 0.207729 0.8 0 0
0.557245 0.183333 0.241850 0.8 0 0
0.199911 0.250334 0.275694 0.8 0 0
0.293944 0.354861 0.091395 0.8 0 0
0.566723 0.688021 0.196179 0.8 0 0
0.436698 0.156944 0.245999 0.8 0 0
0.204697 0.602479 0.077778 0.8 0 0
0.868916 0.658333 0.101521 0.8 0 0
0.391874 0.688021 0.158981 0.8 0 0
0.140959 0.688021 0.072774 0.8 0 0
0.816667 0.126747 0.287128 0.8 0 0
0.216647 0.259989 0.275694 0.8 0 0
0.304836 0.658333 0.209847 0.8 0 0
0.110987 0.688021 0.032528 0.8 0 0
0.508067 0.605556 0.217032 0.8 0 0
0.855175 0.030451 0.281791 0.8 0 0
0.786341 0.067686 0.075853 0.8 0 0
0.190564 0.610040 0.302083 0.8 0 0
0.813033 0.688021 0.263242 0.8 0 0
0.469631 0.156944 0.135537 0.8 0 0
0.387813 0.658333 0.138216 0.8 0 0
0.684549 0.374653 0.224489 0.8 0 0
0.719163 0.354861 0.214094 0.8 0 0
0.344081 0.688021 0.282849 0.8 0 0
0.206143 0.351780 0.302083 0.8 0 0
0.444987 0.681866 0.341667 0.8 0 0
0.309363 0.354861 0.230510 0.8 0 0
0.737500 0.537611 0.098455 0.8 0 0
0.472651 0.183333 0.190939 0.8 0 0
0.648934 0.579167 0.123760 0.8 0 0
0.737066 0.524395 0.262500 0.8 0 0
0.732621 0.579167 0.239904 0.8 0 0
0.921806 0.688021 0.102856 0.8 0 0
0.652065 0.605556 0.127027 0.8 0 0
0.373108 0.605556 0.082449 0.8 0 0
0.824500 0.658333 0.082077 0.8 0 0
0.688851 0.605556 0.101281 0.8 0 0
0.657278 0.354861 0.240274 0.8 0 0
0.409034 0.688021 0.316301 0.8 0 0
0.639228 0.156944 0.100856 0.8 0 0
0.777547 0.427491 0.275694 0.8 0 0
0.558580 0.354861 0.182175 0.8 0 0
0.568393 0.688021 0.244525 0.8 0 0
0.288889 0.230458 0.101712 0.8 0 0
0.164337 0.688021 0.043203 0.8 0 0
0.342736 0.374653 0.127046 0.8 0 0
0.796638 0.658333 0.138564 0.8 0 0
0.721989 0.579167 0.153552 0.8 0 0
0.721066 0.374653 0.104682 0.8 0 0
0.156535 0.688021 0.251329 0.8 0 0
0.198950 0.585730 0.051389 0.8 0 0
0.364609 0.688021 0.259457 0.8 0 0
0.650231 0.354861 0.231463 0.8 0 0
0.501459 0.374653 0.202909 0.8 0 0
0.809515 0.207687 0.090972 0.8 0 0
0.731732 0.579167 0.084156 0.8 0 0
0.123952 0.658333 0.091364 0.8 0 0
0.613686 0.374653 0.161282 0.8 0 0
0.809146 0.688021 0.294451 0.8 0 0
0.816667 0.181543 0.077423 0.8 0 0
0.759682 0.688021 0.110578 0.8 0 0
0.655417 0.156944 0.280558 0.8 0 0
0.975000 0.678530 0.296825 0.8 0 0
0.277097 0.553702 0.283611 0.8 0 0
0.691829 0.658333 0.294699 0.8 0 0
0.625567 0.354861 0.119582 0.8 0 0
0.248736 0.658333 0.296757 0.8 0 0
0.543764 0.658333 0.300739 0.8 0 0
0.641599 0.579167 0.115417 0.8 0 0
0.892371 0.658333 0.128871 0.8 0 0
0.183333 0.622716 0.085880 0.8 0 0
0.207396 0.102045 0.302083 0.8 0 0
0.719262 0.374653 0.155357 0.8 0 0
0.324119 0.354861 0.170697 0.8 0 0
0.500619 0.688021 0.282717 0.8 0 0
0.335540 0.658333 0.331838 0.8 0 0
0.136295 0.688021 0.283767 0.8 0 0
0.809249 0.658333 0.200560 0.8 0 0
0.724877 0.540667 0.262500 0.8 0 0
0.687963 0.688021 0.056574 0.8 0 0
0.750311 0.156944 0.079859 0.8 0 0
0.124116 0.688021 0.070853 0.8 0 0
0.816667 0.561818 0.089548 0.8 0 0
0.594866 0.183333 0.183897 0.8 0 0
0.409969 0.183333 0.183407 0.8 0 0
0.737500 0.439664 0.266389 0.8 0 0
0.670573 0.688021 0.234428 0.8 0 0
0.511679 0.579167 0.224087 0.8 0 0
0.289736 0.156944 0.199437 0.8 0 0
0.199693 0.688021 0.051104 0.8 0 0
0.060342 0.658333 0.271524 0.8 0 0
0.711111 0.317231 0.283064 0.8 0 0
0.737048 0.183333 0.113310 0.8 0 0
0.440151 0.358799 0.275694 0.8 0 0
0.040506 0.688021 0.115120 0.8 0 0
0.952560 0.658333 0.069639 0.8 0 0
0.261285 0.163865 0.288889 0.8 0 0
0.629373 0.688021 0.131217 0.8 0 0
0.886968 0.688021 0.333788 0.8 0 0
0.693149 0.160699 0.077778 0.8 0 0
0.766611 0.579167 0.121576 0.8 0 0
0.472336 0.183333 0.138237 0.8 0 0
0.548336 0.579167 0.087758 0.8 0 0
0.262500 0.427028 0.096774 0.8 0 0
0.508326 0.579167 0.115803 0.8 0 0
0.450285 0.374653 0.093205 0.8 0 0
0.809462 0.105570 0.090972 0.8 0 0
0.777083 0.289938 0.085954 0.8 0 0
0.459305 0.374653 0.218722 0.8 0 0
0.315464 0.156944 0.217451 0.8 0 0
0.304691 0.658333 0.166378 0.8 0 0
0.538566 0.688021 0.256562 0.8 0 0
0.566867 0.688021 0.064939 0.8 0 0
0.241391 0.183333 0.141748 0.8 0 0
0.808068 0.496000 0.090972 0.8 0 0
0.369072 0.688021 0.126145 0.8 0 0
0.280067 0.579167 0.273143 0.8 0 0
0.324096 0.605556 0.212800 0.8 0 0
0.807316 0.275844 0.275694 0.8 0 0
0.288198 0.605556 0.117163 0.8 0 0
0.777083 0.247403 0.291628 0.8 0 0
0.792538 0.359828 0.275694 0.8 0 0
0.222247 0.205122 0.302083 0.8 0 0
0.277384 0.195256 0.262500 0.8 0 0
0.362846 0.156944 0.273574 0.8 0 0
0.395799 0.156944 0.234003 0.8 0 0
0.513865 0.605556 0.260818 0.8 0 0
0.417878 0.183333 0.253640 0.8 0 0
0.777083 0.400953 0.080882 0.8 0 0
0.214544 0.419261 0.275694 0.8 0 0
0.829735 0.068225 0.079717 0.8 0 0
0.737407 0.559404 0.083056 0.8 0 0
0.733714 0.605556 0.205030 0.8 0 0
0.508911 0.688021 0.037780 0.8 0 0
0.242477 0.688021 0.274815 0.8 0 0
0.046783 0.688021 0.134245 0.8 0 0
0.589642 0.183333 0.166869 0.8 0 0
0.397575 0.688021 0.094908 0.8 0 0
0.419193 0.183333 0.236193 0.8 0 0
0.200376 0.159501 0.064583 0.8 0 0
0.396354 0.156944 0.184780 0.8 0 0
0.220237 0.156944 0.171359 0.8 0 0
0.719508 0.353206 0.083056 0.8 0 0
0.665446 0.658333 0.274008 0.8 0 0
0.575337 0.658333 0.300604 0.8 0 0
0.222917 0.549162 0.295089 0.8 0 0
0.026818 0.686540 0.293354 0.8 0 0
0.222917 0.307132 0.078131 0.8 0 0
0.422816 0.354861 0.244181 0.8 0 0
0.808253 0.688021 0.289256 0.8 0 0
0.657399 0.156944 0.213109 0.8 0 0
0.800790 0.380560 0.090972 0.8 0 0
0.848475 0.688021 0.124157 0.8 0 0
0.664290 0.183333 0.222625 0.8 0 0
0.710616 0.601752 0.288889 0.8 0 0
0.438333 0.354861 0.133546 0.8 0 0
0.339114 0.374653 0.270395 0.8 0 0
0.306431 0.658333 0.200512 0.8 0 0
0.263812 0.673411 0.341667 0.8 0 0
0.233111 0.156944 0.110823 0.8 0 0
0.547925 0.354861 0.196291 0.8 0 0
0.503587 0.374653 0.093785 0.8 0 0
0.493723 0.658333 0.189968 0.8 0 0
0.150888 0.039338 0.294861 0.8 0 0
0.339215 0.688021 0.226157 0.8 0 0
0.173262 0.688021 0.098343 0.8 0 0
0.201492 0.156944 0.079930 0.8 0 0
0.738438 0.602186 0.077778 0.8 0 0
0.624567 0.658333 0.098835 0.8 0 0
0.452331 0.594976 0.288889 0.8 0 0
0.227332 0.605556 0.209784 0.8 0 0
0.726153 0.183333 0.264287 0.8 0 0
0.266699 0.356310 0.262500 0.8 0 0
0.328838 0.579167 0.092506 0.8 0 0
0.451299 0.688021 0.034516 0.8 0 0
0.763777 0.605556 0.251630 0.8 0 0
0.730399 0.156944 0.246985 0.8 0 0
0.573337 0.658333 0.212244 0.8 0 0
0.777083 0.238665 0.285908 0.8 0 0
0.555819 0.584574 0.288889 0.8 0 0
0.437642 0.156944 0.235285 0.8 0 0
0.270731 0.605556 0.231310 0.8 0 0
0.221927 0.101001 0.068821 0.8 0 0
0.681239 0.181624 0.288889 0.8 0 0
0.056658 0.688021 0.126097 0.8 0 0
0.045343 0.688021 0.155574 0.8 0 0
0.737500 0.314416 0.102291 0.8 0 0
0.513509 0.374653 0.096593 0.8 0 0
0.752904 0.579167 0.090824 0.8 0 0
0.777128 0.115755 0.285213 0.8 0 0
0.721486 0.234819 0.262500 0.8 0 0
0.571307 0.658333 0.331896 0.8 0 0
0.681942 0.579167 0.210036 0.8 0 0
0.183333 0.335700 0.288795 0.8 0 0
0.692253 0.688021 0.321988 0.8 0 0
0.514179 0.579167 0.238223 0.8 0 0
0.713246 0.183333 0.179007 0.8 0 0
0.608621 0.658333 0.072606 0.8 0 0
0.730224 0.388081 0.083056 0.8 0 0
0.183333 0.529515 0.084064 0.8 0 0
0.029191 0.688021 0.236538 0.8 0 0
0.975000 0.679976 0.265880 0.8 0 0
0.618427 0.605556 0.147644 0.8 0 0
0.448363 0.688021 0.276225 0.8 0 0
0.278807 0.173124 0.288889 0.8 0 0
0.737500 0.300862 0.277164 0.8 0 0
0.222645 0.322296 0.302083 0.8 0 0
0.437939 0.374653 0.204121 0.8 0 0
0.729009 0.605556 0.176894 0.8 0 0
0.204870 0.658333 0.071688 0.8 0 0
0.664123 0.183333 0.084994 0.8 0 0
0.490110 0.688021 0.184218 0.8 0 0
0.368496 0.166996 0.077778 0.8 0 0
0.306727 0.354861 0.167162 0.8 0 0
0.364865 0.183333 0.080503 0.8 0 0
0.715828 0.283188 0.083056 0.8 0 0
0.200486 0.295984 0.090972 0.8 0 0
0.336858 0.605556 0.086888 0.8 0 0
0.400207 0.604019 0.077778 0.8 0 0
0.764916 0.605556 0.268890 0.8 0 0
0.734634 0.688021 0.063434 0.8 0 0
0.555912 0.161072 0.077778 0.8 0 0
0.421387 0.658333 0.175114 0.8 0 0
0.777083 0.433298 0.287723 0.8 0 0
0.459628 0.658333 0.236994 0.8 0 0
0.777646 0.362886 0.090972 0.8 0 0
0.177934 0.085134 0.082499 0.8 0 0
0.388259 0.354861 0.125011 0.8 0 0
0.275552 0.327982 0.262500 0.8 0 0
0.657560 0.688021 0.318269 0.8 0 0
0.800710 0.688021 0.313320 0.8 0 0
0.469021 0.658333 0.114780 0.8 0 0
0.032588 0.688021 0.229574 0.8 0 0
0.212987 0.265105 0.302083 0.8 0 0
0.541297 0.605556 0.178769 0.8 0 0
0.852937 0.688021 0.154826 0.8 0 0
0.641606 0.354861 0.240798 0.8 0 0
0.550607 0.658333 0.090069 0.8 0 0
0.149610 0.658333 0.038878 0.8 0 0
0.217121 0.658333 0.068017 0.8 0 0
0.694874 0.658333 0.260256 0.8 0 0
0.568193 0.605406 0.288889 0.8 0 0
0.485098 0.605556 0.130383 0.8 0 0
0.920712 0.688021 0.031298 0.8 0 0
0.310259 0.181874 0.288889 0.8 0 0
0.699947 0.156944 0.176475 0.8 0 0
0.817083 0.108716 0.296975 0.8 0 0
0.669398 0.354861 0.222229 0.8 0 0
0.744495 0.183333 0.269483 0.8 0 0
0.302575 0.658333 0.114549 0.8 0 0
0.803472 0.583236 0.110372 0.8 0 0
0.724842 0.156944 0.246399 0.8 0 0
0.777083 0.362449 0.285641 0.8 0 0
0.044566 0.688021 0.144796 0.8 0 0
0.025000 0.683506 0.213036 0.8 0 0
0.548095 0.598917 0.288889 0.8 0 0
0.818359 0.688021 0.183858 0.8 0 0
0.777083 0.270925 0.069386 0.8 0 0
0.283734 0.688021 0.325820 0.8 0 0
0.539356 0.354861 0.163092 0.8 0 0
0.623204 0.658333 0.255723 0.8 0 0
0.206416 0.592456 0.051389 0.8 0 0
0.838346 0.025479 0.090972 0.8 0 0
0.807917 0.605556 0.301860 0.8 0 0
0.616125 0.374653 0.133913 0.8 0 0
0.583493 0.579167 0.176327 0.8 0 0
0.737500 0.197890 0.084356 0.8 0 0
0.057646 0.658333 0.222420 0.8 0 0
0.585795 0.354861 0.252936 0.8 0 0
0.171401 0.025000 0.277318 0.8 0 0
0.449342 0.688021 0.038509 0.8 0 0
0.286925 0.374653 0.269172 0.8 0 0
0.194538 0.619334 0.302083 0.8 0 0
0.202370 0.688021 0.310188 0.8 0 0
0.201132 0.688021 0.157107 0.8 0 0
0.679969 0.374653 0.137909 0.8 0 0
0.904925 0.658333 0.151775 0.8 0 0
0.647490 0.177377 0.288889 0.8 0 0
0.714654 0.579167 0.170142 0.8 0 0
0.724685 0.320118 0.262500 0.8 0 0
0.744013 0.579167 0.180193 0.8 0 0
0.552789 0.688021 0.284505 0.8 0 0
0.463519 0.374653 0.119836 0.8 0 0
0.682752 0.688021 0.259684 0.8 0 0
0.618538 0.579167 0.102003 0.8 0 0
0.816667 0.543454 0.295170 0.8 0 0
0.767611 0.156944 0.186055 0.8 0 0
0.280199 0.183333 0.090239 0.8 0 0
0.624706 0.579167 0.166051 0.8 0 0
0.179209 0.605556 0.084545 0.8 0 0
0.820268 0.090979 0.296981 0.8 0 0
0.302646 0.156944 0.111235 0.8 0 0
0.542693 0.685184 0.341205 0.8 0 0
0.245344 0.658333 0.079487 0.8 0 0
0.485619 0.688021 0.297252 0.8 0 0
0.220581 0.231111 0.302083 0.8 0 0
0.384259 0.175236 0.288889 0.8 0 0
0.426107 0.688021 0.219287 0.8 0 0
0.975000 0.666933 0.276405 0.8 0 0
0.734116 0.688021 0.238062 0.8 0 0
0.269097 0.368157 0.202937 0.8 0 0
0.341248 0.156944 0.102286 0.8 0 0
0.256042 0.605556 0.259871 0.8 0 0
0.648923 0.688021 0.064948 0.8 0 0
0.512020 0.688021 0.054132 0.8 0 0
0.441865 0.596940 0.077778 0.8 0 0
0.196528 0.583339 0.176076 0.8 0 0
0.793708 0.180275 0.064583 0.8 0 0
0.781339 0.553503 0.302083 0.8 0 0
0.800170 0.393624 0.302083 0.8 0 0
0.297849 0.579167 0.272318 0.8 0 0
0.373849 0.605556 0.097177 0.8 0 0
0.196528 0.157443 0.078113 0.8 0 0
0.047330 0.688021 0.318250 0.8 0 0
0.787754 0.224628 0.302083 0.8 0 0
0.780383 0.688021 0.334441 0.8 0 0
0.369144 0.605556 0.247951 0.8 0 0
0.816667 0.184714 0.286227 0.8 0 0
0.196528 0.177219 0.281351 0.8 0 0
0.221757 0.099797 0.075463 0.8 0 0
0.954567 0.686210 0.026488 0.8 0 0
0.599737 0.183333 0.237366 0.8 0 0
0.146919 0.688021 0.286890 0.8 0 0
0.661675 0.364394 0.090972 0.8 0 0
0.282065 0.688021 0.129277 0.8 0 0
0.639643 0.658333 0.123565 0.8 0 0
0.776575 0.658333 0.300633 0.8 0 0
0.412488 0.579167 0.109212 0.8 0 0
0.231594 0.688021 0.288603 0.8 0 0
0.222917 0.239863 0.279512 0.8 0 0
0.540314 0.658333 0.074867 0.8 0 0
0.391437 0.667922 0.025000 0.8 0 0
0.618797 0.658333 0.336139 0.8 0 0
0.411703 0.658333 0.108102 0.8 0 0
0.706442 0.658333 0.082734 0.8 0 0
0.077157 0.688021 0.149925 0.8 0 0
0.503629 0.363186 0.090972 0.8 0 0
0.263047 0.571073 0.262500 0.8 0 0
0.768167 0.658333 0.152683 0.8 0 0
0.055074 0.688021 0.232554 0.8 0 0
0.612941 0.658333 0.220980 0.8 0 0
0.815443 0.211718 0.275694 0.8 0 0
0.486350 0.354861 0.125169 0.8 0 0
0.468430 0.688021 0.298331 0.8 0 0
0.619754 0.658333 0.049228 0.8 0 0
0.796324 0.605556 0.313474 0.8 0 0
0.473037 0.688021 0.302542 0.8 0 0
0.261261 0.658333 0.265117 0.8 0 0
0.288889 0.288504 0.086630 0.8 0 0
0.434234 0.579167 0.153655 0.8 0 0
0.789045 0.557139 0.275694 0.8 0 0
