0.251193 0.440625 0.970680 0.8 0 0
0.469174 0.458438 0.263319 0.8 0 0
0.335403 0.459625 0.257365 0.8 0 0
0.209295 0.458438 0.412660 0.8 0 0
0.148382 0.458438 0.208697 0.8 0 0
0.543920 0.458438 0.449393 0.8 0 0
0.649502 0.458438 0.850390 0.8 0 0
0.593153 0.458438 0.835894 0.8 0 0
0.049676 0.440625 0.305126 0.8 0 0
0.028707 0.458438 0.393264 0.8 0 0
0.187748 0.458438 0.523325 0.8 0 0
0.053982 0.440625 0.076346 0.8 0 0
0.555740 0.440625 0.077506 0.8 0 0
0.094155 0.246315 0.069531 0.8 0 0
0.262515 0.440625 0.554376 0.8 0 0
0.366629 0.563280 0.268438 0.8 0 0
0.099219 0.402420 0.924855 0.8 0 0
0.493431 0.458438 0.697425 0.8 0 0
0.069531 0.376531 0.074115 0.8 0 0
0.603906 0.054808 0.073377 0.8 0 0
0.431940 0.458438 0.529181 0.8 0 0
0.421475 0.440625 0.958619 0.8 0 0
0.442923 0.447861 0.025000 0.8 0 0
0.189323 0.458438 0.424721 0.8 0 0
0.246509 0.458438 0.501609 0.8 0 0
0.559268 0.440625 0.659097 0.8 0 0
0.651695 0.458438 0.717778 0.8 0 0
0.395432 0.572002 0.261730 0.8 0 0
0.089601 0.440625 0.376796 0.8 0 0
0.059922 0.440625 0.547388 0.8 0 0
0.294386 0.458438 0.049528 0.8 0 0
0.169370 0.440625 0.033031 0.8 0 0
0.176825 0.458438 0.261116 0.8 0 0
0.362372 0.510629 0.274888 0.8 0 0
0.678125 0.457783 0.881557 0.8 0 0
0.409735 0.440625 0.942354 0.8 0 0
0.105467 0.458438 0.323508 0.8 0 0
0.275152 0.458438 0.083449 0.8 0 0
0.365127 0.440625 0.551012 0.8 0 0
0.461927 0.465562 0.372081 0.8 0 0
0.209873 0.440625 0.273003 0.8 0 0
0.086153 0.458438 0.888660 0.8 0 0
0.287151 0.440625 0.800958 0.8 0 0
0.308405 0.467047 0.272689 0.8 0 0
0.416652 0.458438 0.095075 0.8 0 0
0.192851 0.440625 0.239429 0.8 0 0
0.099219 0.258784 0.081886 0.8 0 0
0.452430 0.440625 0.486330 0.8 0 0
0.099219 0.065716 0.084817 0.8 0 0
0.274653 0.458438 0.809974 0.8 0 0
0.127054 0.458438 0.575047 0.8 0 0
0.312346 0.458438 0.733927 0.8 0 0
0.342631 0.483054 0.276252 0.8 0 0
0.627616 0.440625 0.726128 0.8 0 0
0.633594 0.227453 0.082238 0.8 0 0
0.623818 0.025000 0.901107 0.8 0 0
0.081945 0.147416 0.099219 0.8 0 0
0.490262 0.440625 0.321913 0.8 0 0
0.423289 0.440625 0.787998 0.8 0 0
0.069531 0.031799 0.094028 0.8 0 0
0.289682 0.458438 0.841837 0.8 0 0
0.565746 0.458438 0.754656 0.8 0 0
0.255000 0.458438 0.849027 0.8 0 0
0.517251 0.458438 0.081072 0.8 0 0
0.476110 0.440625 0.316491 0.8 0 0
0.049577 0.458438 0.610157 0.8 0 0
0.543522 0.458438 0.334612 0.8 0 0
0.302359 0.458438 0.667679 0.8 0 0
0.239373 0.458438 0.399178 0.8 0 0
0.629962 0.392374 0.099219 0.8 0 0
0.588350 0.458438 0.881847 0.8 0 0
0.171264 0.440625 0.350036 0.8 0 0
0.288825 0.440625 0.487896 0.8 0 0
0.374311 0.459625 0.303709 0.8 0 0
0.305852 0.465562 0.343705 0.8 0 0
0.589147 0.458438 0.423996 0.8 0 0
0.641828 0.440625 0.872859 0.8 0 0
0.415715 0.440625 0.420923 0.8 0 0
0.076266 0.458438 0.816411 0.8 0 0
0.085016 0.458438 0.697454 0.8 0 0
0.677089 0.440625 0.957054 0.8 0 0
0.054201 0.440625 0.955836 0.8 0 0
0.502062 0.458438 0.245663 0.8 0 0
0.669853 0.458438 0.217656 0.8 0 0
0.424258 0.459625 0.165241 0.8 0 0
0.678125 0.443223 0.404194 0.8 0 0
0.627775 0.121299 0.930469 0.8 0 0
0.408858 0.458438 0.275844 0.8 0 0
0.383524 0.448302 0.025000 0.8 0 0
0.099219 0.164514 0.923223 0.8 0 0
0.051311 0.440625 0.855551 0.8 0 0
0.322461 0.515437 0.261956 0.8 0 0
0.289742 0.440625 0.719459 0.8 0 0
0.474834 0.458438 0.360357 0.8 0 0
0.076784 0.440625 0.223425 0.8 0 0
0.385807 0.459625 0.345886 0.8 0 0
0.060918 0.458438 0.822528 0.8 0 0
0.504873 0.458438 0.162454 0.8 0 0
0.575274 0.458438 0.459686 0.8 0 0
0.188864 0.440625 0.608563 0.8 0 0
0.258488 0.440625 0.381203 0.8 0 0
0.506726 0.458438 0.588297 0.8 0 0
0.559049 0.458438 0.293558 0.8 0 0
0.388109 0.440625 0.925800 0.8 0 0
0.299728 0.458438 0.492534 0.8 0 0
0.604513 0.432012 0.930469 0.8 0 0
0.414778 0.458438 0.231833 0.8 0 0
0.229347 0.440625 0.948037 0.8 0 0
0.273916 0.458438 0.387059 0.8 0 0
0.678125 0.444265 0.945631 0.8 0 0
0.345707 0.541562 0.252535 0.8 0 0
0.245373 0.458438 0.852332 0.8 0 0
0.628155 0.458438 0.380246 0.8 0 0
0.346111 0.440625 0.057472 0.8 0 0
0.602661 0.458438 0.527152 0.8 0 0
0.357811 0.440625 0.738739 0.8 0 0
0.603906 0.259824 0.905808 0.8 0 0
0.069531 0.187777 0.088549 0.8 0 0
0.646971 0.440625 0.312085 0.8 0 0
0.065782 0.440625 0.805712 0.8 0 0
0.678125 0.452488 0.936730 0.8 0 0
0.089336 0.135175 0.069531 0.8 0 0
0.422113 0.440625 0.708558 0.8 0 0
0.065263 0.458438 0.649703 0.8 0 0
0.045809 0.440625 0.502334 0.8 0 0
0.356934 0.458438 0.187329 0.8 0 0
0.617728 0.043595 0.099219 0.8 0 0
0.087010 0.440625 0.677681 0.8 0 0
0.027830 0.440625 0.592269 0.8 0 0
0.652990 0.458438 0.026885 0.8 0 0
0.324444 0.440625 0.388161 0.8 0 0
0.623590 0.335980 0.930469 0.8 0 0
0.560185 0.458438 0.418487 0.8 0 0
0.157869 0.440625 0.358995 0.8 0 0
0.519284 0.458438 0.166339 0.8 0 0
0.160221 0.458438 0.098119 0.8 0 0
0.313262 0.440625 0.316028 0.8 0 0
0.165264 0.458438 0.486214 0.8 0 0
0.060141 0.458438 0.738073 0.8 0 0
0.377465 0.458438 0.508567 0.8 0 0
0.399550 0.458438 0.561827 0.8 0 0
0.053802 0.458438 0.973869 0.8 0 0
0.097175 0.440625 0.604765 0.8 0 0
0.043278 0.440625 0.288601 0.8 0 0
0.378740 0.440625 0.364706 0.8 0 0
0.450696 0.458438 0.655154 0.8 0 0
0.608760 0.458438 0.375027 0.8 0 0
0.662458 0.440625 0.709225 0.8 0 0
0.470313 0.465467 0.244499 0.8 0 0
0.357512 0.458438 0.480560 0.8 0 0
0.362199 0.465562 0.286792 0.8 0 0
0.266561 0.440625 0.491665 0.8 0 0
0.035385 0.440625 0.547301 0.8 0 0
0.239971 0.440625 0.145290 0.8 0 0
0.422034 0.440625 0.152219 0.8 0 0
0.069531 0.269527 0.925303 0.8 0 0
0.152189 0.440625 0.938150 0.8 0 0
0.459347 0.458438 0.243807 0.8 0 0
0.215653 0.440625 0.092263 0.8 0 0
0.594349 0.440625 0.817541 0.8 0 0
0.072240 0.440625 0.909564 0.8 0 0
0.655940 0.458438 0.413733 0.8 0 0
0.532658 0.440625 0.085247 0.8 0 0
0.633138 0.458438 0.117080 0.8 0 0
0.633594 0.046246 0.910506 0.8 0 0
0.632918 0.440625 0.474588 0.8 0 0
0.603906 0.421459 0.913806 0.8 0 0
0.265465 0.458438 0.172456 0.8 0 0
0.214657 0.458438 0.292457 0.8 0 0
0.607046 0.458438 0.560087 0.8 0 0
0.127293 0.458438 0.730390 0.8 0 0
0.025000 0.457848 0.442580 0.8 0 0
0.369861 0.465562 0.233823 0.8 0 0
0.446650 0.440625 0.893415 0.8 0 0
0.217886 0.458438 0.402338 0.8 0 0
0.274653 0.440625 0.326175 0.8 0 0
0.093321 0.146617 0.099219 0.8 0 0
0.599811 0.440625 0.853840 0.8 0 0
0.396181 0.440625 0.391205 0.8 0 0
0.193608 0.440625 0.658169 0.8 0 0
0.233652 0.458438 0.713922 0.8 0 0
0.462915 0.458438 0.303909 0.8 0 0
0.099219 0.152591 0.903998 0.8 0 0
0.079376 0.458438 0.153408 0.8 0 0
0.603906 0.105329 0.080196 0.8 0 0
0.306764 0.440625 0.496390 0.8 0 0
0.628015 0.458438 0.342933 0.8 0 0
0.633594 0.255473 0.913077 0.8 0 0
0.665069 0.458438 0.136621 0.8 0 0
0.095820 0.458438 0.599952 0.8 0 0
0.611551 0.458438 0.676000 0.8 0 0
0.670232 0.440625 0.689829 0.8 0 0
0.167178 0.458438 0.294805 0.8 0 0
0.644938 0.440625 0.718561 0.8 0 0
0.460861 0.465562 0.336652 0.8 0 0
0.622566 0.043963 0.930469 0.8 0 0
0.096509 0.410107 0.099219 0.8 0 0
0.489525 0.458438 0.322783 0.8 0 0
0.678125 0.443263 0.272713 0.8 0 0
0.102298 0.458438 0.909825 0.8 0 0
0.654565 0.440625 0.613057 0.8 0 0
0.358372 0.465562 0.267744 0.8 0 0
0.412067 0.458438 0.723344 0.8 0 0
0.392872 0.458438 0.725780 0.8 0 0
0.114257 0.458438 0.677101 0.8 0 0
0.574935 0.440625 0.598531 0.8 0 0
0.305489 0.458438 0.659387 0.8 0 0
0.039909 0.440625 0.769704 0.8 0 0
0.073535 0.440625 0.328088 0.8 0 0
0.233652 0.440625 0.856101 0.8 0 0
0.669036 0.458438 0.220149 0.8 0 0
0.544717 0.440625 0.161323 0.8 0 0
0.318507 0.465562 0.370429 0.8 0 0
0.350476 0.458438 0.909593 0.8 0 0
0.225460 0.440625 0.714908 0.8 0 0
0.414778 0.458438 0.738015 0.8 0 0
0.333394 0.440625 0.797884 0.8 0 0
0.603906 0.361589 0.915082 0.8 0 0
0.353383 0.558781 0.253028 0.8 0 0
0.147006 0.458438 0.647761 0.8 0 0
0.479319 0.458438 0.973116 0.8 0 0
0.467699 0.440625 0.217772 0.8 0 0
0.577905 0.458438 0.710849 0.8 0 0
0.603906 0.147720 0.927450 0.8 0 0
0.125061 0.458438 0.792347 0.8 0 0
0.258070 0.440625 0.248417 0.8 0 0
0.578802 0.440625 0.211132 0.8 0 0
0.086813 0.275057 0.930469 0.8 0 0
0.232795 0.458438 0.213800 0.8 0 0
0.114536 0.458438 0.937310 0.8 0 0
0.169869 0.458438 0.319217 0.8 0 0
0.280513 0.440625 0.492592 0.8 0 0
0.038474 0.440625 0.288224 0.8 0 0
0.562358 0.440625 0.824818 0.8 0 0
0.320498 0.440625 0.408195 0.8 0 0
0.413921 0.458438 0.881644 0.8 0 0
0.417322 0.465562 0.206229 0.8 0 0
0.071917 0.398006 0.099219 0.8 0 0
0.050693 0.440625 0.494912 0.8 0 0
0.427196 0.458438 0.533066 0.8 0 0
0.484900 0.440625 0.575366 0.8 0 0
0.610454 0.458438 0.759904 0.8 0 0
0.390112 0.459625 0.243622 0.8 0 0
0.553986 0.458438 0.377492 0.8 0 0
0.545834 0.440625 0.545243 0.8 0 0
0.618195 0.217407 0.069531 0.8 0 0
0.117606 0.458438 0.456961 0.8 0 0
0.605491 0.440625 0.711747 0.8 0 0
0.231858 0.458438 0.056631 0.8 0 0
0.323368 0.458438 0.744451 0.8 0 0
0.074890 0.316586 0.930469 0.8 0 0
0.532858 0.458438 0.094060 0.8 0 0
0.633594 0.182716 0.077250 0.8 0 0
0.536386 0.440625 0.690409 0.8 0 0
0.513822 0.440625 0.137665 0.8 0 0
0.627382 0.086798 0.069531 0.8 0 0
0.491338 0.440625 0.275931 0.8 0 0
0.474775 0.440625 0.134882 0.8 0 0
0.388069 0.440625 0.914058 0.8 0 0
0.423887 0.458438 0.356008 0.8 0 0
0.607285 0.458438 0.588703 0.8 0 0
0.662817 0.440625 0.826761 0.8 0 0
0.651137 0.449178 0.025000 0.8 0 0
0.339792 0.458438 0.340845 0.8 0 0
0.646393 0.440625 0.241923 0.8 0 0
0.047823 0.440625 0.967288 0.8 0 0
0.137698 0.458438 0.819252 0.8 0 0
0.069531 0.430744 0.924601 0.8 0 0
0.205827 0.440625 0.236124 0.8 0 0
0.677966 0.440625 0.619493 0.8 0 0
0.376408 0.440625 0.920175 0.8 0 0
0.248222 0.465562 0.243796 0.8 0 0
0.433176 0.440625 0.118501 0.8 0 0
0.322124 0.459625 0.328346 0.8 0 0
0.575174 0.458438 0.790346 0.8 0 0
0.232812 0.463798 0.288988 0.8 0 0
0.025000 0.448925 0.176515 0.8 0 0
0.390540 0.458438 0.840677 0.8 0 0
0.350177 0.458438 0.300517 0.8 0 0
0.312704 0.440625 0.764833 0.8 0 0
0.604909 0.273459 0.069531 0.8 0 0
0.326139 0.440625 0.696004 0.8 0 0
0.241466 0.440625 0.149204 0.8 0 0
0.195023 0.458438 0.376448 0.8 0 0
0.665607 0.458438 0.726505 0.8 0 0
0.368475 0.440625 0.065503 0.8 0 0
0.494049 0.440625 0.867264 0.8 0 0
0.678125 0.449409 0.405963 0.8 0 0
0.489345 0.458438 0.403150 0.8 0 0
0.187748 0.458438 0.736072 0.8 0 0
0.093667 0.440625 0.061299 0.8 0 0
0.554963 0.458438 0.089624 0.8 0 0
0.385856 0.458438 0.369722 0.8 0 0
0.619484 0.458438 0.517990 0.8 0 0
0.362663 0.459625 0.160348 0.8 0 0
0.100723 0.458438 0.832212 0.8 0 0
0.239756 0.465562 0.289691 0.8 0 0
0.532060 0.440625 0.070924 0.8 0 0
0.603906 0.239478 0.098289 0.8 0 0
0.279716 0.458438 0.131258 0.8 0 0
0.664332 0.440625 0.649587 0.8 0 0
0.035106 0.458438 0.218323 0.8 0 0
0.471585 0.440625 0.167875 0.8 0 0
0.619384 0.458438 0.893589 0.8 0 0
0.448125 0.458438 0.175385 0.8 0 0
0.410373 0.507813 0.264238 0.8 0 0
0.400227 0.458438 0.667128 0.8 0 0
0.356715 0.458438 0.234037 0.8 0 0
0.056633 0.440625 0.767674 0.8 0 0
0.678125 0.449446 0.799189 0.8 0 0
0.346553 0.523543 0.254972 0.8 0 0
0.401213 0.496528 0.266729 0.8 0 0
0.143099 0.458438 0.346963 0.8 0 0
0.334547 0.465562 0.257096 0.8 0 0
0.192412 0.440625 0.554086 0.8 0 0
0.301981 0.440625 0.467398 0.8 0 0
0.301044 0.458438 0.720184 0.8 0 0
0.597219 0.440625 0.156597 0.8 0 0
0.184419 0.440625 0.818295 0.8 0 0
0.553567 0.440625 0.321246 0.8 0 0
0.665687 0.440625 0.675507 0.8 0 0
0.603906 0.042644 0.920882 0.8 0 0
0.363931 0.440625 0.870540 0.8 0 0
0.044912 0.458438 0.037264 0.8 0 0
0.431202 0.465562 0.176845 0.8 0 0
0.378142 0.452403 0.975000 0.8 0 0
0.316854 0.514585 0.248879 0.8 0 0
0.301655 0.465562 0.221073 0.8 0 0
0.422888 0.465562 0.252755 0.8 0 0
0.631043 0.179215 0.930469 0.8 0 0
0.293190 0.458438 0.046281 0.8 0 0
0.088883 0.440625 0.174863 0.8 0 0
0.095401 0.440625 0.263058 0.8 0 0
0.644021 0.440625 0.865553 0.8 0 0
0.527735 0.440625 0.864625 0.8 0 0
0.419143 0.458438 0.655705 0.8 0 0
0.514639 0.440625 0.655299 0.8 0 0
0.081110 0.440625 0.677159 0.8 0 0
0.631845 0.025000 0.076288 0.8 0 0
0.441209 0.458438 0.425967 0.8 0 0
0.585639 0.440625 0.628220 0.8 0 0
0.597857 0.458438 0.891327 0.8 0 0
0.242303 0.458438 0.934092 0.8 0 0
0.633594 0.054897 0.910551 0.8 0 0
0.629669 0.458438 0.429099 0.8 0 0
0.032216 0.440625 0.647094 0.8 0 0
0.631603 0.440625 0.036133 0.8 0 0
0.594907 0.458438 0.068402 0.8 0 0
0.399643 0.459625 0.285545 0.8 0 0
0.257671 0.458438 0.507727 0.8 0 0
0.249479 0.458438 0.029436 0.8 0 0
0.547329 0.458438 0.128677 0.8 0 0
0.246927 0.440625 0.393061 0.8 0 0
0.524307 0.458438 0.708471 0.8 0 0
0.641210 0.458438 0.626509 0.8 0 0
0.333146 0.575406 0.269413 0.8 0 0
0.112723 0.458438 0.108644 0.8 0 0
0.442424 0.458438 0.896198 0.8 0 0
0.039292 0.440625 0.128040 0.8 0 0
0.300047 0.440625 0.403411 0.8 0 0
0.047384 0.458438 0.926611 0.8 0 0
0.298831 0.440625 0.784084 0.8 0 0
0.360203 0.456775 0.975000 0.8 0 0
0.047623 0.440625 0.325595 0.8 0 0
0.425043 0.440625 0.099627 0.8 0 0
0.323727 0.458438 0.427330 0.8 0 0
0.437899 0.459625 0.239527 0.8 0 0
0.338297 0.440625 0.735753 0.8 0 0
0.170208 0.458438 0.150799 0.8 0 0
0.158667 0.458438 0.222353 0.8 0 0
0.631005 0.458438 0.789969 0.8 0 0
0.603906 0.188284 0.072011 0.8 0 0
0.256076 0.440625 0.425938 0.8 0 0
0.079994 0.458438 0.924727 0.8 0 0
0.253339 0.459625 0.345778 0.8 0 0
0.624886 0.458438 0.384102 0.8 0 0
0.165085 0.458438 0.186895 0.8 0 0
0.633594 0.228405 0.926602 0.8 0 0
0.532120 0.440625 0.062140 0.8 0 0
0.588828 0.440625 0.650080 0.8 0 0
0.494288 0.458438 0.071040 0.8 0 0
0.369512 0.458438 0.624683 0.8 0 0
0.367060 0.440625 0.031465 0.8 0 0
0.441986 0.458438 0.442522 0.8 0 0
0.105906 0.458438 0.404281 0.8 0 0
0.409656 0.458438 0.123894 0.8 0 0
0.195841 0.440625 0.696903 0.8 0 0
0.176865 0.440625 0.685422 0.8 0 0
0.513184 0.440625 0.958271 0.8 0 0
0.392274 0.440625 0.764862 0.8 0 0
0.611648 0.045980 0.930469 0.8 0 0
0.397915 0.440625 0.399439 0.8 0 0
0.290918 0.458438 0.254911 0.8 0 0
0.099219 0.185773 0.087230 0.8 0 0
0.330544 0.458438 0.313708 0.8 0 0
0.429129 0.459625 0.211382 0.8 0 0
0.438139 0.440625 0.822702 0.8 0 0
0.452729 0.459625 0.221095 0.8 0 0
0.146907 0.458438 0.879875 0.8 0 0
0.651256 0.440625 0.672752 0.8 0 0
0.619159 0.070321 0.930469 0.8 0 0
0.626028 0.076194 0.099219 0.8 0 0
0.603906 0.063522 0.071521 0.8 0 0
0.613413 0.215720 0.069531 0.8 0 0
0.430465 0.440625 0.142188 0.8 0 0
0.246228 0.459625 0.198314 0.8 0 0
0.025000 0.448785 0.830066 0.8 0 0
0.082400 0.433255 0.099219 0.8 0 0
0.222072 0.458438 0.768254 0.8 0 0
0.300213 0.465562 0.195879 0.8 0 0
0.289005 0.440625 0.558580 0.8 0 0
0.546073 0.458438 0.969173 0.8 0 0
0.530845 0.458438 0.626161 0.8 0 0
0.401623 0.458438 0.141608 0.8 0 0
0.105726 0.440625 0.357922 0.8 0 0
0.076153 0.296988 0.069531 0.8 0 0
0.577925 0.458438 0.445740 0.8 0 0
0.342404 0.440625 0.664866 0.8 0 0
0.364070 0.440625 0.206088 0.8 0 0
0.054061 0.440625 0.888602 0.8 0 0
0.025000 0.450755 0.199187 0.8 0 0
0.590761 0.454814 0.975000 0.8 0 0
0.342364 0.458438 0.534980 0.8 0 0
0.084598 0.440625 0.572873 0.8 0 0
0.604543 0.254128 0.900781 0.8 0 0
0.627253 0.279751 0.099219 0.8 0 0
0.080671 0.458438 0.392075 0.8 0 0
0.499909 0.440625 0.242299 0.8 0 0
0.101002 0.458438 0.361082 0.8 0 0
0.341228 0.458438 0.186054 0.8 0 0
0.529708 0.458438 0.594965 0.8 0 0
0.448683 0.440625 0.807684 0.8 0 0
0.663973 0.440625 0.313650 0.8 0 0
0.627295 0.279915 0.930469 0.8 0 0
0.561042 0.440625 0.928061 0.8 0 0
0.603906 0.321025 0.924088 0.8 0 0
0.423967 0.440625 0.778923 0.8 0 0
0.201063 0.458438 0.236675 0.8 0 0
0.602083 0.440625 0.971753 0.8 0 0
0.634573 0.458438 0.681044 0.8 0 0
0.304532 0.440625 0.087537 0.8 0 0
0.371644 0.440625 0.585630 0.8 0 0
0.412167 0.440625 0.098090 0.8 0 0
0.624407 0.458438 0.562088 0.8 0 0
0.421097 0.458438 0.687510 0.8 0 0
0.382726 0.465562 0.373835 0.8 0 0
0.357791 0.440625 0.320898 0.8 0 0
0.386025 0.467047 0.287439 0.8 0 0
0.074204 0.238184 0.930469 0.8 0 0
0.330544 0.440625 0.470732 0.8 0 0
0.320398 0.458438 0.092698 0.8 0 0
0.567600 0.440625 0.529819 0.8 0 0
0.539495 0.440625 0.786664 0.8 0 0
0.575633 0.440625 0.108702 0.8 0 0
0.055437 0.440625 0.915884 0.8 0 0
0.194226 0.458438 0.115428 0.8 0 0
0.633594 0.370646 0.072302 0.8 0 0
0.332563 0.564431 0.262075 0.8 0 0
0.219879 0.458438 0.091161 0.8 0 0
0.315920 0.459625 0.335384 0.8 0 0
0.639715 0.458438 0.032799 0.8 0 0
0.317862 0.459625 0.167691 0.8 0 0
0.404234 0.440625 0.942093 0.8 0 0
0.307063 0.440625 0.578179 0.8 0 0
0.361060 0.440625 0.857580 0.8 0 0
0.236303 0.440625 0.409007 0.8 0 0
0.268944 0.459625 0.159718 0.8 0 0
0.099219 0.107334 0.905849 0.8 0 0
0.076246 0.458438 0.668490 0.8 0 0
0.319422 0.440625 0.187243 0.8 0 0
0.261438 0.458438 0.582150 0.8 0 0
0.145511 0.440625 0.415443 0.8 0 0
0.296420 0.458438 0.472790 0.8 0 0
0.242542 0.458438 0.962562 0.8 0 0
0.095501 0.458438 0.435332 0.8 0 0
0.269350 0.462391 0.381250 0.8 0 0
0.198811 0.440625 0.201768 0.8 0 0
0.368280 0.459625 0.147207 0.8 0 0
0.108756 0.440625 0.723982 0.8 0 0
0.234649 0.458438 0.171644 0.8 0 0
0.025777 0.458438 0.740450 0.8 0 0
0.650778 0.440625 0.701368 0.8 0 0
0.385497 0.458438 0.639904 0.8 0 0
0.657375 0.458438 0.431650 0.8 0 0
0.320398 0.440625 0.794985 0.8 0 0
0.274773 0.440625 0.770805 0.8 0 0
0.603906 0.288389 0.908120 0.8 0 0
0.399231 0.458438 0.539850 0.8 0 0
0.479339 0.440625 0.565683 0.8 0 0
0.540791 0.440625 0.629843 0.8 0 0
0.483146 0.440625 0.800668 0.8 0 0
0.229825 0.458438 0.755265 0.8 0 0
0.320438 0.440625 0.167035 0.8 0 0
0.339063 0.459625 0.233475 0.8 0 0
0.307701 0.440625 0.469949 0.8 0 0
0.656219 0.458438 0.343310 0.8 0 0
0.130403 0.440625 0.381029 0.8 0 0
0.307991 0.567852 0.235905 0.8 0 0
0.111706 0.458438 0.890313 0.8 0 0
0.350742 0.517812 0.253701 0.8 0 0
0.129087 0.458438 0.768254 0.8 0 0
0.401304 0.440625 0.490505 0.8 0 0
0.493730 0.440625 0.527326 0.8 0 0
0.663754 0.440625 0.101569 0.8 0 0
0.305608 0.440625 0.464035 0.8 0 0
0.144315 0.440625 0.317912 0.8 0 0
0.145551 0.440625 0.211045 0.8 0 0
0.393630 0.458438 0.388886 0.8 0 0
0.284061 0.458438 0.886834 0.8 0 0
0.337294 0.459625 0.351569 0.8 0 0
0.051331 0.458438 0.211161 0.8 0 0
0.452849 0.440625 0.112761 0.8 0 0
0.132416 0.440625 0.276801 0.8 0 0
0.678125 0.452269 0.065213 0.8 0 0
0.296719 0.440625 0.433824 0.8 0 0
0.085953 0.458438 0.483721 0.8 0 0
0.157072 0.440625 0.369896 0.8 0 0
0.561082 0.440625 0.849317 0.8 0 0
0.334506 0.571245 0.262515 0.8 0 0
0.075984 0.337629 0.930469 0.8 0 0
0.160481 0.440625 0.956474 0.8 0 0
0.606448 0.440625 0.435738 0.8 0 0
0.439574 0.440625 0.350935 0.8 0 0
0.299011 0.451254 0.975000 0.8 0 0
0.260800 0.440625 0.501145 0.8 0 0
0.568377 0.440625 0.630626 0.8 0 0
0.088255 0.026053 0.930469 0.8 0 0
0.069531 0.118508 0.093774 0.8 0 0
0.079874 0.440625 0.544141 0.8 0 0
0.372262 0.458438 0.613086 0.8 0 0
0.603906 0.105431 0.926169 0.8 0 0
0.469293 0.440625 0.229340 0.8 0 0
0.466842 0.440625 0.499957 0.8 0 0
0.104211 0.440625 0.703050 0.8 0 0
0.633594 0.274613 0.074224 0.8 0 0
0.456665 0.465562 0.144750 0.8 0 0
0.273358 0.458438 0.276134 0.8 0 0
0.523151 0.458438 0.168310 0.8 0 0
0.626291 0.351632 0.069531 0.8 0 0
0.638101 0.458438 0.125256 0.8 0 0
0.170507 0.440625 0.973058 0.8 0 0
0.094352 0.335904 0.930469 0.8 0 0
0.655960 0.440625 0.045150 0.8 0 0
0.134947 0.458438 0.728824 0.8 0 0
0.121393 0.458438 0.098873 0.8 0 0
0.327676 0.459625 0.226111 0.8 0 0
0.357891 0.440625 0.835575 0.8 0 0
0.190917 0.440625 0.064546 0.8 0 0
0.420000 0.458438 0.671564 0.8 0 0
0.256276 0.440625 0.387059 0.8 0 0
0.047105 0.458438 0.275583 0.8 0 0
0.603906 0.263083 0.096636 0.8 0 0
0.613225 0.458438 0.393206 0.8 0 0
0.319261 0.459625 0.205707 0.8 0 0
0.678125 0.449725 0.462150 0.8 0 0
0.076964 0.440625 0.553448 0.8 0 0
0.466224 0.458438 0.972072 0.8 0 0
0.331216 0.515437 0.270169 0.8 0 0
0.534572 0.440625 0.634395 0.8 0 0
0.415516 0.458438 0.205943 0.8 0 0
0.334938 0.549740 0.261826 0.8 0 0
0.616514 0.458438 0.874860 0.8 0 0
0.643821 0.458438 0.627582 0.8 0 0
0.469512 0.440625 0.204319 0.8 0 0
0.405623 0.465562 0.362499 0.8 0 0
0.406466 0.458438 0.558145 0.8 0 0
0.538518 0.440625 0.189156 0.8 0 0
0.336414 0.502001 0.256129 0.8 0 0
0.526998 0.440625 0.867293 0.8 0 0
0.054340 0.440625 0.790433 0.8 0 0
0.093956 0.078008 0.099219 0.8 0 0
0.099219 0.364684 0.083989 0.8 0 0
0.355758 0.440625 0.653298 0.8 0 0
0.326258 0.440625 0.042222 0.8 0 0
0.372666 0.459625 0.283458 0.8 0 0
0.240748 0.440625 0.831400 0.8 0 0
0.365884 0.440625 0.896430 0.8 0 0
0.176486 0.440625 0.381029 0.8 0 0
0.148760 0.458438 0.230181 0.8 0 0
0.314629 0.459625 0.309211 0.8 0 0
0.152268 0.458438 0.886167 0.8 0 0
0.264249 0.458438 0.310780 0.8 0 0
0.366980 0.440625 0.634627 0.8 0 0
0.152049 0.440625 0.468065 0.8 0 0
0.043796 0.458438 0.747031 0.8 0 0
0.294406 0.440625 0.854159 0.8 0 0
0.083700 0.287387 0.930469 0.8 0 0
0.609667 0.218283 0.099219 0.8 0 0
0.373099 0.440625 0.087450 0.8 0 0
0.534193 0.440625 0.275032 0.8 0 0
0.603906 0.170958 0.920623 0.8 0 0
0.172978 0.440625 0.088494 0.8 0 0
0.091293 0.440625 0.907499 0.8 0 0
0.175390 0.458438 0.731143 0.8 0 0
0.331202 0.458438 0.224498 0.8 0 0
0.321375 0.440625 0.771849 0.8 0 0
0.362356 0.458438 0.190084 0.8 0 0
0.349240 0.440625 0.649355 0.8 0 0
0.645994 0.440625 0.567480 0.8 0 0
0.143379 0.440625 0.781098 0.8 0 0
0.380494 0.440625 0.779300 0.8 0 0
0.063629 0.458438 0.929859 0.8 0 0
0.082152 0.078134 0.900781 0.8 0 0
0.362177 0.440625 0.408311 0.8 0 0
0.605631 0.440625 0.386856 0.8 0 0
0.419143 0.458438 0.732622 0.8 0 0
0.238451 0.465562 0.256749 0.8 0 0
0.173756 0.458438 0.155351 0.8 0 0
0.428232 0.458438 0.562841 0.8 0 0
0.633594 0.040246 0.903256 0.8 0 0
0.572045 0.458438 0.359545 0.8 0 0
0.388587 0.440625 0.490708 0.8 0 0
0.456218 0.458438 0.774139 0.8 0 0
0.268135 0.458438 0.532660 0.8 0 0
0.527277 0.440625 0.522484 0.8 0 0
0.414338 0.572708 0.244945 0.8 0 0
0.094129 0.311246 0.900781 0.8 0 0
0.025000 0.445099 0.199680 0.8 0 0
0.426658 0.458438 0.897764 0.8 0 0
0.169929 0.458438 0.346035 0.8 0 0
0.666205 0.440625 0.971028 0.8 0 0
0.050035 0.458438 0.256071 0.8 0 0
0.584144 0.440625 0.270364 0.8 0 0
0.522931 0.440625 0.167325 0.8 0 0
0.385916 0.458438 0.571162 0.8 0 0
0.199448 0.440625 0.457221 0.8 0 0
0.274733 0.440625 0.951545 0.8 0 0
0.120576 0.440625 0.042019 0.8 0 0
0.603906 0.146147 0.914027 0.8 0 0
0.413901 0.440625 0.573482 0.8 0 0
0.069531 0.179811 0.093185 0.8 0 0
0.662418 0.458438 0.409471 0.8 0 0
0.099219 0.130685 0.070292 0.8 0 0
0.585100 0.440625 0.896981 0.8 0 0
0.301423 0.440625 0.557507 0.8 0 0
0.475472 0.458438 0.582006 0.8 0 0
0.606296 0.367145 0.930469 0.8 0 0
0.620062 0.440625 0.375781 0.8 0 0
0.321774 0.440625 0.182952 0.8 0 0
0.413011 0.563074 0.248491 0.8 0 0
0.280737 0.459625 0.193987 0.8 0 0
0.439793 0.458438 0.474472 0.8 0 0
0.469194 0.458438 0.107020 0.8 0 0
0.099219 0.271151 0.917501 0.8 0 0
0.565587 0.440625 0.371113 0.8 0 0
0.101122 0.458438 0.359980 0.8 0 0
0.151491 0.458438 0.802639 0.8 0 0
0.632243 0.325439 0.099219 0.8 0 0
0.433094 0.465562 0.175816 0.8 0 0
0.371784 0.458438 0.120154 0.8 0 0
0.312764 0.458438 0.348789 0.8 0 0
0.223008 0.451309 0.025000 0.8 0 0
0.491398 0.458438 0.153060 0.8 0 0
0.442610 0.459625 0.154412 0.8 0 0
0.625324 0.458438 0.679942 0.8 0 0
0.076464 0.433141 0.099219 0.8 0 0
0.069629 0.440625 0.162715 0.8 0 0
0.139053 0.458438 0.114848 0.8 0 0
0.498873 0.440625 0.320463 0.8 0 0
0.401403 0.440625 0.406368 0.8 0 0
0.375372 0.440625 0.195969 0.8 0 0
0.403875 0.458438 0.194607 0.8 0 0
0.550019 0.440625 0.873323 0.8 0 0
0.490342 0.458438 0.116646 0.8 0 0
0.603906 0.169816 0.090570 0.8 0 0
0.353107 0.458438 0.341628 0.8 0 0
0.216231 0.458438 0.181444 0.8 0 0
0.244635 0.458438 0.583542 0.8 0 0
0.528373 0.458438 0.744422 0.8 0 0
0.099986 0.458438 0.871033 0.8 0 0
0.069531 0.280118 0.084586 0.8 0 0
0.520181 0.458438 0.853956 0.8 0 0
0.491358 0.440625 0.055761 0.8 0 0
0.083233 0.278951 0.900781 0.8 0 0
0.090478 0.458438 0.106614 0.8 0 0
0.215673 0.440625 0.770863 0.8 0 0
0.086392 0.440625 0.241314 0.8 0 0
0.296429 0.465562 0.177026 0.8 0 0
0.613883 0.458438 0.194810 0.8 0 0
0.071283 0.440625 0.428519 0.8 0 0
0.489485 0.458438 0.778952 0.8 0 0
0.127692 0.440625 0.355313 0.8 0 0
0.607724 0.458438 0.144710 0.8 0 0
0.587831 0.458438 0.793159 0.8 0 0
0.153046 0.440625 0.378710 0.8 0 0
0.461839 0.458438 0.758106 0.8 0 0
0.605930 0.440625 0.499377 0.8 0 0
0.511291 0.458438 0.810264 0.8 0 0
0.353586 0.458438 0.442087 0.8 0 0
0.071932 0.179659 0.930469 0.8 0 0
0.417756 0.459625 0.298549 0.8 0 0
0.241127 0.458438 0.699599 0.8 0 0
0.099219 0.119320 0.925941 0.8 0 0
0.448863 0.440625 0.468442 0.8 0 0
0.375770 0.458438 0.073997 0.8 0 0
0.261956 0.440625 0.776372 0.8 0 0
0.029166 0.458438 0.132678 0.8 0 0
0.187688 0.458438 0.641585 0.8 0 0
0.303083 0.459625 0.279189 0.8 0 0
0.560624 0.458438 0.247460 0.8 0 0
0.627537 0.458438 0.231456 0.8 0 0
0.189303 0.440625 0.553941 0.8 0 0
0.025000 0.446558 0.521788 0.8 0 0
0.091395 0.458438 0.158337 0.8 0 0
0.362077 0.458438 0.910839 0.8 0 0
0.458091 0.444071 0.025000 0.8 0 0
0.236423 0.458438 0.881905 0.8 0 0
0.644399 0.458438 0.428287 0.8 0 0
0.026854 0.458438 0.405731 0.8 0 0
0.313622 0.459625 0.184767 0.8 0 0
0.377027 0.464078 0.289100 0.8 0 0
0.119599 0.458438 0.672636 0.8 0 0
0.556039 0.458438 0.029030 0.8 0 0
0.551754 0.458438 0.130533 0.8 0 0
0.604654 0.440625 0.154365 0.8 0 0
0.222510 0.458438 0.686495 0.8 0 0
0.616135 0.458438 0.215104 0.8 0 0
0.099219 0.275616 0.918317 0.8 0 0
0.235088 0.458438 0.220526 0.8 0 0
0.370090 0.458438 0.035698 0.8 0 0
0.672504 0.440625 0.741610 0.8 0 0
0.633594 0.137091 0.077019 0.8 0 0
0.069531 0.049519 0.922420 0.8 0 0
0.424266 0.458438 0.319652 0.8 0 0
0.339753 0.440625 0.269871 0.8 0 0
0.443321 0.440625 0.621783 0.8 0 0
0.036541 0.440625 0.801218 0.8 0 0
0.537442 0.458438 0.057182 0.8 0 0
0.509158 0.440625 0.874048 0.8 0 0
0.091435 0.458438 0.815686 0.8 0 0
0.408061 0.440625 0.219279 0.8 0 0
0.577985 0.440625 0.774255 0.8 0 0
0.421176 0.440625 0.650950 0.8 0 0
0.459165 0.459625 0.314987 0.8 0 0
0.233015 0.458438 0.958909 0.8 0 0
0.070087 0.458438 0.703687 0.8 0 0
0.613061 0.121895 0.099219 0.8 0 0
0.240948 0.458438 0.974768 0.8 0 0
0.160859 0.458438 0.317506 0.8 0 0
0.655263 0.458438 0.352065 0.8 0 0
0.449181 0.440625 0.835749 0.8 0 0
0.489445 0.440625 0.922118 0.8 0 0
0.609458 0.458438 0.366765 0.8 0 0
0.304333 0.458438 0.483866 0.8 0 0
0.446532 0.465562 0.247007 0.8 0 0
0.568856 0.458438 0.507814 0.8 0 0
0.480097 0.440625 0.423300 0.8 0 0
0.368296 0.458438 0.618043 0.8 0 0
0.259405 0.458438 0.591167 0.8 0 0
0.300095 0.552250 0.259433 0.8 0 0
0.303496 0.458438 0.409007 0.8 0 0
0.061516 0.440625 0.855319 0.8 0 0
0.288247 0.440625 0.932120 0.8 0 0
0.441654 0.465562 0.285821 0.8 0 0
0.244376 0.458438 0.915768 0.8 0 0
0.311568 0.458438 0.203130 0.8 0 0
0.439275 0.440625 0.514946 0.8 0 0
0.352479 0.459625 0.279435 0.8 0 0
0.178918 0.458438 0.556376 0.8 0 0
0.541728 0.440625 0.135433 0.8 0 0
0.264847 0.458438 0.423126 0.8 0 0
0.374016 0.458438 0.920204 0.8 0 0
0.454464 0.458438 0.546142 0.8 0 0
0.450076 0.465562 0.321801 0.8 0 0
0.628989 0.332695 0.900781 0.8 0 0
0.081389 0.458438 0.053558 0.8 0 0
0.307481 0.566286 0.258890 0.8 0 0
0.492315 0.458438 0.920001 0.8 0 0
0.395165 0.440625 0.210292 0.8 0 0
0.405151 0.458438 0.432404 0.8 0 0
0.099228 0.458438 0.742161 0.8 0 0
0.286832 0.458438 0.439304 0.8 0 0
0.461221 0.458438 0.484561 0.8 0 0
0.248980 0.458438 0.154481 0.8 0 0
0.182665 0.458438 0.419415 0.8 0 0
0.255618 0.458438 0.274191 0.8 0 0
0.325222 0.440625 0.815976 0.8 0 0
0.096944 0.374578 0.099219 0.8 0 0
0.099219 0.338149 0.084008 0.8 0 0
0.474336 0.440625 0.343020 0.8 0 0
0.173995 0.440625 0.127141 0.8 0 0
0.361855 0.517219 0.271977 0.8 0 0
0.110271 0.458438 0.972594 0.8 0 0
0.513364 0.440625 0.758106 0.8 0 0
0.586356 0.440625 0.957141 0.8 0 0
0.062931 0.458438 0.767036 0.8 0 0
0.209056 0.440625 0.564378 0.8 0 0
0.051909 0.440625 0.929105 0.8 0 0
0.458590 0.440625 0.883644 0.8 0 0
0.042899 0.458438 0.540227 0.8 0 0
0.628095 0.440625 0.600822 0.8 0 0
0.222131 0.458438 0.772748 0.8 0 0
0.603906 0.093394 0.921941 0.8 0 0
0.036262 0.458438 0.844069 0.8 0 0
0.366399 0.579473 0.268438 0.8 0 0
0.298075 0.465562 0.283733 0.8 0 0
0.647648 0.440625 0.386306 0.8 0 0
0.274833 0.458438 0.745553 0.8 0 0
0.025000 0.456867 0.519440 0.8 0 0
0.646831 0.458438 0.422517 0.8 0 0
0.634712 0.440625 0.740653 0.8 0 0
0.615583 0.398285 0.069531 0.8 0 0
0.375511 0.440625 0.218062 0.8 0 0
0.255419 0.440625 0.814961 0.8 0 0
0.315634 0.458438 0.094147 0.8 0 0
0.263970 0.458438 0.198463 0.8 0 0
0.237380 0.458438 0.661677 0.8 0 0
0.431462 0.440625 0.444465 0.8 0 0
0.049577 0.458438 0.484359 0.8 0 0
0.664332 0.458438 0.675681 0.8 0 0
0.103115 0.458438 0.138593 0.8 0 0
0.622549 0.175245 0.930469 0.8 0 0
0.107999 0.440625 0.881905 0.8 0 0
0.074990 0.440625 0.496680 0.8 0 0
0.477585 0.458438 0.878223 0.8 0 0
0.108577 0.440625 0.325247 0.8 0 0
0.659329 0.458438 0.060574 0.8 0 0
0.271185 0.440625 0.758222 0.8 0 0
0.629729 0.458438 0.495347 0.8 0 0
0.423887 0.458438 0.503175 0.8 0 0
0.191754 0.440625 0.887240 0.8 0 0
0.446271 0.458438 0.255172 0.8 0 0
0.467146 0.459625 0.145171 0.8 0 0
0.095893 0.025000 0.087990 0.8 0 0
0.088861 0.274360 0.930469 0.8 0 0
0.337447 0.492912 0.272050 0.8 0 0
0.213899 0.458438 0.118559 0.8 0 0
0.611212 0.458438 0.954821 0.8 0 0
0.244276 0.440625 0.131345 0.8 0 0
0.194565 0.440625 0.697976 0.8 0 0
0.106225 0.440625 0.750887 0.8 0 0
0.452331 0.440625 0.456004 0.8 0 0
0.596342 0.458438 0.201681 0.8 0 0
0.099219 0.118978 0.905428 0.8 0 0
0.399376 0.523456 0.261536 0.8 0 0
0.429927 0.458438 0.551795 0.8 0 0
0.678125 0.454760 0.410514 0.8 0 0
0.596043 0.458438 0.674144 0.8 0 0
0.593811 0.458438 0.410833 0.8 0 0
0.442683 0.458438 0.334119 0.8 0 0
0.559786 0.458438 0.064604 0.8 0 0
0.293629 0.440625 0.696323 0.8 0 0
0.387411 0.440625 0.171413 0.8 0 0
0.599671 0.458438 0.484416 0.8 0 0
0.569374 0.458438 0.732506 0.8 0 0
0.535250 0.458438 0.104034 0.8 0 0
0.317867 0.440625 0.093683 0.8 0 0
0.620241 0.440625 0.339425 0.8 0 0
0.092119 0.306210 0.099219 0.8 0 0
0.218384 0.458438 0.675188 0.8 0 0
0.104849 0.440625 0.419067 0.8 0 0
0.095700 0.458438 0.175037 0.8 0 0
0.413303 0.458438 0.555448 0.8 0 0
0.353951 0.459625 0.227915 0.8 0 0
0.127612 0.458438 0.338294 0.8 0 0
0.604216 0.458438 0.056399 0.8 0 0
0.058168 0.440625 0.974768 0.8 0 0
0.066719 0.440625 0.963664 0.8 0 0
0.139930 0.458438 0.621754 0.8 0 0
0.529688 0.458438 0.759440 0.8 0 0
0.461480 0.440625 0.365170 0.8 0 0
0.124184 0.440625 0.922987 0.8 0 0
0.114995 0.440625 0.796725 0.8 0 0
0.294595 0.459625 0.180976 0.8 0 0
0.457055 0.440625 0.828413 0.8 0 0
0.308120 0.440625 0.172253 0.8 0 0
0.391158 0.440625 0.045991 0.8 0 0
0.625145 0.440625 0.192374 0.8 0 0
0.423050 0.458438 0.939600 0.8 0 0
0.394268 0.440625 0.747466 0.8 0 0
0.069531 0.065006 0.071849 0.8 0 0
0.488687 0.458438 0.458062 0.8 0 0
0.611631 0.440625 0.710617 0.8 0 0
0.264994 0.465562 0.200133 0.8 0 0
0.385717 0.458438 0.487142 0.8 0 0
0.590901 0.440625 0.122183 0.8 0 0
0.549621 0.440625 0.814468 0.8 0 0
0.176167 0.458438 0.923683 0.8 0 0
0.069531 0.412656 0.074509 0.8 0 0
0.374893 0.458438 0.374854 0.8 0 0
0.364123 0.558781 0.256975 0.8 0 0
0.198850 0.458438 0.634598 0.8 0 0
0.166281 0.440625 0.945457 0.8 0 0
0.275510 0.458438 0.025087 0.8 0 0
0.094185 0.458438 0.416023 0.8 0 0
0.180692 0.458438 0.537270 0.8 0 0
0.089103 0.440625 0.272974 0.8 0 0
0.669275 0.458438 0.652660 0.8 0 0
0.537502 0.440625 0.405963 0.8 0 0
0.271305 0.458438 0.892139 0.8 0 0
0.541389 0.450479 0.025000 0.8 0 0
0.595605 0.440625 0.051209 0.8 0 0
0.541967 0.440625 0.043613 0.8 0 0
0.671488 0.458438 0.278859 0.8 0 0
0.531104 0.440625 0.290514 0.8 0 0
0.469931 0.458438 0.189910 0.8 0 0
0.455361 0.440625 0.025319 0.8 0 0
0.502381 0.458438 0.818788 0.8 0 0
0.360761 0.458438 0.662895 0.8 0 0
0.278799 0.458438 0.561160 0.8 0 0
0.118084 0.442286 0.025000 0.8 0 0
0.644200 0.458438 0.832125 0.8 0 0
0.608700 0.458438 0.548055 0.8 0 0
0.069531 0.357340 0.088125 0.8 0 0
0.440682 0.465562 0.158225 0.8 0 0
0.407204 0.440625 0.377492 0.8 0 0
0.449799 0.440625 0.037148 0.8 0 0
0.530506 0.440625 0.483953 0.8 0 0
0.375850 0.440625 0.404252 0.8 0 0
0.398092 0.459625 0.305840 0.8 0 0
0.630726 0.458438 0.316578 0.8 0 0
0.299330 0.458438 0.095945 0.8 0 0
0.499810 0.440625 0.266160 0.8 0 0
0.318445 0.440625 0.692206 0.8 0 0
0.272959 0.455256 0.975000 0.8 0 0
0.076258 0.225640 0.900781 0.8 0 0
0.072027 0.407050 0.930469 0.8 0 0
0.312545 0.440625 0.914550 0.8 0 0
0.534592 0.440625 0.786548 0.8 0 0
0.610525 0.367640 0.930469 0.8 0 0
0.288626 0.440625 0.931047 0.8 0 0
0.546531 0.458438 0.249316 0.8 0 0
0.099219 0.152071 0.085750 0.8 0 0
0.056892 0.458438 0.897735 0.8 0 0
0.659707 0.458438 0.490534 0.8 0 0
0.096358 0.458438 0.792985 0.8 0 0
0.316930 0.440625 0.156626 0.8 0 0
0.503119 0.440625 0.679971 0.8 0 0
0.400102 0.503298 0.259300 0.8 0 0
0.652592 0.440625 0.962997 0.8 0 0
0.115772 0.440625 0.836676 0.8 0 0
0.605332 0.440625 0.174370 0.8 0 0
0.430286 0.458438 0.349804 0.8 0 0
0.422253 0.440625 0.270770 0.8 0 0
0.035724 0.458438 0.498536 0.8 0 0
0.099219 0.245668 0.929361 0.8 0 0
0.554205 0.458438 0.972449 0.8 0 0
0.611551 0.458438 0.602619 0.8 0 0
0.633594 0.099533 0.085318 0.8 0 0
0.366223 0.440625 0.822296 0.8 0 0
0.268235 0.458438 0.967665 0.8 0 0
0.151212 0.440625 0.054456 0.8 0 0
0.029305 0.440625 0.058863 0.8 0 0
0.541907 0.458438 0.136592 0.8 0 0
0.357748 0.538270 0.281577 0.8 0 0
0.572144 0.458438 0.708848 0.8 0 0
0.397138 0.458438 0.698556 0.8 0 0
0.525523 0.458438 0.603402 0.8 0 0
0.662917 0.440625 0.044802 0.8 0 0
0.293441 0.521603 0.258923 0.8 0 0
0.475333 0.440625 0.271147 0.8 0 0
0.234490 0.458438 0.820673 0.8 0 0
0.270792 0.465562 0.334123 0.8 0 0
0.623621 0.212905 0.069531 0.8 0 0
0.653728 0.440625 0.602097 0.8 0 0
0.132077 0.440625 0.635874 0.8 0 0
0.374634 0.458438 0.103512 0.8 0 0
0.260661 0.440625 0.683567 0.8 0 0
0.525483 0.458438 0.181096 0.8 0 0
0.630606 0.440625 0.090349 0.8 0 0
0.125260 0.440625 0.579686 0.8 0 0
0.669116 0.458438 0.044918 0.8 0 0
0.324285 0.440625 0.675159 0.8 0 0
0.569573 0.440625 0.254302 0.8 0 0
0.106783 0.458438 0.258245 0.8 0 0
0.563055 0.440625 0.901098 0.8 0 0
0.276846 0.440625 0.391060 0.8 0 0
0.629709 0.458438 0.250011 0.8 0 0
0.420399 0.440625 0.288572 0.8 0 0
0.062752 0.440625 0.758020 0.8 0 0
0.311723 0.459625 0.158623 0.8 0 0
0.678125 0.451807 0.413269 0.8 0 0
0.135824 0.440625 0.092089 0.8 0 0
0.666604 0.440625 0.389872 0.8 0 0
0.367780 0.459625 0.220283 0.8 0 0
0.232955 0.440625 0.335598 0.8 0 0
0.144295 0.458438 0.405876 0.8 0 0
0.479499 0.458438 0.954444 0.8 0 0
0.541668 0.440625 0.169325 0.8 0 0
0.290371 0.576050 0.241407 0.8 0 0
0.510374 0.440625 0.166310 0.8 0 0
0.103693 0.458438 0.381464 0.8 0 0
0.311229 0.458438 0.111978 0.8 0 0
0.172500 0.458438 0.257926 0.8 0 0
0.210391 0.440830 0.975000 0.8 0 0
0.611709 0.269388 0.900781 0.8 0 0
0.278321 0.440625 0.141376 0.8 0 0
0.678125 0.447592 0.078491 0.8 0 0
0.385059 0.458438 0.031668 0.8 0 0
0.646034 0.458438 0.859726 0.8 0 0
0.088046 0.458438 0.324319 0.8 0 0
0.469453 0.440625 0.896198 0.8 0 0
0.167297 0.458438 0.484069 0.8 0 0
0.109254 0.458438 0.364068 0.8 0 0
0.281410 0.440625 0.342237 0.8 0 0
0.107141 0.440625 0.287383 0.8 0 0
0.246091 0.465562 0.306427 0.8 0 0
0.091169 0.430883 0.900781 0.8 0 0
0.464746 0.459625 0.304311 0.8 0 0
0.294638 0.517329 0.258053 0.8 0 0
0.590363 0.440625 0.408572 0.8 0 0
0.406506 0.458438 0.435013 0.8 0 0
0.359082 0.465562 0.166944 0.8 0 0
0.543860 0.458438 0.649674 0.8 0 0
0.407363 0.440625 0.709921 0.8 0 0
0.464928 0.458438 0.907041 0.8 0 0
0.557135 0.440625 0.469456 0.8 0 0
0.666305 0.440625 0.717749 0.8 0 0
0.470390 0.440625 0.381435 0.8 0 0
0.633594 0.427078 0.091361 0.8 0 0
0.346211 0.458438 0.240879 0.8 0 0
0.593891 0.440625 0.128735 0.8 0 0
0.614282 0.025000 0.920745 0.8 0 0
0.434372 0.440625 0.555970 0.8 0 0
0.223985 0.458438 0.056950 0.8 0 0
0.161059 0.440625 0.570553 0.8 0 0
0.561122 0.440625 0.527818 0.8 0 0
0.439215 0.458438 0.450089 0.8 0 0
0.130183 0.458438 0.813105 0.8 0 0
0.125619 0.440625 0.651878 0.8 0 0
0.247243 0.459625 0.263700 0.8 0 0
0.277011 0.465562 0.311914 0.8 0 0
0.632898 0.458438 0.833893 0.8 0 0
0.545295 0.458438 0.469659 0.8 0 0
0.243931 0.459625 0.337580 0.8 0 0
0.354522 0.440625 0.947921 0.8 0 0
0.590941 0.440625 0.038134 0.8 0 0
0.026495 0.440625 0.506973 0.8 0 0
0.422990 0.440625 0.103947 0.8 0 0
0.497019 0.440625 0.430490 0.8 0 0
0.458590 0.440625 0.041903 0.8 0 0
0.645316 0.458438 0.893270 0.8 0 0
0.604455 0.440625 0.063444 0.8 0 0
0.638440 0.458438 0.664344 0.8 0 0
0.602342 0.440625 0.930844 0.8 0 0
0.678125 0.455292 0.293877 0.8 0 0
0.080675 0.374109 0.069531 0.8 0 0
0.603906 0.379563 0.927269 0.8 0 0
0.297715 0.458438 0.282773 0.8 0 0
0.090617 0.440625 0.821658 0.8 0 0
0.593671 0.458438 0.923509 0.8 0 0
0.406327 0.458438 0.173065 0.8 0 0
0.446152 0.440625 0.026421 0.8 0 0
0.075728 0.458438 0.078288 0.8 0 0
0.335308 0.459625 0.144736 0.8 0 0
0.655522 0.458438 0.039409 0.8 0 0
0.478801 0.458438 0.447132 0.8 0 0
0.345892 0.440625 0.796957 0.8 0 0
0.525343 0.440625 0.554666 0.8 0 0
0.099219 0.390649 0.090654 0.8 0 0
0.472443 0.458438 0.198492 0.8 0 0
0.071886 0.130914 0.930469 0.8 0 0
0.341713 0.488195 0.249414 0.8 0 0
0.592336 0.440625 0.829370 0.8 0 0
0.131519 0.440625 0.830936 0.8 0 0
0.069531 0.126081 0.078732 0.8 0 0
0.025000 0.447514 0.186141 0.8 0 0
0.295244 0.458438 0.515294 0.8 0 0
0.253704 0.458438 0.289673 0.8 0 0
0.069531 0.260953 0.900858 0.8 0 0
0.533934 0.440625 0.270190 0.8 0 0
0.238974 0.458438 0.898199 0.8 0 0
0.678125 0.447268 0.623639 0.8 0 0
0.144315 0.440625 0.339048 0.8 0 0
0.381806 0.465562 0.342545 0.8 0 0
0.124024 0.440625 0.266334 0.8 0 0
0.100245 0.458438 0.248272 0.8 0 0
0.295124 0.440625 0.481024 0.8 0 0
0.443857 0.459625 0.169735 0.8 0 0
0.313442 0.440625 0.886631 0.8 0 0
0.662618 0.458438 0.379811 0.8 0 0
0.144714 0.440625 0.371867 0.8 0 0
0.676192 0.458438 0.747437 0.8 0 0
0.587951 0.458438 0.752076 0.8 0 0
0.463194 0.440625 0.078520 0.8 0 0
0.280015 0.454144 0.025000 0.8 0 0
0.602083 0.458438 0.633902 0.8 0 0
0.513045 0.458438 0.538285 0.8 0 0
0.424964 0.458438 0.429157 0.8 0 0
0.599791 0.440625 0.090871 0.8 0 0
0.582748 0.440625 0.142304 0.8 0 0
0.631478 0.320416 0.099219 0.8 0 0
0.053862 0.440625 0.516859 0.8 0 0
0.545754 0.440625 0.368736 0.8 0 0
0.099219 0.399845 0.916418 0.8 0 0
0.314954 0.467047 0.245019 0.8 0 0
0.229766 0.458438 0.324870 0.8 0 0
0.551654 0.440625 0.520599 0.8 0 0
0.633594 0.345709 0.906274 0.8 0 0
0.025000 0.457667 0.360154 0.8 0 0
0.640572 0.440625 0.431505 0.8 0 0
0.038315 0.458438 0.125140 0.8 0 0
0.099219 0.257858 0.908142 0.8 0 0
0.025000 0.456911 0.049325 0.8 0 0
0.565148 0.458438 0.136795 0.8 0 0
0.059782 0.440625 0.708993 0.8 0 0
0.451234 0.440625 0.974072 0.8 0 0
0.189801 0.440625 0.175964 0.8 0 0
0.336583 0.458438 0.375810 0.8 0 0
0.554664 0.458438 0.658807 0.8 0 0
0.334391 0.440625 0.092060 0.8 0 0
0.611293 0.440625 0.918884 0.8 0 0
0.624985 0.440625 0.220439 0.8 0 0
0.459093 0.459625 0.154883 0.8 0 0
0.610116 0.440625 0.667128 0.8 0 0
0.332995 0.458438 0.255984 0.8 0 0
0.570530 0.440625 0.943717 0.8 0 0
0.447527 0.440625 0.630771 0.8 0 0
0.515995 0.458438 0.832241 0.8 0 0
0.452510 0.440625 0.302546 0.8 0 0
0.315555 0.458438 0.139405 0.8 0 0
0.413024 0.440625 0.403237 0.8 0 0
0.624567 0.458438 0.091335 0.8 0 0
0.215554 0.440625 0.078375 0.8 0 0
0.356534 0.540578 0.276337 0.8 0 0
0.663116 0.458438 0.032451 0.8 0 0
0.025000 0.442131 0.192142 0.8 0 0
0.327773 0.458438 0.944645 0.8 0 0
0.632366 0.431632 0.099219 0.8 0 0
0.307450 0.546906 0.251713 0.8 0 0
0.372362 0.440625 0.617116 0.8 0 0
0.606543 0.274829 0.930469 0.8 0 0
0.384062 0.458438 0.595661 0.8 0 0
0.655581 0.440625 0.374825 0.8 0 0
0.494109 0.458438 0.368968 0.8 0 0
0.575314 0.458438 0.528108 0.8 0 0
0.633594 0.315685 0.902394 0.8 0 0
0.560085 0.451680 0.975000 0.8 0 0
0.310153 0.458438 0.028827 0.8 0 0
0.453885 0.440625 0.471341 0.8 0 0
0.641888 0.440625 0.290108 0.8 0 0
0.328889 0.440625 0.838126 0.8 0 0
0.152029 0.440625 0.482735 0.8 0 0
0.281411 0.465562 0.256386 0.8 0 0
0.565009 0.458438 0.030943 0.8 0 0
0.316850 0.458438 0.416777 0.8 0 0
0.460238 0.459625 0.235461 0.8 0 0
0.384042 0.440625 0.934352 0.8 0 0
0.141485 0.440625 0.568466 0.8 0 0
0.181429 0.458438 0.322406 0.8 0 0
0.348204 0.440625 0.034886 0.8 0 0
0.098750 0.458438 0.577889 0.8 0 0
0.274155 0.440625 0.029610 0.8 0 0
0.178519 0.440625 0.748887 0.8 0 0
0.096849 0.261625 0.930469 0.8 0 0
0.099219 0.052106 0.922964 0.8 0 0
0.148940 0.440625 0.171586 0.8 0 0
0.221534 0.458438 0.431911 0.8 0 0
0.202996 0.442003 0.975000 0.8 0 0
0.316990 0.458438 0.538981 0.8 0 0
0.555880 0.458438 0.243430 0.8 0 0
0.147026 0.440625 0.478502 0.8 0 0
0.125818 0.458438 0.626886 0.8 0 0
0.376665 0.466556 0.302599 0.8 0 0
0.114417 0.458438 0.136882 0.8 0 0
0.474894 0.458438 0.724765 0.8 0 0
0.591180 0.440625 0.832212 0.8 0 0
0.312405 0.440625 0.416487 0.8 0 0
0.529589 0.440625 0.188054 0.8 0 0
0.254641 0.458438 0.102381 0.8 0 0
0.268893 0.458438 0.234877 0.8 0 0
0.434651 0.440625 0.448727 0.8 0 0
0.263910 0.458438 0.133490 0.8 0 0
0.620321 0.440625 0.029842 0.8 0 0
0.535389 0.458438 0.665359 0.8 0 0
0.540133 0.440625 0.269842 0.8 0 0
0.668458 0.440625 0.391698 0.8 0 0
0.631380 0.344935 0.900781 0.8 0 0
0.328865 0.465562 0.294511 0.8 0 0
0.351312 0.459625 0.234562 0.8 0 0
0.608999 0.440625 0.546287 0.8 0 0
0.097454 0.440625 0.782257 0.8 0 0
0.441169 0.458438 0.308258 0.8 0 0
0.452211 0.458438 0.536052 0.8 0 0
0.135426 0.440625 0.553303 0.8 0 0
0.388766 0.458438 0.363778 0.8 0 0
0.085282 0.381415 0.099219 0.8 0 0
0.103394 0.458438 0.268422 0.8 0 0
0.305828 0.458438 0.570206 0.8 0 0
0.416233 0.458438 0.221193 0.8 0 0
0.545056 0.458438 0.319072 0.8 0 0
0.363083 0.459625 0.233062 0.8 0 0
0.588808 0.440625 0.688495 0.8 0 0
0.241127 0.458438 0.085739 0.8 0 0
0.449520 0.458438 0.642426 0.8 0 0
0.453666 0.440625 0.277149 0.8 0 0
0.495126 0.458438 0.472645 0.8 0 0
0.088006 0.067150 0.069531 0.8 0 0
0.332562 0.570630 0.271936 0.8 0 0
0.640632 0.440625 0.287760 0.8 0 0
0.055257 0.458438 0.868568 0.8 0 0
0.325780 0.458438 0.347224 0.8 0 0
0.553229 0.458438 0.727983 0.8 0 0
0.379566 0.517812 0.267609 0.8 0 0
0.633594 0.142697 0.906450 0.8 0 0
0.374196 0.458438 0.276772 0.8 0 0
0.207740 0.458438 0.371809 0.8 0 0
0.512208 0.440625 0.343976 0.8 0 0
0.349711 0.465562 0.340160 0.8 0 0
0.549362 0.440625 0.196520 0.8 0 0
0.417387 0.459625 0.283661 0.8 0 0
0.069531 0.232971 0.916580 0.8 0 0
0.629224 0.383482 0.069531 0.8 0 0
0.364150 0.458438 0.311273 0.8 0 0
0.606986 0.458438 0.057588 0.8 0 0
0.070745 0.440625 0.760513 0.8 0 0
0.119719 0.440625 0.812468 0.8 0 0
0.611647 0.440625 0.078626 0.8 0 0
0.195861 0.458438 0.136042 0.8 0 0
0.538578 0.458438 0.821339 0.8 0 0
0.308160 0.440625 0.051180 0.8 0 0
0.301263 0.458438 0.570293 0.8 0 0
0.316272 0.458438 0.135114 0.8 0 0
0.159564 0.458438 0.410949 0.8 0 0
0.026794 0.440625 0.152857 0.8 0 0
0.164407 0.458438 0.678464 0.8 0 0
0.606802 0.433737 0.069531 0.8 0 0
0.503836 0.440625 0.174834 0.8 0 0
0.457174 0.458438 0.809336 0.8 0 0
0.267498 0.458438 0.928032 0.8 0 0
0.437202 0.458438 0.700469 0.8 0 0
0.352425 0.529098 0.276617 0.8 0 0
0.615751 0.105862 0.069531 0.8 0 0
0.082166 0.458438 0.679160 0.8 0 0
0.091818 0.371496 0.930469 0.8 0 0
0.048301 0.440625 0.969607 0.8 0 0
0.405549 0.458438 0.032103 0.8 0 0
0.314963 0.465562 0.187964 0.8 0 0
0.445514 0.458438 0.650283 0.8 0 0
0.633594 0.138410 0.902960 0.8 0 0
0.608344 0.164197 0.930469 0.8 0 0
0.662996 0.458438 0.931366 0.8 0 0
0.092352 0.458438 0.518976 0.8 0 0
0.662837 0.440625 0.808786 0.8 0 0
0.066738 0.440625 0.513235 0.8 0 0
0.658771 0.440625 0.853347 0.8 0 0
0.025917 0.458438 0.819281 0.8 0 0
0.091793 0.458438 0.471457 0.8 0 0
0.057689 0.458438 0.715980 0.8 0 0
0.241924 0.458438 0.247315 0.8 0 0
0.629789 0.440625 0.724823 0.8 0 0
0.305376 0.464078 0.257580 0.8 0 0
0.335042 0.467047 0.227624 0.8 0 0
0.069531 0.301453 0.901352 0.8 0 0
0.412705 0.440625 0.672607 0.8 0 0
0.143757 0.458438 0.320666 0.8 0 0
0.409704 0.465562 0.226270 0.8 0 0
0.025000 0.443593 0.493375 0.8 0 0
0.104909 0.440625 0.882456 0.8 0 0
0.405789 0.458438 0.749960 0.8 0 0
0.074512 0.458438 0.957720 0.8 0 0
0.573958 0.440625 0.309127 0.8 0 0
0.639556 0.440625 0.549737 0.8 0 0
0.238755 0.458438 0.305967 0.8 0 0
0.151431 0.458438 0.261550 0.8 0 0
0.272820 0.458438 0.698788 0.8 0 0
0.063270 0.440625 0.626306 0.8 0 0
0.246788 0.440625 0.117689 0.8 0 0
0.303866 0.459625 0.261054 0.8 0 0
0.384919 0.458438 0.879788 0.8 0 0
0.214158 0.440625 0.854797 0.8 0 0
0.624567 0.458438 0.498536 0.8 0 0
0.201462 0.440625 0.330524 0.8 0 0
0.570331 0.458438 0.452061 0.8 0 0
0.456178 0.440625 0.257115 0.8 0 0
0.086053 0.440625 0.528050 0.8 0 0
0.279796 0.440625 0.570495 0.8 0 0
0.097641 0.212638 0.900781 0.8 0 0
0.650060 0.458438 0.922610 0.8 0 0
0.217986 0.458438 0.192519 0.8 0 0
0.292037 0.459625 0.201076 0.8 0 0
0.607348 0.077919 0.069531 0.8 0 0
0.264906 0.458438 0.285556 0.8 0 0
0.607863 0.440625 0.577541 0.8 0 0
0.078937 0.458438 0.654922 0.8 0 0
0.571447 0.458438 0.291645 0.8 0 0
0.321435 0.458438 0.036539 0.8 0 0
0.411150 0.440625 0.626567 0.8 0 0
0.479957 0.458438 0.944616 0.8 0 0
0.616972 0.440625 0.802465 0.8 0 0
0.603906 0.263248 0.902706 0.8 0 0
0.603906 0.122098 0.083288 0.8 0 0
0.066659 0.458438 0.709457 0.8 0 0
0.147923 0.458438 0.145725 0.8 0 0
0.606469 0.107968 0.099219 0.8 0 0
0.381431 0.440625 0.401643 0.8 0 0
0.213800 0.458438 0.721663 0.8 0 0
0.086352 0.440625 0.437072 0.8 0 0
0.196857 0.458438 0.514047 0.8 0 0
0.603906 0.112674 0.905091 0.8 0 0
0.373050 0.465562 0.247725 0.8 0 0
0.231540 0.458438 0.969520 0.8 0 0
0.633594 0.139691 0.921836 0.8 0 0
0.593711 0.440625 0.110325 0.8 0 0
0.504394 0.458438 0.655937 0.8 0 0
0.587253 0.440625 0.030190 0.8 0 0
0.615935 0.382214 0.900781 0.8 0 0
0.032176 0.440625 0.882282 0.8 0 0
0.310073 0.458438 0.587833 0.8 0 0
0.603906 0.384573 0.928490 0.8 0 0
0.052786 0.458438 0.628017 0.8 0 0
0.458231 0.440625 0.868713 0.8 0 0
0.146647 0.440625 0.653298 0.8 0 0
0.294230 0.538847 0.269442 0.8 0 0
0.620042 0.458438 0.118124 0.8 0 0
0.227214 0.440625 0.077709 0.8 0 0
0.430026 0.458438 0.192229 0.8 0 0
0.453467 0.458438 0.558058 0.8 0 0
0.348244 0.440625 0.727055 0.8 0 0
0.332563 0.547509 0.261539 0.8 0 0
0.078120 0.458438 0.752105 0.8 0 0
0.274135 0.440625 0.261377 0.8 0 0
0.606882 0.376925 0.900781 0.8 0 0
0.240210 0.440625 0.281729 0.8 0 0
0.417858 0.459625 0.348300 0.8 0 0
0.621118 0.458438 0.868597 0.8 0 0
0.404493 0.440625 0.611259 0.8 0 0
0.357607 0.496876 0.281143 0.8 0 0
0.672325 0.440625 0.036597 0.8 0 0
0.449692 0.459625 0.171460 0.8 0 0
0.364967 0.440625 0.749612 0.8 0 0
0.141425 0.458438 0.224237 0.8 0 0
0.073994 0.440625 0.224933 0.8 0 0
0.650459 0.458438 0.963142 0.8 0 0
0.405558 0.465562 0.381221 0.8 0 0
0.292114 0.458438 0.826616 0.8 0 0
0.520639 0.440625 0.899822 0.8 0 0
0.593313 0.440625 0.156800 0.8 0 0
0.099219 0.029592 0.911159 0.8 0 0
0.538837 0.458438 0.860508 0.8 0 0
0.245333 0.458438 0.168252 0.8 0 0
0.612538 0.405160 0.099219 0.8 0 0
0.216331 0.458438 0.901475 0.8 0 0
0.260262 0.458438 0.407267 0.8 0 0
0.249658 0.458438 0.608418 0.8 0 0
0.206425 0.458438 0.303358 0.8 0 0
0.662717 0.458438 0.659764 0.8 0 0
0.508181 0.440625 0.412283 0.8 0 0
0.359506 0.440625 0.359198 0.8 0 0
0.126855 0.458438 0.512800 0.8 0 0
0.603906 0.366486 0.930447 0.8 0 0
0.049078 0.458438 0.320782 0.8 0 0
0.353690 0.459625 0.350047 0.8 0 0
0.257332 0.458438 0.178110 0.8 0 0
0.255618 0.440625 0.047701 0.8 0 0
0.152727 0.440625 0.962243 0.8 0 0
0.440630 0.458438 0.806930 0.8 0 0
0.196598 0.458438 0.865495 0.8 0 0
0.624925 0.458438 0.957170 0.8 0 0
0.156275 0.440625 0.216090 0.8 0 0
0.099219 0.057040 0.928181 0.8 0 0
0.371230 0.459625 0.281407 0.8 0 0
0.454063 0.465562 0.268041 0.8 0 0
0.305607 0.547504 0.265057 0.8 0 0
0.216829 0.440625 0.359516 0.8 0 0
0.585679 0.440625 0.472153 0.8 0 0
0.615274 0.435336 0.900781 0.8 0 0
0.062971 0.440625 0.423010 0.8 0 0
0.409327 0.459625 0.335594 0.8 0 0
0.241127 0.458438 0.758976 0.8 0 0
0.236283 0.440625 0.809105 0.8 0 0
0.355958 0.440625 0.199071 0.8 0 0
0.392633 0.440625 0.508480 0.8 0 0
0.452949 0.458438 0.740740 0.8 0 0
0.069531 0.203670 0.919308 0.8 0 0
0.370329 0.458438 0.938556 0.8 0 0
0.469893 0.465562 0.232721 0.8 0 0
0.069071 0.440625 0.784171 0.8 0 0
0.153863 0.458438 0.902606 0.8 0 0
0.621417 0.458438 0.895589 0.8 0 0
0.300167 0.458438 0.885964 0.8 0 0
