0.647288 0.945928 0.214080 0.8 0 0
0.764739 0.734776 0.422639 0.8 0 0
0.395419 0.760453 0.493366 0.8 0 0
0.633946 0.952322 0.164520 0.8 0 0
0.844932 0.468671 0.412368 0.8 0 0
0.510180 0.789076 0.772867 0.8 0 0
0.848923 0.211399 0.413868 0.8 0 0
0.463468 0.124784 0.802602 0.8 0 0
0.555054 0.761936 0.231653 0.8 0 0
0.396964 0.186024 0.779767 0.8 0 0
0.561787 0.251914 0.118522 0.8 0 0
0.221407 0.967888 0.655542 0.8 0 0
0.255512 0.968313 0.712473 0.8 0 0
0.419296 0.062213 0.759859 0.8 0 0
0.633561 0.945855 0.294057 0.8 0 0
0.751868 0.896595 0.541039 0.8 0 0
0.384427 0.760344 0.503790 0.8 0 0
0.369653 0.505610 0.803458 0.8 0 0
0.848353 0.380794 0.415036 0.8 0 0
0.731252 0.764148 0.544962 0.8 0 0
0.070556 0.843432 0.550433 0.8 0 0
0.796761 0.054514 0.452770 0.8 0 0
0.688751 0.946437 0.276646 0.8 0 0
0.295685 0.942501 0.622629 0.8 0 0
0.457761 0.944073 0.425858 0.8 0 0
0.358198 0.760229 0.681573 0.8 0 0
0.119353 0.868642 0.425932 0.8 0 0
0.222110 0.962995 0.290834 0.8 0 0
0.792599 0.904909 0.362073 0.8 0 0
0.794893 0.596180 0.456457 0.8 0 0
0.432267 0.760553 0.179485 0.8 0 0
0.072919 0.909630 0.496719 0.8 0 0
0.465055 0.943884 0.144744 0.8 0 0
0.671427 0.972745 0.626050 0.8 0 0
0.368354 0.760403 0.748390 0.8 0 0
0.784028 0.973765 0.414323 0.8 0 0
0.762105 0.973464 0.347722 0.8 0 0
0.471826 0.761223 0.431071 0.8 0 0
0.718605 0.972943 0.297366 0.8 0 0
0.857367 0.609540 0.426867 0.8 0 0
0.808718 0.039489 0.465143 0.8 0 0
0.362257 0.969189 0.416398 0.8 0 0
0.504106 0.144032 0.147029 0.8 0 0
0.531315 0.351348 0.082504 0.8 0 0
0.124773 0.863662 0.603329 0.8 0 0
0.312863 0.942507 0.433516 0.8 0 0
0.427365 0.544994 0.854648 0.8 0 0
0.474682 0.885915 0.086691 0.8 0 0
0.235345 0.941739 0.509878 0.8 0 0
0.448139 0.782606 0.113186 0.8 0 0
0.422611 0.872870 0.136524 0.8 0 0
0.360129 0.943022 0.435124 0.8 0 0
0.154826 0.259772 0.506743 0.8 0 0
0.509863 0.970694 0.314281 0.8 0 0
0.350567 0.943186 0.716606 0.8 0 0
0.119314 0.719501 0.535429 0.8 0 0
0.293968 0.942438 0.576432 0.8 0 0
0.611536 0.774831 0.676318 0.8 0 0
0.573949 0.971491 0.420565 0.8 0 0
0.665271 0.972397 0.331221 0.8 0 0
0.822334 0.974256 0.493096 0.8 0 0
0.482229 0.681641 0.081801 0.8 0 0
0.778907 0.764557 0.431756 0.8 0 0
0.369785 0.940678 0.186162 0.8 0 0
0.152664 0.709291 0.503723 0.8 0 0
0.504648 0.761410 0.253579 0.8 0 0
0.173050 0.941010 0.454938 0.8 0 0
0.745213 0.973258 0.324787 0.8 0 0
0.434693 0.944199 0.821049 0.8 0 0
0.508659 0.970697 0.331940 0.8 0 0
0.370592 0.969582 0.733768 0.8 0 0
0.469491 0.079880 0.819713 0.8 0 0
0.350659 0.872975 0.205178 0.8 0 0
0.255198 0.941720 0.264717 0.8 0 0
0.390330 0.566834 0.825764 0.8 0 0
0.140365 0.630008 0.469285 0.8 0 0
0.463713 0.531998 0.820112 0.8 0 0
0.328776 0.788390 0.227014 0.8 0 0
0.497068 0.446833 0.070298 0.8 0 0
0.525800 0.801669 0.757821 0.8 0 0
0.282313 0.942238 0.498982 0.8 0 0
0.560611 0.945168 0.403319 0.8 0 0
0.711282 0.973001 0.441407 0.8 0 0
0.123233 0.903057 0.421840 0.8 0 0
0.361093 0.943040 0.443825 0.8 0 0
0.092070 0.389958 0.457378 0.8 0 0
0.677389 0.813732 0.613043 0.8 0 0
0.531658 0.649066 0.142778 0.8 0 0
0.277602 0.942100 0.408144 0.8 0 0
0.690018 0.972735 0.404590 0.8 0 0
0.483878 0.944692 0.778312 0.8 0 0
0.110096 0.277601 0.529090 0.8 0 0
0.085430 0.026646 0.500629 0.8 0 0
0.580392 0.762525 0.560285 0.8 0 0
0.144877 0.966896 0.485847 0.8 0 0
0.483970 0.970760 0.678699 0.8 0 0
0.413444 0.620270 0.850542 0.8 0 0
0.103289 0.897284 0.528416 0.8 0 0
0.202689 0.758326 0.456997 0.8 0 0
0.381393 0.943270 0.454142 0.8 0 0
0.351125 0.969345 0.706942 0.8 0 0
0.472701 0.129348 0.097139 0.8 0 0
0.480293 0.191461 0.122569 0.8 0 0
0.721789 0.928326 0.288115 0.8 0 0
0.855159 0.901456 0.427595 0.8 0 0
0.489985 0.944757 0.776597 0.8 0 0
0.628035 0.762729 0.231759 0.8 0 0
0.440189 0.689347 0.840779 0.8 0 0
0.578740 0.945320 0.357129 0.8 0 0
0.460289 0.944492 0.837149 0.8 0 0
0.438834 0.943915 0.475866 0.8 0 0
0.306764 0.968854 0.697042 0.8 0 0
0.448433 0.866687 0.111956 0.8 0 0
0.823873 0.108933 0.386551 0.8 0 0
0.486903 0.944519 0.562220 0.8 0 0
0.810709 0.354260 0.470511 0.8 0 0
0.590726 0.762457 0.371078 0.8 0 0
0.276230 0.941966 0.283532 0.8 0 0
0.465310 0.362415 0.820507 0.8 0 0
0.530847 0.761675 0.233733 0.8 0 0
0.596741 0.971487 0.157442 0.8 0 0
0.452016 0.207112 0.834948 0.8 0 0
0.152675 0.940832 0.500112 0.8 0 0
0.448116 0.969963 0.251021 0.8 0 0
0.394049 0.943564 0.617785 0.8 0 0
0.653152 0.763239 0.480715 0.8 0 0
0.204086 0.758408 0.527192 0.8 0 0
0.425308 0.943452 0.145058 0.8 0 0
0.324768 0.812278 0.759618 0.8 0 0
0.248901 0.920520 0.301734 0.8 0 0
0.666165 0.833051 0.623534 0.8 0 0
0.440654 0.221299 0.779701 0.8 0 0
0.518970 0.971173 0.712619 0.8 0 0
0.117100 0.761767 0.541476 0.8 0 0
0.426314 0.943780 0.477392 0.8 0 0
0.852875 0.142872 0.417296 0.8 0 0
0.266024 0.759008 0.451388 0.8 0 0
0.435601 0.769105 0.844255 0.8 0 0
0.472288 0.149000 0.097311 0.8 0 0
0.034612 0.945332 0.488743 0.8 0 0
0.259172 0.758974 0.492813 0.8 0 0
0.473358 0.761170 0.358411 0.8 0 0
0.576901 0.945595 0.665943 0.8 0 0
0.357041 0.942777 0.213632 0.8 0 0
0.271079 0.776914 0.282197 0.8 0 0
0.523113 0.944966 0.618567 0.8 0 0
0.131962 0.966679 0.405871 0.8 0 0
0.483828 0.944226 0.290036 0.8 0 0
0.601488 0.762507 0.302071 0.8 0 0
0.141162 0.538884 0.469171 0.8 0 0
0.322200 0.968922 0.592400 0.8 0 0
0.288713 0.942235 0.422554 0.8 0 0
0.186877 0.941314 0.616087 0.8 0 0
0.421599 0.943889 0.644496 0.8 0 0
0.238154 0.758802 0.552101 0.8 0 0
0.501843 0.570668 0.064341 0.8 0 0
0.245162 0.967960 0.460508 0.8 0 0
0.234553 0.766673 0.664606 0.8 0 0
0.244709 0.941761 0.426588 0.8 0 0
0.415949 0.969858 0.506703 0.8 0 0
0.287996 0.968421 0.456513 0.8 0 0
0.487211 0.211534 0.082364 0.8 0 0
0.399386 0.760792 0.803316 0.8 0 0
0.798473 0.714942 0.390676 0.8 0 0
0.775694 0.498944 0.435325 0.8 0 0
0.839175 0.478810 0.406440 0.8 0 0
0.301712 0.942230 0.270391 0.8 0 0
0.463402 0.651494 0.819058 0.8 0 0
0.234096 0.941527 0.302764 0.8 0 0
0.523542 0.762066 0.725668 0.8 0 0
0.268200 0.941868 0.271861 0.8 0 0
0.429693 0.679228 0.772986 0.8 0 0
0.485310 0.761267 0.324231 0.8 0 0
0.425668 0.178169 0.858745 0.8 0 0
0.373386 0.760389 0.676361 0.8 0 0
0.425133 0.698400 0.855043 0.8 0 0
0.513739 0.970937 0.524874 0.8 0 0
0.229519 0.885623 0.674973 0.8 0 0
0.401781 0.449372 0.772193 0.8 0 0
0.356291 0.969253 0.551951 0.8 0 0
0.846123 0.814076 0.417216 0.8 0 0
0.250177 0.967966 0.410368 0.8 0 0
0.564178 0.945420 0.627919 0.8 0 0
0.276563 0.843147 0.721477 0.8 0 0
0.076135 0.157429 0.492251 0.8 0 0
0.646855 0.945933 0.224542 0.8 0 0
0.497161 0.944362 0.280703 0.8 0 0
0.844655 0.850514 0.453026 0.8 0 0
0.493647 0.451780 0.073506 0.8 0 0
0.122359 0.780093 0.424065 0.8 0 0
0.621270 0.945962 0.546500 0.8 0 0
0.490115 0.761636 0.655212 0.8 0 0
0.486703 0.761263 0.303286 0.8 0 0
0.556816 0.971599 0.728712 0.8 0 0
0.405909 0.943503 0.418468 0.8 0 0
0.816486 0.045881 0.381056 0.8 0 0
0.709540 0.946758 0.376384 0.8 0 0
0.618179 0.971894 0.340461 0.8 0 0
0.080187 0.903569 0.531927 0.8 0 0
0.598422 0.945347 0.161227 0.8 0 0
0.303600 0.833314 0.778780 0.8 0 0
0.783266 0.949754 0.320968 0.8 0 0
0.643319 0.972029 0.195881 0.8 0 0
0.142379 0.940736 0.516560 0.8 0 0
0.506428 0.944346 0.158404 0.8 0 0
0.102382 0.766859 0.526106 0.8 0 0
0.585905 0.924319 0.145679 0.8 0 0
0.479265 0.716787 0.126966 0.8 0 0
0.355116 0.805546 0.201687 0.8 0 0
0.438279 0.943785 0.346176 0.8 0 0
0.156805 0.940781 0.399983 0.8 0 0
0.428762 0.452164 0.769645 0.8 0 0
0.651173 0.763271 0.536820 0.8 0 0
0.372385 0.735007 0.797011 0.8 0 0
0.473604 0.729399 0.089491 0.8 0 0
0.759836 0.973456 0.365166 0.8 0 0
0.495983 0.970649 0.425234 0.8 0 0
0.424372 0.826301 0.854322 0.8 0 0
0.452787 0.761387 0.819519 0.8 0 0
0.462226 0.634784 0.806615 0.8 0 0
0.586712 0.945542 0.498714 0.8 0 0
0.099676 0.397270 0.519418 0.8 0 0
0.437588 0.277417 0.777073 0.8 0 0
0.432571 0.969791 0.248332 0.8 0 0
0.740147 0.938307 0.307457 0.8 0 0
0.176233 0.967126 0.370190 0.8 0 0
0.545264 0.971473 0.728608 0.8 0 0
0.305377 0.856160 0.749567 0.8 0 0
0.859664 0.731570 0.430546 0.8 0 0
0.494050 0.557768 0.140802 0.8 0 0
0.429717 0.777011 0.849780 0.8 0 0
0.237088 0.835632 0.313966 0.8 0 0
0.123839 0.088010 0.538254 0.8 0 0
0.639760 0.909057 0.201955 0.8 0 0
0.503647 0.970734 0.428034 0.8 0 0
0.604803 0.887514 0.165100 0.8 0 0
0.095218 0.828067 0.449420 0.8 0 0
0.221776 0.967890 0.652848 0.8 0 0
0.441294 0.943870 0.400866 0.8 0 0
0.268723 0.942057 0.463637 0.8 0 0
0.473156 0.970112 0.122322 0.8 0 0
0.131137 0.175507 0.530300 0.8 0 0
0.773447 0.122342 0.429046 0.8 0 0
0.418963 0.943738 0.517349 0.8 0 0
0.735158 0.934477 0.302189 0.8 0 0
0.165338 0.126417 0.498222 0.8 0 0
0.724764 0.947026 0.484184 0.8 0 0
0.466975 0.425210 0.809408 0.8 0 0
0.780378 0.064910 0.415293 0.8 0 0
0.512616 0.970904 0.503642 0.8 0 0
0.191735 0.758140 0.386224 0.8 0 0
0.183653 0.783288 0.611441 0.8 0 0
0.627516 0.972122 0.472200 0.8 0 0
0.137878 0.681688 0.467218 0.8 0 0
0.252188 0.759074 0.676959 0.8 0 0
0.857456 0.500801 0.444766 0.8 0 0
0.076925 0.666337 0.498381 0.8 0 0
0.840949 0.334156 0.406792 0.8 0 0
0.535395 0.843781 0.748189 0.8 0 0
0.565914 0.945157 0.331601 0.8 0 0
0.445931 0.944171 0.663514 0.8 0 0
0.234639 0.941697 0.474134 0.8 0 0
0.599563 0.971536 0.176762 0.8 0 0
0.123406 0.868429 0.549195 0.8 0 0
0.450746 0.969946 0.203206 0.8 0 0
0.629228 0.946031 0.527898 0.8 0 0
0.837590 0.153297 0.467653 0.8 0 0
0.355686 0.942929 0.388835 0.8 0 0
0.700536 0.801765 0.591092 0.8 0 0
0.545930 0.945305 0.714414 0.8 0 0
0.469293 0.165599 0.110772 0.8 0 0
0.159230 0.882761 0.586885 0.8 0 0
0.694774 0.972718 0.332321 0.8 0 0
0.785306 0.947642 0.440385 0.8 0 0
0.401282 0.943802 0.784696 0.8 0 0
0.264846 0.941978 0.425003 0.8 0 0
0.338778 0.760001 0.664123 0.8 0 0
0.198436 0.941324 0.495377 0.8 0 0
0.522643 0.649776 0.076526 0.8 0 0
0.682726 0.946708 0.628405 0.8 0 0
0.125923 0.246427 0.450154 0.8 0 0
0.149854 0.805278 0.628482 0.8 0 0
0.718594 0.792574 0.283352 0.8 0 0
0.469882 0.617411 0.116098 0.8 0 0
0.181467 0.967314 0.507919 0.8 0 0
0.468661 0.970435 0.511578 0.8 0 0
0.473502 0.903093 0.806575 0.8 0 0
0.496545 0.944701 0.643678 0.8 0 0
0.833114 0.652831 0.401903 0.8 0 0
0.571686 0.821763 0.129711 0.8 0 0
0.649776 0.763223 0.502916 0.8 0 0
0.531882 0.944594 0.128826 0.8 0 0
0.627801 0.762840 0.350858 0.8 0 0
0.527556 0.971239 0.684415 0.8 0 0
0.137677 0.381368 0.463877 0.8 0 0
0.678453 0.840751 0.241791 0.8 0 0
0.624942 0.972292 0.680306 0.8 0 0
0.621601 0.945952 0.531821 0.8 0 0
0.466737 0.478734 0.817830 0.8 0 0
0.282233 0.900159 0.270160 0.8 0 0
0.386082 0.113928 0.816593 0.8 0 0
0.447061 0.259682 0.786815 0.8 0 0
0.283521 0.968289 0.368845 0.8 0 0
0.277961 0.942096 0.399705 0.8 0 0
0.547261 0.762320 0.722210 0.8 0 0
0.737386 0.952512 0.272918 0.8 0 0
0.549725 0.935725 0.107885 0.8 0 0
0.562325 0.971310 0.363711 0.8 0 0
0.690953 0.797207 0.600287 0.8 0 0
0.153717 0.967071 0.569255 0.8 0 0
0.110522 0.940313 0.436005 0.8 0 0
0.771773 0.210234 0.421860 0.8 0 0
0.367871 0.759910 0.237361 0.8 0 0
0.288743 0.942124 0.306171 0.8 0 0
0.308115 0.759677 0.673242 0.8 0 0
0.817209 0.291034 0.476663 0.8 0 0
0.395821 0.694186 0.775111 0.8 0 0
0.589682 0.945518 0.439543 0.8 0 0
0.664293 0.763285 0.402176 0.8 0 0
0.344754 0.861142 0.818806 0.8 0 0
0.244257 0.941725 0.394445 0.8 0 0
0.228209 0.941803 0.658563 0.8 0 0
0.796524 0.712619 0.459380 0.8 0 0
0.540357 0.761901 0.362338 0.8 0 0
0.353225 0.943274 0.778354 0.8 0 0
0.156573 0.757871 0.504494 0.8 0 0
0.521392 0.944471 0.119703 0.8 0 0
0.860214 0.645469 0.430224 0.8 0 0
0.136178 0.940659 0.506248 0.8 0 0
0.264010 0.852071 0.709093 0.8 0 0
0.410931 0.969955 0.665512 0.8 0 0
0.561337 0.945368 0.605527 0.8 0 0
0.807868 0.715772 0.381702 0.8 0 0
0.418347 0.943413 0.183539 0.8 0 0
0.466193 0.944270 0.536491 0.8 0 0
0.796444 0.841255 0.499132 0.8 0 0
0.701686 0.924256 0.588609 0.8 0 0
0.561953 0.930719 0.721865 0.8 0 0
0.117354 0.940459 0.511371 0.8 0 0
0.423233 0.943991 0.733384 0.8 0 0
0.482128 0.086567 0.123399 0.8 0 0
0.442021 0.760719 0.242056 0.8 0 0
0.081615 0.454361 0.466626 0.8 0 0
0.762347 0.872265 0.531316 0.8 0 0
0.144719 0.330008 0.515593 0.8 0 0
0.372185 0.272376 0.802435 0.8 0 0
0.442665 0.108405 0.844987 0.8 0 0
0.111506 0.838585 0.590588 0.8 0 0
0.467839 0.909812 0.092951 0.8 0 0
0.242291 0.941598 0.283334 0.8 0 0
0.592918 0.897438 0.692695 0.8 0 0
0.493025 0.970367 0.164043 0.8 0 0
0.158682 0.026865 0.505698 0.8 0 0
0.164457 0.765702 0.591142 0.8 0 0
0.393221 0.502583 0.828124 0.8 0 0
0.294471 0.968291 0.246857 0.8 0 0
0.286176 0.942188 0.402156 0.8 0 0
0.519728 0.944918 0.607461 0.8 0 0
0.527731 0.970863 0.288829 0.8 0 0
0.255121 0.967899 0.283829 0.8 0 0
0.214441 0.885940 0.644774 0.8 0 0
0.665656 0.763263 0.363597 0.8 0 0
0.176078 0.941089 0.502920 0.8 0 0
0.458916 0.198849 0.828458 0.8 0 0
0.424251 0.760528 0.243721 0.8 0 0
0.617039 0.945598 0.213000 0.8 0 0
0.610386 0.939466 0.675553 0.8 0 0
0.782774 0.519343 0.407867 0.8 0 0
0.713808 0.946849 0.423373 0.8 0 0
0.300024 0.880289 0.744081 0.8 0 0
0.109888 0.122649 0.527258 0.8 0 0
0.306185 0.797539 0.762523 0.8 0 0
0.122190 0.301465 0.446816 0.8 0 0
0.277473 0.864406 0.275107 0.8 0 0
0.610992 0.762645 0.338178 0.8 0 0
0.094952 0.936129 0.448451 0.8 0 0
0.848548 0.863761 0.449161 0.8 0 0
0.807661 0.821350 0.488654 0.8 0 0
0.134448 0.940683 0.551511 0.8 0 0
0.824393 0.351919 0.389628 0.8 0 0
0.527073 0.693564 0.081625 0.8 0 0
0.577863 0.945584 0.643656 0.8 0 0
0.079357 0.025118 0.490410 0.8 0 0
0.337334 0.760010 0.690140 0.8 0 0
0.198951 0.941372 0.539720 0.8 0 0
0.181930 0.967410 0.603037 0.8 0 0
0.270026 0.942288 0.690888 0.8 0 0
0.497657 0.029315 0.130191 0.8 0 0
0.791934 0.831207 0.503549 0.8 0 0
0.127456 0.940570 0.512502 0.8 0 0
0.334859 0.811120 0.778895 0.8 0 0
0.125624 0.940591 0.555060 0.8 0 0
0.688501 0.946589 0.437781 0.8 0 0
0.224673 0.837878 0.654995 0.8 0 0
0.374222 0.880146 0.182614 0.8 0 0
0.658619 0.972205 0.206045 0.8 0 0
0.301312 0.942552 0.611818 0.8 0 0
0.189625 0.910595 0.619025 0.8 0 0
0.448852 0.944116 0.573524 0.8 0 0
0.510858 0.944980 0.773541 0.8 0 0
0.427244 0.943771 0.457372 0.8 0 0
0.505058 0.372086 0.063520 0.8 0 0
0.492812 0.970957 0.784866 0.8 0 0
0.227712 0.798154 0.657766 0.8 0 0
0.123518 0.849050 0.549110 0.8 0 0
0.600503 0.815252 0.686388 0.8 0 0
0.258246 0.942047 0.572505 0.8 0 0
0.869540 0.948532 0.415373 0.8 0 0
0.850712 0.680492 0.420633 0.8 0 0
0.801934 0.480691 0.390023 0.8 0 0
0.366651 0.942985 0.322493 0.8 0 0
0.855537 0.720532 0.426106 0.8 0 0
0.484841 0.944187 0.237982 0.8 0 0
0.202770 0.941384 0.508813 0.8 0 0
0.437038 0.761224 0.827724 0.8 0 0
0.477996 0.152300 0.119754 0.8 0 0
0.394912 0.969909 0.800061 0.8 0 0
0.347994 0.942939 0.486859 0.8 0 0
0.645728 0.826185 0.643112 0.8 0 0
0.137304 0.765335 0.562685 0.8 0 0
0.540075 0.527867 0.093524 0.8 0 0
0.513928 0.831082 0.069283 0.8 0 0
0.553944 0.054696 0.128236 0.8 0 0
0.290722 0.942134 0.294419 0.8 0 0
0.518932 0.970887 0.413303 0.8 0 0
0.293138 0.942367 0.511184 0.8 0 0
0.437076 0.970054 0.472518 0.8 0 0
0.430052 0.943793 0.447649 0.8 0 0
0.128678 0.522318 0.455916 0.8 0 0
0.227479 0.902662 0.680230 0.8 0 0
0.189416 0.798559 0.617640 0.8 0 0
0.454971 0.970315 0.541466 0.8 0 0
0.267922 0.808157 0.713366 0.8 0 0
0.079512 0.966138 0.435624 0.8 0 0
0.782516 0.300333 0.410591 0.8 0 0
0.389274 0.760544 0.658918 0.8 0 0
0.696319 0.946651 0.414031 0.8 0 0
0.200166 0.967643 0.640692 0.8 0 0
0.529708 0.762042 0.630308 0.8 0 0
0.357247 0.943028 0.473974 0.8 0 0
0.809899 0.927203 0.485321 0.8 0 0
0.756229 0.947254 0.364329 0.8 0 0
0.815597 0.948005 0.476288 0.8 0 0
0.546449 0.944998 0.387316 0.8 0 0
0.365375 0.943299 0.665831 0.8 0 0
0.262605 0.759187 0.677814 0.8 0 0
0.732973 0.946910 0.268817 0.8 0 0
0.343557 0.942732 0.319840 0.8 0 0
0.686731 0.931591 0.602796 0.8 0 0
0.347023 0.943091 0.657365 0.8 0 0
0.158656 0.164680 0.504164 0.8 0 0
0.467976 0.944357 0.607460 0.8 0 0
0.512628 0.172121 0.156252 0.8 0 0
0.455394 0.077424 0.793648 0.8 0 0
0.587239 0.945656 0.612656 0.8 0 0
0.347261 0.942985 0.542935 0.8 0 0
0.420531 0.585441 0.857605 0.8 0 0
0.309123 0.942373 0.335477 0.8 0 0
0.419536 0.943627 0.394281 0.8 0 0
0.540058 0.945045 0.508936 0.8 0 0
0.227029 0.929760 0.658421 0.8 0 0
0.246026 0.807173 0.677051 0.8 0 0
0.579310 0.971840 0.725373 0.8 0 0
0.368491 0.760402 0.745496 0.8 0 0
0.393134 0.956343 0.127723 0.8 0 0
0.551938 0.386302 0.126399 0.8 0 0
0.333289 0.969007 0.555484 0.8 0 0
0.541297 0.945052 0.502449 0.8 0 0
0.790795 0.283619 0.402881 0.8 0 0
0.791377 0.885036 0.503472 0.8 0 0
0.655974 0.763382 0.598676 0.8 0 0
0.617723 0.945900 0.521735 0.8 0 0
0.593067 0.907582 0.153011 0.8 0 0
0.064309 0.722068 0.480112 0.8 0 0
0.693550 0.961295 0.631936 0.8 0 0
0.669116 0.763270 0.331421 0.8 0 0
0.549392 0.762280 0.655955 0.8 0 0
0.073523 0.315274 0.491159 0.8 0 0
0.295286 0.942132 0.240027 0.8 0 0
0.782091 0.098969 0.437860 0.8 0 0
0.251590 0.967880 0.303177 0.8 0 0
0.859731 0.974608 0.436289 0.8 0 0
0.444347 0.503522 0.786512 0.8 0 0
0.277831 0.840098 0.275039 0.8 0 0
0.073271 0.273725 0.490462 0.8 0 0
0.098605 0.416467 0.518496 0.8 0 0
0.376487 0.760109 0.347861 0.8 0 0
0.239187 0.886696 0.684432 0.8 0 0
0.501691 0.957550 0.815045 0.8 0 0
0.513554 0.761486 0.231585 0.8 0 0
0.146594 0.535476 0.511480 0.8 0 0
0.549182 0.676848 0.125743 0.8 0 0
0.509582 0.941717 0.065881 0.8 0 0
0.461134 0.610830 0.106861 0.8 0 0
0.227427 0.758567 0.427509 0.8 0 0
0.401356 0.760721 0.706190 0.8 0 0
0.444824 0.450194 0.839062 0.8 0 0
0.767767 0.798726 0.334946 0.8 0 0
0.598918 0.941335 0.686474 0.8 0 0
0.412048 0.917202 0.852173 0.8 0 0
0.568273 0.971525 0.520818 0.8 0 0
0.496115 0.838487 0.066778 0.8 0 0
0.530598 0.945080 0.653761 0.8 0 0
0.682196 0.972859 0.623618 0.8 0 0
0.777031 0.947639 0.532159 0.8 0 0
0.837113 0.780246 0.461017 0.8 0 0
0.321341 0.942792 0.635359 0.8 0 0
0.815583 0.335867 0.475425 0.8 0 0
0.466052 0.970655 0.772748 0.8 0 0
0.397054 0.760408 0.427650 0.8 0 0
0.359394 0.860202 0.796403 0.8 0 0
0.253746 0.894535 0.698612 0.8 0 0
0.113466 0.940465 0.562053 0.8 0 0
0.246171 0.968062 0.556432 0.8 0 0
0.838354 0.531100 0.462650 0.8 0 0
0.454214 0.944001 0.392085 0.8 0 0
0.298053 0.875501 0.255344 0.8 0 0
0.111471 0.499332 0.532842 0.8 0 0
0.456674 0.029522 0.812927 0.8 0 0
0.555764 0.945424 0.727598 0.8 0 0
0.276695 0.888276 0.751875 0.8 0 0
0.439627 0.970112 0.503151 0.8 0 0
0.852820 0.106462 0.416859 0.8 0 0
0.517922 0.944981 0.693965 0.8 0 0
0.413459 0.969666 0.334300 0.8 0 0
0.395560 0.943777 0.824214 0.8 0 0
0.497336 0.970978 0.755108 0.8 0 0
0.777722 0.947652 0.537534 0.8 0 0
0.450354 0.775395 0.830107 0.8 0 0
0.815835 0.637102 0.383632 0.8 0 0
0.297713 0.759355 0.454301 0.8 0 0
0.123111 0.831016 0.548496 0.8 0 0
0.333619 0.759892 0.608401 0.8 0 0
0.449836 0.323330 0.790386 0.8 0 0
0.536771 0.781192 0.092701 0.8 0 0
0.599422 0.971838 0.494230 0.8 0 0
0.167517 0.941063 0.573592 0.8 0 0
0.792848 0.156524 0.402359 0.8 0 0
0.472906 0.970138 0.152781 0.8 0 0
0.456402 0.331122 0.829361 0.8 0 0
0.823324 0.755173 0.392710 0.8 0 0
0.103785 0.673289 0.526601 0.8 0 0
0.664468 0.946448 0.564220 0.8 0 0
0.505569 0.206333 0.064906 0.8 0 0
0.178167 0.758174 0.576653 0.8 0 0
0.861292 0.958673 0.471910 0.8 0 0
0.870509 0.107031 0.436766 0.8 0 0
0.643578 0.906973 0.644249 0.8 0 0
0.200236 0.941359 0.511638 0.8 0 0
0.104163 0.888814 0.582890 0.8 0 0
0.407678 0.969467 0.191493 0.8 0 0
0.422760 0.943810 0.549152 0.8 0 0
0.497559 0.180299 0.072844 0.8 0 0
0.501599 0.944331 0.197283 0.8 0 0
0.743337 0.973309 0.399376 0.8 0 0
0.390675 0.969874 0.811490 0.8 0 0
0.479273 0.944099 0.208386 0.8 0 0
0.437734 0.594148 0.844198 0.8 0 0
0.322451 0.759489 0.312848 0.8 0 0
0.546439 0.634802 0.101306 0.8 0 0
0.251743 0.968217 0.655509 0.8 0 0
0.317402 0.942394 0.264107 0.8 0 0
0.642877 0.946158 0.505436 0.8 0 0
0.457627 0.241722 0.829202 0.8 0 0
0.320382 0.946354 0.197254 0.8 0 0
0.615572 0.762694 0.337011 0.8 0 0
0.844638 0.426473 0.457837 0.8 0 0
0.580362 0.841011 0.705314 0.8 0 0
0.513058 0.034175 0.155265 0.8 0 0
0.084625 0.574780 0.505496 0.8 0 0
0.381046 0.943397 0.590439 0.8 0 0
0.830922 0.462097 0.470523 0.8 0 0
0.829173 0.549392 0.471204 0.8 0 0
0.500929 0.944403 0.280421 0.8 0 0
0.392467 0.760338 0.406027 0.8 0 0
0.162950 0.100439 0.500794 0.8 0 0
0.489387 0.078610 0.081791 0.8 0 0
0.661008 0.946372 0.524026 0.8 0 0
0.523188 0.689720 0.077514 0.8 0 0
0.648757 0.972506 0.633709 0.8 0 0
0.416835 0.469691 0.757599 0.8 0 0
0.489437 0.944174 0.172566 0.8 0 0
0.331697 0.804257 0.806591 0.8 0 0
0.452494 0.135507 0.835302 0.8 0 0
0.424149 0.757922 0.767996 0.8 0 0
0.849160 0.623693 0.418414 0.8 0 0
0.171223 0.782829 0.377410 0.8 0 0
0.455755 0.539156 0.827626 0.8 0 0
0.831280 0.695693 0.467539 0.8 0 0
0.463049 0.944081 0.375157 0.8 0 0
0.784904 0.117490 0.410380 0.8 0 0
0.479652 0.970508 0.462905 0.8 0 0
0.670606 0.763393 0.443457 0.8 0 0
0.433708 0.944041 0.666761 0.8 0 0
0.313170 0.944385 0.780637 0.8 0 0
0.849714 0.544896 0.418174 0.8 0 0
0.671996 0.763398 0.433441 0.8 0 0
0.498280 0.876124 0.064286 0.8 0 0
0.707337 0.946806 0.451445 0.8 0 0
0.467146 0.970147 0.227310 0.8 0 0
0.597574 0.790224 0.156511 0.8 0 0
0.559778 0.227167 0.120719 0.8 0 0
0.362481 0.760213 0.616842 0.8 0 0
0.466246 0.760948 0.206388 0.8 0 0
0.252539 0.941759 0.335630 0.8 0 0
0.675327 0.946437 0.428826 0.8 0 0
0.531687 0.275201 0.146979 0.8 0 0
0.510971 0.552272 0.063279 0.8 0 0
0.603925 0.945591 0.355012 0.8 0 0
0.150006 0.268044 0.475615 0.8 0 0
0.387195 0.180991 0.789146 0.8 0 0
0.701398 0.973042 0.596628 0.8 0 0
0.706871 0.909602 0.583827 0.8 0 0
0.271101 0.942068 0.447983 0.8 0 0
0.808826 0.424584 0.384082 0.8 0 0
0.373794 0.341640 0.806089 0.8 0 0
0.333292 0.846079 0.807732 0.8 0 0
0.387066 0.969433 0.389996 0.8 0 0
0.590315 0.762475 0.395276 0.8 0 0
0.089094 0.482088 0.459176 0.8 0 0
0.081392 0.461306 0.466760 0.8 0 0
0.217858 0.826407 0.664149 0.8 0 0
0.203981 0.967689 0.645330 0.8 0 0
0.467500 0.943947 0.183462 0.8 0 0
0.718227 0.864741 0.283720 0.8 0 0
0.327441 0.942646 0.412916 0.8 0 0
0.519505 0.275415 0.158600 0.8 0 0
0.510689 0.970607 0.214119 0.8 0 0
0.517784 0.761791 0.502997 0.8 0 0
0.283027 0.942423 0.684798 0.8 0 0
0.501153 0.524370 0.147897 0.8 0 0
0.247152 0.758744 0.388808 0.8 0 0
0.479517 0.335804 0.088300 0.8 0 0
0.490334 0.071405 0.080969 0.8 0 0
0.849658 0.113211 0.456591 0.8 0 0
0.337470 0.814661 0.812140 0.8 0 0
0.590691 0.971526 0.267126 0.8 0 0
0.774189 0.073783 0.421099 0.8 0 0
0.163617 0.848504 0.610803 0.8 0 0
0.114039 0.549128 0.440855 0.8 0 0
0.303251 0.759519 0.563175 0.8 0 0
0.847650 0.145513 0.411848 0.8 0 0
0.161463 0.288573 0.487836 0.8 0 0
0.097845 0.344533 0.516950 0.8 0 0
0.243765 0.968014 0.532780 0.8 0 0
0.826491 0.284129 0.391121 0.8 0 0
0.072390 0.580264 0.492733 0.8 0 0
0.323707 0.969046 0.705470 0.8 0 0
0.284772 0.942159 0.387611 0.8 0 0
0.393960 0.943729 0.792310 0.8 0 0
0.576869 0.945300 0.357755 0.8 0 0
0.321741 0.759620 0.458381 0.8 0 0
0.108389 0.799032 0.437181 0.8 0 0
0.678539 0.946557 0.517990 0.8 0 0
0.464485 0.124487 0.105306 0.8 0 0
0.752023 0.768755 0.542338 0.8 0 0
0.799932 0.925579 0.494850 0.8 0 0
0.418784 0.600833 0.855935 0.8 0 0
0.389921 0.943479 0.575113 0.8 0 0
0.804980 0.947869 0.455048 0.8 0 0
0.481226 0.944518 0.626212 0.8 0 0
0.561598 0.385014 0.117197 0.8 0 0
0.174255 0.830237 0.602083 0.8 0 0
0.125668 0.246491 0.449887 0.8 0 0
0.491617 0.970858 0.694357 0.8 0 0
0.123888 0.038179 0.445851 0.8 0 0
0.089577 0.825322 0.538520 0.8 0 0
0.459811 0.943957 0.281577 0.8 0 0
0.281726 0.933899 0.715781 0.8 0 0
0.532439 0.486443 0.143872 0.8 0 0
0.532062 0.410572 0.083904 0.8 0 0
0.654887 0.972570 0.630803 0.8 0 0
0.730683 0.764113 0.514964 0.8 0 0
0.204144 0.941284 0.388794 0.8 0 0
0.643069 0.763148 0.500254 0.8 0 0
0.736419 0.851586 0.302647 0.8 0 0
0.797011 0.711508 0.459879 0.8 0 0
0.831668 0.167421 0.473144 0.8 0 0
0.491167 0.523097 0.075066 0.8 0 0
0.392709 0.760371 0.437852 0.8 0 0
0.560563 0.435528 0.117613 0.8 0 0
0.173154 0.967077 0.354204 0.8 0 0
0.072257 0.966148 0.528380 0.8 0 0
0.719517 0.973241 0.598672 0.8 0 0
0.438284 0.943638 0.191223 0.8 0 0
0.619818 0.945664 0.249466 0.8 0 0
0.550206 0.537034 0.104235 0.8 0 0
0.737725 0.947105 0.418739 0.8 0 0
0.851653 0.974513 0.428550 0.8 0 0
0.646317 0.804664 0.207740 0.8 0 0
0.789745 0.402326 0.449043 0.8 0 0
0.820773 0.317968 0.385481 0.8 0 0
0.532208 0.881560 0.750803 0.8 0 0
0.836967 0.293076 0.402191 0.8 0 0
0.036835 0.939548 0.472615 0.8 0 0
0.523700 0.944670 0.302410 0.8 0 0
0.349237 0.942952 0.486156 0.8 0 0
0.595888 0.945621 0.477116 0.8 0 0
0.860249 0.625835 0.430057 0.8 0 0
0.459400 0.685794 0.105826 0.8 0 0
0.379316 0.822029 0.816881 0.8 0 0
0.548899 0.944978 0.337855 0.8 0 0
0.818119 0.882016 0.388578 0.8 0 0
0.386628 0.760288 0.420683 0.8 0 0
0.698148 0.972942 0.528380 0.8 0 0
0.405417 0.943793 0.728227 0.8 0 0
0.281491 0.873397 0.725999 0.8 0 0
0.206241 0.967677 0.606485 0.8 0 0
0.299573 0.968474 0.380174 0.8 0 0
0.806478 0.264700 0.388130 0.8 0 0
0.590060 0.971864 0.628461 0.8 0 0
0.817871 0.033062 0.413788 0.8 0 0
0.808501 0.601792 0.470776 0.8 0 0
0.609634 0.891793 0.170206 0.8 0 0
0.363737 0.861951 0.800972 0.8 0 0
0.838485 0.121191 0.401991 0.8 0 0
0.777743 0.097584 0.417439 0.8 0 0
0.822853 0.544080 0.477294 0.8 0 0
0.393121 0.861696 0.831761 0.8 0 0
0.487584 0.761514 0.556786 0.8 0 0
0.406280 0.943728 0.650454 0.8 0 0
0.153074 0.242645 0.508609 0.8 0 0
0.702749 0.946685 0.377011 0.8 0 0
0.421029 0.144765 0.853535 0.8 0 0
0.202360 0.967657 0.630319 0.8 0 0
0.395307 0.943493 0.529207 0.8 0 0
0.151432 0.140875 0.475785 0.8 0 0
0.475781 0.970155 0.138210 0.8 0 0
0.845721 0.765312 0.416286 0.8 0 0
0.824124 0.948085 0.462933 0.8 0 0
0.470799 0.301140 0.097011 0.8 0 0
0.432784 0.595126 0.848911 0.8 0 0
0.171795 0.823657 0.599436 0.8 0 0
0.430952 0.943535 0.167129 0.8 0 0
0.425924 0.943576 0.267480 0.8 0 0
0.202589 0.941388 0.515454 0.8 0 0
0.196287 0.941270 0.462637 0.8 0 0
0.437033 0.760659 0.235472 0.8 0 0
0.411370 0.841376 0.850673 0.8 0 0
0.174977 0.790189 0.373744 0.8 0 0
0.371139 0.474643 0.801145 0.8 0 0
0.322098 0.942549 0.371913 0.8 0 0
0.820755 0.948021 0.434580 0.8 0 0
0.384177 0.969351 0.337093 0.8 0 0
0.426097 0.811374 0.133894 0.8 0 0
0.505965 0.944311 0.127370 0.8 0 0
0.295252 0.968325 0.273049 0.8 0 0
0.488130 0.761677 0.720670 0.8 0 0
0.850066 0.917426 0.447106 0.8 0 0
0.477120 0.198456 0.092141 0.8 0 0
0.824252 0.948053 0.427985 0.8 0 0
0.391612 0.969360 0.261471 0.8 0 0
0.109255 0.889997 0.557141 0.8 0 0
0.130581 0.482782 0.527355 0.8 0 0
0.741072 0.947246 0.528409 0.8 0 0
0.791901 0.764597 0.396385 0.8 0 0
0.392936 0.106333 0.784512 0.8 0 0
0.105772 0.420103 0.526045 0.8 0 0
0.517919 0.944474 0.161875 0.8 0 0
0.315054 0.968718 0.459730 0.8 0 0
0.549755 0.762084 0.447103 0.8 0 0
0.534927 0.305690 0.085813 0.8 0 0
0.410391 0.943672 0.545113 0.8 0 0
0.129392 0.762542 0.417554 0.8 0 0
0.411569 0.905825 0.851553 0.8 0 0
0.469375 0.558544 0.813312 0.8 0 0
0.463406 0.761346 0.655972 0.8 0 0
0.618580 0.971873 0.313938 0.8 0 0
0.060591 0.819227 0.482560 0.8 0 0
0.498831 0.149622 0.071977 0.8 0 0
0.130206 0.401897 0.456262 0.8 0 0
0.143897 0.310210 0.469654 0.8 0 0
0.207043 0.941432 0.510934 0.8 0 0
0.092344 0.966297 0.455699 0.8 0 0
0.230183 0.967708 0.367149 0.8 0 0
0.632350 0.945898 0.353616 0.8 0 0
0.326273 0.882663 0.800489 0.8 0 0
0.543159 0.761862 0.289519 0.8 0 0
0.300329 0.759639 0.722096 0.8 0 0
0.553458 0.762241 0.569379 0.8 0 0
0.659461 0.763177 0.343706 0.8 0 0
0.624775 0.945915 0.457226 0.8 0 0
0.785485 0.540004 0.446013 0.8 0 0
0.790432 0.285557 0.448546 0.8 0 0
0.173254 0.807893 0.375188 0.8 0 0
0.618119 0.899739 0.668623 0.8 0 0
0.554988 0.971144 0.273391 0.8 0 0
0.787928 0.966325 0.541826 0.8 0 0
0.492828 0.944139 0.096628 0.8 0 0
0.615549 0.945975 0.624805 0.8 0 0
0.139855 0.940739 0.548172 0.8 0 0
0.807600 0.969362 0.346671 0.8 0 0
0.645747 0.946287 0.608471 0.8 0 0
0.610464 0.971834 0.364986 0.8 0 0
0.655464 0.946268 0.478170 0.8 0 0
0.120597 0.061259 0.442643 0.8 0 0
0.637998 0.972417 0.662513 0.8 0 0
0.474830 0.109019 0.115985 0.8 0 0
0.677397 0.763534 0.513989 0.8 0 0
0.075047 0.883154 0.498673 0.8 0 0
0.353587 0.830811 0.797039 0.8 0 0
0.075414 0.939971 0.476134 0.8 0 0
0.428963 0.943578 0.234346 0.8 0 0
0.170927 0.757982 0.458103 0.8 0 0
0.828168 0.487324 0.394995 0.8 0 0
0.616009 0.762841 0.486188 0.8 0 0
0.515875 0.408637 0.160557 0.8 0 0
0.248224 0.956512 0.265991 0.8 0 0
0.503888 0.031290 0.068490 0.8 0 0
0.833568 0.552835 0.401336 0.8 0 0
0.377863 0.943288 0.512785 0.8 0 0
0.384857 0.943256 0.399524 0.8 0 0
0.563428 0.302589 0.116382 0.8 0 0
0.780898 0.764637 0.492539 0.8 0 0
0.510507 0.944309 0.072737 0.8 0 0
0.710972 0.972918 0.357319 0.8 0 0
0.270530 0.803210 0.715970 0.8 0 0
0.204818 0.967465 0.400527 0.8 0 0
0.442942 0.548321 0.839748 0.8 0 0
0.273258 0.968175 0.366546 0.8 0 0
0.421067 0.761064 0.841472 0.8 0 0
0.202168 0.836551 0.648680 0.8 0 0
0.579969 0.762482 0.520296 0.8 0 0
0.478812 0.382758 0.123010 0.8 0 0
0.258890 0.941873 0.382460 0.8 0 0
0.296962 0.942544 0.652986 0.8 0 0
0.344168 0.759654 0.239508 0.8 0 0
0.399955 0.943434 0.413991 0.8 0 0
0.789028 0.364057 0.403657 0.8 0 0
0.582548 0.945463 0.463062 0.8 0 0
0.613998 0.972023 0.522875 0.8 0 0
0.123810 0.770026 0.422795 0.8 0 0
0.639392 0.945961 0.338386 0.8 0 0
0.862279 0.755368 0.433534 0.8 0 0
0.272837 0.942141 0.505568 0.8 0 0
0.227933 0.758587 0.443066 0.8 0 0
0.469389 0.208676 0.099402 0.8 0 0
0.172663 0.940996 0.444985 0.8 0 0
0.503644 0.873703 0.059195 0.8 0 0
0.718430 0.973182 0.549432 0.8 0 0
0.325953 0.759718 0.513734 0.8 0 0
0.444415 0.891940 0.834455 0.8 0 0
0.397402 0.943176 0.173330 0.8 0 0
0.366421 0.969264 0.447472 0.8 0 0
0.092128 0.788175 0.452819 0.8 0 0
0.460580 0.761209 0.544379 0.8 0 0
0.511172 0.944504 0.270098 0.8 0 0
0.304591 0.942702 0.732239 0.8 0 0
0.155537 0.598107 0.502239 0.8 0 0
0.512517 0.538822 0.159957 0.8 0 0
0.219605 0.913593 0.329766 0.8 0 0
0.314835 0.888973 0.758499 0.8 0 0
0.294557 0.759238 0.366937 0.8 0 0
0.158025 0.571427 0.487181 0.8 0 0
0.411786 0.969858 0.554074 0.8 0 0
0.108783 0.204924 0.526958 0.8 0 0
0.611816 0.971646 0.152518 0.8 0 0
0.512139 0.970988 0.597050 0.8 0 0
0.156155 0.780360 0.582595 0.8 0 0
0.292297 0.968705 0.705393 0.8 0 0
0.501623 0.970743 0.460064 0.8 0 0
0.434932 0.970381 0.839737 0.8 0 0
0.467473 0.259562 0.100655 0.8 0 0
0.618189 0.902289 0.179281 0.8 0 0
0.107321 0.379134 0.527241 0.8 0 0
0.506133 0.594521 0.153847 0.8 0 0
0.477628 0.882850 0.083915 0.8 0 0
0.501188 0.944299 0.168889 0.8 0 0
0.223802 0.941445 0.333683 0.8 0 0
0.549050 0.963846 0.769785 0.8 0 0
0.732567 0.947199 0.576328 0.8 0 0
0.349497 0.845293 0.792888 0.8 0 0
0.514063 0.761728 0.479188 0.8 0 0
0.425460 0.445156 0.766111 0.8 0 0
0.205017 0.843622 0.682123 0.8 0 0
0.780527 0.132857 0.436575 0.8 0 0
0.553537 0.945309 0.632289 0.8 0 0
0.082090 0.757056 0.497929 0.8 0 0
0.518992 0.761688 0.382179 0.8 0 0
0.391290 0.760110 0.180696 0.8 0 0
0.284828 0.817675 0.717822 0.8 0 0
0.387892 0.943059 0.158654 0.8 0 0
0.776971 0.598200 0.412512 0.8 0 0
0.379239 0.919991 0.817821 0.8 0 0
0.601829 0.971835 0.463910 0.8 0 0
0.473750 0.863202 0.087838 0.8 0 0
0.274253 0.968296 0.481987 0.8 0 0
0.635242 0.867868 0.196792 0.8 0 0
0.374632 0.846076 0.182607 0.8 0 0
0.364329 0.969441 0.656664 0.8 0 0
0.107629 0.632637 0.530205 0.8 0 0
0.487552 0.854307 0.793720 0.8 0 0
0.436092 0.943895 0.486328 0.8 0 0
0.326162 0.942561 0.338973 0.8 0 0
0.126964 0.966662 0.444288 0.8 0 0
0.798229 0.422155 0.394221 0.8 0 0
0.713555 0.946889 0.467582 0.8 0 0
0.656717 0.768640 0.633278 0.8 0 0
0.480599 0.761662 0.791463 0.8 0 0
0.679699 0.946310 0.246231 0.8 0 0
0.301235 0.759259 0.313369 0.8 0 0
0.265484 0.891499 0.698320 0.8 0 0
0.307383 0.759719 0.725041 0.8 0 0
0.080059 0.966162 0.454653 0.8 0 0
0.119582 0.757473 0.508066 0.8 0 0
0.819052 0.228000 0.477937 0.8 0 0
0.831278 0.939658 0.464782 0.8 0 0
0.229376 0.967753 0.423532 0.8 0 0
0.513762 0.944878 0.633355 0.8 0 0
0.531357 0.970815 0.197124 0.8 0 0
0.324607 0.969006 0.653633 0.8 0 0
0.464250 0.809434 0.816463 0.8 0 0
0.068510 0.717232 0.490094 0.8 0 0
0.789567 0.346035 0.448269 0.8 0 0
0.217450 0.941101 0.331511 0.8 0 0
0.399580 0.970008 0.850905 0.8 0 0
0.197724 0.941469 0.655677 0.8 0 0
0.764849 0.727969 0.426347 0.8 0 0
0.388214 0.969389 0.330367 0.8 0 0
0.400274 0.943413 0.388015 0.8 0 0
0.218465 0.898878 0.649126 0.8 0 0
0.534839 0.944713 0.220816 0.8 0 0
0.790862 0.631045 0.452596 0.8 0 0
0.373310 0.942949 0.209523 0.8 0 0
0.572523 0.945438 0.551477 0.8 0 0
0.748838 0.764249 0.450992 0.8 0 0
0.804859 0.822383 0.374062 0.8 0 0
0.652438 0.946236 0.478981 0.8 0 0
0.568555 0.762126 0.276561 0.8 0 0
0.401713 0.406680 0.836023 0.8 0 0
0.856398 0.085865 0.420394 0.8 0 0
0.195877 0.956371 0.657849 0.8 0 0
0.254949 0.758893 0.456516 0.8 0 0
0.547933 0.328814 0.130871 0.8 0 0
0.293427 0.968536 0.515247 0.8 0 0
0.500970 0.788940 0.781658 0.8 0 0
0.648971 0.946104 0.379899 0.8 0 0
0.817101 0.901533 0.478740 0.8 0 0
0.068483 0.672580 0.489601 0.8 0 0
0.527810 0.856659 0.084096 0.8 0 0
0.173519 0.940986 0.423981 0.8 0 0
0.498945 0.944540 0.447268 0.8 0 0
0.321072 0.968550 0.215124 0.8 0 0
0.782610 0.831495 0.512443 0.8 0 0
0.531351 0.971375 0.784246 0.8 0 0
0.467453 0.100328 0.806523 0.8 0 0
0.252422 0.758755 0.340708 0.8 0 0
0.397967 0.943690 0.704897 0.8 0 0
0.489405 0.970872 0.734532 0.8 0 0
0.223266 0.967750 0.489585 0.8 0 0
0.355811 0.969339 0.647534 0.8 0 0
0.134961 0.757631 0.498525 0.8 0 0
0.225081 0.758529 0.415069 0.8 0 0
0.563589 0.945482 0.699759 0.8 0 0
0.672409 0.946259 0.275831 0.8 0 0
0.288676 0.905430 0.722768 0.8 0 0
0.314561 0.942379 0.280456 0.8 0 0
0.309406 0.843382 0.784365 0.8 0 0
0.131106 0.255110 0.455676 0.8 0 0
0.582206 0.762549 0.565224 0.8 0 0
0.543534 0.971359 0.628616 0.8 0 0
0.506993 0.761314 0.127021 0.8 0 0
0.589462 0.762715 0.656180 0.8 0 0
0.126800 0.025675 0.533935 0.8 0 0
0.316903 0.942660 0.548414 0.8 0 0
0.821897 0.765007 0.414075 0.8 0 0
0.779193 0.678439 0.440862 0.8 0 0
0.743827 0.815304 0.310032 0.8 0 0
0.628422 0.882304 0.189796 0.8 0 0
0.765521 0.764396 0.415259 0.8 0 0
0.264708 0.968331 0.627448 0.8 0 0
0.807945 0.138179 0.388161 0.8 0 0
0.393785 0.857074 0.832409 0.8 0 0
0.625652 0.972127 0.499805 0.8 0 0
0.473738 0.761462 0.660046 0.8 0 0
0.423916 0.944112 0.852043 0.8 0 0
0.682808 0.763611 0.533575 0.8 0 0
0.319917 0.968876 0.570417 0.8 0 0
0.464872 0.944498 0.790666 0.8 0 0
0.190521 0.822963 0.619052 0.8 0 0
0.127523 0.685878 0.527976 0.8 0 0
0.343546 0.813088 0.212642 0.8 0 0
0.398588 0.969721 0.561431 0.8 0 0
0.451159 0.761101 0.537680 0.8 0 0
0.813284 0.653849 0.476331 0.8 0 0
0.400312 0.770469 0.158959 0.8 0 0
0.350503 0.797302 0.824759 0.8 0 0
0.814900 0.759253 0.479122 0.8 0 0
0.457247 0.760811 0.165521 0.8 0 0
0.392312 0.391472 0.781882 0.8 0 0
0.433907 0.944215 0.847167 0.8 0 0
0.371816 0.834868 0.814852 0.8 0 0
0.672899 0.779952 0.235337 0.8 0 0
0.487239 0.970705 0.583423 0.8 0 0
0.104337 0.757290 0.490043 0.8 0 0
0.571231 0.762549 0.690099 0.8 0 0
0.469105 0.970273 0.336786 0.8 0 0
0.819522 0.764971 0.403814 0.8 0 0
0.567353 0.971694 0.709267 0.8 0 0
0.615024 0.972073 0.563798 0.8 0 0
0.453283 0.970271 0.515778 0.8 0 0
0.127270 0.843582 0.552986 0.8 0 0
0.204907 0.758282 0.385437 0.8 0 0
0.696204 0.834985 0.260332 0.8 0 0
0.735549 0.852384 0.557110 0.8 0 0
0.453493 0.943841 0.232115 0.8 0 0
0.808587 0.633578 0.471198 0.8 0 0
0.849480 0.058622 0.412861 0.8 0 0
0.381652 0.943264 0.444241 0.8 0 0
0.405303 0.943522 0.445200 0.8 0 0
0.641526 0.946007 0.362701 0.8 0 0
0.412720 0.258204 0.846010 0.8 0 0
0.293692 0.759134 0.268304 0.8 0 0
0.160844 0.414600 0.499250 0.8 0 0
0.695128 0.763802 0.593193 0.8 0 0
0.566617 0.945369 0.546128 0.8 0 0
0.233358 0.941823 0.620972 0.8 0 0
0.349587 0.949267 0.169354 0.8 0 0
0.363164 0.908675 0.800858 0.8 0 0
0.557506 0.250183 0.108895 0.8 0 0
0.602038 0.971590 0.204933 0.8 0 0
0.450110 0.425453 0.834297 0.8 0 0
0.830744 0.459884 0.470717 0.8 0 0
0.734046 0.859836 0.558461 0.8 0 0
0.539735 0.142711 0.089153 0.8 0 0
0.354449 0.814597 0.828770 0.8 0 0
0.452169 0.969850 0.086375 0.8 0 0
0.474570 0.726001 0.122142 0.8 0 0
0.113365 0.916080 0.539170 0.8 0 0
0.242921 0.861097 0.308112 0.8 0 0
0.218961 0.758540 0.495641 0.8 0 0
0.799213 0.230565 0.395449 0.8 0 0
0.861770 0.306876 0.442844 0.8 0 0
0.258356 0.826997 0.293770 0.8 0 0
0.853868 0.033479 0.441148 0.8 0 0
0.095159 0.757213 0.513907 0.8 0 0
0.162403 0.967119 0.520608 0.8 0 0
0.535814 0.762044 0.563419 0.8 0 0
0.232422 0.761226 0.319260 0.8 0 0
0.585552 0.971392 0.185039 0.8 0 0
0.551096 0.944963 0.297000 0.8 0 0
0.596494 0.945397 0.236227 0.8 0 0
0.302904 0.922855 0.250180 0.8 0 0
0.649914 0.946221 0.491894 0.8 0 0
0.492726 0.970495 0.300680 0.8 0 0
0.424344 0.367299 0.764130 0.8 0 0
0.390308 0.943398 0.485685 0.8 0 0
0.776222 0.503530 0.435926 0.8 0 0
0.587285 0.945664 0.620833 0.8 0 0
0.433641 0.117160 0.853498 0.8 0 0
0.144081 0.340501 0.470162 0.8 0 0
0.796980 0.613628 0.458826 0.8 0 0
0.336968 0.968844 0.342316 0.8 0 0
0.567421 0.945103 0.258974 0.8 0 0
0.682595 0.763474 0.391820 0.8 0 0
0.800657 0.032886 0.425126 0.8 0 0
0.812916 0.508698 0.379235 0.8 0 0
0.302327 0.759449 0.499660 0.8 0 0
0.783662 0.214670 0.440713 0.8 0 0
0.601864 0.945447 0.227409 0.8 0 0
0.328276 0.805933 0.772500 0.8 0 0
0.320751 0.770398 0.754973 0.8 0 0
0.466699 0.110951 0.103074 0.8 0 0
0.295804 0.968688 0.647133 0.8 0 0
0.779076 0.082990 0.416331 0.8 0 0
0.365759 0.867526 0.834251 0.8 0 0
0.776330 0.973670 0.401780 0.8 0 0
0.481077 0.970326 0.256908 0.8 0 0
0.148559 0.230635 0.473709 0.8 0 0
0.208673 0.894797 0.340410 0.8 0 0
0.536094 0.944880 0.380736 0.8 0 0
0.293594 0.759250 0.390719 0.8 0 0
0.644158 0.946027 0.354248 0.8 0 0
0.040621 0.953504 0.464114 0.8 0 0
0.419816 0.943455 0.211149 0.8 0 0
0.775343 0.543951 0.414680 0.8 0 0
0.460271 0.736348 0.805625 0.8 0 0
0.837496 0.894042 0.409009 0.8 0 0
0.684184 0.946485 0.377789 0.8 0 0
0.423295 0.943910 0.647709 0.8 0 0
0.385496 0.969730 0.718870 0.8 0 0
0.156494 0.601489 0.501288 0.8 0 0
0.229019 0.758781 0.634233 0.8 0 0
0.106067 0.334949 0.444645 0.8 0 0
0.443173 0.270916 0.782857 0.8 0 0
0.073533 0.606166 0.494200 0.8 0 0
0.428385 0.944065 0.752400 0.8 0 0
0.153894 0.182166 0.508510 0.8 0 0
0.070339 0.939889 0.449018 0.8 0 0
0.363016 0.809230 0.799667 0.8 0 0
0.430656 0.513577 0.851863 0.8 0 0
0.137197 0.333708 0.522729 0.8 0 0
0.504118 0.491241 0.063068 0.8 0 0
0.193395 0.798249 0.656597 0.8 0 0
0.375600 0.943219 0.466091 0.8 0 0
0.489064 0.029186 0.092091 0.8 0 0
0.209544 0.941387 0.434619 0.8 0 0
0.486684 0.944056 0.078663 0.8 0 0
0.528720 0.971037 0.459020 0.8 0 0
0.168393 0.815149 0.646540 0.8 0 0
0.492211 0.750669 0.140885 0.8 0 0
0.771758 0.973713 0.499120 0.8 0 0
0.532666 0.971001 0.377532 0.8 0 0
0.044978 0.965804 0.478138 0.8 0 0
0.160248 0.452801 0.488274 0.8 0 0
0.435731 0.760555 0.142104 0.8 0 0
0.665551 0.857186 0.228442 0.8 0 0
0.796563 0.764794 0.478578 0.8 0 0
0.474294 0.149684 0.814340 0.8 0 0
0.088041 0.100075 0.504129 0.8 0 0
0.097972 0.720619 0.521002 0.8 0 0
0.335472 0.969179 0.710825 0.8 0 0
0.515502 0.761513 0.238481 0.8 0 0
0.082544 0.840847 0.562200 0.8 0 0
0.262444 0.861564 0.738186 0.8 0 0
0.157459 0.949253 0.617516 0.8 0 0
0.566946 0.945475 0.653611 0.8 0 0
0.432827 0.162383 0.853763 0.8 0 0
0.287150 0.839276 0.762608 0.8 0 0
0.345967 0.759761 0.330712 0.8 0 0
0.474046 0.801825 0.807202 0.8 0 0
0.090720 0.583734 0.456475 0.8 0 0
0.168963 0.081580 0.495269 0.8 0 0
0.312472 0.788982 0.746491 0.8 0 0
0.331407 0.860586 0.223688 0.8 0 0
0.372409 0.969066 0.172288 0.8 0 0
0.110489 0.207737 0.528775 0.8 0 0
0.100154 0.238171 0.518262 0.8 0 0
0.841863 0.870335 0.413338 0.8 0 0
0.226355 0.758690 0.569219 0.8 0 0
0.313000 0.942663 0.594983 0.8 0 0
0.086078 0.683756 0.508155 0.8 0 0
0.604640 0.786061 0.682771 0.8 0 0
0.587149 0.971870 0.668483 0.8 0 0
0.765149 0.937910 0.333653 0.8 0 0
0.538120 0.971320 0.649593 0.8 0 0
0.168259 0.878696 0.379154 0.8 0 0
0.421608 0.943727 0.474928 0.8 0 0
0.395938 0.943276 0.293528 0.8 0 0
0.706296 0.961306 0.619774 0.8 0 0
0.408816 0.970126 0.869536 0.8 0 0
0.822151 0.249344 0.386211 0.8 0 0
0.238585 0.941738 0.472583 0.8 0 0
0.379337 0.943520 0.739550 0.8 0 0
0.813661 0.564238 0.475792 0.8 0 0
0.575868 0.762332 0.409699 0.8 0 0
0.093020 0.696749 0.515564 0.8 0 0
0.833371 0.440209 0.468433 0.8 0 0
0.796465 0.356168 0.455603 0.8 0 0
0.844146 0.881171 0.453165 0.8 0 0
0.163176 0.535861 0.492207 0.8 0 0
0.126144 0.774720 0.551088 0.8 0 0
0.638353 0.972009 0.231105 0.8 0 0
0.256078 0.941952 0.498299 0.8 0 0
0.507197 0.029431 0.143002 0.8 0 0
0.464329 0.970002 0.107984 0.8 0 0
0.518917 0.944553 0.234007 0.8 0 0
0.113516 0.867888 0.538826 0.8 0 0
0.087327 0.545551 0.508024 0.8 0 0
0.698346 0.946609 0.347226 0.8 0 0
0.434231 0.568627 0.847830 0.8 0 0
0.743250 0.973325 0.417538 0.8 0 0
0.352996 0.942803 0.286936 0.8 0 0
0.460582 0.033801 0.828734 0.8 0 0
0.593233 0.971666 0.384856 0.8 0 0
0.100729 0.780861 0.444695 0.8 0 0
0.828793 0.713938 0.398012 0.8 0 0
0.482396 0.761686 0.795761 0.8 0 0
0.508179 0.970947 0.599381 0.8 0 0
0.823263 0.930149 0.394469 0.8 0 0
0.482901 0.327394 0.085166 0.8 0 0
0.516079 0.970623 0.169632 0.8 0 0
0.372992 0.327063 0.801046 0.8 0 0
0.764040 0.784965 0.530688 0.8 0 0
0.501806 0.857940 0.780079 0.8 0 0
0.373079 0.868354 0.815752 0.8 0 0
0.446831 0.969849 0.146671 0.8 0 0
0.085131 0.813713 0.459207 0.8 0 0
0.481180 0.970592 0.534028 0.8 0 0
0.817981 0.513181 0.384590 0.8 0 0
0.261187 0.941988 0.477410 0.8 0 0
0.242517 0.852476 0.688038 0.8 0 0
0.083439 0.084669 0.469068 0.8 0 0
0.535455 0.761702 0.208997 0.8 0 0
0.453293 0.970525 0.781785 0.8 0 0
0.575712 0.762117 0.185982 0.8 0 0
0.404541 0.943850 0.798168 0.8 0 0
0.819541 0.051232 0.476607 0.8 0 0
0.517179 0.831444 0.072693 0.8 0 0
0.106413 0.873054 0.554528 0.8 0 0
0.422406 0.761087 0.850551 0.8 0 0
0.168158 0.940938 0.434842 0.8 0 0
0.591488 0.805673 0.150294 0.8 0 0
0.374990 0.737490 0.794497 0.8 0 0
0.518335 0.944459 0.141752 0.8 0 0
0.063498 0.747706 0.485160 0.8 0 0
0.658587 0.946275 0.449821 0.8 0 0
0.137841 0.439432 0.520918 0.8 0 0
0.589901 0.915598 0.149776 0.8 0 0
0.122442 0.781188 0.423974 0.8 0 0
0.495467 0.961410 0.030023 0.8 0 0
0.469658 0.693018 0.116651 0.8 0 0
0.502595 0.970478 0.170672 0.8 0 0
0.518051 0.944548 0.238623 0.8 0 0
0.530536 0.244033 0.080570 0.8 0 0
0.098752 0.462750 0.519132 0.8 0 0
0.478675 0.311493 0.089378 0.8 0 0
0.372823 0.231910 0.803928 0.8 0 0
0.805190 0.275837 0.463909 0.8 0 0
0.570245 0.762284 0.422766 0.8 0 0
0.292847 0.853292 0.726596 0.8 0 0
0.392244 0.142972 0.823352 0.8 0 0
0.486532 0.970312 0.180111 0.8 0 0
0.461669 0.532922 0.103101 0.8 0 0
0.539449 0.945197 0.675244 0.8 0 0
0.802162 0.646808 0.387926 0.8 0 0
0.367444 0.759877 0.207621 0.8 0 0
0.792254 0.909395 0.361759 0.8 0 0
0.543005 0.625055 0.132222 0.8 0 0
0.455604 0.221823 0.831358 0.8 0 0
0.113545 0.711465 0.442029 0.8 0 0
0.503455 0.907407 0.059104 0.8 0 0
0.427570 0.945445 0.094988 0.8 0 0
0.728328 0.946857 0.266419 0.8 0 0
0.413255 0.943595 0.431557 0.8 0 0
0.339932 0.833677 0.783637 0.8 0 0
0.524674 0.880029 0.081054 0.8 0 0
0.501872 0.761520 0.400556 0.8 0 0
0.455898 0.970348 0.565805 0.8 0 0
0.633388 0.869087 0.194862 0.8 0 0
0.375048 0.943516 0.784000 0.8 0 0
0.103269 0.191837 0.521043 0.8 0 0
0.344601 0.942759 0.335717 0.8 0 0
0.654663 0.763277 0.503562 0.8 0 0
0.657360 0.763080 0.266833 0.8 0 0
0.438526 0.580776 0.843594 0.8 0 0
0.229732 0.942873 0.283789 0.8 0 0
0.088620 0.370156 0.507550 0.8 0 0
0.569059 0.945307 0.453213 0.8 0 0
0.537700 0.908484 0.745258 0.8 0 0
0.080499 0.169518 0.470913 0.8 0 0
0.159202 0.694346 0.497653 0.8 0 0
0.558951 0.338327 0.120250 0.8 0 0
0.377363 0.853271 0.822314 0.8 0 0
0.467840 0.970210 0.286050 0.8 0 0
0.517778 0.257686 0.067342 0.8 0 0
0.807043 0.874508 0.488642 0.8 0 0
0.187647 0.874839 0.360698 0.8 0 0
0.462257 0.970200 0.339025 0.8 0 0
0.084203 0.148523 0.500612 0.8 0 0
0.425938 0.819391 0.852907 0.8 0 0
0.738086 0.947137 0.448444 0.8 0 0
0.635832 0.945887 0.302333 0.8 0 0
0.116792 0.757404 0.467945 0.8 0 0
0.722949 0.946855 0.325595 0.8 0 0
0.397963 0.442889 0.832471 0.8 0 0
0.648222 0.946093 0.376716 0.8 0 0
0.152776 0.263638 0.508655 0.8 0 0
0.445029 0.943718 0.198455 0.8 0 0
0.441113 0.761275 0.834191 0.8 0 0
0.253693 0.941953 0.525350 0.8 0 0
0.511172 0.671710 0.159932 0.8 0 0
0.487235 0.215287 0.082299 0.8 0 0
0.341049 0.759598 0.216222 0.8 0 0
0.093830 0.902267 0.449905 0.8 0 0
0.634571 0.945875 0.303009 0.8 0 0
0.338379 0.759758 0.414112 0.8 0 0
0.181625 0.769184 0.609169 0.8 0 0
0.784824 0.947584 0.385400 0.8 0 0
0.749313 0.973391 0.417497 0.8 0 0
0.158154 0.087436 0.505517 0.8 0 0
0.151950 0.893443 0.598923 0.8 0 0
0.529533 0.761930 0.515175 0.8 0 0
0.427092 0.943643 0.324482 0.8 0 0
0.124429 0.076848 0.537817 0.8 0 0
0.110771 0.049918 0.443381 0.8 0 0
0.525220 0.569416 0.078390 0.8 0 0
0.422707 0.577692 0.764607 0.8 0 0
0.473635 0.944395 0.583715 0.8 0 0
0.450316 0.970379 0.661478 0.8 0 0
0.298734 0.813752 0.732353 0.8 0 0
0.459374 0.943997 0.328989 0.8 0 0
0.494419 0.928120 0.786333 0.8 0 0
0.570970 0.945037 0.147957 0.8 0 0
0.541345 0.970900 0.172627 0.8 0 0
0.523895 0.544585 0.076742 0.8 0 0
0.214848 0.902738 0.666365 0.8 0 0
0.457828 0.521397 0.825848 0.8 0 0
0.337690 0.969243 0.752880 0.8 0 0
0.255315 0.968278 0.678145 0.8 0 0
0.523590 0.761482 0.113578 0.8 0 0
0.424931 0.830133 0.134794 0.8 0 0
0.494186 0.944355 0.307548 0.8 0 0
0.489955 0.344605 0.134290 0.8 0 0
0.186945 0.758066 0.363303 0.8 0 0
0.253262 0.967937 0.344136 0.8 0 0
0.545017 0.945165 0.578524 0.8 0 0
0.319328 0.802621 0.235868 0.8 0 0
0.160672 0.626972 0.497012 0.8 0 0
0.268512 0.870959 0.701279 0.8 0 0
0.422637 0.943508 0.233608 0.8 0 0
0.381578 0.969550 0.575081 0.8 0 0
0.752955 0.947382 0.536224 0.8 0 0
0.435962 0.443717 0.847590 0.8 0 0
0.528074 0.761630 0.217861 0.8 0 0
0.142053 0.367035 0.468314 0.8 0 0
0.461892 0.617562 0.107726 0.8 0 0
0.554306 0.461584 0.107745 0.8 0 0
0.412096 0.969707 0.392686 0.8 0 0
0.375294 0.760484 0.754714 0.8 0 0
0.155443 0.940865 0.502781 0.8 0 0
0.508837 0.944450 0.239831 0.8 0 0
0.090463 0.836114 0.539279 0.8 0 0
0.037458 0.947471 0.491748 0.8 0 0
0.850895 0.795472 0.422023 0.8 0 0
0.304139 0.759352 0.377847 0.8 0 0
0.150666 0.940855 0.547269 0.8 0 0
0.306436 0.942673 0.680848 0.8 0 0
0.397892 0.742587 0.772587 0.8 0 0
0.427647 0.937755 0.849937 0.8 0 0
0.470494 0.944475 0.703307 0.8 0 0
0.152641 0.336291 0.479088 0.8 0 0
0.538938 0.404734 0.138596 0.8 0 0
0.267537 0.941983 0.399954 0.8 0 0
0.835622 0.894025 0.407045 0.8 0 0
0.612886 0.971826 0.328520 0.8 0 0
0.232472 0.941600 0.397991 0.8 0 0
0.382224 0.969391 0.401110 0.8 0 0
0.114664 0.236913 0.533454 0.8 0 0
0.391796 0.433590 0.825912 0.8 0 0
0.746722 0.973336 0.388857 0.8 0 0
0.702198 0.973001 0.544163 0.8 0 0
0.082500 0.375947 0.466669 0.8 0 0
0.267406 0.942095 0.518781 0.8 0 0
0.352045 0.968847 0.174488 0.8 0 0
0.199131 0.967582 0.587612 0.8 0 0
0.333141 0.968870 0.413553 0.8 0 0
0.412938 0.943559 0.398091 0.8 0 0
0.269312 0.941909 0.301888 0.8 0 0
0.511554 0.944388 0.144165 0.8 0 0
0.432504 0.761067 0.714775 0.8 0 0
0.369821 0.519302 0.801897 0.8 0 0
0.114757 0.187751 0.533039 0.8 0 0
0.353061 0.969012 0.335407 0.8 0 0
0.094473 0.750333 0.451010 0.8 0 0
0.242097 0.936920 0.674286 0.8 0 0
0.458530 0.969966 0.136232 0.8 0 0
0.352363 0.969163 0.501535 0.8 0 0
0.503670 0.323369 0.148440 0.8 0 0
0.609481 0.803831 0.169130 0.8 0 0
0.445403 0.520153 0.787791 0.8 0 0
0.759763 0.947316 0.389677 0.8 0 0
0.692016 0.923974 0.256871 0.8 0 0
0.799937 0.437205 0.392420 0.8 0 0
0.303766 0.759562 0.602529 0.8 0 0
0.156252 0.203320 0.506021 0.8 0 0
0.469313 0.944383 0.619830 0.8 0 0
0.838351 0.232851 0.403014 0.8 0 0
0.557116 0.842423 0.114658 0.8 0 0
0.542179 0.944851 0.281122 0.8 0 0
0.797592 0.875302 0.497651 0.8 0 0
0.578515 0.971518 0.397478 0.8 0 0
0.247264 0.758669 0.309208 0.8 0 0
0.180192 0.817954 0.627344 0.8 0 0
0.109823 0.966534 0.505203 0.8 0 0
0.409949 0.197277 0.767250 0.8 0 0
0.661837 0.840917 0.224381 0.8 0 0
0.087014 0.801960 0.566970 0.8 0 0
0.798218 0.521038 0.393113 0.8 0 0
0.493877 0.750776 0.069904 0.8 0 0
0.428319 0.537744 0.853820 0.8 0 0
