0.025000 0.645470 0.083275 0.8 0 0
0.654789 0.658333 0.341302 0.8 0 0
0.375027 0.634583 0.058631 0.8 0 0
0.295055 0.593291 0.080417 0.8 0 0
0.070792 0.658333 0.198498 0.8 0 0
0.480560 0.634583 0.180449 0.8 0 0
0.409309 0.658333 0.071233 0.8 0 0
0.149772 0.344274 0.123672 0.8 0 0
0.153404 0.523611 0.130308 0.8 0 0
0.080417 0.571549 0.122102 0.8 0 0
0.871282 0.025000 0.235429 0.8 0 0
0.583919 0.634583 0.286562 0.8 0 0
0.144111 0.123668 0.145305 0.8 0 0
0.243807 0.634583 0.131074 0.8 0 0
0.235051 0.641516 0.025000 0.8 0 0
0.109232 0.512679 0.264015 0.8 0 0
0.144014 0.059899 0.252620 0.8 0 0
0.576203 0.523750 0.279258 0.8 0 0
0.732680 0.574612 0.286250 0.8 0 0
0.114671 0.658333 0.313069 0.8 0 0
0.926437 0.634583 0.128736 0.8 0 0
0.459657 0.656689 0.025000 0.8 0 0
0.931192 0.634583 0.163933 0.8 0 0
0.172456 0.634583 0.225078 0.8 0 0
0.292457 0.634583 0.249712 0.8 0 0
0.552635 0.658333 0.053220 0.8 0 0
0.296489 0.553255 0.286250 0.8 0 0
0.921366 0.617184 0.048750 0.8 0 0
0.431688 0.658333 0.152744 0.8 0 0
0.894097 0.352098 0.108547 0.8 0 0
0.121777 0.634583 0.215887 0.8 0 0
0.975000 0.636132 0.220623 0.8 0 0
0.316115 0.658333 0.286195 0.8 0 0
0.919583 0.524294 0.105098 0.8 0 0
0.080417 0.564242 0.248616 0.8 0 0
0.150918 0.400868 0.133809 0.8 0 0
0.420877 0.523750 0.136984 0.8 0 0
0.952630 0.658333 0.235822 0.8 0 0
0.786316 0.634583 0.122212 0.8 0 0
0.123980 0.523750 0.258428 0.8 0 0
0.546556 0.658333 0.218994 0.8 0 0
0.870433 0.276408 0.259231 0.8 0 0
0.350974 0.658333 0.054237 0.8 0 0
0.841663 0.634583 0.200599 0.8 0 0
0.820984 0.523750 0.282135 0.8 0 0
0.502702 0.551879 0.080417 0.8 0 0
0.676000 0.634583 0.057278 0.8 0 0
0.865437 0.031123 0.254264 0.8 0 0
0.889326 0.658333 0.047673 0.8 0 0
0.905391 0.603674 0.317917 0.8 0 0
0.091953 0.658333 0.262429 0.8 0 0
0.931656 0.634583 0.142633 0.8 0 0
0.878227 0.658333 0.098393 0.8 0 0
0.302780 0.658333 0.319926 0.8 0 0
0.834328 0.634583 0.107571 0.8 0 0
0.797391 0.634583 0.046725 0.8 0 0
0.892344 0.356907 0.216639 0.8 0 0
0.474577 0.658333 0.188927 0.8 0 0
0.831274 0.658333 0.033389 0.8 0 0
0.226778 0.523750 0.134414 0.8 0 0
0.659692 0.658333 0.324258 0.8 0 0
0.919583 0.540728 0.112937 0.8 0 0
0.719594 0.547421 0.080417 0.8 0 0
0.863110 0.036566 0.223126 0.8 0 0
0.109254 0.186647 0.142768 0.8 0 0
0.847717 0.468254 0.135894 0.8 0 0
0.747201 0.523750 0.283386 0.8 0 0
0.874673 0.128492 0.256236 0.8 0 0
0.097067 0.658333 0.207049 0.8 0 0
0.443619 0.523750 0.094588 0.8 0 0
0.878026 0.025000 0.245713 0.8 0 0
0.289754 0.584045 0.286250 0.8 0 0
0.148722 0.292428 0.139158 0.8 0 0
0.794347 0.634583 0.177540 0.8 0 0
0.882936 0.658333 0.122128 0.8 0 0
0.473762 0.523750 0.151319 0.8 0 0
0.334187 0.523750 0.080825 0.8 0 0
0.477346 0.621830 0.048750 0.8 0 0
0.033805 0.658333 0.072678 0.8 0 0
0.305503 0.634583 0.309466 0.8 0 0
0.347108 0.658333 0.031088 0.8 0 0
0.853840 0.350861 0.149906 0.8 0 0
0.919583 0.548545 0.254948 0.8 0 0
0.800436 0.634583 0.215520 0.8 0 0
0.786200 0.634583 0.125749 0.8 0 0
0.228750 0.526577 0.080417 0.8 0 0
0.659692 0.588738 0.286250 0.8 0 0
0.127546 0.274383 0.218310 0.8 0 0
0.110743 0.165386 0.220517 0.8 0 0
0.889095 0.105097 0.230438 0.8 0 0
0.071620 0.645328 0.025000 0.8 0 0
0.871946 0.658333 0.331969 0.8 0 0
0.254500 0.658333 0.123311 0.8 0 0
0.872085 0.658333 0.082644 0.8 0 0
0.148382 0.275620 0.220303 0.8 0 0
0.470792 0.523750 0.207169 0.8 0 0
0.881275 0.468424 0.214381 0.8 0 0
0.759904 0.634583 0.057810 0.8 0 0
0.356083 0.658333 0.117922 0.8 0 0
0.377492 0.634583 0.085189 0.8 0 0
0.782576 0.640516 0.341667 0.8 0 0
0.535212 0.634583 0.324010 0.8 0 0
0.447052 0.658333 0.331758 0.8 0 0
0.219633 0.587076 0.080417 0.8 0 0
0.944387 0.658333 0.137957 0.8 0 0
0.310461 0.634583 0.101850 0.8 0 0
0.308518 0.634583 0.284503 0.8 0 0
0.905940 0.634583 0.271234 0.8 0 0
0.393127 0.658333 0.279732 0.8 0 0
0.737470 0.529632 0.286250 0.8 0 0
0.617182 0.624625 0.048750 0.8 0 0
0.833748 0.634583 0.322493 0.8 0 0
0.878446 0.303731 0.106883 0.8 0 0
0.025000 0.650938 0.160222 0.8 0 0
0.868557 0.499164 0.263742 0.8 0 0
0.356008 0.634583 0.148267 0.8 0 0
0.421646 0.523750 0.263925 0.8 0 0
0.139466 0.036875 0.223120 0.8 0 0
0.143731 0.045937 0.128104 0.8 0 0
0.340845 0.634583 0.189040 0.8 0 0
0.711921 0.657179 0.025000 0.8 0 0
0.142315 0.029113 0.112444 0.8 0 0
0.362794 0.535431 0.080417 0.8 0 0
0.952415 0.634583 0.279082 0.8 0 0
0.126259 0.543477 0.080417 0.8 0 0
0.951030 0.609803 0.317917 0.8 0 0
0.107007 0.297608 0.257884 0.8 0 0
0.569827 0.658333 0.146946 0.8 0 0
0.873091 0.264889 0.218502 0.8 0 0
0.745824 0.658333 0.214734 0.8 0 0
0.243527 0.523750 0.253805 0.8 0 0
0.401110 0.658333 0.131924 0.8 0 0
0.807311 0.609827 0.048750 0.8 0 0
0.331268 0.523750 0.109520 0.8 0 0
0.699484 0.634583 0.182662 0.8 0 0
0.110257 0.137089 0.123816 0.8 0 0
0.407093 0.634583 0.225001 0.8 0 0
0.150554 0.382869 0.239766 0.8 0 0
0.248829 0.547364 0.080417 0.8 0 0
0.827592 0.568641 0.080417 0.8 0 0
0.299921 0.523750 0.282305 0.8 0 0
0.133297 0.265213 0.218496 0.8 0 0
0.847597 0.474208 0.115562 0.8 0 0
0.887500 0.634583 0.181154 0.8 0 0
0.596850 0.634583 0.250137 0.8 0 0
0.500576 0.541670 0.080417 0.8 0 0
0.048750 0.630421 0.066765 0.8 0 0
0.862498 0.523750 0.247435 0.8 0 0
0.369722 0.634583 0.166706 0.8 0 0
0.517990 0.634583 0.053432 0.8 0 0
0.458558 0.658333 0.177469 0.8 0 0
0.808976 0.658333 0.318431 0.8 0 0
0.398485 0.658333 0.204931 0.8 0 0
0.749415 0.623817 0.317917 0.8 0 0
0.915570 0.658333 0.187396 0.8 0 0
0.131258 0.634583 0.218168 0.8 0 0
0.932190 0.607723 0.317917 0.8 0 0
0.969046 0.658333 0.283180 0.8 0 0
0.654211 0.561753 0.286250 0.8 0 0
0.893454 0.658333 0.341533 0.8 0 0
0.786743 0.523750 0.213765 0.8 0 0
0.354026 0.658333 0.097852 0.8 0 0
0.121342 0.634583 0.127624 0.8 0 0
0.765963 0.634583 0.185832 0.8 0 0
0.106991 0.421093 0.215339 0.8 0 0
0.504566 0.634583 0.283063 0.8 0 0
0.800241 0.658333 0.208147 0.8 0 0
0.137981 0.658333 0.199975 0.8 0 0
0.213077 0.523750 0.216491 0.8 0 0
0.520173 0.658333 0.069052 0.8 0 0
0.850979 0.307179 0.135872 0.8 0 0
0.868788 0.239870 0.108176 0.8 0 0
0.660178 0.542861 0.080417 0.8 0 0
0.919583 0.576304 0.105914 0.8 0 0
0.151875 0.448091 0.227314 0.8 0 0
0.759545 0.559193 0.286250 0.8 0 0
0.328988 0.593643 0.080417 0.8 0 0
0.331771 0.634583 0.252853 0.8 0 0
0.847561 0.475955 0.125817 0.8 0 0
0.037264 0.634583 0.332012 0.8 0 0
0.202681 0.658333 0.091968 0.8 0 0
0.783214 0.634583 0.234375 0.8 0 0
0.845458 0.658333 0.084453 0.8 0 0
0.654660 0.658333 0.065712 0.8 0 0
0.233719 0.658333 0.172939 0.8 0 0
0.704151 0.634583 0.142497 0.8 0 0
0.900785 0.523750 0.164937 0.8 0 0
0.110908 0.104927 0.139908 0.8 0 0
0.855587 0.079614 0.232179 0.8 0 0
0.141904 0.051457 0.222824 0.8 0 0
0.142947 0.472800 0.214292 0.8 0 0
0.917595 0.642565 0.025000 0.8 0 0
0.048750 0.624675 0.294711 0.8 0 0
0.152686 0.488139 0.136602 0.8 0 0
0.297182 0.634583 0.323015 0.8 0 0
0.425967 0.634583 0.139869 0.8 0 0
0.267908 0.584911 0.080417 0.8 0 0
0.058081 0.634583 0.052891 0.8 0 0
0.087613 0.609874 0.317917 0.8 0 0
0.906664 0.634583 0.129209 0.8 0 0
0.562629 0.523750 0.270979 0.8 0 0
0.146508 0.199883 0.108986 0.8 0 0
0.849975 0.589925 0.080417 0.8 0 0
0.068402 0.634583 0.065348 0.8 0 0
0.679501 0.658333 0.283296 0.8 0 0
0.207878 0.523750 0.181659 0.8 0 0
0.029436 0.634583 0.232829 0.8 0 0
0.871323 0.634583 0.278250 0.8 0 0
0.125983 0.221299 0.219385 0.8 0 0
0.315850 0.523750 0.237774 0.8 0 0
0.388250 0.523750 0.274616 0.8 0 0
0.274795 0.658333 0.105714 0.8 0 0
0.108644 0.634583 0.299135 0.8 0 0
0.103802 0.651732 0.341667 0.8 0 0
0.887463 0.079955 0.144420 0.8 0 0
0.851455 0.318297 0.149246 0.8 0 0
0.848080 0.523750 0.090901 0.8 0 0
0.125837 0.429845 0.104329 0.8 0 0
0.576120 0.634583 0.312104 0.8 0 0
0.111058 0.185318 0.220114 0.8 0 0
0.919583 0.561794 0.160176 0.8 0 0
0.564192 0.523750 0.174561 0.8 0 0
0.177678 0.658333 0.173263 0.8 0 0
0.145891 0.152598 0.241959 0.8 0 0
0.808461 0.523750 0.126179 0.8 0 0
0.083003 0.523750 0.243490 0.8 0 0
0.789969 0.634583 0.047846 0.8 0 0
0.479069 0.658333 0.288839 0.8 0 0
0.126347 0.238834 0.219030 0.8 0 0
0.153588 0.658333 0.026676 0.8 0 0
0.810903 0.658333 0.288105 0.8 0 0
0.384102 0.634583 0.050813 0.8 0 0
0.776576 0.523750 0.124565 0.8 0 0
0.510075 0.634583 0.300420 0.8 0 0
0.762629 0.652095 0.341667 0.8 0 0
0.138391 0.094273 0.221957 0.8 0 0
0.878914 0.523750 0.228314 0.8 0 0
0.167491 0.523750 0.156319 0.8 0 0
0.519912 0.560581 0.286250 0.8 0 0
0.442522 0.634583 0.139492 0.8 0 0
0.311497 0.523750 0.204072 0.8 0 0
0.123894 0.634583 0.155167 0.8 0 0
0.881311 0.383349 0.261397 0.8 0 0
0.894606 0.377225 0.228156 0.8 0 0
0.856512 0.033922 0.135353 0.8 0 0
0.145576 0.137074 0.239101 0.8 0 0
0.927046 0.634583 0.259086 0.8 0 0
0.873910 0.442076 0.104081 0.8 0 0
0.574665 0.658333 0.317664 0.8 0 0
0.585279 0.658333 0.212005 0.8 0 0
0.313708 0.634583 0.193524 0.8 0 0
0.210420 0.658333 0.193929 0.8 0 0
0.863638 0.450441 0.151922 0.8 0 0
0.122314 0.658333 0.208742 0.8 0 0
0.120125 0.641394 0.341667 0.8 0 0
0.107220 0.391312 0.261558 0.8 0 0
0.871410 0.634583 0.178970 0.8 0 0
0.282643 0.658333 0.278796 0.8 0 0
0.198270 0.658333 0.293022 0.8 0 0
0.539068 0.634583 0.271717 0.8 0 0
0.601377 0.559193 0.286250 0.8 0 0
0.260372 0.658333 0.295689 0.8 0 0
0.186437 0.613132 0.317917 0.8 0 0
0.927611 0.658333 0.204676 0.8 0 0
0.483750 0.523750 0.125212 0.8 0 0
0.691705 0.658333 0.112271 0.8 0 0
0.127501 0.309576 0.106764 0.8 0 0
0.788752 0.634729 0.025000 0.8 0 0
0.036628 0.658333 0.093755 0.8 0 0
0.816579 0.523750 0.199110 0.8 0 0
0.136857 0.469043 0.152299 0.8 0 0
0.834688 0.658333 0.144217 0.8 0 0
0.445740 0.634583 0.073582 0.8 0 0
0.138245 0.271228 0.259126 0.8 0 0
0.517283 0.608004 0.317917 0.8 0 0
0.897276 0.509122 0.148445 0.8 0 0
0.785772 0.604814 0.048750 0.8 0 0
0.345368 0.634583 0.277236 0.8 0 0
0.123134 0.523750 0.175754 0.8 0 0
0.111291 0.317199 0.217443 0.8 0 0
0.451278 0.634583 0.206368 0.8 0 0
0.600134 0.658333 0.208835 0.8 0 0
0.311099 0.634583 0.219308 0.8 0 0
0.025000 0.651852 0.183841 0.8 0 0
0.967482 0.658333 0.237157 0.8 0 0
0.186054 0.634583 0.188344 0.8 0 0
0.239155 0.658333 0.328999 0.8 0 0
0.848240 0.442432 0.118482 0.8 0 0
0.901400 0.571807 0.286250 0.8 0 0
0.593893 0.634583 0.219222 0.8 0 0
0.144878 0.506633 0.102774 0.8 0 0
0.701629 0.634583 0.273602 0.8 0 0
0.864278 0.427093 0.262282 0.8 0 0
0.732604 0.523750 0.135903 0.8 0 0
0.144502 0.083990 0.144326 0.8 0 0
0.681044 0.634583 0.046116 0.8 0 0
0.369055 0.644748 0.025000 0.8 0 0
0.851248 0.293912 0.246970 0.8 0 0
0.577867 0.560505 0.286250 0.8 0 0
0.562088 0.634583 0.051045 0.8 0 0
0.111369 0.634583 0.120830 0.8 0 0
0.084349 0.658333 0.142183 0.8 0 0
0.508607 0.602840 0.317917 0.8 0 0
0.542335 0.658333 0.155535 0.8 0 0
0.487722 0.634583 0.291819 0.8 0 0
0.107727 0.262028 0.242602 0.8 0 0
0.092698 0.634583 0.198443 0.8 0 0
0.318946 0.627885 0.048750 0.8 0 0
0.151533 0.431221 0.255545 0.8 0 0
0.025000 0.638310 0.264073 0.8 0 0
0.897255 0.508055 0.149897 0.8 0 0
0.115428 0.634583 0.259618 0.8 0 0
0.794044 0.658333 0.122963 0.8 0 0
0.398106 0.658333 0.081005 0.8 0 0
0.054461 0.658333 0.232205 0.8 0 0
0.772099 0.658333 0.221352 0.8 0 0
0.912694 0.523750 0.274145 0.8 0 0
0.625814 0.658333 0.121850 0.8 0 0
0.852390 0.237473 0.220834 0.8 0 0
0.865119 0.243813 0.218929 0.8 0 0
0.855218 0.285701 0.107248 0.8 0 0
0.139462 0.326863 0.106414 0.8 0 0
0.191559 0.658333 0.288491 0.8 0 0
0.948994 0.634583 0.087730 0.8 0 0
0.331510 0.644109 0.341667 0.8 0 0
0.453249 0.641233 0.341667 0.8 0 0
0.761760 0.644404 0.025000 0.8 0 0
0.872930 0.118488 0.221467 0.8 0 0
0.905261 0.658333 0.041740 0.8 0 0
0.646137 0.634583 0.029146 0.8 0 0
0.425072 0.658333 0.331407 0.8 0 0
0.193075 0.658333 0.174678 0.8 0 0
0.919583 0.529454 0.231473 0.8 0 0
0.437587 0.658333 0.197478 0.8 0 0
0.888443 0.397791 0.150856 0.8 0 0
0.653831 0.658333 0.314888 0.8 0 0
0.711398 0.523750 0.131236 0.8 0 0
0.136160 0.046215 0.222930 0.8 0 0
0.873286 0.658333 0.036170 0.8 0 0
0.568350 0.634583 0.331607 0.8 0 0
0.145251 0.121008 0.242163 0.8 0 0
0.108603 0.218763 0.251448 0.8 0 0
0.740160 0.634583 0.303957 0.8 0 0
0.464799 0.523750 0.198356 0.8 0 0
0.119179 0.467574 0.152269 0.8 0 0
0.775241 0.638218 0.341667 0.8 0 0
0.145190 0.117977 0.234432 0.8 0 0
0.457337 0.634583 0.098245 0.8 0 0
0.454728 0.641775 0.341667 0.8 0 0
0.546664 0.658333 0.074294 0.8 0 0
0.135439 0.294361 0.107072 0.8 0 0
0.638410 0.523750 0.279346 0.8 0 0
0.896077 0.449900 0.119837 0.8 0 0
0.105726 0.658333 0.109704 0.8 0 0
0.733372 0.523750 0.098766 0.8 0 0
0.390692 0.658333 0.158272 0.8 0 0
0.603221 0.523750 0.125212 0.8 0 0
0.854996 0.239746 0.258489 0.8 0 0
0.706790 0.639070 0.341667 0.8 0 0
0.884089 0.036149 0.254366 0.8 0 0
0.868840 0.242684 0.218952 0.8 0 0
0.876108 0.117560 0.110653 0.8 0 0
0.110518 0.124224 0.135848 0.8 0 0
0.388886 0.634583 0.162937 0.8 0 0
0.132508 0.614374 0.317917 0.8 0 0
0.832523 0.658333 0.198553 0.8 0 0
0.211028 0.523750 0.245915 0.8 0 0
0.630138 0.563842 0.286250 0.8 0 0
0.109808 0.159294 0.137589 0.8 0 0
0.394221 0.634583 0.231998 0.8 0 0
0.149299 0.320879 0.120075 0.8 0 0
0.592696 0.560596 0.080417 0.8 0 0
0.880824 0.208945 0.147032 0.8 0 0
0.145146 0.115797 0.138359 0.8 0 0
0.814258 0.658333 0.060177 0.8 0 0
0.260420 0.634583 0.272839 0.8 0 0
0.897533 0.521786 0.223941 0.8 0 0
0.112595 0.299664 0.259702 0.8 0 0
0.080417 0.568976 0.226216 0.8 0 0
0.959576 0.634583 0.213955 0.8 0 0
0.107385 0.278944 0.129928 0.8 0 0
0.112882 0.433139 0.151572 0.8 0 0
0.972594 0.634583 0.141947 0.8 0 0
0.780731 0.658333 0.113662 0.8 0 0
0.107874 0.254791 0.110460 0.8 0 0
0.846287 0.550894 0.080417 0.8 0 0
0.208842 0.634583 0.295801 0.8 0 0
0.123442 0.295984 0.259627 0.8 0 0
0.120674 0.442215 0.262589 0.8 0 0
0.864260 0.086449 0.222116 0.8 0 0
0.589175 0.658333 0.197903 0.8 0 0
0.107620 0.658333 0.057734 0.8 0 0
0.276134 0.634583 0.221251 0.8 0 0
0.792992 0.523750 0.237410 0.8 0 0
0.741320 0.634583 0.273863 0.8 0 0
0.125256 0.634583 0.044406 0.8 0 0
0.856672 0.026036 0.119363 0.8 0 0
0.420082 0.634583 0.261879 0.8 0 0
0.920622 0.632400 0.317917 0.8 0 0
0.271176 0.644735 0.341667 0.8 0 0
0.901127 0.634583 0.071736 0.8 0 0
0.589175 0.658333 0.070003 0.8 0 0
0.870080 0.457307 0.262894 0.8 0 0
0.142714 0.424046 0.262221 0.8 0 0
0.337015 0.631582 0.317917 0.8 0 0
0.126782 0.218098 0.108617 0.8 0 0
0.698235 0.578618 0.286250 0.8 0 0
0.866186 0.658333 0.201784 0.8 0 0
0.132500 0.658333 0.322274 0.8 0 0
0.620592 0.658333 0.082791 0.8 0 0
0.926843 0.634583 0.186769 0.8 0 0
0.147860 0.249828 0.256244 0.8 0 0
0.350091 0.523750 0.081051 0.8 0 0
0.270953 0.658333 0.121324 0.8 0 0
0.885034 0.461373 0.103690 0.8 0 0
0.759750 0.523750 0.203488 0.8 0 0
0.385361 0.658333 0.190898 0.8 0 0
0.111980 0.658333 0.338329 0.8 0 0
0.387303 0.523750 0.275439 0.8 0 0
0.493149 0.572242 0.080417 0.8 0 0
0.126670 0.658333 0.105668 0.8 0 0
0.441855 0.634583 0.209954 0.8 0 0
0.602391 0.626122 0.048750 0.8 0 0
0.406278 0.658333 0.303970 0.8 0 0
0.857140 0.474223 0.152404 0.8 0 0
0.856232 0.047761 0.248621 0.8 0 0
0.213857 0.658333 0.277691 0.8 0 0
0.781326 0.658333 0.226324 0.8 0 0
0.105741 0.360093 0.124113 0.8 0 0
0.048750 0.616325 0.168026 0.8 0 0
0.421215 0.658333 0.056821 0.8 0 0
0.150178 0.364298 0.142423 0.8 0 0
0.853884 0.289443 0.107172 0.8 0 0
0.104647 0.414150 0.247554 0.8 0 0
0.925007 0.658333 0.049827 0.8 0 0
0.674386 0.658333 0.222728 0.8 0 0
0.158886 0.544296 0.286250 0.8 0 0
0.310780 0.634583 0.225668 0.8 0 0
0.892361 0.266373 0.129815 0.8 0 0
0.148092 0.261301 0.228554 0.8 0 0
0.272710 0.658333 0.032599 0.8 0 0
0.144612 0.089449 0.242749 0.8 0 0
0.871844 0.634583 0.224914 0.8 0 0
0.771287 0.658333 0.192190 0.8 0 0
0.868981 0.294933 0.107061 0.8 0 0
0.118871 0.270007 0.259101 0.8 0 0
0.358618 0.634583 0.236646 0.8 0 0
0.080417 0.578857 0.113295 0.8 0 0
0.760020 0.634583 0.257125 0.8 0 0
0.295823 0.558445 0.286250 0.8 0 0
0.743360 0.523750 0.176917 0.8 0 0
0.889667 0.133347 0.242367 0.8 0 0
0.190084 0.634583 0.178100 0.8 0 0
0.867244 0.025000 0.128026 0.8 0 0
0.399109 0.591495 0.080417 0.8 0 0
0.151473 0.428252 0.224492 0.8 0 0
0.132303 0.427294 0.104381 0.8 0 0
0.830076 0.523750 0.090197 0.8 0 0
0.853550 0.634583 0.200106 0.8 0 0
0.514667 0.599464 0.317917 0.8 0 0
0.826439 0.559952 0.286250 0.8 0 0
0.199068 0.523750 0.132932 0.8 0 0
0.521472 0.658333 0.171184 0.8 0 0
0.155351 0.634583 0.269543 0.8 0 0
0.444490 0.523750 0.207496 0.8 0 0
0.940151 0.634583 0.051403 0.8 0 0
0.359545 0.634583 0.076433 0.8 0 0
0.048750 0.617035 0.300026 0.8 0 0
0.188107 0.523750 0.123936 0.8 0 0
0.216458 0.523750 0.176257 0.8 0 0
0.025000 0.640068 0.102700 0.8 0 0
0.338467 0.658333 0.095107 0.8 0 0
0.812120 0.634583 0.243092 0.8 0 0
0.785304 0.617363 0.048750 0.8 0 0
0.335288 0.523750 0.097151 0.8 0 0
0.636002 0.586733 0.286250 0.8 0 0
0.152674 0.529549 0.213143 0.8 0 0
0.715470 0.580401 0.286250 0.8 0 0
0.951250 0.610919 0.279185 0.8 0 0
0.720183 0.567395 0.286250 0.8 0 0
0.570456 0.658333 0.340961 0.8 0 0
0.129271 0.160330 0.146047 0.8 0 0
0.857453 0.025000 0.131538 0.8 0 0
0.852622 0.466600 0.103585 0.8 0 0
0.551128 0.634583 0.258593 0.8 0 0
0.080417 0.566176 0.282525 0.8 0 0
0.763115 0.658333 0.151028 0.8 0 0
0.579967 0.523750 0.281300 0.8 0 0
0.282128 0.658333 0.252077 0.8 0 0
0.850422 0.459502 0.214561 0.8 0 0
0.106776 0.309004 0.127346 0.8 0 0
0.582006 0.634583 0.123256 0.8 0 0
0.192954 0.634583 0.316173 0.8 0 0
0.539763 0.656222 0.025000 0.8 0 0
0.140036 0.301443 0.217762 0.8 0 0
0.362415 0.658333 0.075910 0.8 0 0
0.244218 0.658333 0.258880 0.8 0 0
0.525528 0.634583 0.226112 0.8 0 0
0.107020 0.634583 0.126300 0.8 0 0
0.947399 0.634583 0.212544 0.8 0 0
0.080417 0.582723 0.190875 0.8 0 0
0.278511 0.523750 0.213671 0.8 0 0
0.618652 0.634583 0.082454 0.8 0 0
0.697604 0.658333 0.138403 0.8 0 0
0.195618 0.658333 0.090870 0.8 0 0
0.835531 0.523750 0.189706 0.8 0 0
0.348789 0.634583 0.202145 0.8 0 0
0.149461 0.328904 0.109359 0.8 0 0
0.846940 0.634583 0.251133 0.8 0 0
0.839911 0.658333 0.097589 0.8 0 0
0.341051 0.523750 0.269610 0.8 0 0
0.927368 0.658333 0.255401 0.8 0 0
0.885455 0.098448 0.144794 0.8 0 0
0.114848 0.634583 0.286368 0.8 0 0
0.951250 0.618175 0.244043 0.8 0 0
0.125796 0.443066 0.262606 0.8 0 0
0.379568 0.561972 0.080417 0.8 0 0
0.194607 0.634583 0.157970 0.8 0 0
0.143505 0.531667 0.258909 0.8 0 0
0.838629 0.523750 0.227070 0.8 0 0
0.685021 0.658333 0.144936 0.8 0 0
0.341628 0.634583 0.182585 0.8 0 0
0.180286 0.658333 0.034272 0.8 0 0
0.264073 0.634583 0.155486 0.8 0 0
0.744422 0.634583 0.097607 0.8 0 0
0.731400 0.523750 0.102943 0.8 0 0
0.506291 0.658333 0.212167 0.8 0 0
0.823571 0.532828 0.080417 0.8 0 0
0.080417 0.544125 0.220725 0.8 0 0
0.463455 0.634583 0.218487 0.8 0 0
0.106614 0.634583 0.309920 0.8 0 0
0.880552 0.422794 0.151362 0.8 0 0
0.145643 0.140367 0.225846 0.8 0 0
0.705830 0.658333 0.092161 0.8 0 0
0.805190 0.634583 0.310519 0.8 0 0
0.102994 0.495763 0.243337 0.8 0 0
0.850385 0.538454 0.080417 0.8 0 0
0.889086 0.104664 0.130992 0.8 0 0
0.148251 0.658333 0.313990 0.8 0 0
0.241043 0.523750 0.257794 0.8 0 0
0.891293 0.213645 0.229597 0.8 0 0
0.754850 0.658333 0.338410 0.8 0 0
0.048750 0.599375 0.153757 0.8 0 0
0.205249 0.631336 0.317917 0.8 0 0
0.557913 0.634583 0.184314 0.8 0 0
0.621493 0.634583 0.316057 0.8 0 0
0.252877 0.658333 0.088821 0.8 0 0
0.385233 0.634583 0.116800 0.8 0 0
0.759411 0.634583 0.293365 0.8 0 0
0.213181 0.620688 0.048750 0.8 0 0
0.073997 0.634583 0.171596 0.8 0 0
0.876976 0.425732 0.262255 0.8 0 0
0.867322 0.655793 0.341667 0.8 0 0
0.416037 0.523750 0.152657 0.8 0 0
0.562305 0.658333 0.235045 0.8 0 0
0.247460 0.634583 0.081970 0.8 0 0
0.231456 0.634583 0.049528 0.8 0 0
0.854112 0.152459 0.243079 0.8 0 0
0.479301 0.600699 0.048750 0.8 0 0
0.911015 0.658333 0.052222 0.8 0 0
0.570184 0.528562 0.080417 0.8 0 0
0.145292 0.123003 0.114958 0.8 0 0
0.137190 0.611692 0.317917 0.8 0 0
0.563346 0.523750 0.275621 0.8 0 0
0.403034 0.634583 0.214757 0.8 0 0
0.641644 0.658333 0.099112 0.8 0 0
0.850816 0.658333 0.066547 0.8 0 0
0.042001 0.658333 0.223878 0.8 0 0
0.029030 0.634583 0.084193 0.8 0 0
0.130533 0.634583 0.086271 0.8 0 0
0.884254 0.150990 0.220809 0.8 0 0
0.674021 0.658333 0.329193 0.8 0 0
0.215104 0.634583 0.055056 0.8 0 0
0.963316 0.634583 0.215945 0.8 0 0
0.746868 0.523750 0.146626 0.8 0 0
0.910133 0.523750 0.189172 0.8 0 0
0.966824 0.640213 0.341667 0.8 0 0
0.295794 0.658333 0.305570 0.8 0 0
0.282570 0.634583 0.274491 0.8 0 0
0.319652 0.634583 0.148083 0.8 0 0
0.251053 0.614076 0.048750 0.8 0 0
0.951250 0.595487 0.145518 0.8 0 0
0.151690 0.438983 0.215883 0.8 0 0
0.246582 0.658333 0.311073 0.8 0 0
0.148116 0.531667 0.115539 0.8 0 0
0.221144 0.542946 0.286250 0.8 0 0
0.572592 0.550968 0.286250 0.8 0 0
0.919583 0.590869 0.254691 0.8 0 0
0.893697 0.332337 0.116803 0.8 0 0
0.098285 0.658333 0.115456 0.8 0 0
0.094630 0.547649 0.286250 0.8 0 0
0.306497 0.609037 0.317917 0.8 0 0
0.669894 0.658333 0.250940 0.8 0 0
0.641918 0.523750 0.080467 0.8 0 0
0.119893 0.634583 0.244165 0.8 0 0
0.630675 0.523750 0.279045 0.8 0 0
0.116450 0.202605 0.146903 0.8 0 0
0.894769 0.385297 0.106944 0.8 0 0
0.617691 0.523750 0.264609 0.8 0 0
0.973248 0.658333 0.190464 0.8 0 0
0.145450 0.658333 0.166808 0.8 0 0
0.188914 0.658333 0.326094 0.8 0 0
0.313315 0.573397 0.080417 0.8 0 0
0.163189 0.523750 0.157757 0.8 0 0
0.749786 0.644179 0.025000 0.8 0 0
0.535164 0.658333 0.104671 0.8 0 0
0.580377 0.523750 0.168185 0.8 0 0
0.896440 0.467837 0.217261 0.8 0 0
0.146053 0.229216 0.147442 0.8 0 0
0.163661 0.658333 0.208209 0.8 0 0
0.132738 0.552124 0.286250 0.8 0 0
0.205149 0.658333 0.038894 0.8 0 0
0.612697 0.532198 0.286250 0.8 0 0
0.563225 0.658333 0.182355 0.8 0 0
0.667505 0.645049 0.025000 0.8 0 0
0.342138 0.603266 0.048750 0.8 0 0
0.573030 0.632531 0.317917 0.8 0 0
0.577253 0.527860 0.080417 0.8 0 0
0.546142 0.634583 0.133442 0.8 0 0
0.132217 0.658333 0.246587 0.8 0 0
0.827631 0.634583 0.259434 0.8 0 0
0.894357 0.523750 0.098188 0.8 0 0
0.235396 0.658333 0.188703 0.8 0 0
0.270572 0.523750 0.092333 0.8 0 0
0.080417 0.554618 0.156928 0.8 0 0
0.432404 0.634583 0.157351 0.8 0 0
0.618536 0.523750 0.130865 0.8 0 0
0.109971 0.523750 0.196484 0.8 0 0
0.515439 0.634583 0.236501 0.8 0 0
0.154481 0.634583 0.233070 0.8 0 0
0.226241 0.523750 0.200793 0.8 0 0
0.725809 0.634583 0.136815 0.8 0 0
0.148851 0.298767 0.140263 0.8 0 0
0.802433 0.658333 0.116337 0.8 0 0
0.724717 0.658333 0.242668 0.8 0 0
0.367532 0.622232 0.048750 0.8 0 0
0.860405 0.025000 0.247118 0.8 0 0
0.799348 0.658333 0.269526 0.8 0 0
0.027406 0.637744 0.341667 0.8 0 0
0.857032 0.415990 0.262058 0.8 0 0
0.117045 0.034525 0.112334 0.8 0 0
0.281205 0.658333 0.031932 0.8 0 0
0.149132 0.312668 0.231991 0.8 0 0
0.102763 0.507190 0.150958 0.8 0 0
0.855706 0.073723 0.131974 0.8 0 0
0.464466 0.558311 0.286250 0.8 0 0
0.890548 0.370917 0.105522 0.8 0 0
0.487643 0.523750 0.124238 0.8 0 0
0.297878 0.634583 0.302817 0.8 0 0
0.789458 0.523750 0.108785 0.8 0 0
0.082157 0.658333 0.238655 0.8 0 0
0.420728 0.658333 0.136369 0.8 0 0
0.110540 0.241339 0.147688 0.8 0 0
0.283095 0.568213 0.286250 0.8 0 0
0.871651 0.613982 0.048750 0.8 0 0
0.568443 0.523750 0.276388 0.8 0 0
0.231644 0.590264 0.080417 0.8 0 0
0.398656 0.634583 0.309408 0.8 0 0
0.360233 0.561988 0.080417 0.8 0 0
0.123386 0.025000 0.117712 0.8 0 0
0.094147 0.634583 0.200753 0.8 0 0
0.198463 0.634583 0.225803 0.8 0 0
0.630061 0.547249 0.080417 0.8 0 0
0.975000 0.638877 0.144595 0.8 0 0
0.513816 0.563229 0.286250 0.8 0 0
0.324319 0.634583 0.334979 0.8 0 0
0.819243 0.523750 0.105035 0.8 0 0
0.631583 0.634583 0.142816 0.8 0 0
0.144312 0.074651 0.251234 0.8 0 0
0.888258 0.063781 0.127239 0.8 0 0
0.140688 0.626462 0.317917 0.8 0 0
0.849676 0.371535 0.109448 0.8 0 0
0.888159 0.523750 0.280326 0.8 0 0
0.140151 0.215980 0.258007 0.8 0 0
0.495347 0.634583 0.048465 0.8 0 0
0.503175 0.634583 0.148267 0.8 0 0
0.883687 0.484861 0.263452 0.8 0 0
0.255172 0.634583 0.137414 0.8 0 0
0.068492 0.658333 0.305106 0.8 0 0
0.843997 0.658333 0.242567 0.8 0 0
0.736478 0.634583 0.214989 0.8 0 0
0.665105 0.658333 0.295712 0.8 0 0
0.118559 0.634583 0.250079 0.8 0 0
0.045179 0.656404 0.341667 0.8 0 0
0.138640 0.418279 0.151271 0.8 0 0
0.894741 0.383921 0.229410 0.8 0 0
0.137322 0.088011 0.144583 0.8 0 0
0.951250 0.626643 0.224862 0.8 0 0
0.763515 0.523750 0.260476 0.8 0 0
0.908897 0.634583 0.096602 0.8 0 0
0.408524 0.658333 0.126666 0.8 0 0
0.376055 0.658333 0.327560 0.8 0 0
0.606678 0.634583 0.276279 0.8 0 0
0.346173 0.523750 0.260382 0.8 0 0
0.578764 0.523750 0.259678 0.8 0 0
0.334119 0.634583 0.139154 0.8 0 0
0.064604 0.634583 0.082376 0.8 0 0
0.126376 0.383039 0.105277 0.8 0 0
0.129213 0.328611 0.260288 0.8 0 0
0.484416 0.634583 0.063038 0.8 0 0
0.732506 0.634583 0.077728 0.8 0 0
0.104034 0.634583 0.094273 0.8 0 0
0.137390 0.304473 0.217701 0.8 0 0
0.567470 0.588685 0.080417 0.8 0 0
0.656581 0.658333 0.199179 0.8 0 0
0.406280 0.523750 0.145376 0.8 0 0
0.896479 0.469723 0.122292 0.8 0 0
0.901134 0.658333 0.051665 0.8 0 0
0.444552 0.634583 0.213268 0.8 0 0
0.491084 0.658333 0.096104 0.8 0 0
0.225319 0.523750 0.218370 0.8 0 0
0.943601 0.634583 0.305832 0.8 0 0
0.104872 0.531667 0.264387 0.8 0 0
0.153445 0.525621 0.216499 0.8 0 0
0.540118 0.550243 0.080417 0.8 0 0
0.759429 0.658333 0.341655 0.8 0 0
0.122466 0.374488 0.261217 0.8 0 0
0.897171 0.503927 0.221452 0.8 0 0
0.145232 0.120080 0.251824 0.8 0 0
0.287324 0.658333 0.283806 0.8 0 0
0.144890 0.103180 0.235362 0.8 0 0
0.436811 0.641197 0.341667 0.8 0 0
0.869668 0.258812 0.107792 0.8 0 0
0.885952 0.155366 0.220720 0.8 0 0
0.360618 0.634583 0.036800 0.8 0 0
0.895276 0.410316 0.244562 0.8 0 0
0.211232 0.658333 0.290223 0.8 0 0
0.957769 0.658333 0.250957 0.8 0 0
0.080417 0.587746 0.249923 0.8 0 0
0.732835 0.658333 0.082482 0.8 0 0
0.958738 0.658333 0.211986 0.8 0 0
0.738398 0.629297 0.048750 0.8 0 0
0.853653 0.431979 0.104286 0.8 0 0
0.319974 0.527599 0.080417 0.8 0 0
0.205333 0.658333 0.292952 0.8 0 0
0.456665 0.658333 0.321662 0.8 0 0
0.139280 0.658333 0.065465 0.8 0 0
0.395523 0.523750 0.154170 0.8 0 0
0.153248 0.515911 0.224516 0.8 0 0
0.919506 0.523750 0.159365 0.8 0 0
0.315390 0.634583 0.211326 0.8 0 0
0.332881 0.523750 0.175258 0.8 0 0
0.890151 0.157253 0.225717 0.8 0 0
0.365150 0.523750 0.283461 0.8 0 0
0.402387 0.579659 0.080417 0.8 0 0
0.127468 0.613380 0.317917 0.8 0 0
0.145455 0.131074 0.124131 0.8 0 0
0.951250 0.628490 0.082758 0.8 0 0
0.120882 0.140553 0.145647 0.8 0 0
0.278859 0.634583 0.028218 0.8 0 0
0.730683 0.559048 0.286250 0.8 0 0
0.333809 0.658333 0.315497 0.8 0 0
0.048750 0.621082 0.140646 0.8 0 0
0.831766 0.535466 0.080417 0.8 0 0
0.212488 0.523750 0.148039 0.8 0 0
0.227931 0.523750 0.170082 0.8 0 0
0.144264 0.072239 0.135094 0.8 0 0
0.167875 0.634583 0.325218 0.8 0 0
0.451945 0.634583 0.308007 0.8 0 0
0.612014 0.658333 0.259236 0.8 0 0
0.167287 0.658333 0.072106 0.8 0 0
0.571490 0.539008 0.286250 0.8 0 0
0.615489 0.570092 0.080417 0.8 0 0
0.324507 0.578896 0.080417 0.8 0 0
0.196200 0.562025 0.080417 0.8 0 0
0.673710 0.658333 0.306598 0.8 0 0
0.316578 0.634583 0.047981 0.8 0 0
0.095945 0.634583 0.208659 0.8 0 0
0.048750 0.623776 0.190566 0.8 0 0
0.132532 0.175823 0.109473 0.8 0 0
0.784055 0.634583 0.285093 0.8 0 0
0.516395 0.634583 0.249625 0.8 0 0
0.971869 0.634583 0.316086 0.8 0 0
0.152914 0.499427 0.236338 0.8 0 0
0.110272 0.136347 0.231282 0.8 0 0
0.930004 0.634583 0.286059 0.8 0 0
0.108386 0.229510 0.256857 0.8 0 0
0.259648 0.658333 0.050286 0.8 0 0
0.541063 0.658333 0.232547 0.8 0 0
0.810356 0.523750 0.097158 0.8 0 0
0.508362 0.523750 0.280446 0.8 0 0
0.207015 0.641728 0.341667 0.8 0 0
0.452144 0.607208 0.317917 0.8 0 0
0.116450 0.510081 0.263963 0.8 0 0
0.267597 0.658333 0.228682 0.8 0 0
0.143708 0.044808 0.143060 0.8 0 0
0.103693 0.461250 0.221995 0.8 0 0
0.975000 0.640964 0.306373 0.8 0 0
0.349804 0.634583 0.145165 0.8 0 0
0.373729 0.567087 0.080417 0.8 0 0
0.501293 0.560655 0.286250 0.8 0 0
0.470616 0.634583 0.329848 0.8 0 0
0.762619 0.523941 0.080417 0.8 0 0
0.602619 0.634583 0.057278 0.8 0 0
0.528156 0.658333 0.264571 0.8 0 0
0.896084 0.450225 0.241551 0.8 0 0
0.399416 0.524300 0.080417 0.8 0 0
0.195168 0.602649 0.048750 0.8 0 0
0.887839 0.043060 0.223332 0.8 0 0
0.821010 0.523750 0.243321 0.8 0 0
0.622540 0.658333 0.135070 0.8 0 0
0.315517 0.523750 0.252850 0.8 0 0
0.694147 0.658333 0.337258 0.8 0 0
0.589109 0.658333 0.049268 0.8 0 0
0.882551 0.593341 0.080417 0.8 0 0
0.582221 0.658333 0.066903 0.8 0 0
0.437188 0.622293 0.048750 0.8 0 0
0.179328 0.646059 0.341667 0.8 0 0
0.232609 0.658333 0.219218 0.8 0 0
0.655879 0.634583 0.168166 0.8 0 0
0.919583 0.569694 0.278561 0.8 0 0
0.103949 0.448601 0.233095 0.8 0 0
0.103512 0.634583 0.172147 0.8 0 0
0.894031 0.348851 0.134128 0.8 0 0
0.781698 0.523750 0.238145 0.8 0 0
0.885193 0.096716 0.221908 0.8 0 0
0.891742 0.235834 0.253684 0.8 0 0
0.044918 0.634583 0.029368 0.8 0 0
0.148866 0.299494 0.132674 0.8 0 0
0.080417 0.535592 0.202358 0.8 0 0
0.729667 0.629821 0.317917 0.8 0 0
0.847231 0.492253 0.110507 0.8 0 0
0.080417 0.551224 0.286193 0.8 0 0
0.720823 0.523750 0.270992 0.8 0 0
0.919583 0.571633 0.205027 0.8 0 0
0.892424 0.415944 0.262057 0.8 0 0
0.648734 0.658333 0.124973 0.8 0 0
0.766891 0.634583 0.223793 0.8 0 0
0.851223 0.445694 0.262659 0.8 0 0
0.582477 0.593743 0.080417 0.8 0 0
0.439454 0.658333 0.118997 0.8 0 0
0.105534 0.370344 0.250895 0.8 0 0
0.748674 0.658333 0.043971 0.8 0 0
0.098574 0.574873 0.286250 0.8 0 0
0.919583 0.569289 0.123421 0.8 0 0
0.136114 0.658333 0.088458 0.8 0 0
0.414796 0.605167 0.048750 0.8 0 0
0.294184 0.523750 0.209016 0.8 0 0
0.053767 0.658333 0.196078 0.8 0 0
0.096654 0.523750 0.235783 0.8 0 0
0.964041 0.634583 0.251780 0.8 0 0
0.416400 0.634583 0.294428 0.8 0 0
0.136392 0.397219 0.261677 0.8 0 0
0.656951 0.634583 0.148847 0.8 0 0
0.913693 0.523750 0.193890 0.8 0 0
0.182242 0.523750 0.276136 0.8 0 0
0.666897 0.625932 0.317917 0.8 0 0
0.138028 0.489639 0.213951 0.8 0 0
0.303097 0.523750 0.186785 0.8 0 0
0.758483 0.649856 0.025000 0.8 0 0
0.975000 0.635976 0.217347 0.8 0 0
0.890307 0.164938 0.226978 0.8 0 0
0.336004 0.658333 0.216025 0.8 0 0
0.717401 0.634583 0.334245 0.8 0 0
0.077449 0.658333 0.132797 0.8 0 0
0.142906 0.658333 0.169042 0.8 0 0
0.829978 0.613282 0.317917 0.8 0 0
0.435013 0.634583 0.156694 0.8 0 0
0.471925 0.658333 0.081407 0.8 0 0
0.649674 0.634583 0.090098 0.8 0 0
0.891726 0.235046 0.133246 0.8 0 0
0.732854 0.636282 0.025000 0.8 0 0
0.354559 0.653933 0.025000 0.8 0 0
0.048750 0.595716 0.116767 0.8 0 0
0.878269 0.376251 0.105414 0.8 0 0
0.914433 0.658333 0.251203 0.8 0 0
0.728890 0.523750 0.181647 0.8 0 0
0.116700 0.145671 0.256584 0.8 0 0
0.642977 0.634583 0.237941 0.8 0 0
0.877891 0.497278 0.213796 0.8 0 0
0.891361 0.523750 0.143127 0.8 0 0
0.117322 0.315962 0.106635 0.8 0 0
0.025000 0.654078 0.249335 0.8 0 0
0.544088 0.523750 0.210957 0.8 0 0
0.641432 0.523750 0.115494 0.8 0 0
0.886340 0.359335 0.260910 0.8 0 0
0.504478 0.658333 0.294607 0.8 0 0
0.315520 0.658333 0.188896 0.8 0 0
0.205061 0.523750 0.271997 0.8 0 0
0.526801 0.523750 0.244389 0.8 0 0
0.780298 0.658333 0.298140 0.8 0 0
0.852394 0.280630 0.218184 0.8 0 0
0.830777 0.628752 0.317917 0.8 0 0
0.897709 0.530507 0.128270 0.8 0 0
0.603895 0.647082 0.341667 0.8 0 0
0.119528 0.381756 0.261364 0.8 0 0
0.637513 0.569783 0.286250 0.8 0 0
0.152612 0.523750 0.275910 0.8 0 0
0.048750 0.599465 0.276663 0.8 0 0
0.664344 0.634583 0.044241 0.8 0 0
0.851909 0.508117 0.153090 0.8 0 0
0.461657 0.634583 0.285740 0.8 0 0
0.801432 0.658333 0.151762 0.8 0 0
0.835430 0.634583 0.307533 0.8 0 0
0.717227 0.634583 0.157226 0.8 0 0
0.111578 0.480764 0.152536 0.8 0 0
0.143443 0.523750 0.091573 0.8 0 0
0.173065 0.634583 0.156781 0.8 0 0
0.975000 0.649862 0.137472 0.8 0 0
0.921712 0.634583 0.049595 0.8 0 0
0.439318 0.658333 0.201722 0.8 0 0
0.039409 0.634583 0.035959 0.8 0 0
0.546700 0.523750 0.223433 0.8 0 0
0.892514 0.273934 0.113255 0.8 0 0
0.116407 0.426010 0.151427 0.8 0 0
0.836718 0.658333 0.267377 0.8 0 0
0.198492 0.634583 0.124725 0.8 0 0
0.732912 0.634583 0.316550 0.8 0 0
0.723473 0.658333 0.252742 0.8 0 0
0.809357 0.525313 0.286250 0.8 0 0
0.112189 0.454833 0.214656 0.8 0 0
0.547097 0.658333 0.231488 0.8 0 0
0.798166 0.612561 0.048750 0.8 0 0
0.862464 0.658333 0.040324 0.8 0 0
0.289673 0.634583 0.230780 0.8 0 0
0.972536 0.634583 0.205595 0.8 0 0
0.951250 0.613955 0.258493 0.8 0 0
0.148258 0.552853 0.286250 0.8 0 0
0.620711 0.634583 0.224547 0.8 0 0
0.881493 0.192492 0.257532 0.8 0 0
0.201166 0.658333 0.109789 0.8 0 0
0.878098 0.101819 0.221804 0.8 0 0
0.180962 0.523750 0.237874 0.8 0 0
0.131546 0.234551 0.258383 0.8 0 0
0.155435 0.658333 0.254064 0.8 0 0
0.893202 0.307906 0.144264 0.8 0 0
0.620189 0.634583 0.334148 0.8 0 0
0.881816 0.209996 0.147053 0.8 0 0
0.281430 0.523750 0.285641 0.8 0 0
0.752076 0.634583 0.068721 0.8 0 0
0.662373 0.649179 0.341667 0.8 0 0
0.149561 0.333837 0.113692 0.8 0 0
0.381720 0.523750 0.262285 0.8 0 0
0.039557 0.658333 0.103588 0.8 0 0
0.562578 0.523750 0.206466 0.8 0 0
0.780429 0.629835 0.048750 0.8 0 0
0.718966 0.654865 0.025000 0.8 0 0
0.686888 0.658333 0.147989 0.8 0 0
0.897280 0.509277 0.128374 0.8 0 0
0.117132 0.311014 0.259932 0.8 0 0
0.618594 0.634583 0.310597 0.8 0 0
0.284970 0.658333 0.199063 0.8 0 0
0.082209 0.523750 0.221278 0.8 0 0
0.757087 0.544033 0.286250 0.8 0 0
0.417734 0.634583 0.269350 0.8 0 0
0.912194 0.620618 0.048750 0.8 0 0
0.512254 0.590903 0.080417 0.8 0 0
0.151766 0.523750 0.264553 0.8 0 0
0.678290 0.634583 0.202415 0.8 0 0
0.928141 0.597380 0.048750 0.8 0 0
0.136795 0.634583 0.079777 0.8 0 0
0.135235 0.051982 0.254686 0.8 0 0
0.135756 0.531172 0.213110 0.8 0 0
0.133059 0.604988 0.048750 0.8 0 0
0.609701 0.523750 0.178613 0.8 0 0
0.359721 0.523750 0.247341 0.8 0 0
0.136299 0.291655 0.217960 0.8 0 0
0.632076 0.634583 0.218100 0.8 0 0
0.692153 0.631362 0.048750 0.8 0 0
0.098555 0.658333 0.286157 0.8 0 0
0.832201 0.539421 0.286250 0.8 0 0
0.715547 0.523750 0.177482 0.8 0 0
0.153229 0.514983 0.256287 0.8 0 0
0.146644 0.203888 0.219738 0.8 0 0
0.877175 0.658333 0.029759 0.8 0 0
0.876294 0.348047 0.216818 0.8 0 0
0.860595 0.634583 0.165875 0.8 0 0
0.244859 0.566080 0.080417 0.8 0 0
0.091335 0.634583 0.050968 0.8 0 0
0.858983 0.412310 0.215517 0.8 0 0
0.065921 0.658333 0.296864 0.8 0 0
0.032451 0.634583 0.032277 0.8 0 0
0.792465 0.624273 0.048750 0.8 0 0
0.504247 0.634583 0.035118 0.8 0 0
0.924148 0.658333 0.072624 0.8 0 0
0.076069 0.658333 0.213041 0.8 0 0
0.137168 0.294469 0.148764 0.8 0 0
0.403962 0.634583 0.313544 0.8 0 0
0.926611 0.644066 0.025000 0.8 0 0
0.581606 0.592541 0.080417 0.8 0 0
0.295017 0.658333 0.321466 0.8 0 0
0.528108 0.634583 0.074848 0.8 0 0
0.362184 0.634583 0.246475 0.8 0 0
0.557130 0.634583 0.221522 0.8 0 0
0.056539 0.658333 0.199268 0.8 0 0
0.121797 0.437004 0.262483 0.8 0 0
0.080417 0.527703 0.217390 0.8 0 0
0.143646 0.260745 0.148081 0.8 0 0
0.870647 0.123544 0.110531 0.8 0 0
0.522825 0.658333 0.124973 0.8 0 0
0.030943 0.634583 0.079844 0.8 0 0
0.416777 0.634583 0.200164 0.8 0 0
0.094280 0.658333 0.201429 0.8 0 0
0.846872 0.509988 0.124927 0.8 0 0
0.895903 0.441303 0.129784 0.8 0 0
0.883375 0.658333 0.046753 0.8 0 0
0.495115 0.646089 0.341667 0.8 0 0
0.516147 0.658333 0.038237 0.8 0 0
0.393037 0.609908 0.317917 0.8 0 0
0.151125 0.411073 0.227600 0.8 0 0
0.509959 0.634583 0.205286 0.8 0 0
0.913043 0.634583 0.261618 0.8 0 0
0.150528 0.435520 0.215047 0.8 0 0
0.564685 0.629540 0.317917 0.8 0 0
0.901533 0.634583 0.255366 0.8 0 0
0.536005 0.658333 0.338691 0.8 0 0
0.243430 0.634583 0.084271 0.8 0 0
0.882786 0.266868 0.259038 0.8 0 0
0.379458 0.615615 0.317917 0.8 0 0
0.178517 0.658333 0.268073 0.8 0 0
0.133759 0.658333 0.029335 0.8 0 0
0.275235 0.657199 0.341667 0.8 0 0
0.109272 0.522961 0.153391 0.8 0 0
0.919583 0.525742 0.195674 0.8 0 0
0.975000 0.648855 0.097018 0.8 0 0
0.102381 0.634583 0.230326 0.8 0 0
0.234877 0.634583 0.223416 0.8 0 0
0.919583 0.536660 0.157148 0.8 0 0
0.133490 0.634583 0.225832 0.8 0 0
0.919583 0.530419 0.268033 0.8 0 0
0.334641 0.634583 0.272462 0.8 0 0
0.527970 0.626220 0.048750 0.8 0 0
0.048750 0.633997 0.156632 0.8 0 0
0.904142 0.634583 0.268760 0.8 0 0
0.380491 0.658333 0.115023 0.8 0 0
0.500933 0.658333 0.086200 0.8 0 0
0.866240 0.078625 0.255226 0.8 0 0
0.151485 0.428871 0.220873 0.8 0 0
0.309552 0.658333 0.045178 0.8 0 0
0.536052 0.634583 0.134534 0.8 0 0
0.104002 0.446004 0.237606 0.8 0 0
0.363778 0.634583 0.165295 0.8 0 0
0.817018 0.658333 0.211680 0.8 0 0
0.264109 0.658333 0.337354 0.8 0 0
0.201194 0.523750 0.168122 0.8 0 0
0.221193 0.634583 0.151978 0.8 0 0
0.680928 0.634583 0.277149 0.8 0 0
0.456988 0.658333 0.100357 0.8 0 0
0.845084 0.638498 0.341667 0.8 0 0
0.085739 0.634583 0.236878 0.8 0 0
0.642426 0.634583 0.135839 0.8 0 0
0.048750 0.608603 0.153970 0.8 0 0
0.472645 0.634583 0.113727 0.8 0 0
0.698361 0.658333 0.284309 0.8 0 0
0.205252 0.658333 0.246835 0.8 0 0
0.887955 0.194224 0.109100 0.8 0 0
0.213308 0.531732 0.080417 0.8 0 0
0.524261 0.658333 0.320741 0.8 0 0
0.727983 0.634583 0.085556 0.8 0 0
0.201301 0.658333 0.226927 0.8 0 0
0.887384 0.634583 0.114674 0.8 0 0
0.276917 0.658333 0.041931 0.8 0 0
0.151971 0.523750 0.211108 0.8 0 0
0.866713 0.153712 0.256746 0.8 0 0
0.210068 0.658333 0.141480 0.8 0 0
0.616188 0.653651 0.025000 0.8 0 0
0.254257 0.658333 0.104307 0.8 0 0
0.500362 0.634583 0.193524 0.8 0 0
0.835169 0.634583 0.298130 0.8 0 0
0.666709 0.523750 0.187300 0.8 0 0
0.057588 0.634583 0.059492 0.8 0 0
0.137076 0.060487 0.144026 0.8 0 0
0.895978 0.444983 0.222295 0.8 0 0
0.328292 0.658333 0.298449 0.8 0 0
0.707676 0.658333 0.313701 0.8 0 0
0.123979 0.523750 0.113710 0.8 0 0
0.421108 0.554640 0.080417 0.8 0 0
0.207135 0.523750 0.168103 0.8 0 0
0.135114 0.634583 0.200444 0.8 0 0
0.248445 0.523750 0.202628 0.8 0 0
0.102295 0.530275 0.257524 0.8 0 0
0.478526 0.523750 0.144666 0.8 0 0
0.117660 0.634583 0.336419 0.8 0 0
0.128333 0.160206 0.220622 0.8 0 0
0.804146 0.658333 0.336476 0.8 0 0
0.566522 0.523750 0.090593 0.8 0 0
0.852536 0.544340 0.080417 0.8 0 0
0.118092 0.658333 0.159501 0.8 0 0
0.790172 0.634583 0.212949 0.8 0 0
0.415192 0.545938 0.080417 0.8 0 0
0.419821 0.634583 0.288997 0.8 0 0
0.153201 0.513591 0.152910 0.8 0 0
0.913309 0.523750 0.200347 0.8 0 0
0.636638 0.658333 0.103828 0.8 0 0
0.367250 0.593978 0.286250 0.8 0 0
0.785505 0.634583 0.111408 0.8 0 0
0.656835 0.634583 0.294332 0.8 0 0
0.068634 0.634583 0.334332 0.8 0 0
0.430225 0.523750 0.179222 0.8 0 0
0.080417 0.525418 0.111612 0.8 0 0
0.110532 0.285392 0.107254 0.8 0 0
0.163009 0.592889 0.080417 0.8 0 0
0.817947 0.634583 0.076906 0.8 0 0
0.388967 0.523750 0.189518 0.8 0 0
0.648782 0.523750 0.136538 0.8 0 0
0.752685 0.634583 0.130176 0.8 0 0
0.239302 0.589727 0.080417 0.8 0 0
0.106619 0.658333 0.194339 0.8 0 0
0.296010 0.658333 0.155752 0.8 0 0
0.956735 0.634583 0.241720 0.8 0 0
0.852524 0.230902 0.235520 0.8 0 0
0.316569 0.658333 0.337569 0.8 0 0
0.282940 0.658333 0.144688 0.8 0 0
0.506294 0.608473 0.048750 0.8 0 0
0.108520 0.469677 0.152312 0.8 0 0
0.803915 0.640209 0.025000 0.8 0 0
0.840704 0.523750 0.084161 0.8 0 0
0.883996 0.257343 0.107822 0.8 0 0
0.890717 0.334780 0.217087 0.8 0 0
0.671396 0.523750 0.147782 0.8 0 0
0.126925 0.523750 0.234997 0.8 0 0
0.357185 0.523750 0.140263 0.8 0 0
0.132611 0.054688 0.143908 0.8 0 0
0.283505 0.547945 0.080417 0.8 0 0
0.494601 0.658333 0.234210 0.8 0 0
0.373038 0.523750 0.101046 0.8 0 0
0.881577 0.467559 0.263102 0.8 0 0
0.501293 0.523750 0.269371 0.8 0 0
0.123088 0.187946 0.220060 0.8 0 0
0.542346 0.523750 0.252278 0.8 0 0
0.866006 0.197177 0.146794 0.8 0 0
0.103226 0.484305 0.238194 0.8 0 0
0.893364 0.315931 0.237482 0.8 0 0
0.924524 0.634583 0.167963 0.8 0 0
0.126694 0.523750 0.277405 0.8 0 0
0.192519 0.634583 0.248098 0.8 0 0
0.277772 0.658333 0.307974 0.8 0 0
0.854043 0.634583 0.102033 0.8 0 0
0.285556 0.634583 0.225349 0.8 0 0
0.829307 0.545895 0.286250 0.8 0 0
0.567546 0.523750 0.149767 0.8 0 0
0.291645 0.634583 0.076723 0.8 0 0
0.036539 0.634583 0.197941 0.8 0 0
0.861916 0.324559 0.106461 0.8 0 0
0.308193 0.523750 0.087000 0.8 0 0
0.141559 0.072440 0.222399 0.8 0 0
0.913391 0.634583 0.227059 0.8 0 0
0.674684 0.658333 0.192607 0.8 0 0
0.368505 0.543666 0.080417 0.8 0 0
0.812943 0.523750 0.119156 0.8 0 0
0.866781 0.658333 0.259429 0.8 0 0
0.872898 0.456039 0.103798 0.8 0 0
0.453223 0.523750 0.135306 0.8 0 0
0.893283 0.311895 0.257058 0.8 0 0
0.264073 0.634583 0.178651 0.8 0 0
0.837082 0.634583 0.137772 0.8 0 0
0.419781 0.658333 0.167573 0.8 0 0
0.669099 0.634583 0.026827 0.8 0 0
0.712849 0.634583 0.249586 0.8 0 0
0.048750 0.629467 0.107714 0.8 0 0
0.655937 0.634583 0.109233 0.8 0 0
0.825682 0.628859 0.317917 0.8 0 0
0.409935 0.634583 0.297163 0.8 0 0
0.888474 0.074450 0.254803 0.8 0 0
0.788690 0.552788 0.080417 0.8 0 0
0.846882 0.634583 0.320560 0.8 0 0
0.587601 0.634583 0.140661 0.8 0 0
0.862557 0.474981 0.263252 0.8 0 0
0.121550 0.437298 0.151656 0.8 0 0
0.073119 0.658333 0.132797 0.8 0 0
0.132415 0.658333 0.313104 0.8 0 0
0.857432 0.374798 0.261223 0.8 0 0
0.771864 0.523750 0.208061 0.8 0 0
0.558058 0.634583 0.133925 0.8 0 0
0.148489 0.280908 0.135100 0.8 0 0
0.462238 0.658333 0.062025 0.8 0 0
0.654442 0.523750 0.128711 0.8 0 0
0.831548 0.619484 0.048750 0.8 0 0
0.170601 0.634583 0.324880 0.8 0 0
0.356929 0.527973 0.286250 0.8 0 0
0.820319 0.658333 0.112619 0.8 0 0
0.868597 0.634583 0.052640 0.8 0 0
0.132074 0.531667 0.244758 0.8 0 0
0.131216 0.658333 0.108830 0.8 0 0
0.912130 0.593498 0.286250 0.8 0 0
0.133652 0.658333 0.258447 0.8 0 0
0.141345 0.288732 0.259481 0.8 0 0
0.054891 0.634583 0.275255 0.8 0 0
0.854534 0.131631 0.141618 0.8 0 0
0.105489 0.523750 0.082986 0.8 0 0
0.056775 0.658333 0.125708 0.8 0 0
0.445309 0.523750 0.112567 0.8 0 0
0.142009 0.491572 0.213912 0.8 0 0
0.919583 0.575863 0.107145 0.8 0 0
0.964505 0.634583 0.135694 0.8 0 0
0.886892 0.637445 0.025000 0.8 0 0
0.793043 0.523750 0.149855 0.8 0 0
0.867674 0.658333 0.257960 0.8 0 0
0.118599 0.609659 0.317917 0.8 0 0
0.115810 0.523750 0.203425 0.8 0 0
0.692882 0.551244 0.080417 0.8 0 0
0.302876 0.658333 0.341185 0.8 0 0
0.659764 0.634583 0.032470 0.8 0 0
0.359131 0.576461 0.080417 0.8 0 0
0.128939 0.450410 0.262755 0.8 0 0
0.501478 0.658333 0.330345 0.8 0 0
0.805538 0.634583 0.341435 0.8 0 0
0.689246 0.572816 0.080417 0.8 0 0
0.826841 0.658333 0.181064 0.8 0 0
0.784336 0.523750 0.153636 0.8 0 0
0.376726 0.547206 0.286250 0.8 0 0
0.144900 0.124085 0.145313 0.8 0 0
0.762900 0.536355 0.080417 0.8 0 0
0.845798 0.658333 0.321970 0.8 0 0
0.133020 0.523750 0.084280 0.8 0 0
0.120781 0.126837 0.256202 0.8 0 0
0.901765 0.634583 0.317265 0.8 0 0
0.426573 0.658333 0.057478 0.8 0 0
0.117335 0.658333 0.189244 0.8 0 0
0.171156 0.658333 0.189236 0.8 0 0
0.123982 0.203409 0.219747 0.8 0 0
0.840532 0.643793 0.341667 0.8 0 0
0.388770 0.634583 0.337637 0.8 0 0
0.126019 0.054456 0.254736 0.8 0 0
0.772884 0.658333 0.121718 0.8 0 0
0.451072 0.523750 0.127222 0.8 0 0
0.150248 0.367762 0.141290 0.8 0 0
0.506073 0.607805 0.317917 0.8 0 0
0.097446 0.617281 0.048750 0.8 0 0
0.737631 0.658333 0.338558 0.8 0 0
0.433390 0.634583 0.222623 0.8 0 0
0.443696 0.523750 0.088313 0.8 0 0
0.058236 0.658333 0.151569 0.8 0 0
0.892210 0.429891 0.151506 0.8 0 0
0.690065 0.523750 0.096102 0.8 0 0
0.083131 0.523750 0.097622 0.8 0 0
0.512613 0.530428 0.080417 0.8 0 0
0.403275 0.658333 0.192708 0.8 0 0
0.956300 0.634583 0.249673 0.8 0 0
0.669844 0.627627 0.317917 0.8 0 0
0.878995 0.025000 0.235708 0.8 0 0
0.863757 0.208388 0.147021 0.8 0 0
0.954850 0.634583 0.230596 0.8 0 0
0.337337 0.523750 0.188544 0.8 0 0
0.890148 0.193606 0.257554 0.8 0 0
0.785088 0.658333 0.308701 0.8 0 0
0.614638 0.658333 0.273848 0.8 0 0
0.637294 0.644393 0.025000 0.8 0 0
0.305643 0.658333 0.074719 0.8 0 0
0.876123 0.658333 0.038755 0.8 0 0
0.848344 0.437313 0.238016 0.8 0 0
0.333295 0.658333 0.025245 0.8 0 0
0.111326 0.084284 0.114658 0.8 0 0
0.903711 0.632767 0.048750 0.8 0 0
0.146567 0.185982 0.227098 0.8 0 0
0.858595 0.654952 0.025000 0.8 0 0
0.501703 0.541400 0.080417 0.8 0 0
0.376506 0.643390 0.025000 0.8 0 0
0.876601 0.129868 0.256264 0.8 0 0
0.893972 0.345929 0.222986 0.8 0 0
0.048750 0.605788 0.135767 0.8 0 0
0.891833 0.391745 0.105100 0.8 0 0
0.896327 0.462239 0.216297 0.8 0 0
0.843461 0.634583 0.133345 0.8 0 0
0.644223 0.523750 0.130677 0.8 0 0
0.184605 0.658333 0.080085 0.8 0 0
0.786350 0.614163 0.317917 0.8 0 0
0.874193 0.634583 0.249973 0.8 0 0
0.860885 0.523750 0.085731 0.8 0 0
0.178734 0.523750 0.255243 0.8 0 0
0.589886 0.605386 0.048750 0.8 0 0
0.262942 0.634583 0.221773 0.8 0 0
0.892948 0.658333 0.153780 0.8 0 0
0.527083 0.523750 0.233565 0.8 0 0
0.111170 0.195538 0.257593 0.8 0 0
0.945862 0.634583 0.235834 0.8 0 0
0.858679 0.065590 0.111705 0.8 0 0
0.856489 0.035097 0.230763 0.8 0 0
0.133669 0.658333 0.035956 0.8 0 0
0.593742 0.606729 0.048750 0.8 0 0
0.227874 0.658333 0.145036 0.8 0 0
0.650460 0.658333 0.328710 0.8 0 0
0.766108 0.634583 0.112490 0.8 0 0
0.570351 0.634583 0.173887 0.8 0 0
0.918777 0.608085 0.048750 0.8 0 0
0.873304 0.441148 0.214933 0.8 0 0
0.903393 0.658333 0.232973 0.8 0 0
0.483161 0.588646 0.286250 0.8 0 0
0.707167 0.651617 0.341667 0.8 0 0
0.962565 0.658333 0.256364 0.8 0 0
0.892244 0.260605 0.135592 0.8 0 0
0.875677 0.320276 0.217381 0.8 0 0
0.781199 0.658333 0.048846 0.8 0 0
0.876237 0.531667 0.152064 0.8 0 0
0.793233 0.658333 0.275580 0.8 0 0
0.701001 0.523750 0.194009 0.8 0 0
0.153521 0.529409 0.225342 0.8 0 0
0.271582 0.634583 0.122096 0.8 0 0
0.207392 0.587872 0.080417 0.8 0 0
0.143622 0.523750 0.174774 0.8 0 0
0.737986 0.653685 0.341667 0.8 0 0
0.288787 0.628874 0.317917 0.8 0 0
0.181823 0.658333 0.325311 0.8 0 0
0.693676 0.580414 0.080417 0.8 0 0
0.222678 0.658333 0.292504 0.8 0 0
0.892150 0.255951 0.228767 0.8 0 0
0.344501 0.658333 0.219798 0.8 0 0
0.945515 0.634583 0.130427 0.8 0 0
0.105422 0.466306 0.214424 0.8 0 0
0.951250 0.618008 0.270371 0.8 0 0
0.145837 0.149954 0.134989 0.8 0 0
0.107033 0.296309 0.247446 0.8 0 0
0.048571 0.634583 0.124474 0.8 0 0
0.150906 0.520951 0.153350 0.8 0 0
0.103775 0.457199 0.120443 0.8 0 0
0.338874 0.523750 0.135564 0.8 0 0
0.091199 0.560252 0.286250 0.8 0 0
0.895917 0.441968 0.248840 0.8 0 0
0.112581 0.212996 0.219553 0.8 0 0
0.949513 0.658333 0.243823 0.8 0 0
0.462614 0.634583 0.294902 0.8 0 0
0.792086 0.634583 0.236318 0.8 0 0
0.230338 0.523750 0.226806 0.8 0 0
0.924804 0.658333 0.328755 0.8 0 0
0.826234 0.523750 0.259126 0.8 0 0
0.667853 0.634583 0.159168 0.8 0 0
0.178273 0.523750 0.187589 0.8 0 0
0.146660 0.190575 0.243077 0.8 0 0
0.953481 0.658333 0.150468 0.8 0 0
0.428780 0.634583 0.231601 0.8 0 0
0.422542 0.523750 0.261858 0.8 0 0
0.619212 0.658333 0.278843 0.8 0 0
0.396970 0.658333 0.194880 0.8 0 0
0.896853 0.488232 0.150427 0.8 0 0
0.055470 0.602296 0.048750 0.8 0 0
0.319275 0.634583 0.031253 0.8 0 0
0.167107 0.523750 0.240632 0.8 0 0
0.509796 0.523750 0.225066 0.8 0 0
0.698817 0.634804 0.025000 0.8 0 0
0.108626 0.287542 0.148623 0.8 0 0
0.782697 0.523750 0.132486 0.8 0 0
0.747089 0.634583 0.207518 0.8 0 0
0.406571 0.638673 0.025000 0.8 0 0
0.141292 0.269064 0.259082 0.8 0 0
0.337975 0.634583 0.090881 0.8 0 0
0.894978 0.395611 0.259513 0.8 0 0
0.888733 0.087237 0.244584 0.8 0 0
0.544036 0.523750 0.232058 0.8 0 0
0.363460 0.558567 0.080417 0.8 0 0
0.093350 0.523750 0.233201 0.8 0 0
0.856030 0.057735 0.132509 0.8 0 0
0.579541 0.634583 0.070470 0.8 0 0
0.133983 0.233793 0.258368 0.8 0 0
0.889563 0.128214 0.123837 0.8 0 0
0.870239 0.330868 0.149501 0.8 0 0
0.684871 0.634583 0.259483 0.8 0 0
0.080417 0.524154 0.199707 0.8 0 0
0.647327 0.658333 0.093654 0.8 0 0
0.860910 0.523750 0.108333 0.8 0 0
0.756541 0.634583 0.031369 0.8 0 0
0.131608 0.093670 0.255531 0.8 0 0
0.120907 0.658333 0.284332 0.8 0 0
0.640177 0.523750 0.211981 0.8 0 0
0.061502 0.625800 0.317917 0.8 0 0
0.795467 0.658333 0.337858 0.8 0 0
0.376767 0.634583 0.291568 0.8 0 0
0.133718 0.060642 0.254862 0.8 0 0
0.684615 0.658333 0.204320 0.8 0 0
0.466568 0.658333 0.180183 0.8 0 0
0.255846 0.523750 0.146168 0.8 0 0
0.773614 0.658333 0.110593 0.8 0 0
0.735135 0.658333 0.187945 0.8 0 0
0.881151 0.303406 0.259778 0.8 0 0
0.524363 0.658333 0.334820 0.8 0 0
0.367718 0.658333 0.127192 0.8 0 0
0.106920 0.395301 0.105028 0.8 0 0
0.887567 0.452220 0.151958 0.8 0 0
0.867927 0.525287 0.286250 0.8 0 0
0.025000 0.635072 0.065773 0.8 0 0
0.554178 0.593154 0.080417 0.8 0 0
0.104166 0.437886 0.141305 0.8 0 0
