0.273256 0.558964 0.035204 0.8 0 0
0.463147 0.192460 0.220611 0.8 0 0
0.146602 0.515850 0.220611 0.8 0 0
0.025549 0.541113 0.751902 0.8 0 0
0.343088 0.565050 0.264505 0.8 0 0
0.164494 0.523606 0.061523 0.8 0 0
0.340357 0.565050 0.488454 0.8 0 0
0.309706 0.523606 0.937501 0.8 0 0
0.434978 0.440513 0.172513 0.8 0 0
0.186104 0.167447 0.779075 0.8 0 0
0.355355 0.523606 0.078321 0.8 0 0
0.203816 0.123896 0.827173 0.8 0 0
0.283021 0.565050 0.930670 0.8 0 0
0.547527 0.088245 0.827173 0.8 0 0
0.477847 0.565050 0.729103 0.8 0 0
0.503605 0.565050 0.357968 0.8 0 0
0.475982 0.565050 0.192456 0.8 0 0
0.507084 0.483432 0.779075 0.8 0 0
0.147822 0.565050 0.676699 0.8 0 0
0.485432 0.027308 0.172513 0.8 0 0
0.254591 0.420990 0.172513 0.8 0 0
0.338100 0.523606 0.095893 0.8 0 0
0.513057 0.565050 0.267940 0.8 0 0
0.281926 0.523606 0.072711 0.8 0 0
0.085842 0.082320 0.219801 0.8 0 0
0.513320 0.523606 0.570328 0.8 0 0
0.544638 0.523606 0.772042 0.8 0 0
0.186993 0.030449 0.172513 0.8 0 0
0.175886 0.427984 0.779075 0.8 0 0
0.219925 0.565050 0.280965 0.8 0 0
0.364516 0.565050 0.419282 0.8 0 0
0.408269 0.523606 0.914777 0.8 0 0
0.378065 0.523606 0.191782 0.8 0 0
0.155590 0.523606 0.420607 0.8 0 0
0.117715 0.443343 0.172513 0.8 0 0
0.258125 0.176082 0.779075 0.8 0 0
0.244167 0.350469 0.172513 0.8 0 0
0.530516 0.048623 0.779075 0.8 0 0
0.516232 0.523606 0.100308 0.8 0 0
0.493764 0.469073 0.172513 0.8 0 0
0.447527 0.565050 0.937315 0.8 0 0
0.238522 0.355919 0.220611 0.8 0 0
0.501549 0.523606 0.302856 0.8 0 0
0.499420 0.087808 0.827173 0.8 0 0
0.066683 0.523606 0.143371 0.8 0 0
0.458630 0.523606 0.934670 0.8 0 0
0.324189 0.565050 0.567482 0.8 0 0
0.421952 0.523606 0.173367 0.8 0 0
0.297440 0.523606 0.214621 0.8 0 0
0.206115 0.523606 0.854706 0.8 0 0
0.148238 0.289721 0.172513 0.8 0 0
0.401562 0.565050 0.252332 0.8 0 0
0.382893 0.523606 0.134864 0.8 0 0
0.484040 0.176595 0.827173 0.8 0 0
0.547905 0.432802 0.187045 0.8 0 0
0.434817 0.081222 0.172513 0.8 0 0
0.465537 0.294700 0.220611 0.8 0 0
0.516896 0.521760 0.827173 0.8 0 0
0.085842 0.378196 0.783019 0.8 0 0
0.092092 0.535934 0.211657 0.8 0 0
0.451719 0.523606 0.191876 0.8 0 0
0.149825 0.242248 0.220611 0.8 0 0
0.395763 0.347362 0.220611 0.8 0 0
0.368751 0.523606 0.555421 0.8 0 0
0.172576 0.051758 0.827173 0.8 0 0
0.200449 0.059122 0.203023 0.8 0 0
0.331124 0.523606 0.797675 0.8 0 0
0.427364 0.523606 0.726307 0.8 0 0
0.040624 0.565025 0.170587 0.8 0 0
0.377602 0.523606 0.534254 0.8 0 0
0.468953 0.098942 0.220611 0.8 0 0
0.181796 0.523606 0.309513 0.8 0 0
0.518138 0.565050 0.529925 0.8 0 0
0.113070 0.523606 0.716536 0.8 0 0
0.403924 0.393450 0.172513 0.8 0 0
0.167284 0.523606 0.776431 0.8 0 0
0.421887 0.409306 0.172513 0.8 0 0
0.389443 0.106868 0.172513 0.8 0 0
0.450293 0.565050 0.928107 0.8 0 0
0.558573 0.523606 0.299817 0.8 0 0
0.168294 0.523606 0.600826 0.8 0 0
0.125513 0.523606 0.683654 0.8 0 0
0.111657 0.565050 0.201911 0.8 0 0
0.527282 0.565050 0.086475 0.8 0 0
0.170699 0.535934 0.191842 0.8 0 0
0.105759 0.565050 0.529962 0.8 0 0
0.219875 0.456909 0.177370 0.8 0 0
0.119364 0.563364 0.959559 0.8 0 0
0.453105 0.523606 0.659018 0.8 0 0
0.275316 0.565050 0.211793 0.8 0 0
0.247191 0.177911 0.172513 0.8 0 0
0.085842 0.174178 0.791937 0.8 0 0
0.567030 0.565050 0.505181 0.8 0 0
0.220053 0.565050 0.235206 0.8 0 0
0.440772 0.523606 0.215541 0.8 0 0
0.044529 0.565050 0.108479 0.8 0 0
0.174234 0.523606 0.291771 0.8 0 0
0.556153 0.565050 0.930243 0.8 0 0
0.207403 0.565050 0.307174 0.8 0 0
0.589373 0.528448 0.503229 0.8 0 0
0.157016 0.154055 0.220611 0.8 0 0
0.324644 0.565050 0.145232 0.8 0 0
0.231599 0.565050 0.943910 0.8 0 0
0.156002 0.483292 0.827173 0.8 0 0
0.168457 0.281664 0.172513 0.8 0 0
0.509511 0.270620 0.220611 0.8 0 0
0.517952 0.059975 0.172513 0.8 0 0
0.569589 0.565050 0.910973 0.8 0 0
0.409272 0.523606 0.825178 0.8 0 0
0.497411 0.535934 0.215758 0.8 0 0
0.246045 0.565050 0.436169 0.8 0 0
0.392683 0.337933 0.220611 0.8 0 0
0.039613 0.525397 0.598663 0.8 0 0
0.457454 0.427494 0.827173 0.8 0 0
0.515599 0.565050 0.888116 0.8 0 0
0.511641 0.499330 0.220611 0.8 0 0
0.380753 0.565050 0.491384 0.8 0 0
0.447825 0.565050 0.822812 0.8 0 0
0.496318 0.479150 0.220611 0.8 0 0
0.331098 0.391917 0.220611 0.8 0 0
0.553627 0.523606 0.604064 0.8 0 0
0.589751 0.561665 0.095223 0.8 0 0
0.124170 0.154298 0.220611 0.8 0 0
0.412845 0.380459 0.220611 0.8 0 0
0.353040 0.133603 0.827173 0.8 0 0
0.501769 0.028119 0.220611 0.8 0 0
0.209784 0.220844 0.172513 0.8 0 0
0.449243 0.123770 0.220611 0.8 0 0
0.599294 0.546056 0.389124 0.8 0 0
0.152353 0.523606 0.538324 0.8 0 0
0.534565 0.523606 0.722905 0.8 0 0
0.158828 0.033739 0.220611 0.8 0 0
0.314949 0.100950 0.789902 0.8 0 0
0.216300 0.430100 0.779075 0.8 0 0
0.114622 0.565050 0.199335 0.8 0 0
0.191356 0.519936 0.827173 0.8 0 0
0.164081 0.523606 0.498519 0.8 0 0
0.510184 0.459137 0.220611 0.8 0 0
0.309613 0.523606 0.721737 0.8 0 0
0.095990 0.079466 0.827173 0.8 0 0
0.199058 0.056125 0.186205 0.8 0 0
0.179944 0.249612 0.779075 0.8 0 0
0.477862 0.523606 0.104989 0.8 0 0
0.145651 0.565050 0.802080 0.8 0 0
0.090088 0.484774 0.779075 0.8 0 0
0.219810 0.517729 0.827173 0.8 0 0
0.162334 0.493833 0.220611 0.8 0 0
0.110895 0.565050 0.483578 0.8 0 0
0.062185 0.529919 0.966253 0.8 0 0
0.260034 0.367624 0.779075 0.8 0 0
0.113928 0.523606 0.894857 0.8 0 0
0.280274 0.523606 0.888260 0.8 0 0
0.509957 0.565050 0.284721 0.8 0 0
0.025005 0.544880 0.699711 0.8 0 0
0.447440 0.565050 0.570970 0.8 0 0
0.539537 0.229112 0.779075 0.8 0 0
0.192713 0.042463 0.206584 0.8 0 0
0.409706 0.550672 0.026232 0.8 0 0
0.027697 0.556275 0.490300 0.8 0 0
0.323545 0.360213 0.220611 0.8 0 0
0.327938 0.436969 0.215403 0.8 0 0
0.547905 0.202884 0.197398 0.8 0 0
0.441419 0.156897 0.220611 0.8 0 0
0.296913 0.523606 0.125467 0.8 0 0
0.460400 0.561062 0.039356 0.8 0 0
0.499153 0.342897 0.827173 0.8 0 0
0.547905 0.288490 0.174647 0.8 0 0
0.107530 0.302586 0.827173 0.8 0 0
0.274870 0.565050 0.789556 0.8 0 0
0.238500 0.523606 0.430760 0.8 0 0
0.116990 0.523606 0.774098 0.8 0 0
0.416619 0.117660 0.172513 0.8 0 0
0.442350 0.080829 0.172513 0.8 0 0
0.162829 0.035527 0.220611 0.8 0 0
0.028365 0.557365 0.394088 0.8 0 0
0.461945 0.378869 0.827173 0.8 0 0
0.444590 0.523606 0.583858 0.8 0 0
0.426703 0.119393 0.220611 0.8 0 0
0.181134 0.500725 0.779075 0.8 0 0
0.476349 0.363358 0.220611 0.8 0 0
0.219875 0.294470 0.791713 0.8 0 0
0.492362 0.414486 0.779075 0.8 0 0
0.311962 0.565050 0.434571 0.8 0 0
0.224559 0.523606 0.319838 0.8 0 0
0.518792 0.314982 0.220611 0.8 0 0
0.084819 0.565050 0.904832 0.8 0 0
0.046817 0.523606 0.587332 0.8 0 0
0.266751 0.565050 0.215096 0.8 0 0
0.266421 0.177548 0.779075 0.8 0 0
0.167837 0.061862 0.827173 0.8 0 0
0.192391 0.344115 0.172513 0.8 0 0
0.423058 0.523606 0.850759 0.8 0 0
0.515289 0.052054 0.779075 0.8 0 0
0.354199 0.100950 0.203236 0.8 0 0
0.596180 0.535253 0.875004 0.8 0 0
0.457097 0.025000 0.190856 0.8 0 0
0.513412 0.169266 0.779075 0.8 0 0
0.160147 0.565050 0.521509 0.8 0 0
0.399469 0.436969 0.818326 0.8 0 0
0.477256 0.523606 0.523970 0.8 0 0
0.341437 0.425040 0.827173 0.8 0 0
0.303279 0.535869 0.973773 0.8 0 0
0.467232 0.523606 0.101975 0.8 0 0
0.406061 0.523606 0.865900 0.8 0 0
0.126652 0.523606 0.621459 0.8 0 0
0.369752 0.560564 0.038337 0.8 0 0
0.225391 0.436969 0.798872 0.8 0 0
0.176831 0.562051 0.041813 0.8 0 0
0.393223 0.430605 0.220611 0.8 0 0
0.072013 0.523606 0.628477 0.8 0 0
0.544214 0.048623 0.827173 0.8 0 0
0.272037 0.565050 0.474978 0.8 0 0
0.357420 0.523606 0.781703 0.8 0 0
0.184155 0.099308 0.172513 0.8 0 0
0.027046 0.555104 0.031841 0.8 0 0
0.215733 0.565050 0.308133 0.8 0 0
0.341302 0.175640 0.172513 0.8 0 0
0.524567 0.236721 0.779075 0.8 0 0
0.389511 0.565050 0.214084 0.8 0 0
0.497822 0.535934 0.811363 0.8 0 0
0.420926 0.289227 0.188012 0.8 0 0
0.381185 0.179201 0.209181 0.8 0 0
0.348393 0.565050 0.564762 0.8 0 0
0.085842 0.221643 0.192655 0.8 0 0
0.194945 0.565050 0.238881 0.8 0 0
0.147522 0.510923 0.172513 0.8 0 0
0.298628 0.131081 0.172513 0.8 0 0
0.219875 0.284933 0.786347 0.8 0 0
0.314734 0.179201 0.794335 0.8 0 0
0.461715 0.565050 0.564204 0.8 0 0
0.397371 0.565050 0.554216 0.8 0 0
0.566223 0.523606 0.572925 0.8 0 0
0.434555 0.383090 0.779075 0.8 0 0
0.164064 0.191914 0.220611 0.8 0 0
0.522332 0.523606 0.110465 0.8 0 0
0.085842 0.269373 0.177131 0.8 0 0
0.459353 0.407453 0.779075 0.8 0 0
0.219875 0.281283 0.200679 0.8 0 0
0.344837 0.523606 0.785728 0.8 0 0
0.140898 0.523606 0.315950 0.8 0 0
0.219875 0.212162 0.798312 0.8 0 0
0.240554 0.565050 0.195413 0.8 0 0
0.383056 0.312688 0.799050 0.8 0 0
0.547905 0.142165 0.176679 0.8 0 0
0.219875 0.267098 0.179933 0.8 0 0
0.183380 0.164704 0.779075 0.8 0 0
0.166167 0.364630 0.779075 0.8 0 0
0.144276 0.565050 0.276625 0.8 0 0
0.431974 0.222555 0.172513 0.8 0 0
0.203999 0.565050 0.794250 0.8 0 0
0.094325 0.426518 0.220611 0.8 0 0
0.502457 0.431953 0.220611 0.8 0 0
0.391393 0.565050 0.223673 0.8 0 0
0.187372 0.248768 0.220611 0.8 0 0
0.414953 0.523606 0.750382 0.8 0 0
0.164612 0.317460 0.220611 0.8 0 0
0.385940 0.312688 0.822492 0.8 0 0
0.489228 0.038862 0.220611 0.8 0 0
0.117124 0.565050 0.576646 0.8 0 0
0.030235 0.531673 0.104364 0.8 0 0
0.438442 0.523606 0.799700 0.8 0 0
0.159572 0.098267 0.779075 0.8 0 0
0.534626 0.565050 0.357994 0.8 0 0
0.308686 0.523606 0.746928 0.8 0 0
0.548249 0.523606 0.839877 0.8 0 0
0.076967 0.565050 0.332163 0.8 0 0
0.489873 0.126027 0.779075 0.8 0 0
0.495500 0.047080 0.779075 0.8 0 0
0.072943 0.523606 0.161103 0.8 0 0
0.088572 0.523606 0.416435 0.8 0 0
0.518687 0.523606 0.400947 0.8 0 0
0.538741 0.051617 0.827173 0.8 0 0
0.544660 0.523606 0.672808 0.8 0 0
0.283294 0.395775 0.172513 0.8 0 0
0.341918 0.523606 0.783001 0.8 0 0
0.465102 0.565050 0.269352 0.8 0 0
0.152493 0.565050 0.429170 0.8 0 0
0.217428 0.523606 0.238060 0.8 0 0
0.229196 0.565050 0.617619 0.8 0 0
0.539453 0.369448 0.827173 0.8 0 0
0.085842 0.132934 0.186095 0.8 0 0
0.219875 0.448685 0.174925 0.8 0 0
0.139967 0.305346 0.220611 0.8 0 0
0.457175 0.523606 0.608427 0.8 0 0
0.373030 0.136296 0.779075 0.8 0 0
0.505905 0.210743 0.172513 0.8 0 0
0.124157 0.189864 0.779075 0.8 0 0
0.119723 0.523606 0.791043 0.8 0 0
0.413680 0.161928 0.827173 0.8 0 0
0.093977 0.025000 0.809620 0.8 0 0
0.159551 0.565050 0.729993 0.8 0 0
0.501042 0.491399 0.827173 0.8 0 0
0.201955 0.192181 0.172513 0.8 0 0
0.427121 0.523606 0.752460 0.8 0 0
0.593467 0.558701 0.148414 0.8 0 0
0.519998 0.115891 0.220611 0.8 0 0
0.454135 0.117727 0.220611 0.8 0 0
0.322320 0.523606 0.260213 0.8 0 0
0.514146 0.523606 0.650811 0.8 0 0
0.191044 0.565050 0.363584 0.8 0 0
0.084769 0.565050 0.628038 0.8 0 0
0.103506 0.565050 0.731425 0.8 0 0
0.461523 0.565050 0.374082 0.8 0 0
0.547905 0.167956 0.818816 0.8 0 0
0.382864 0.523606 0.256712 0.8 0 0
0.147351 0.523606 0.220671 0.8 0 0
0.495326 0.358559 0.172513 0.8 0 0
0.197945 0.565050 0.086182 0.8 0 0
0.571015 0.523606 0.257122 0.8 0 0
0.547905 0.045754 0.791696 0.8 0 0
0.204073 0.417338 0.220611 0.8 0 0
0.437822 0.184095 0.172513 0.8 0 0
0.159897 0.523606 0.920620 0.8 0 0
0.576972 0.523606 0.479378 0.8 0 0
0.062421 0.565050 0.080908 0.8 0 0
0.047462 0.565050 0.430393 0.8 0 0
0.301812 0.372115 0.220611 0.8 0 0
0.327478 0.314744 0.779075 0.8 0 0
0.447998 0.523606 0.837306 0.8 0 0
0.215294 0.415071 0.172513 0.8 0 0
0.107096 0.277341 0.172513 0.8 0 0
0.270293 0.436969 0.202594 0.8 0 0
0.479023 0.281256 0.220611 0.8 0 0
0.217385 0.565050 0.939464 0.8 0 0
0.359509 0.565050 0.934987 0.8 0 0
0.223532 0.523606 0.759446 0.8 0 0
0.398494 0.406224 0.779075 0.8 0 0
0.254769 0.436969 0.794009 0.8 0 0
0.228865 0.565050 0.848536 0.8 0 0
0.348530 0.121364 0.172513 0.8 0 0
0.502917 0.523606 0.731969 0.8 0 0
0.369316 0.565050 0.625500 0.8 0 0
0.060722 0.523606 0.187470 0.8 0 0
0.501055 0.523606 0.140688 0.8 0 0
0.265268 0.523606 0.185003 0.8 0 0
0.161918 0.523606 0.687826 0.8 0 0
0.108178 0.565050 0.340612 0.8 0 0
0.215310 0.523606 0.203078 0.8 0 0
0.114598 0.257881 0.779075 0.8 0 0
0.265126 0.312688 0.214989 0.8 0 0
0.216247 0.533404 0.032586 0.8 0 0
0.484051 0.168954 0.827173 0.8 0 0
0.281724 0.312688 0.195148 0.8 0 0
0.085842 0.044865 0.207315 0.8 0 0
0.345499 0.326900 0.220611 0.8 0 0
0.129561 0.523606 0.262486 0.8 0 0
0.427271 0.523606 0.320229 0.8 0 0
0.125978 0.366688 0.827173 0.8 0 0
0.296456 0.100950 0.792549 0.8 0 0
0.262247 0.565050 0.545015 0.8 0 0
0.405398 0.565050 0.675248 0.8 0 0
0.351557 0.565050 0.867915 0.8 0 0
0.058707 0.523606 0.401480 0.8 0 0
0.430364 0.565050 0.905161 0.8 0 0
0.134460 0.523606 0.486145 0.8 0 0
0.428006 0.167354 0.220611 0.8 0 0
0.239319 0.436969 0.797804 0.8 0 0
0.417454 0.565050 0.179591 0.8 0 0
0.553057 0.565050 0.598111 0.8 0 0
0.139778 0.523606 0.257809 0.8 0 0
0.547905 0.399449 0.827145 0.8 0 0
0.594691 0.533351 0.693631 0.8 0 0
0.373315 0.523606 0.363964 0.8 0 0
0.380730 0.565050 0.611789 0.8 0 0
0.025008 0.545547 0.765513 0.8 0 0
0.582513 0.565050 0.116945 0.8 0 0
0.067143 0.565050 0.115488 0.8 0 0
0.548398 0.565050 0.188674 0.8 0 0
0.524986 0.565050 0.545133 0.8 0 0
0.450211 0.523606 0.059549 0.8 0 0
0.513609 0.523606 0.567860 0.8 0 0
0.423383 0.523606 0.656005 0.8 0 0
0.109571 0.523606 0.111029 0.8 0 0
0.297382 0.386668 0.779075 0.8 0 0
0.430385 0.523606 0.117390 0.8 0 0
0.440293 0.055808 0.827173 0.8 0 0
0.170037 0.565050 0.759714 0.8 0 0
0.187567 0.565050 0.121979 0.8 0 0
0.085842 0.152862 0.212492 0.8 0 0
0.228815 0.312688 0.779216 0.8 0 0
0.149756 0.480657 0.172513 0.8 0 0
0.521500 0.162810 0.172513 0.8 0 0
0.454109 0.472424 0.779075 0.8 0 0
0.284242 0.523606 0.662446 0.8 0 0
0.116946 0.065534 0.172513 0.8 0 0
0.086272 0.523606 0.289014 0.8 0 0
0.436512 0.565050 0.501159 0.8 0 0
0.554159 0.565050 0.623255 0.8 0 0
0.275268 0.565050 0.693732 0.8 0 0
0.154321 0.520279 0.827173 0.8 0 0
0.032516 0.529454 0.862704 0.8 0 0
0.099721 0.214158 0.220611 0.8 0 0
0.067375 0.565050 0.651417 0.8 0 0
0.101230 0.084596 0.172513 0.8 0 0
0.555612 0.523606 0.071982 0.8 0 0
0.513426 0.565050 0.629780 0.8 0 0
0.155450 0.523606 0.107220 0.8 0 0
0.490746 0.565050 0.608792 0.8 0 0
0.518539 0.465793 0.827173 0.8 0 0
0.326665 0.565050 0.456198 0.8 0 0
0.335258 0.424369 0.779075 0.8 0 0
0.193172 0.231949 0.220611 0.8 0 0
0.498249 0.523606 0.491715 0.8 0 0
0.423088 0.396413 0.172513 0.8 0 0
0.481552 0.523606 0.244961 0.8 0 0
0.481145 0.523606 0.066715 0.8 0 0
0.261193 0.179201 0.178172 0.8 0 0
0.526275 0.432745 0.220611 0.8 0 0
0.190935 0.493989 0.220611 0.8 0 0
0.535099 0.430822 0.172513 0.8 0 0
0.178959 0.523606 0.194711 0.8 0 0
0.072726 0.565050 0.454186 0.8 0 0
0.124429 0.523606 0.150408 0.8 0 0
0.242682 0.565050 0.414337 0.8 0 0
0.294799 0.436969 0.199927 0.8 0 0
0.407943 0.535600 0.029879 0.8 0 0
0.181859 0.041151 0.220611 0.8 0 0
0.085842 0.117108 0.800910 0.8 0 0
0.407567 0.565050 0.158336 0.8 0 0
0.246568 0.523606 0.317923 0.8 0 0
0.319827 0.436969 0.791301 0.8 0 0
0.094453 0.528803 0.040597 0.8 0 0
0.150418 0.535934 0.199312 0.8 0 0
0.329546 0.436969 0.805418 0.8 0 0
0.154448 0.565050 0.844136 0.8 0 0
0.342634 0.523606 0.685014 0.8 0 0
0.470513 0.116063 0.827173 0.8 0 0
0.513159 0.207188 0.172513 0.8 0 0
0.531648 0.523606 0.296519 0.8 0 0
0.188658 0.565050 0.763870 0.8 0 0
0.119886 0.523606 0.274167 0.8 0 0
0.341689 0.129347 0.220611 0.8 0 0
0.274190 0.523606 0.777937 0.8 0 0
0.431397 0.412105 0.779075 0.8 0 0
0.162672 0.565050 0.132633 0.8 0 0
0.154873 0.414917 0.220611 0.8 0 0
0.205589 0.565050 0.904157 0.8 0 0
0.035809 0.527186 0.591085 0.8 0 0
0.362639 0.523606 0.772483 0.8 0 0
0.471583 0.025000 0.190252 0.8 0 0
0.272317 0.523606 0.300003 0.8 0 0
0.410442 0.565050 0.636919 0.8 0 0
0.348674 0.565050 0.720416 0.8 0 0
0.362839 0.331444 0.220611 0.8 0 0
0.031046 0.560209 0.593877 0.8 0 0
0.352083 0.312688 0.201436 0.8 0 0
0.088418 0.527167 0.959716 0.8 0 0
0.299433 0.523606 0.265734 0.8 0 0
0.542173 0.523606 0.678314 0.8 0 0
0.209002 0.194394 0.220611 0.8 0 0
0.171480 0.323048 0.220611 0.8 0 0
0.173488 0.523606 0.889169 0.8 0 0
0.413121 0.312688 0.209556 0.8 0 0
0.094743 0.151927 0.220611 0.8 0 0
0.420926 0.478806 0.817776 0.8 0 0
0.262678 0.413180 0.172513 0.8 0 0
0.545045 0.523606 0.400090 0.8 0 0
0.202851 0.523606 0.156297 0.8 0 0
0.100127 0.565050 0.495937 0.8 0 0
0.446274 0.248280 0.827173 0.8 0 0
0.281865 0.312688 0.194315 0.8 0 0
0.181485 0.565050 0.884822 0.8 0 0
0.443770 0.565050 0.492209 0.8 0 0
0.479927 0.565050 0.305150 0.8 0 0
0.508622 0.464918 0.827173 0.8 0 0
0.048004 0.523606 0.613640 0.8 0 0
0.470440 0.522578 0.220611 0.8 0 0
0.339066 0.565050 0.708134 0.8 0 0
0.356052 0.376188 0.172513 0.8 0 0
0.226143 0.523606 0.160384 0.8 0 0
0.228526 0.100950 0.794100 0.8 0 0
0.526197 0.164604 0.827173 0.8 0 0
0.085842 0.522618 0.806461 0.8 0 0
0.253318 0.523606 0.382892 0.8 0 0
0.159454 0.565050 0.162944 0.8 0 0
0.036999 0.563825 0.828718 0.8 0 0
0.227330 0.423584 0.779075 0.8 0 0
0.028047 0.534561 0.580287 0.8 0 0
0.455315 0.244649 0.827173 0.8 0 0
0.496575 0.160690 0.172513 0.8 0 0
0.317856 0.565050 0.436675 0.8 0 0
0.453781 0.523606 0.461121 0.8 0 0
0.160980 0.226094 0.779075 0.8 0 0
0.441910 0.320706 0.779075 0.8 0 0
0.336304 0.523606 0.806713 0.8 0 0
0.025157 0.549564 0.774341 0.8 0 0
0.453885 0.341139 0.220611 0.8 0 0
0.538247 0.565050 0.520523 0.8 0 0
0.486132 0.523606 0.673639 0.8 0 0
0.483939 0.523606 0.724464 0.8 0 0
0.461302 0.359357 0.172513 0.8 0 0
0.028832 0.557880 0.489839 0.8 0 0
0.335853 0.179201 0.781515 0.8 0 0
0.360906 0.523606 0.775002 0.8 0 0
0.299049 0.565050 0.113616 0.8 0 0
0.085997 0.475449 0.172513 0.8 0 0
0.038079 0.525993 0.903207 0.8 0 0
0.547905 0.534920 0.189759 0.8 0 0
0.420926 0.284448 0.220294 0.8 0 0
0.523319 0.565050 0.883670 0.8 0 0
0.087695 0.315512 0.172513 0.8 0 0
0.267779 0.523606 0.570416 0.8 0 0
0.333585 0.565050 0.425728 0.8 0 0
0.096836 0.523606 0.588892 0.8 0 0
0.153833 0.523606 0.363721 0.8 0 0
0.151702 0.523606 0.647626 0.8 0 0
0.135662 0.565050 0.367465 0.8 0 0
0.218574 0.523606 0.166370 0.8 0 0
0.201267 0.473796 0.172513 0.8 0 0
0.366467 0.565050 0.807372 0.8 0 0
0.566329 0.565050 0.567321 0.8 0 0
0.317678 0.565050 0.747843 0.8 0 0
0.543540 0.088370 0.779075 0.8 0 0
0.358906 0.402431 0.779075 0.8 0 0
0.042657 0.565050 0.415154 0.8 0 0
0.040446 0.564983 0.603972 0.8 0 0
0.492720 0.565050 0.823037 0.8 0 0
0.432572 0.523606 0.778508 0.8 0 0
0.384234 0.343661 0.827173 0.8 0 0
0.394622 0.436969 0.826467 0.8 0 0
0.232993 0.407430 0.172513 0.8 0 0
0.417674 0.436969 0.176903 0.8 0 0
0.085842 0.142571 0.172814 0.8 0 0
0.573834 0.565050 0.139372 0.8 0 0
0.461750 0.088054 0.172513 0.8 0 0
0.119907 0.188430 0.172513 0.8 0 0
0.411319 0.565050 0.432573 0.8 0 0
0.353015 0.565050 0.436861 0.8 0 0
0.289154 0.347761 0.220611 0.8 0 0
0.461373 0.565050 0.278062 0.8 0 0
0.268658 0.565050 0.589248 0.8 0 0
0.102065 0.565050 0.193510 0.8 0 0
0.095663 0.109748 0.827173 0.8 0 0
0.119277 0.187057 0.172513 0.8 0 0
0.302437 0.523606 0.884209 0.8 0 0
0.145044 0.494925 0.172513 0.8 0 0
0.547905 0.096041 0.813760 0.8 0 0
0.180574 0.523606 0.059130 0.8 0 0
0.164081 0.277193 0.827173 0.8 0 0
0.207874 0.075108 0.206941 0.8 0 0
0.093581 0.166288 0.827173 0.8 0 0
0.165887 0.523606 0.452270 0.8 0 0
0.544466 0.565050 0.839320 0.8 0 0
0.114192 0.565050 0.802410 0.8 0 0
0.522329 0.056435 0.220611 0.8 0 0
0.499357 0.025000 0.200350 0.8 0 0
0.026032 0.552942 0.903951 0.8 0 0
0.208058 0.565050 0.395889 0.8 0 0
0.473753 0.479041 0.220611 0.8 0 0
0.307301 0.563067 0.960477 0.8 0 0
0.116193 0.165711 0.779075 0.8 0 0
0.219875 0.486725 0.207256 0.8 0 0
0.106941 0.379693 0.827173 0.8 0 0
0.471036 0.340178 0.220611 0.8 0 0
0.420965 0.100857 0.178176 0.8 0 0
0.495662 0.255245 0.220611 0.8 0 0
0.087352 0.523606 0.830560 0.8 0 0
0.157900 0.523606 0.523171 0.8 0 0
0.449494 0.346106 0.172513 0.8 0 0
0.381655 0.523606 0.786170 0.8 0 0
0.137726 0.404938 0.220611 0.8 0 0
0.350591 0.523606 0.420875 0.8 0 0
0.104818 0.535934 0.810467 0.8 0 0
0.184739 0.523606 0.346456 0.8 0 0
0.104627 0.523606 0.428615 0.8 0 0
0.093540 0.340305 0.827173 0.8 0 0
0.532210 0.350721 0.779075 0.8 0 0
0.420926 0.471708 0.184024 0.8 0 0
0.598870 0.541813 0.829036 0.8 0 0
0.163201 0.200602 0.779075 0.8 0 0
0.155953 0.411284 0.172513 0.8 0 0
0.258228 0.523606 0.857563 0.8 0 0
0.086078 0.565050 0.709861 0.8 0 0
0.530542 0.324431 0.220611 0.8 0 0
0.343135 0.565050 0.061331 0.8 0 0
0.480934 0.535934 0.173426 0.8 0 0
0.493503 0.032422 0.827173 0.8 0 0
0.166547 0.535934 0.805548 0.8 0 0
0.513497 0.502605 0.220611 0.8 0 0
0.159258 0.128691 0.220611 0.8 0 0
0.430754 0.535934 0.192570 0.8 0 0
0.159955 0.523606 0.066629 0.8 0 0
0.508230 0.565050 0.763010 0.8 0 0
0.347134 0.565050 0.905102 0.8 0 0
0.130449 0.205878 0.827173 0.8 0 0
0.235092 0.146441 0.172513 0.8 0 0
0.511714 0.523606 0.931865 0.8 0 0
0.313887 0.565050 0.140731 0.8 0 0
0.423056 0.565050 0.644749 0.8 0 0
0.240047 0.565050 0.725829 0.8 0 0
0.382289 0.523606 0.777937 0.8 0 0
0.406922 0.565050 0.686370 0.8 0 0
0.485199 0.094669 0.827173 0.8 0 0
0.129059 0.523606 0.724629 0.8 0 0
0.337487 0.523606 0.898103 0.8 0 0
0.057764 0.523606 0.759867 0.8 0 0
0.351756 0.565050 0.943088 0.8 0 0
0.551350 0.565050 0.062716 0.8 0 0
0.114712 0.519312 0.827173 0.8 0 0
0.042707 0.565050 0.370234 0.8 0 0
0.422105 0.523606 0.920126 0.8 0 0
0.073038 0.523606 0.494818 0.8 0 0
0.159180 0.317680 0.220611 0.8 0 0
0.147821 0.535934 0.823333 0.8 0 0
0.052332 0.565050 0.098670 0.8 0 0
0.199042 0.253987 0.172513 0.8 0 0
0.085842 0.341833 0.198458 0.8 0 0
0.085842 0.282954 0.211482 0.8 0 0
0.360292 0.381464 0.172513 0.8 0 0
0.154415 0.565050 0.246554 0.8 0 0
0.035203 0.562969 0.819048 0.8 0 0
0.521077 0.518773 0.172513 0.8 0 0
0.272350 0.523606 0.826243 0.8 0 0
0.303077 0.523606 0.520185 0.8 0 0
0.156853 0.275509 0.779075 0.8 0 0
0.224195 0.142200 0.172513 0.8 0 0
0.503294 0.454971 0.220611 0.8 0 0
0.166260 0.565050 0.412069 0.8 0 0
0.299894 0.565050 0.245993 0.8 0 0
0.595826 0.534724 0.523982 0.8 0 0
0.447355 0.556849 0.031963 0.8 0 0
0.359339 0.523606 0.896831 0.8 0 0
0.258935 0.411561 0.172513 0.8 0 0
0.343615 0.136862 0.220611 0.8 0 0
0.420926 0.492690 0.196892 0.8 0 0
0.083080 0.565050 0.136206 0.8 0 0
0.121984 0.523606 0.679675 0.8 0 0
0.270902 0.523606 0.369164 0.8 0 0
0.218799 0.523606 0.861822 0.8 0 0
0.511366 0.513460 0.827173 0.8 0 0
0.355533 0.565050 0.931809 0.8 0 0
0.352534 0.565050 0.637257 0.8 0 0
0.476179 0.327421 0.779075 0.8 0 0
0.148965 0.565050 0.774269 0.8 0 0
0.348031 0.565050 0.275425 0.8 0 0
0.219875 0.235929 0.215716 0.8 0 0
0.377619 0.565050 0.136229 0.8 0 0
0.542977 0.518414 0.220611 0.8 0 0
0.176823 0.464347 0.172513 0.8 0 0
0.085794 0.565050 0.113696 0.8 0 0
0.117494 0.523606 0.672646 0.8 0 0
0.262230 0.565050 0.922237 0.8 0 0
0.136217 0.523606 0.469436 0.8 0 0
0.200868 0.565050 0.908719 0.8 0 0
0.451188 0.222841 0.172513 0.8 0 0
0.502118 0.253561 0.827173 0.8 0 0
0.502538 0.514511 0.172513 0.8 0 0
0.116341 0.090807 0.220611 0.8 0 0
0.186307 0.115016 0.172513 0.8 0 0
0.387112 0.523606 0.836994 0.8 0 0
0.129860 0.278073 0.827173 0.8 0 0
0.592119 0.559842 0.037999 0.8 0 0
0.286581 0.523606 0.620737 0.8 0 0
0.261142 0.523606 0.855537 0.8 0 0
0.345742 0.565050 0.400930 0.8 0 0
0.495144 0.285390 0.220611 0.8 0 0
0.497773 0.202105 0.172513 0.8 0 0
0.131371 0.565050 0.340398 0.8 0 0
0.547905 0.491962 0.190293 0.8 0 0
0.331816 0.100950 0.216229 0.8 0 0
0.113518 0.409413 0.827173 0.8 0 0
0.165177 0.523606 0.907141 0.8 0 0
0.382799 0.523606 0.314501 0.8 0 0
0.452548 0.395038 0.779075 0.8 0 0
0.119196 0.523606 0.348239 0.8 0 0
0.064205 0.523606 0.817078 0.8 0 0
0.355138 0.370233 0.827173 0.8 0 0
0.376043 0.363467 0.172513 0.8 0 0
0.219875 0.443919 0.813181 0.8 0 0
0.460384 0.523606 0.428035 0.8 0 0
0.506413 0.204319 0.779075 0.8 0 0
0.460719 0.565050 0.260642 0.8 0 0
0.117375 0.399340 0.172513 0.8 0 0
0.109927 0.523606 0.161918 0.8 0 0
0.464095 0.523606 0.709219 0.8 0 0
0.026043 0.552991 0.426774 0.8 0 0
0.063780 0.565050 0.377623 0.8 0 0
0.309193 0.523606 0.469320 0.8 0 0
0.141629 0.082164 0.827173 0.8 0 0
0.192449 0.523606 0.598554 0.8 0 0
0.582603 0.565050 0.386441 0.8 0 0
0.176416 0.523606 0.197082 0.8 0 0
0.518963 0.565050 0.058028 0.8 0 0
0.311237 0.153068 0.779075 0.8 0 0
0.547905 0.358408 0.779605 0.8 0 0
0.132612 0.439429 0.220611 0.8 0 0
0.278844 0.523606 0.752226 0.8 0 0
0.132592 0.397484 0.172513 0.8 0 0
0.214026 0.535934 0.182132 0.8 0 0
0.394260 0.169472 0.779075 0.8 0 0
0.265580 0.174470 0.172513 0.8 0 0
0.314626 0.523606 0.458670 0.8 0 0
0.547905 0.125746 0.787360 0.8 0 0
0.130808 0.565050 0.258881 0.8 0 0
0.319467 0.523606 0.892650 0.8 0 0
0.197259 0.393580 0.220611 0.8 0 0
0.464553 0.382893 0.827173 0.8 0 0
0.250333 0.115126 0.827173 0.8 0 0
0.426018 0.181905 0.779075 0.8 0 0
0.538363 0.305377 0.172513 0.8 0 0
0.157509 0.523606 0.364085 0.8 0 0
0.492044 0.523606 0.180477 0.8 0 0
0.139309 0.292528 0.779075 0.8 0 0
0.071649 0.565050 0.352441 0.8 0 0
0.547905 0.230375 0.803512 0.8 0 0
0.025003 0.543540 0.205771 0.8 0 0
0.154210 0.523606 0.822217 0.8 0 0
0.085842 0.026715 0.787084 0.8 0 0
0.212156 0.084455 0.827173 0.8 0 0
0.341518 0.565050 0.384123 0.8 0 0
0.271704 0.142367 0.172513 0.8 0 0
0.174888 0.279036 0.172513 0.8 0 0
0.439583 0.565050 0.281418 0.8 0 0
0.465762 0.523606 0.883871 0.8 0 0
0.281083 0.565050 0.610978 0.8 0 0
0.145600 0.170894 0.779075 0.8 0 0
0.527306 0.565050 0.151012 0.8 0 0
0.492802 0.565050 0.169790 0.8 0 0
0.492014 0.565050 0.653912 0.8 0 0
0.431452 0.523606 0.776665 0.8 0 0
0.246617 0.523606 0.456971 0.8 0 0
0.049013 0.523606 0.470614 0.8 0 0
0.283859 0.312688 0.203319 0.8 0 0
0.509152 0.565050 0.566282 0.8 0 0
0.141493 0.565050 0.788420 0.8 0 0
0.517120 0.448240 0.827173 0.8 0 0
0.440730 0.533840 0.031987 0.8 0 0
0.396357 0.565050 0.227348 0.8 0 0
0.085842 0.147982 0.175298 0.8 0 0
0.511619 0.310320 0.779075 0.8 0 0
0.161108 0.565050 0.873147 0.8 0 0
0.176747 0.565050 0.803907 0.8 0 0
0.519434 0.482969 0.827173 0.8 0 0
0.083693 0.565050 0.475301 0.8 0 0
0.310787 0.565050 0.794869 0.8 0 0
0.400999 0.527235 0.044490 0.8 0 0
0.188435 0.455256 0.172513 0.8 0 0
0.198570 0.121572 0.779075 0.8 0 0
0.496261 0.565050 0.371179 0.8 0 0
0.374467 0.565050 0.174264 0.8 0 0
0.226495 0.523606 0.296152 0.8 0 0
0.093319 0.115579 0.779075 0.8 0 0
0.588197 0.527662 0.435243 0.8 0 0
0.477194 0.523606 0.922438 0.8 0 0
0.311678 0.109526 0.779075 0.8 0 0
0.339971 0.335294 0.172513 0.8 0 0
0.174704 0.155794 0.220611 0.8 0 0
0.209439 0.565050 0.221835 0.8 0 0
0.107994 0.523606 0.592388 0.8 0 0
0.446252 0.171600 0.172513 0.8 0 0
0.155961 0.198803 0.827173 0.8 0 0
0.516907 0.562089 0.041901 0.8 0 0
0.178536 0.241130 0.827173 0.8 0 0
0.496636 0.179947 0.827173 0.8 0 0
0.382320 0.523606 0.082730 0.8 0 0
0.149379 0.565050 0.947035 0.8 0 0
0.503057 0.565050 0.548596 0.8 0 0
0.393520 0.565050 0.784231 0.8 0 0
0.547905 0.292325 0.826031 0.8 0 0
0.420926 0.293386 0.789782 0.8 0 0
0.138263 0.565050 0.790797 0.8 0 0
0.290105 0.424479 0.172513 0.8 0 0
0.168653 0.565050 0.163078 0.8 0 0
0.598995 0.549173 0.331042 0.8 0 0
0.526247 0.273552 0.220611 0.8 0 0
0.473784 0.369224 0.172513 0.8 0 0
0.105892 0.565050 0.840289 0.8 0 0
0.540747 0.048998 0.172513 0.8 0 0
0.147989 0.375140 0.172513 0.8 0 0
0.079756 0.523606 0.518195 0.8 0 0
0.285427 0.523606 0.059881 0.8 0 0
0.479639 0.523606 0.756200 0.8 0 0
0.359532 0.523606 0.625671 0.8 0 0
0.210679 0.523606 0.158840 0.8 0 0
0.067246 0.553439 0.975000 0.8 0 0
0.241959 0.565050 0.148988 0.8 0 0
0.144986 0.025000 0.191546 0.8 0 0
0.400187 0.178148 0.172513 0.8 0 0
0.465734 0.565050 0.615504 0.8 0 0
0.179121 0.084427 0.827173 0.8 0 0
0.200650 0.363036 0.827173 0.8 0 0
0.348688 0.523606 0.219863 0.8 0 0
0.250124 0.398585 0.220611 0.8 0 0
0.420926 0.465586 0.793243 0.8 0 0
0.539558 0.031970 0.827173 0.8 0 0
0.570578 0.523606 0.794662 0.8 0 0
0.098987 0.523606 0.327921 0.8 0 0
0.352468 0.529194 0.039700 0.8 0 0
0.239522 0.323247 0.220611 0.8 0 0
0.132034 0.565050 0.435932 0.8 0 0
0.281743 0.523606 0.791728 0.8 0 0
0.163389 0.565050 0.072385 0.8 0 0
0.031876 0.529940 0.708754 0.8 0 0
0.596159 0.555616 0.659044 0.8 0 0
0.180039 0.565050 0.186969 0.8 0 0
0.091050 0.523606 0.236054 0.8 0 0
0.310286 0.326138 0.827173 0.8 0 0
0.403460 0.565050 0.721053 0.8 0 0
0.240982 0.122123 0.220611 0.8 0 0
0.219875 0.535040 0.194395 0.8 0 0
0.440043 0.523606 0.492857 0.8 0 0
0.423015 0.300085 0.220611 0.8 0 0
0.503201 0.523606 0.843695 0.8 0 0
0.069445 0.565050 0.786809 0.8 0 0
0.516229 0.445678 0.172513 0.8 0 0
0.545798 0.173648 0.172513 0.8 0 0
0.543266 0.565050 0.628289 0.8 0 0
0.526386 0.447900 0.172513 0.8 0 0
0.036654 0.563688 0.784437 0.8 0 0
0.242959 0.565050 0.341214 0.8 0 0
0.433550 0.523606 0.414140 0.8 0 0
0.218304 0.265474 0.220611 0.8 0 0
0.586656 0.563569 0.495083 0.8 0 0
0.272800 0.565050 0.705631 0.8 0 0
0.532875 0.483939 0.220611 0.8 0 0
0.427029 0.215597 0.827173 0.8 0 0
0.391002 0.565050 0.764339 0.8 0 0
0.533558 0.565050 0.447009 0.8 0 0
0.501490 0.523606 0.510517 0.8 0 0
0.587083 0.526931 0.891340 0.8 0 0
0.175099 0.045960 0.827173 0.8 0 0
0.476306 0.565050 0.325659 0.8 0 0
0.390057 0.565050 0.845111 0.8 0 0
0.582077 0.552341 0.975000 0.8 0 0
0.042636 0.524405 0.404869 0.8 0 0
0.382428 0.523606 0.126379 0.8 0 0
0.516155 0.523606 0.217127 0.8 0 0
0.085842 0.482715 0.789155 0.8 0 0
0.028437 0.533805 0.270526 0.8 0 0
0.134270 0.565050 0.352297 0.8 0 0
0.255216 0.523606 0.106480 0.8 0 0
0.162732 0.565050 0.909377 0.8 0 0
0.260985 0.406653 0.172513 0.8 0 0
0.400141 0.565050 0.132287 0.8 0 0
0.429095 0.498078 0.220611 0.8 0 0
0.390818 0.349733 0.779075 0.8 0 0
0.037050 0.563845 0.255129 0.8 0 0
0.345063 0.341958 0.779075 0.8 0 0
0.504675 0.025000 0.820957 0.8 0 0
0.434345 0.523606 0.469510 0.8 0 0
0.458685 0.565050 0.561674 0.8 0 0
0.214627 0.529417 0.039276 0.8 0 0
0.117244 0.523606 0.147887 0.8 0 0
0.582261 0.524557 0.366422 0.8 0 0
0.210344 0.565050 0.450360 0.8 0 0
0.311797 0.565050 0.659300 0.8 0 0
0.090002 0.368918 0.779075 0.8 0 0
0.109444 0.060379 0.827173 0.8 0 0
0.357581 0.565050 0.287730 0.8 0 0
0.324679 0.523606 0.273285 0.8 0 0
0.238209 0.155666 0.827173 0.8 0 0
0.532828 0.523606 0.173756 0.8 0 0
0.201480 0.259648 0.827173 0.8 0 0
0.427777 0.203464 0.779075 0.8 0 0
0.311715 0.523606 0.402232 0.8 0 0
0.350223 0.436969 0.196545 0.8 0 0
0.459026 0.145886 0.220611 0.8 0 0
0.214005 0.565050 0.642976 0.8 0 0
0.126984 0.270636 0.172513 0.8 0 0
0.304862 0.331774 0.172513 0.8 0 0
0.234662 0.115166 0.827173 0.8 0 0
0.085842 0.403753 0.780864 0.8 0 0
0.226934 0.523606 0.302885 0.8 0 0
0.489929 0.523606 0.170256 0.8 0 0
0.598865 0.541793 0.786390 0.8 0 0
0.456481 0.280816 0.827173 0.8 0 0
0.537369 0.565050 0.780216 0.8 0 0
0.420926 0.298446 0.185128 0.8 0 0
0.171239 0.366345 0.827173 0.8 0 0
0.531318 0.565050 0.832581 0.8 0 0
0.384381 0.100950 0.213766 0.8 0 0
0.543446 0.523606 0.319062 0.8 0 0
0.547905 0.403503 0.194370 0.8 0 0
0.354985 0.523606 0.488780 0.8 0 0
0.511302 0.203929 0.220611 0.8 0 0
0.317421 0.523606 0.657927 0.8 0 0
0.364031 0.565050 0.924183 0.8 0 0
0.266617 0.163659 0.779075 0.8 0 0
0.478545 0.523688 0.057189 0.8 0 0
0.030265 0.531638 0.679209 0.8 0 0
0.327306 0.412615 0.172513 0.8 0 0
0.390358 0.100950 0.793236 0.8 0 0
0.289962 0.565050 0.698556 0.8 0 0
0.162359 0.475558 0.827173 0.8 0 0
0.547905 0.062766 0.206036 0.8 0 0
0.521500 0.438621 0.779075 0.8 0 0
0.471256 0.213665 0.827173 0.8 0 0
0.201427 0.263135 0.172513 0.8 0 0
0.447615 0.339555 0.172513 0.8 0 0
0.277145 0.523606 0.140668 0.8 0 0
0.440104 0.257984 0.172513 0.8 0 0
0.112921 0.523606 0.269866 0.8 0 0
0.167545 0.136967 0.220611 0.8 0 0
0.469632 0.523606 0.124427 0.8 0 0
0.219875 0.254489 0.219162 0.8 0 0
0.196827 0.051322 0.185693 0.8 0 0
0.302647 0.353492 0.172513 0.8 0 0
0.106672 0.560961 0.966009 0.8 0 0
0.238337 0.523606 0.773548 0.8 0 0
0.250439 0.523606 0.590343 0.8 0 0
0.308782 0.355722 0.220611 0.8 0 0
0.119061 0.318007 0.779075 0.8 0 0
0.230619 0.175294 0.220611 0.8 0 0
0.318336 0.524586 0.949599 0.8 0 0
0.154124 0.520310 0.827173 0.8 0 0
0.460333 0.565050 0.910819 0.8 0 0
0.288571 0.102483 0.827173 0.8 0 0
0.381335 0.523606 0.882495 0.8 0 0
0.191082 0.299823 0.827173 0.8 0 0
0.179680 0.523606 0.630711 0.8 0 0
0.543344 0.556701 0.031747 0.8 0 0
0.255585 0.353605 0.172513 0.8 0 0
0.301143 0.317543 0.172513 0.8 0 0
0.275375 0.523606 0.413732 0.8 0 0
0.129516 0.535934 0.816896 0.8 0 0
0.336344 0.100950 0.820936 0.8 0 0
0.454578 0.469627 0.779075 0.8 0 0
0.120437 0.565050 0.685227 0.8 0 0
0.478728 0.565050 0.140518 0.8 0 0
0.310273 0.565050 0.789666 0.8 0 0
0.134784 0.565050 0.367588 0.8 0 0
0.439589 0.523606 0.841150 0.8 0 0
0.365849 0.523606 0.414166 0.8 0 0
0.111640 0.565050 0.792553 0.8 0 0
0.213937 0.523606 0.410831 0.8 0 0
0.045523 0.565050 0.087717 0.8 0 0
0.591582 0.560297 0.751633 0.8 0 0
0.599268 0.543352 0.141847 0.8 0 0
0.279435 0.312688 0.805733 0.8 0 0
0.284209 0.365959 0.827173 0.8 0 0
0.239227 0.320179 0.172513 0.8 0 0
0.588124 0.562755 0.438054 0.8 0 0
0.299670 0.565050 0.924623 0.8 0 0
0.225416 0.374007 0.779075 0.8 0 0
0.245947 0.523606 0.184821 0.8 0 0
0.516519 0.351033 0.827173 0.8 0 0
0.449610 0.474532 0.827173 0.8 0 0
0.219804 0.100797 0.172906 0.8 0 0
0.520221 0.523606 0.290676 0.8 0 0
0.328120 0.565050 0.398427 0.8 0 0
0.137153 0.565050 0.220509 0.8 0 0
0.427370 0.503874 0.172513 0.8 0 0
0.350445 0.523606 0.250135 0.8 0 0
0.219875 0.200442 0.199592 0.8 0 0
0.162051 0.523606 0.815672 0.8 0 0
0.219875 0.241730 0.800641 0.8 0 0
0.166783 0.559749 0.968524 0.8 0 0
0.500627 0.523606 0.875353 0.8 0 0
0.335921 0.100950 0.807515 0.8 0 0
0.238180 0.523606 0.193681 0.8 0 0
0.599297 0.545403 0.780344 0.8 0 0
0.085842 0.332961 0.208398 0.8 0 0
0.478646 0.087465 0.172513 0.8 0 0
0.555567 0.565050 0.689656 0.8 0 0
0.420926 0.206084 0.217496 0.8 0 0
0.545042 0.186153 0.827173 0.8 0 0
0.164858 0.265621 0.827173 0.8 0 0
0.372214 0.126863 0.220611 0.8 0 0
0.279757 0.565050 0.912451 0.8 0 0
0.534136 0.523606 0.214322 0.8 0 0
0.171525 0.430417 0.779075 0.8 0 0
0.497981 0.413040 0.220611 0.8 0 0
0.547905 0.318818 0.825689 0.8 0 0
0.461386 0.523606 0.794351 0.8 0 0
0.068563 0.523606 0.223814 0.8 0 0
0.201530 0.565050 0.379362 0.8 0 0
0.169697 0.062008 0.172513 0.8 0 0
0.324061 0.523606 0.298801 0.8 0 0
0.489920 0.565050 0.456065 0.8 0 0
0.372361 0.141426 0.220611 0.8 0 0
0.241491 0.121435 0.779075 0.8 0 0
0.152296 0.025146 0.827173 0.8 0 0
0.187797 0.444045 0.779075 0.8 0 0
0.026226 0.553628 0.316957 0.8 0 0
0.234984 0.565050 0.264798 0.8 0 0
0.315894 0.179201 0.179033 0.8 0 0
0.209399 0.523606 0.446849 0.8 0 0
0.339576 0.523606 0.213613 0.8 0 0
0.052597 0.565050 0.419921 0.8 0 0
0.328137 0.524861 0.951068 0.8 0 0
0.108602 0.565050 0.087673 0.8 0 0
0.266034 0.436969 0.218967 0.8 0 0
0.219606 0.138676 0.827173 0.8 0 0
0.276840 0.100950 0.202289 0.8 0 0
0.220400 0.565050 0.433309 0.8 0 0
0.275637 0.312688 0.219990 0.8 0 0
0.181096 0.523606 0.407783 0.8 0 0
0.376954 0.548895 0.025384 0.8 0 0
0.543795 0.143132 0.172513 0.8 0 0
0.224861 0.523606 0.705817 0.8 0 0
0.223004 0.168509 0.220611 0.8 0 0
0.476602 0.082897 0.827173 0.8 0 0
0.444689 0.044097 0.200993 0.8 0 0
0.420926 0.442590 0.799144 0.8 0 0
0.128178 0.257896 0.220611 0.8 0 0
0.130146 0.302180 0.779075 0.8 0 0
0.439158 0.067837 0.779075 0.8 0 0
0.176839 0.486598 0.779075 0.8 0 0
0.588093 0.562776 0.724545 0.8 0 0
0.219875 0.294001 0.196301 0.8 0 0
0.221493 0.565050 0.420580 0.8 0 0
0.139124 0.565050 0.307141 0.8 0 0
0.227317 0.565050 0.211580 0.8 0 0
0.132870 0.203822 0.827173 0.8 0 0
0.280043 0.523606 0.170082 0.8 0 0
0.339982 0.523606 0.902311 0.8 0 0
0.109073 0.565050 0.703002 0.8 0 0
0.043154 0.565050 0.786938 0.8 0 0
0.474605 0.565050 0.354638 0.8 0 0
0.377157 0.565050 0.127333 0.8 0 0
0.114685 0.529112 0.039856 0.8 0 0
0.209474 0.078555 0.814808 0.8 0 0
0.248082 0.565050 0.405375 0.8 0 0
0.481298 0.327261 0.172513 0.8 0 0
0.457818 0.029943 0.827173 0.8 0 0
0.420926 0.287675 0.217953 0.8 0 0
0.480136 0.523606 0.633826 0.8 0 0
0.111788 0.309712 0.779075 0.8 0 0
0.258781 0.552086 0.975000 0.8 0 0
0.526200 0.523606 0.251746 0.8 0 0
0.411584 0.565050 0.059307 0.8 0 0
0.481806 0.523606 0.941656 0.8 0 0
0.495805 0.523606 0.880781 0.8 0 0
0.105665 0.523606 0.190120 0.8 0 0
0.169517 0.280044 0.827173 0.8 0 0
0.348524 0.431242 0.827173 0.8 0 0
0.491743 0.565050 0.935348 0.8 0 0
0.128969 0.565050 0.652723 0.8 0 0
0.484339 0.117981 0.779075 0.8 0 0
0.178131 0.565050 0.252093 0.8 0 0
0.586864 0.563454 0.600795 0.8 0 0
0.239761 0.390946 0.779075 0.8 0 0
0.159544 0.256826 0.779075 0.8 0 0
0.048144 0.528523 0.041293 0.8 0 0
0.221575 0.161904 0.220611 0.8 0 0
0.049466 0.565050 0.748946 0.8 0 0
0.378011 0.523606 0.796506 0.8 0 0
0.066239 0.523606 0.426288 0.8 0 0
0.126426 0.025000 0.780728 0.8 0 0
0.144425 0.565050 0.838819 0.8 0 0
0.219124 0.523606 0.274500 0.8 0 0
0.505402 0.041825 0.827173 0.8 0 0
0.043956 0.524062 0.914570 0.8 0 0
0.224299 0.345132 0.220611 0.8 0 0
0.483410 0.565050 0.847762 0.8 0 0
0.486417 0.251165 0.827173 0.8 0 0
0.028426 0.533827 0.135637 0.8 0 0
0.559904 0.565050 0.510081 0.8 0 0
0.420926 0.183377 0.208250 0.8 0 0
0.493594 0.523606 0.587676 0.8 0 0
0.482588 0.398562 0.220611 0.8 0 0
0.518458 0.523606 0.587027 0.8 0 0
0.281779 0.565050 0.607934 0.8 0 0
0.270215 0.565050 0.804044 0.8 0 0
0.206997 0.565050 0.561670 0.8 0 0
0.415302 0.523606 0.447772 0.8 0 0
0.120955 0.090043 0.220611 0.8 0 0
0.538638 0.523606 0.577574 0.8 0 0
0.222152 0.523606 0.615689 0.8 0 0
0.415064 0.523606 0.697298 0.8 0 0
0.340541 0.156693 0.779075 0.8 0 0
0.111755 0.435359 0.779075 0.8 0 0
0.137428 0.523606 0.927892 0.8 0 0
0.287494 0.565050 0.587742 0.8 0 0
0.125897 0.565050 0.103361 0.8 0 0
0.320428 0.565050 0.632073 0.8 0 0
0.417983 0.523606 0.144208 0.8 0 0
0.420926 0.271400 0.205853 0.8 0 0
0.354671 0.565050 0.902540 0.8 0 0
0.503206 0.565050 0.459554 0.8 0 0
0.177443 0.565050 0.576351 0.8 0 0
0.547936 0.565050 0.934715 0.8 0 0
0.172074 0.523606 0.837696 0.8 0 0
0.062123 0.565050 0.088837 0.8 0 0
0.174016 0.475543 0.827173 0.8 0 0
0.431505 0.177313 0.827173 0.8 0 0
0.256406 0.523606 0.875665 0.8 0 0
0.599287 0.547420 0.317178 0.8 0 0
0.270496 0.523606 0.578618 0.8 0 0
0.100253 0.062387 0.220611 0.8 0 0
0.164015 0.283235 0.220611 0.8 0 0
0.112849 0.037104 0.172513 0.8 0 0
0.477577 0.181250 0.172513 0.8 0 0
0.223354 0.179201 0.172589 0.8 0 0
0.094538 0.040973 0.827173 0.8 0 0
0.316445 0.523606 0.152382 0.8 0 0
0.470487 0.565050 0.735815 0.8 0 0
0.195092 0.523606 0.864809 0.8 0 0
0.366890 0.523606 0.269184 0.8 0 0
0.456144 0.523606 0.156514 0.8 0 0
0.514661 0.565050 0.333596 0.8 0 0
0.334277 0.368747 0.827173 0.8 0 0
0.225552 0.523606 0.616395 0.8 0 0
0.535931 0.451108 0.827173 0.8 0 0
0.026455 0.537639 0.660738 0.8 0 0
0.522288 0.191392 0.827173 0.8 0 0
0.318242 0.565050 0.344117 0.8 0 0
0.212508 0.085086 0.820940 0.8 0 0
0.233945 0.523606 0.765731 0.8 0 0
0.466595 0.565050 0.882019 0.8 0 0
0.363805 0.523606 0.150869 0.8 0 0
0.297900 0.565050 0.387080 0.8 0 0
0.270317 0.179201 0.797628 0.8 0 0
0.219875 0.498827 0.826333 0.8 0 0
0.199558 0.565050 0.177327 0.8 0 0
0.386943 0.565050 0.518019 0.8 0 0
0.167300 0.268936 0.827173 0.8 0 0
0.079551 0.565050 0.584644 0.8 0 0
0.057536 0.523606 0.880371 0.8 0 0
0.369907 0.565050 0.381939 0.8 0 0
0.545202 0.361574 0.827173 0.8 0 0
0.230139 0.565050 0.051103 0.8 0 0
0.063116 0.523606 0.498082 0.8 0 0
0.028578 0.557600 0.530797 0.8 0 0
0.330319 0.565050 0.644342 0.8 0 0
0.362464 0.565050 0.530724 0.8 0 0
0.226747 0.140729 0.220611 0.8 0 0
0.269279 0.565050 0.361697 0.8 0 0
0.118243 0.408867 0.779075 0.8 0 0
0.188253 0.523606 0.398456 0.8 0 0
0.249099 0.523606 0.914387 0.8 0 0
0.179371 0.219383 0.220611 0.8 0 0
0.109726 0.147950 0.827173 0.8 0 0
0.068109 0.523606 0.720332 0.8 0 0
0.437263 0.523606 0.374119 0.8 0 0
0.182283 0.381599 0.779075 0.8 0 0
0.364230 0.565050 0.881289 0.8 0 0
0.152529 0.295491 0.827173 0.8 0 0
0.374365 0.565050 0.345529 0.8 0 0
0.547155 0.523606 0.525087 0.8 0 0
0.401838 0.398073 0.779075 0.8 0 0
0.220746 0.436969 0.798452 0.8 0 0
0.582505 0.565050 0.888542 0.8 0 0
0.312053 0.436969 0.202224 0.8 0 0
0.180835 0.523606 0.521539 0.8 0 0
0.315970 0.565050 0.404766 0.8 0 0
0.105697 0.204631 0.779075 0.8 0 0
0.445220 0.565050 0.581757 0.8 0 0
0.582410 0.565050 0.164622 0.8 0 0
0.144999 0.535934 0.205876 0.8 0 0
0.187697 0.565050 0.757474 0.8 0 0
0.542781 0.152426 0.172513 0.8 0 0
0.072374 0.523606 0.219437 0.8 0 0
0.443157 0.565050 0.058428 0.8 0 0
0.558986 0.565050 0.886909 0.8 0 0
0.219875 0.524998 0.797820 0.8 0 0
0.123033 0.142080 0.779075 0.8 0 0
0.504251 0.207703 0.220611 0.8 0 0
0.046998 0.565050 0.386237 0.8 0 0
0.358415 0.565050 0.509602 0.8 0 0
0.271299 0.436969 0.173667 0.8 0 0
0.030940 0.530862 0.556768 0.8 0 0
0.462416 0.565050 0.076913 0.8 0 0
0.026125 0.553305 0.598460 0.8 0 0
0.448079 0.125655 0.827173 0.8 0 0
0.489224 0.331976 0.827173 0.8 0 0
0.484017 0.089695 0.220611 0.8 0 0
0.315170 0.329331 0.220611 0.8 0 0
0.139389 0.523606 0.549081 0.8 0 0
0.185971 0.027946 0.790307 0.8 0 0
0.523844 0.565050 0.430495 0.8 0 0
0.085842 0.137971 0.206571 0.8 0 0
0.468456 0.090537 0.779075 0.8 0 0
0.529974 0.528776 0.827173 0.8 0 0
0.486150 0.565050 0.537090 0.8 0 0
0.547905 0.138797 0.217561 0.8 0 0
0.493054 0.523606 0.081840 0.8 0 0
0.405035 0.523606 0.197748 0.8 0 0
0.085842 0.258769 0.175842 0.8 0 0
0.345793 0.523606 0.234372 0.8 0 0
0.349701 0.565050 0.236964 0.8 0 0
0.505915 0.565050 0.058827 0.8 0 0
0.231826 0.523606 0.095882 0.8 0 0
0.532989 0.156558 0.172513 0.8 0 0
0.226532 0.382340 0.172513 0.8 0 0
0.034478 0.527969 0.390842 0.8 0 0
0.123873 0.038243 0.827173 0.8 0 0
0.096035 0.565050 0.692261 0.8 0 0
0.177383 0.139021 0.220611 0.8 0 0
0.516448 0.523606 0.772769 0.8 0 0
0.101913 0.090163 0.220611 0.8 0 0
0.168208 0.296258 0.220611 0.8 0 0
0.516144 0.233634 0.827173 0.8 0 0
0.260971 0.565050 0.663274 0.8 0 0
0.252952 0.523606 0.173450 0.8 0 0
0.461008 0.523606 0.849590 0.8 0 0
0.068915 0.565050 0.877093 0.8 0 0
0.380076 0.523606 0.777340 0.8 0 0
0.094526 0.278526 0.779075 0.8 0 0
0.366550 0.523606 0.084597 0.8 0 0
0.284078 0.523606 0.321113 0.8 0 0
0.555439 0.565050 0.803868 0.8 0 0
0.166960 0.184638 0.172513 0.8 0 0
0.187449 0.565050 0.236831 0.8 0 0
0.363004 0.349995 0.220611 0.8 0 0
0.076735 0.565050 0.760388 0.8 0 0
0.513629 0.481987 0.220611 0.8 0 0
0.046574 0.523613 0.092775 0.8 0 0
0.381644 0.523606 0.210490 0.8 0 0
0.133618 0.523606 0.864134 0.8 0 0
0.264445 0.523606 0.159129 0.8 0 0
0.109429 0.523606 0.317473 0.8 0 0
0.482084 0.565050 0.826438 0.8 0 0
0.289222 0.389619 0.220611 0.8 0 0
0.597131 0.537040 0.034858 0.8 0 0
0.118068 0.565050 0.433924 0.8 0 0
0.135413 0.565050 0.458502 0.8 0 0
0.339165 0.565050 0.817611 0.8 0 0
0.107018 0.227474 0.220611 0.8 0 0
0.175346 0.246730 0.172513 0.8 0 0
0.190910 0.253355 0.779075 0.8 0 0
0.234816 0.343103 0.827173 0.8 0 0
0.145436 0.192617 0.827173 0.8 0 0
0.145112 0.533906 0.031897 0.8 0 0
0.289792 0.419135 0.220611 0.8 0 0
0.261237 0.564082 0.956726 0.8 0 0
0.275682 0.565050 0.431195 0.8 0 0
0.183179 0.354554 0.779075 0.8 0 0
0.491070 0.152457 0.172513 0.8 0 0
0.479264 0.213583 0.827173 0.8 0 0
0.322890 0.523606 0.319851 0.8 0 0
0.183592 0.523606 0.779885 0.8 0 0
0.295181 0.565050 0.776385 0.8 0 0
0.204893 0.565050 0.340564 0.8 0 0
0.446692 0.294596 0.220611 0.8 0 0
0.126392 0.523606 0.111565 0.8 0 0
0.100837 0.523606 0.717685 0.8 0 0
0.396038 0.565050 0.800506 0.8 0 0
0.502592 0.523892 0.779075 0.8 0 0
0.289841 0.163869 0.220611 0.8 0 0
0.474405 0.523606 0.586196 0.8 0 0
0.113960 0.523606 0.297295 0.8 0 0
0.104216 0.515663 0.172513 0.8 0 0
0.526781 0.377697 0.172513 0.8 0 0
0.151813 0.535934 0.822316 0.8 0 0
0.122979 0.535934 0.814838 0.8 0 0
0.547905 0.115564 0.786679 0.8 0 0
0.085842 0.050073 0.198850 0.8 0 0
0.206981 0.565050 0.427102 0.8 0 0
0.599039 0.542468 0.513562 0.8 0 0
0.100396 0.523606 0.922931 0.8 0 0
0.153576 0.303303 0.827173 0.8 0 0
0.450981 0.565050 0.121793 0.8 0 0
0.125495 0.239933 0.220611 0.8 0 0
0.139108 0.565050 0.158283 0.8 0 0
0.575137 0.523606 0.583962 0.8 0 0
0.337148 0.565050 0.434144 0.8 0 0
0.085842 0.432444 0.194271 0.8 0 0
0.332164 0.523606 0.532229 0.8 0 0
0.210592 0.565050 0.819488 0.8 0 0
0.420926 0.201346 0.177862 0.8 0 0
0.198319 0.523606 0.297799 0.8 0 0
0.203850 0.565050 0.547222 0.8 0 0
0.202814 0.523606 0.841461 0.8 0 0
0.423685 0.523606 0.135808 0.8 0 0
0.504484 0.523606 0.720568 0.8 0 0
0.547905 0.135881 0.186922 0.8 0 0
0.455979 0.104700 0.220611 0.8 0 0
0.499360 0.523606 0.268886 0.8 0 0
0.457241 0.246020 0.779075 0.8 0 0
0.204372 0.350624 0.220611 0.8 0 0
0.136768 0.503158 0.779075 0.8 0 0
0.229876 0.565050 0.714261 0.8 0 0
0.259986 0.532678 0.033582 0.8 0 0
0.467531 0.036975 0.779075 0.8 0 0
0.412618 0.382431 0.827173 0.8 0 0
0.280430 0.565050 0.181589 0.8 0 0
0.085842 0.394444 0.174850 0.8 0 0
0.218787 0.182614 0.779075 0.8 0 0
0.197901 0.435092 0.172513 0.8 0 0
0.151979 0.523606 0.351272 0.8 0 0
0.456082 0.535934 0.209922 0.8 0 0
0.420877 0.179201 0.190512 0.8 0 0
0.165692 0.323679 0.827173 0.8 0 0
0.356028 0.562567 0.962012 0.8 0 0
0.136110 0.485647 0.220611 0.8 0 0
0.375308 0.523606 0.600402 0.8 0 0
0.141465 0.529166 0.039753 0.8 0 0
0.201866 0.534787 0.972845 0.8 0 0
0.388860 0.390415 0.172513 0.8 0 0
0.203005 0.565050 0.458272 0.8 0 0
0.162786 0.523606 0.234123 0.8 0 0
0.463879 0.329403 0.827173 0.8 0 0
0.254553 0.523606 0.913062 0.8 0 0
0.125205 0.410629 0.827173 0.8 0 0
0.446409 0.535934 0.204670 0.8 0 0
0.135427 0.096679 0.172513 0.8 0 0
0.444983 0.528725 0.040792 0.8 0 0
0.543845 0.267236 0.779075 0.8 0 0
0.197300 0.249094 0.827173 0.8 0 0
0.316806 0.523606 0.275957 0.8 0 0
0.220771 0.523606 0.159226 0.8 0 0
0.119241 0.407433 0.172513 0.8 0 0
0.227557 0.170974 0.220611 0.8 0 0
0.564542 0.565050 0.699911 0.8 0 0
0.280631 0.565050 0.216614 0.8 0 0
0.280613 0.565050 0.392593 0.8 0 0
0.283994 0.531831 0.969250 0.8 0 0
0.439045 0.565050 0.830637 0.8 0 0
0.599284 0.548160 0.052811 0.8 0 0
0.219875 0.215507 0.183270 0.8 0 0
0.321426 0.523606 0.529320 0.8 0 0
0.378409 0.565050 0.293857 0.8 0 0
0.504410 0.504125 0.220611 0.8 0 0
0.142802 0.565050 0.932115 0.8 0 0
0.547905 0.186574 0.213377 0.8 0 0
0.043038 0.565050 0.162951 0.8 0 0
0.540632 0.565050 0.478359 0.8 0 0
0.589955 0.561527 0.814096 0.8 0 0
0.095786 0.565050 0.450704 0.8 0 0
0.204127 0.523606 0.230604 0.8 0 0
0.085842 0.049746 0.789572 0.8 0 0
0.226210 0.523606 0.122678 0.8 0 0
0.362609 0.523606 0.570302 0.8 0 0
0.590198 0.561365 0.440885 0.8 0 0
0.126550 0.565050 0.789841 0.8 0 0
0.324525 0.557328 0.972177 0.8 0 0
0.179584 0.258063 0.827173 0.8 0 0
0.305138 0.379094 0.779075 0.8 0 0
0.183924 0.179104 0.172513 0.8 0 0
0.102445 0.465158 0.220611 0.8 0 0
0.107951 0.233992 0.827173 0.8 0 0
0.547905 0.122440 0.205612 0.8 0 0
0.361372 0.312688 0.173429 0.8 0 0
0.196126 0.523606 0.641337 0.8 0 0
0.170135 0.191248 0.827173 0.8 0 0
0.565498 0.565050 0.066445 0.8 0 0
0.026026 0.539046 0.686449 0.8 0 0
0.227227 0.523606 0.388663 0.8 0 0
0.595733 0.534610 0.869436 0.8 0 0
0.409338 0.560066 0.967991 0.8 0 0
0.037553 0.526271 0.463714 0.8 0 0
0.381871 0.523606 0.327339 0.8 0 0
0.058577 0.523606 0.897717 0.8 0 0
0.198731 0.505309 0.827173 0.8 0 0
0.399254 0.168027 0.827173 0.8 0 0
0.429556 0.118880 0.779075 0.8 0 0
0.204302 0.535934 0.821686 0.8 0 0
0.463604 0.462721 0.172513 0.8 0 0
0.119392 0.196943 0.220611 0.8 0 0
0.499913 0.355665 0.827173 0.8 0 0
0.198726 0.523606 0.748123 0.8 0 0
0.268560 0.565050 0.238908 0.8 0 0
0.264795 0.436969 0.179324 0.8 0 0
0.059638 0.565050 0.190655 0.8 0 0
0.130436 0.513932 0.172513 0.8 0 0
0.404238 0.523606 0.208443 0.8 0 0
0.353965 0.526204 0.047542 0.8 0 0
0.173612 0.127451 0.779075 0.8 0 0
0.420926 0.303180 0.220047 0.8 0 0
0.528600 0.565050 0.772785 0.8 0 0
0.517985 0.523606 0.433748 0.8 0 0
0.123187 0.565050 0.638220 0.8 0 0
0.425628 0.565050 0.346994 0.8 0 0
0.416746 0.523606 0.128020 0.8 0 0
0.352610 0.360839 0.779075 0.8 0 0
0.432700 0.526938 0.045253 0.8 0 0
0.432765 0.565050 0.321930 0.8 0 0
0.033499 0.562044 0.268546 0.8 0 0
0.330786 0.565050 0.091482 0.8 0 0
0.440282 0.115923 0.172513 0.8 0 0
0.097447 0.080417 0.779075 0.8 0 0
0.494431 0.533678 0.779075 0.8 0 0
0.537317 0.565050 0.896476 0.8 0 0
0.471810 0.025000 0.808907 0.8 0 0
0.096397 0.523606 0.581443 0.8 0 0
0.085842 0.042698 0.811954 0.8 0 0
0.137779 0.495798 0.220611 0.8 0 0
0.474883 0.565050 0.080668 0.8 0 0
0.332783 0.524389 0.948343 0.8 0 0
0.455016 0.308591 0.827173 0.8 0 0
