0.048165 0.325837 0.364648 0.8 0 0
0.655276 0.314729 0.366021 0.8 0 0
0.602398 0.306288 0.388058 0.8 0 0
0.172891 0.325837 0.195100 0.8 0 0
0.572438 0.325837 0.909796 0.8 0 0
0.555013 0.351352 0.872192 0.8 0 0
0.257376 0.325837 0.107832 0.8 0 0
0.124734 0.351352 0.618217 0.8 0 0
0.534226 0.351352 0.033582 0.8 0 0
0.678735 0.312182 0.702536 0.8 0 0
0.040627 0.351352 0.140825 0.8 0 0
0.315383 0.324867 0.334225 0.8 0 0
0.203188 0.325837 0.746567 0.8 0 0
0.738015 0.331789 0.025000 0.8 0 0
0.025000 0.326402 0.698614 0.8 0 0
0.824500 0.325837 0.346731 0.8 0 0
0.025000 0.349374 0.130765 0.8 0 0
0.733242 0.298016 0.287363 0.8 0 0
0.340787 0.325837 0.092611 0.8 0 0
0.717923 0.325837 0.385929 0.8 0 0
0.036133 0.351352 0.651849 0.8 0 0
0.589302 0.298016 0.427653 0.8 0 0
0.281352 0.325837 0.312519 0.8 0 0
0.861900 0.351352 0.027609 0.8 0 0
0.838010 0.351352 0.929337 0.8 0 0
0.210524 0.325837 0.176486 0.8 0 0
0.796638 0.325837 0.544054 0.8 0 0
0.170129 0.122781 0.191924 0.8 0 0
0.193918 0.324867 0.795747 0.8 0 0
0.845867 0.351352 0.291674 0.8 0 0
0.560116 0.325837 0.676144 0.8 0 0
0.121893 0.325837 0.266769 0.8 0 0
0.665043 0.299755 0.325634 0.8 0 0
0.575764 0.324867 0.441876 0.8 0 0
0.803364 0.325837 0.382450 0.8 0 0
0.178382 0.065431 0.200177 0.8 0 0
0.876048 0.351352 0.224092 0.8 0 0
0.258200 0.318052 0.761569 0.8 0 0
0.676753 0.325837 0.159555 0.8 0 0
0.512771 0.325837 0.619261 0.8 0 0
0.063589 0.325837 0.722910 0.8 0 0
0.062487 0.351352 0.219250 0.8 0 0
0.247895 0.325837 0.886631 0.8 0 0
0.086116 0.351352 0.388393 0.8 0 0
0.308171 0.351352 0.834096 0.8 0 0
0.678499 0.298016 0.323940 0.8 0 0
0.751264 0.351352 0.840271 0.8 0 0
0.456236 0.351352 0.852216 0.8 0 0
0.190341 0.176198 0.181580 0.8 0 0
0.580759 0.325837 0.336612 0.8 0 0
0.333887 0.325837 0.849433 0.8 0 0
0.373955 0.325837 0.869989 0.8 0 0
0.374145 0.324867 0.616274 0.8 0 0
0.564987 0.325837 0.138187 0.8 0 0
0.330118 0.325837 0.195505 0.8 0 0
0.664460 0.351352 0.945515 0.8 0 0
0.866249 0.351352 0.192287 0.8 0 0
0.282570 0.325837 0.551679 0.8 0 0
0.882601 0.325837 0.612970 0.8 0 0
0.310722 0.351352 0.888370 0.8 0 0
0.837328 0.051547 0.833613 0.8 0 0
0.878513 0.351352 0.844620 0.8 0 0
0.060690 0.351352 0.888051 0.8 0 0
0.648486 0.325837 0.823978 0.8 0 0
0.500333 0.351352 0.165585 0.8 0 0
0.199999 0.351352 0.465194 0.8 0 0
0.353312 0.325837 0.343455 0.8 0 0
0.316607 0.351352 0.190113 0.8 0 0
0.427533 0.351352 0.426576 0.8 0 0
0.802407 0.351352 0.905128 0.8 0 0
0.939658 0.351352 0.764572 0.8 0 0
0.950385 0.325837 0.370968 0.8 0 0
0.871033 0.325837 0.919073 0.8 0 0
0.165979 0.071708 0.822910 0.8 0 0
0.962707 0.351352 0.708993 0.8 0 0
0.818643 0.325837 0.158917 0.8 0 0
0.725838 0.351352 0.172804 0.8 0 0
0.369722 0.351352 0.659677 0.8 0 0
0.875642 0.325837 0.039032 0.8 0 0
0.160192 0.351352 0.062487 0.8 0 0
0.179646 0.098064 0.201441 0.8 0 0
0.297066 0.351352 0.271234 0.8 0 0
0.173632 0.152395 0.166315 0.8 0 0
0.357690 0.351352 0.277178 0.8 0 0
0.708882 0.324867 0.722514 0.8 0 0
0.036481 0.325837 0.397729 0.8 0 0
0.786316 0.351352 0.942818 0.8 0 0
0.794347 0.325837 0.560667 0.8 0 0
0.242646 0.309075 0.777064 0.8 0 0
0.346470 0.351352 0.467369 0.8 0 0
0.695309 0.351352 0.449133 0.8 0 0
0.288195 0.325837 0.275641 0.8 0 0
0.432665 0.351352 0.862741 0.8 0 0
0.312867 0.351352 0.616913 0.8 0 0
0.196085 0.351352 0.060284 0.8 0 0
0.631844 0.351352 0.675217 0.8 0 0
0.975000 0.327740 0.155757 0.8 0 0
0.224672 0.342156 0.025000 0.8 0 0
0.648978 0.325837 0.575453 0.8 0 0
0.168484 0.330597 0.025000 0.8 0 0
0.707485 0.325837 0.866133 0.8 0 0
0.395902 0.351352 0.152886 0.8 0 0
0.958909 0.325837 0.221628 0.8 0 0
0.053616 0.351352 0.410572 0.8 0 0
0.093915 0.351352 0.645760 0.8 0 0
0.271988 0.351352 0.416110 0.8 0 0
0.811275 0.261200 0.180095 0.8 0 0
0.371461 0.325837 0.787157 0.8 0 0
0.611752 0.325837 0.971637 0.8 0 0
0.353950 0.351352 0.445103 0.8 0 0
0.569800 0.351352 0.739551 0.8 0 0
0.072432 0.351352 0.924234 0.8 0 0
0.754518 0.298016 0.763572 0.8 0 0
0.491027 0.351352 0.945949 0.8 0 0
0.045962 0.325837 0.219714 0.8 0 0
0.956387 0.351352 0.650399 0.8 0 0
0.640310 0.325837 0.908781 0.8 0 0
0.603141 0.351352 0.770921 0.8 0 0
0.373520 0.325837 0.863611 0.8 0 0
0.888312 0.325837 0.652660 0.8 0 0
0.493491 0.351352 0.193737 0.8 0 0
0.553883 0.351352 0.409007 0.8 0 0
0.672723 0.325837 0.734970 0.8 0 0
0.334554 0.351352 0.772023 0.8 0 0
0.424663 0.351352 0.851811 0.8 0 0
0.086725 0.351352 0.661503 0.8 0 0
0.311969 0.325837 0.548548 0.8 0 0
0.584615 0.325837 0.877672 0.8 0 0
0.187069 0.325837 0.341222 0.8 0 0
0.659938 0.325837 0.175472 0.8 0 0
0.746364 0.325837 0.862625 0.8 0 0
0.593950 0.325837 0.947486 0.8 0 0
0.194607 0.325837 0.681305 0.8 0 0
0.757150 0.325837 0.541039 0.8 0 0
0.161961 0.325837 0.829660 0.8 0 0
0.252481 0.298016 0.743770 0.8 0 0
0.158341 0.263935 0.831424 0.8 0 0
0.693569 0.351352 0.551534 0.8 0 0
0.736188 0.351352 0.567799 0.8 0 0
0.826297 0.351352 0.116443 0.8 0 0
0.189511 0.298016 0.816878 0.8 0 0
0.039467 0.325837 0.507379 0.8 0 0
0.506277 0.351352 0.519903 0.8 0 0
0.714995 0.325837 0.628771 0.8 0 0
0.661909 0.351352 0.368794 0.8 0 0
0.829022 0.351352 0.760397 0.8 0 0
0.965317 0.351352 0.026914 0.8 0 0
0.259744 0.318561 0.251283 0.8 0 0
0.403063 0.325837 0.246503 0.8 0 0
0.405876 0.325837 0.425388 0.8 0 0
0.380971 0.343086 0.025000 0.8 0 0
0.894575 0.325837 0.646920 0.8 0 0
0.440145 0.351352 0.408688 0.8 0 0
0.163772 0.257043 0.185567 0.8 0 0
0.549041 0.351352 0.955952 0.8 0 0
0.838518 0.090897 0.183476 0.8 0 0
0.860624 0.325837 0.900808 0.8 0 0
0.426663 0.351352 0.586731 0.8 0 0
0.725461 0.325837 0.642252 0.8 0 0
0.186105 0.191978 0.833466 0.8 0 0
0.266218 0.351352 0.356385 0.8 0 0
0.858856 0.344393 0.975000 0.8 0 0
0.872627 0.325837 0.279932 0.8 0 0
0.086522 0.351352 0.154800 0.8 0 0
0.946442 0.351352 0.675362 0.8 0 0
0.957836 0.351352 0.585050 0.8 0 0
0.660401 0.351352 0.255172 0.8 0 0
0.053906 0.325837 0.527789 0.8 0 0
0.726981 0.322630 0.750968 0.8 0 0
0.778807 0.351352 0.367692 0.8 0 0
0.601489 0.351352 0.274945 0.8 0 0
0.428693 0.351352 0.945689 0.8 0 0
0.407509 0.302669 0.430261 0.8 0 0
0.496651 0.325837 0.952502 0.8 0 0
0.643412 0.325837 0.075186 0.8 0 0
0.975000 0.345314 0.747002 0.8 0 0
0.833777 0.325837 0.660691 0.8 0 0
0.608621 0.325837 0.534197 0.8 0 0
0.483605 0.351352 0.254476 0.8 0 0
0.872859 0.351352 0.726302 0.8 0 0
0.974101 0.351352 0.336989 0.8 0 0
0.804147 0.351352 0.252360 0.8 0 0
0.194684 0.207267 0.824172 0.8 0 0
0.257607 0.325837 0.215394 0.8 0 0
0.392510 0.351352 0.478705 0.8 0 0
0.692931 0.325837 0.597169 0.8 0 0
0.968477 0.325837 0.453104 0.8 0 0
0.606910 0.325837 0.372331 0.8 0 0
0.747204 0.298016 0.760577 0.8 0 0
0.064807 0.325837 0.165063 0.8 0 0
0.057472 0.351352 0.210640 0.8 0 0
0.509959 0.351352 0.497289 0.8 0 0
0.386885 0.351352 0.343947 0.8 0 0
0.583165 0.325837 0.102410 0.8 0 0
0.037264 0.351352 0.699252 0.8 0 0
0.805190 0.325837 0.434462 0.8 0 0
0.607548 0.325837 0.804118 0.8 0 0
0.025000 0.326938 0.755352 0.8 0 0
0.213666 0.305462 0.205042 0.8 0 0
0.039786 0.351352 0.140014 0.8 0 0
0.263725 0.351352 0.867351 0.8 0 0
0.173616 0.351352 0.263870 0.8 0 0
0.578613 0.351352 0.475342 0.8 0 0
0.541967 0.351352 0.157960 0.8 0 0
0.540372 0.351352 0.660981 0.8 0 0
0.469920 0.351352 0.516569 0.8 0 0
0.883267 0.351352 0.330031 0.8 0 0
0.210312 0.298016 0.784381 0.8 0 0
0.372157 0.351352 0.157989 0.8 0 0
0.597082 0.325837 0.086580 0.8 0 0
0.726070 0.325837 0.101743 0.8 0 0
0.199680 0.325837 0.294341 0.8 0 0
0.970680 0.351352 0.358328 0.8 0 0
0.736681 0.325837 0.567248 0.8 0 0
0.521188 0.299262 0.513653 0.8 0 0
0.293065 0.325837 0.587340 0.8 0 0
0.204464 0.325837 0.791303 0.8 0 0
0.355399 0.325837 0.220207 0.8 0 0
0.107977 0.325837 0.066633 0.8 0 0
0.164106 0.325837 0.959489 0.8 0 0
0.305126 0.351352 0.730766 0.8 0 0
0.030393 0.325837 0.606736 0.8 0 0
0.476675 0.332195 0.025000 0.8 0 0
0.076346 0.351352 0.965809 0.8 0 0
0.077506 0.351352 0.744480 0.8 0 0
0.824768 0.170062 0.818358 0.8 0 0
0.554376 0.351352 0.791100 0.8 0 0
0.631738 0.302212 0.358821 0.8 0 0
0.882688 0.325837 0.204638 0.8 0 0
0.302575 0.325837 0.966070 0.8 0 0
0.193814 0.297374 0.189766 0.8 0 0
0.851927 0.325837 0.906867 0.8 0 0
0.470819 0.325837 0.887268 0.8 0 0
0.958619 0.351352 0.618072 0.8 0 0
0.410891 0.351352 0.931221 0.8 0 0
0.264015 0.325837 0.575279 0.8 0 0
0.347195 0.325837 0.498391 0.8 0 0
0.802117 0.351352 0.340903 0.8 0 0
0.243778 0.325837 0.063444 0.8 0 0
0.560620 0.298016 0.454331 0.8 0 0
0.376796 0.351352 0.717169 0.8 0 0
0.547388 0.351352 0.503407 0.8 0 0
0.950472 0.325837 0.607693 0.8 0 0
0.033031 0.351352 0.226962 0.8 0 0
0.245837 0.325837 0.738884 0.8 0 0
0.282747 0.324867 0.285462 0.8 0 0
0.916493 0.325837 0.118443 0.8 0 0
0.942354 0.351352 0.617261 0.8 0 0
0.142043 0.325837 0.676492 0.8 0 0
0.916551 0.325837 0.669592 0.8 0 0
0.551012 0.351352 0.943717 0.8 0 0
0.816381 0.324867 0.205435 0.8 0 0
0.273003 0.351352 0.045904 0.8 0 0
0.113949 0.325837 0.111340 0.8 0 0
0.800958 0.351352 0.580353 0.8 0 0
0.269525 0.321906 0.750287 0.8 0 0
0.524600 0.325837 0.405325 0.8 0 0
0.239429 0.351352 0.054717 0.8 0 0
0.183429 0.178235 0.174668 0.8 0 0
0.486330 0.351352 0.185387 0.8 0 0
0.178827 0.183847 0.200622 0.8 0 0
0.388132 0.325837 0.190026 0.8 0 0
0.173442 0.325837 0.424953 0.8 0 0
0.442957 0.325837 0.266073 0.8 0 0
0.555611 0.324867 0.557525 0.8 0 0
0.726128 0.351352 0.200405 0.8 0 0
0.918870 0.325837 0.568379 0.8 0 0
0.348267 0.325837 0.964563 0.8 0 0
0.550206 0.324867 0.564652 0.8 0 0
0.701745 0.351352 0.678087 0.8 0 0
0.787998 0.351352 0.791332 0.8 0 0
0.814442 0.292968 0.812874 0.8 0 0
0.409993 0.325837 0.158163 0.8 0 0
0.081883 0.325837 0.188460 0.8 0 0
0.359545 0.325837 0.150973 0.8 0 0
0.918928 0.325837 0.315071 0.8 0 0
0.316491 0.351352 0.389669 0.8 0 0
0.060748 0.325837 0.389843 0.8 0 0
0.665388 0.325837 0.530399 0.8 0 0
0.428432 0.325837 0.332321 0.8 0 0
0.336815 0.325837 0.600822 0.8 0 0
0.826959 0.264093 0.843982 0.8 0 0
0.844417 0.325837 0.118153 0.8 0 0
0.350036 0.351352 0.862712 0.8 0 0
0.487896 0.351352 0.895850 0.8 0 0
0.391681 0.300103 0.383688 0.8 0 0
0.183324 0.213644 0.836220 0.8 0 0
0.576004 0.325837 0.553419 0.8 0 0
0.872859 0.351352 0.074345 0.8 0 0
0.420923 0.351352 0.197390 0.8 0 0
0.975000 0.327840 0.183589 0.8 0 0
0.025000 0.335636 0.112297 0.8 0 0
0.957054 0.351352 0.041439 0.8 0 0
0.955836 0.351352 0.086638 0.8 0 0
0.754337 0.325837 0.501754 0.8 0 0
0.770312 0.325837 0.037032 0.8 0 0
0.778621 0.305652 0.771998 0.8 0 0
0.836444 0.325837 0.734362 0.8 0 0
0.941079 0.325837 0.788810 0.8 0 0
0.724156 0.325837 0.667505 0.8 0 0
0.955923 0.351352 0.453510 0.8 0 0
0.656111 0.325837 0.575743 0.8 0 0
0.855551 0.351352 0.182720 0.8 0 0
0.394754 0.320842 0.625541 0.8 0 0
0.719459 0.351352 0.665620 0.8 0 0
0.343947 0.325837 0.320695 0.8 0 0
0.223425 0.351352 0.851898 0.8 0 0
0.296940 0.307570 0.319265 0.8 0 0
0.077245 0.325837 0.177472 0.8 0 0
0.837546 0.325837 0.414457 0.8 0 0
0.390712 0.325837 0.174602 0.8 0 0
0.608563 0.351352 0.629785 0.8 0 0
0.381203 0.351352 0.958416 0.8 0 0
0.162396 0.325837 0.274307 0.8 0 0
0.533240 0.325837 0.198202 0.8 0 0
0.925800 0.351352 0.602358 0.8 0 0
0.424605 0.325837 0.507466 0.8 0 0
0.044686 0.325837 0.974739 0.8 0 0
0.385117 0.325837 0.408050 0.8 0 0
0.948037 0.351352 0.349195 0.8 0 0
0.025000 0.325837 0.612941 0.8 0 0
0.780895 0.325837 0.248475 0.8 0 0
0.281671 0.305677 0.707653 0.8 0 0
0.345542 0.325837 0.147668 0.8 0 0
0.547069 0.325837 0.097684 0.8 0 0
0.057472 0.351352 0.459599 0.8 0 0
0.363083 0.325837 0.134766 0.8 0 0
0.738739 0.351352 0.745350 0.8 0 0
0.814149 0.325837 0.438260 0.8 0 0
0.168083 0.025000 0.188893 0.8 0 0
0.312085 0.351352 0.642600 0.8 0 0
0.805712 0.351352 0.253607 0.8 0 0
0.342324 0.325837 0.695946 0.8 0 0
0.817514 0.115689 0.841816 0.8 0 0
0.708558 0.351352 0.869061 0.8 0 0
0.083565 0.325837 0.350297 0.8 0 0
0.502334 0.351352 0.527934 0.8 0 0
0.345484 0.325837 0.492187 0.8 0 0
0.932497 0.325837 0.509785 0.8 0 0
0.677681 0.351352 0.412515 0.8 0 0
0.592269 0.351352 0.411848 0.8 0 0
0.936556 0.325837 0.061560 0.8 0 0
0.388161 0.351352 0.097394 0.8 0 0
0.584325 0.325837 0.654864 0.8 0 0
0.409964 0.325837 0.196549 0.8 0 0
0.358995 0.351352 0.834270 0.8 0 0
0.602619 0.325837 0.256042 0.8 0 0
0.148566 0.325837 0.778314 0.8 0 0
0.316028 0.351352 0.153263 0.8 0 0
0.229021 0.325837 0.513786 0.8 0 0
0.076114 0.333573 0.975000 0.8 0 0
0.491433 0.325837 0.945891 0.8 0 0
0.438173 0.325837 0.967027 0.8 0 0
0.066894 0.325837 0.026131 0.8 0 0
0.604765 0.351352 0.500217 0.8 0 0
0.288601 0.351352 0.737986 0.8 0 0
0.364706 0.351352 0.199825 0.8 0 0
0.644195 0.325837 0.344846 0.8 0 0
0.524078 0.325837 0.125894 0.8 0 0
0.709225 0.351352 0.267987 0.8 0 0
0.829343 0.309406 0.192624 0.8 0 0
0.053094 0.325837 0.491346 0.8 0 0
0.809684 0.040664 0.195581 0.8 0 0
0.491665 0.351352 0.859697 0.8 0 0
0.547301 0.351352 0.467804 0.8 0 0
0.145290 0.351352 0.217395 0.8 0 0
0.152219 0.351352 0.475284 0.8 0 0
0.583919 0.325837 0.581397 0.8 0 0
0.938150 0.351352 0.246851 0.8 0 0
0.437970 0.325837 0.343223 0.8 0 0
0.092263 0.351352 0.235051 0.8 0 0
0.817541 0.351352 0.060603 0.8 0 0
0.909564 0.351352 0.159149 0.8 0 0
0.586267 0.325837 0.446001 0.8 0 0
0.085247 0.351352 0.703166 0.8 0 0
0.882920 0.325837 0.182517 0.8 0 0
0.926437 0.325837 0.712356 0.8 0 0
0.474588 0.351352 0.459657 0.8 0 0
0.931192 0.325837 0.602010 0.8 0 0
0.227310 0.325837 0.625233 0.8 0 0
0.033408 0.325837 0.699136 0.8 0 0
0.439913 0.325837 0.663475 0.8 0 0
0.025000 0.329833 0.730390 0.8 0 0
0.411123 0.351352 0.056457 0.8 0 0
0.295944 0.324867 0.704998 0.8 0 0
0.893415 0.351352 0.719894 0.8 0 0
0.305561 0.325837 0.597662 0.8 0 0
0.326175 0.351352 0.086957 0.8 0 0
0.356870 0.324867 0.373303 0.8 0 0
0.853840 0.351352 0.032248 0.8 0 0
0.391205 0.351352 0.198695 0.8 0 0
0.658169 0.351352 0.587079 0.8 0 0
0.328494 0.325837 0.286078 0.8 0 0
0.696091 0.325837 0.616942 0.8 0 0
0.786316 0.325837 0.872047 0.8 0 0
0.104092 0.325837 0.846592 0.8 0 0
0.633728 0.325837 0.791390 0.8 0 0
0.496390 0.351352 0.913449 0.8 0 0
0.657067 0.325837 0.415820 0.8 0 0
0.841663 0.325837 0.581542 0.8 0 0
0.863379 0.325837 0.155612 0.8 0 0
0.975000 0.328604 0.400048 0.8 0 0
0.227165 0.325837 0.121835 0.8 0 0
0.689829 0.351352 0.298690 0.8 0 0
0.231804 0.325837 0.705195 0.8 0 0
0.718561 0.351352 0.233167 0.8 0 0
0.811167 0.324867 0.206186 0.8 0 0
0.931656 0.325837 0.665446 0.8 0 0
0.775963 0.324867 0.797325 0.8 0 0
0.677217 0.325837 0.597111 0.8 0 0
0.834328 0.325837 0.867959 0.8 0 0
0.137433 0.325837 0.090175 0.8 0 0
0.613057 0.351352 0.352674 0.8 0 0
0.172977 0.167227 0.846267 0.8 0 0
0.588007 0.325837 0.276656 0.8 0 0
0.560087 0.325837 0.274220 0.8 0 0
0.154829 0.325837 0.322899 0.8 0 0
0.598531 0.351352 0.251374 0.8 0 0
0.432984 0.351352 0.251403 0.8 0 0
0.769704 0.351352 0.251983 0.8 0 0
0.328088 0.351352 0.742509 0.8 0 0
0.856101 0.351352 0.447393 0.8 0 0
0.779851 0.325837 0.233370 0.8 0 0
0.161323 0.351352 0.644630 0.8 0 0
0.811635 0.123296 0.179731 0.8 0 0
0.498420 0.325837 0.090407 0.8 0 0
0.714908 0.351352 0.576671 0.8 0 0
0.591950 0.347429 0.975000 0.8 0 0
0.797884 0.351352 0.650689 0.8 0 0
0.794347 0.325837 0.698034 0.8 0 0
0.778083 0.303125 0.802267 0.8 0 0
0.202464 0.325837 0.352239 0.8 0 0
0.685828 0.325837 0.026885 0.8 0 0
0.217772 0.351352 0.476154 0.8 0 0
0.289151 0.325837 0.856623 0.8 0 0
0.305503 0.325837 0.791100 0.8 0 0
0.170543 0.325837 0.207653 0.8 0 0
0.248417 0.351352 0.140593 0.8 0 0
0.211132 0.351352 0.644398 0.8 0 0
0.800436 0.325837 0.578005 0.8 0 0
0.786200 0.325837 0.861552 0.8 0 0
0.155235 0.351352 0.807075 0.8 0 0
0.025000 0.331496 0.319217 0.8 0 0
0.492592 0.351352 0.879064 0.8 0 0
0.288224 0.351352 0.731375 0.8 0 0
0.824818 0.351352 0.956793 0.8 0 0
0.408195 0.351352 0.071620 0.8 0 0
0.590703 0.325837 0.118356 0.8 0 0
0.161291 0.157450 0.834416 0.8 0 0
0.770302 0.324867 0.793773 0.8 0 0
0.494912 0.351352 0.542460 0.8 0 0
0.466934 0.325837 0.898054 0.8 0 0
0.575366 0.351352 0.143580 0.8 0 0
0.141666 0.325837 0.123430 0.8 0 0
0.448890 0.298016 0.451436 0.8 0 0
0.441942 0.325837 0.205566 0.8 0 0
0.545243 0.351352 0.262333 0.8 0 0
0.535212 0.325837 0.517758 0.8 0 0
0.159700 0.325837 0.543040 0.8 0 0
0.711747 0.351352 0.182604 0.8 0 0
0.943369 0.325837 0.705746 0.8 0 0
0.458990 0.325837 0.255549 0.8 0 0
0.308518 0.325837 0.862973 0.8 0 0
0.905940 0.325837 0.305358 0.8 0 0
0.861494 0.325837 0.728012 0.8 0 0
0.690409 0.351352 0.103425 0.8 0 0
0.137665 0.351352 0.623349 0.8 0 0
0.833748 0.325837 0.223773 0.8 0 0
0.275931 0.351352 0.452380 0.8 0 0
0.134882 0.351352 0.569336 0.8 0 0
0.914058 0.351352 0.614042 0.8 0 0
0.274191 0.325837 0.394800 0.8 0 0
0.411297 0.325837 0.691742 0.8 0 0
0.826761 0.351352 0.150973 0.8 0 0
0.481140 0.351352 0.558116 0.8 0 0
0.167035 0.325837 0.517120 0.8 0 0
0.241923 0.351352 0.711921 0.8 0 0
0.967288 0.351352 0.065909 0.8 0 0
0.188924 0.351352 0.655328 0.8 0 0
0.952415 0.325837 0.235341 0.8 0 0
0.236124 0.351352 0.076897 0.8 0 0
0.619493 0.351352 0.380275 0.8 0 0
0.920175 0.351352 0.590964 0.8 0 0
0.816806 0.042676 0.174510 0.8 0 0
0.118501 0.351352 0.525209 0.8 0 0
0.322837 0.308789 0.314599 0.8 0 0
0.209654 0.325837 0.940093 0.8 0 0
0.824870 0.130829 0.196992 0.8 0 0
0.467630 0.351352 0.176515 0.8 0 0
0.556695 0.325837 0.159323 0.8 0 0
0.699484 0.325837 0.777532 0.8 0 0
0.764833 0.351352 0.653646 0.8 0 0
0.407093 0.325837 0.942905 0.8 0 0
0.696004 0.351352 0.742016 0.8 0 0
0.149204 0.351352 0.215655 0.8 0 0
0.975000 0.332479 0.623552 0.8 0 0
0.273495 0.325837 0.744712 0.8 0 0
0.065503 0.351352 0.484098 0.8 0 0
0.867264 0.351352 0.814990 0.8 0 0
0.887500 0.325837 0.594037 0.8 0 0
0.596850 0.325837 0.677739 0.8 0 0
0.261724 0.351352 0.499348 0.8 0 0
0.061299 0.351352 0.088581 0.8 0 0
0.910376 0.325837 0.268770 0.8 0 0
0.205160 0.325837 0.450118 0.8 0 0
0.396714 0.325837 0.110296 0.8 0 0
0.819487 0.148479 0.202323 0.8 0 0
0.135143 0.325837 0.167788 0.8 0 0
0.182205 0.289459 0.837329 0.8 0 0
0.070924 0.351352 0.716618 0.8 0 0
0.515236 0.325837 0.514511 0.8 0 0
0.289238 0.325837 0.604504 0.8 0 0
0.649587 0.351352 0.330350 0.8 0 0
0.039699 0.325837 0.781677 0.8 0 0
0.167875 0.351352 0.531703 0.8 0 0
0.889559 0.325837 0.106411 0.8 0 0
0.824615 0.325837 0.509930 0.8 0 0
0.497985 0.298016 0.502331 0.8 0 0
0.570785 0.325837 0.332872 0.8 0 0
0.765963 0.325837 0.701542 0.8 0 0
0.767674 0.351352 0.278337 0.8 0 0
0.504566 0.325837 0.671245 0.8 0 0
0.716186 0.309738 0.740131 0.8 0 0
0.387998 0.298016 0.604498 0.8 0 0
0.196781 0.325837 0.653037 0.8 0 0
0.830097 0.297424 0.174333 0.8 0 0
0.554086 0.351352 0.689423 0.8 0 0
0.467398 0.351352 0.935483 0.8 0 0
0.975000 0.336621 0.279816 0.8 0 0
0.156597 0.351352 0.725722 0.8 0 0
0.818295 0.351352 0.413588 0.8 0 0
0.321246 0.351352 0.497579 0.8 0 0
0.675507 0.351352 0.306402 0.8 0 0
0.331771 0.325837 0.934671 0.8 0 0
0.870540 0.351352 0.622450 0.8 0 0
0.041700 0.325837 0.946036 0.8 0 0
0.160404 0.107824 0.833517 0.8 0 0
0.783214 0.325837 0.538662 0.8 0 0
0.174186 0.321922 0.845260 0.8 0 0
0.809096 0.113693 0.182296 0.8 0 0
0.392815 0.324867 0.610900 0.8 0 0
0.704151 0.325837 0.893357 0.8 0 0
0.953719 0.325837 0.606185 0.8 0 0
0.174863 0.351352 0.918059 0.8 0 0
0.263058 0.351352 0.839344 0.8 0 0
0.865553 0.351352 0.084841 0.8 0 0
0.864625 0.351352 0.866626 0.8 0 0
0.401701 0.349810 0.025000 0.8 0 0
0.655299 0.351352 0.106904 0.8 0 0
0.677159 0.351352 0.404455 0.8 0 0
0.297182 0.325837 0.758773 0.8 0 0
0.229427 0.325837 0.369606 0.8 0 0
0.628220 0.351352 0.237255 0.8 0 0
0.858247 0.325837 0.108673 0.8 0 0
0.341077 0.351352 0.618014 0.8 0 0
0.906664 0.325837 0.730709 0.8 0 0
0.570901 0.325837 0.499580 0.8 0 0
0.647094 0.351352 0.363401 0.8 0 0
0.036133 0.351352 0.896198 0.8 0 0
0.810554 0.325837 0.146044 0.8 0 0
0.442439 0.322037 0.434625 0.8 0 0
0.363430 0.325837 0.492274 0.8 0 0
0.347079 0.325837 0.648486 0.8 0 0
0.871323 0.325837 0.318927 0.8 0 0
0.393061 0.351352 0.929743 0.8 0 0
0.291529 0.325837 0.932207 0.8 0 0
0.373491 0.325837 0.680203 0.8 0 0
0.535466 0.298016 0.462257 0.8 0 0
0.068953 0.325837 0.847404 0.8 0 0
0.025000 0.344261 0.632163 0.8 0 0
0.128040 0.351352 0.892748 0.8 0 0
0.403411 0.351352 0.046657 0.8 0 0
0.057559 0.325837 0.073389 0.8 0 0
0.784084 0.351352 0.614216 0.8 0 0
0.576120 0.325837 0.512568 0.8 0 0
0.325595 0.351352 0.707312 0.8 0 0
0.099627 0.351352 0.532254 0.8 0 0
0.572670 0.325837 0.942818 0.8 0 0
0.524038 0.298016 0.534809 0.8 0 0
0.735753 0.351352 0.719952 0.8 0 0
0.849201 0.325837 0.889588 0.8 0 0
0.219424 0.325837 0.777647 0.8 0 0
0.141492 0.325837 0.093538 0.8 0 0
0.895647 0.325837 0.601778 0.8 0 0
0.425938 0.351352 0.910173 0.8 0 0
0.104991 0.325837 0.075273 0.8 0 0
0.666806 0.322546 0.690560 0.8 0 0
0.538459 0.325837 0.102439 0.8 0 0
0.813105 0.325837 0.933135 0.8 0 0
0.510075 0.325837 0.613665 0.8 0 0
0.062140 0.351352 0.725490 0.8 0 0
0.650080 0.351352 0.220033 0.8 0 0
0.928960 0.325837 0.338439 0.8 0 0
0.526108 0.325837 0.375317 0.8 0 0
0.031465 0.351352 0.516076 0.8 0 0
0.214003 0.325837 0.368475 0.8 0 0
0.142681 0.325837 0.595719 0.8 0 0
0.485605 0.325837 0.415501 0.8 0 0
0.696903 0.351352 0.551592 0.8 0 0
0.685422 0.351352 0.535472 0.8 0 0
0.958271 0.351352 0.751815 0.8 0 0
0.764862 0.351352 0.769356 0.8 0 0
0.927046 0.325837 0.320695 0.8 0 0
0.399439 0.351352 0.192983 0.8 0 0
0.745089 0.325837 0.818121 0.8 0 0
0.172469 0.240390 0.194264 0.8 0 0
0.180719 0.325837 0.530573 0.8 0 0
0.832908 0.219846 0.175002 0.8 0 0
0.822702 0.351352 0.778227 0.8 0 0
0.389995 0.298016 0.384262 0.8 0 0
0.120125 0.330599 0.025000 0.8 0 0
0.935918 0.351352 0.327248 0.8 0 0
0.871410 0.325837 0.616681 0.8 0 0
0.857986 0.325837 0.849897 0.8 0 0
0.911332 0.325837 0.886950 0.8 0 0
0.539068 0.325837 0.670781 0.8 0 0
0.142188 0.351352 0.497579 0.8 0 0
0.686200 0.302668 0.679250 0.8 0 0
0.315245 0.351352 0.539821 0.8 0 0
0.820238 0.324867 0.827121 0.8 0 0
0.311650 0.325837 0.231746 0.8 0 0
0.361802 0.324867 0.656391 0.8 0 0
0.558580 0.351352 0.825427 0.8 0 0
0.217076 0.346350 0.025000 0.8 0 0
0.373839 0.325837 0.840387 0.8 0 0
0.858392 0.325837 0.543793 0.8 0 0
0.357922 0.351352 0.759498 0.8 0 0
0.806358 0.058381 0.830550 0.8 0 0
0.408514 0.325837 0.170746 0.8 0 0
0.664866 0.351352 0.796812 0.8 0 0
0.206088 0.351352 0.337105 0.8 0 0
0.888602 0.351352 0.153669 0.8 0 0
0.565277 0.351352 0.199187 0.8 0 0
0.345368 0.325837 0.847925 0.8 0 0
0.486620 0.325837 0.465020 0.8 0 0
0.572873 0.351352 0.513815 0.8 0 0
0.451278 0.325837 0.954618 0.8 0 0
0.826577 0.130446 0.844364 0.8 0 0
0.105976 0.325837 0.607925 0.8 0 0
0.242299 0.351352 0.498478 0.8 0 0
0.135549 0.325837 0.638918 0.8 0 0
0.323914 0.325837 0.515033 0.8 0 0
0.405035 0.325837 0.810844 0.8 0 0
0.807684 0.351352 0.808583 0.8 0 0
0.313650 0.351352 0.665765 0.8 0 0
0.593893 0.325837 0.773444 0.8 0 0
0.928061 0.351352 0.851637 0.8 0 0
0.701629 0.325837 0.502566 0.8 0 0
0.778923 0.351352 0.801392 0.8 0 0
0.763325 0.325837 0.930583 0.8 0 0
0.971753 0.351352 0.867640 0.8 0 0
0.255607 0.325837 0.088349 0.8 0 0
0.087537 0.351352 0.369055 0.8 0 0
0.585630 0.351352 0.918580 0.8 0 0
0.098090 0.351352 0.515062 0.8 0 0
0.359777 0.325837 0.103135 0.8 0 0
0.601141 0.325837 0.312490 0.8 0 0
0.816535 0.288919 0.174783 0.8 0 0
0.320898 0.351352 0.213162 0.8 0 0
0.475027 0.299680 0.545576 0.8 0 0
0.487722 0.325837 0.661822 0.8 0 0
0.470732 0.351352 0.973695 0.8 0 0
0.386972 0.325837 0.545330 0.8 0 0
0.529819 0.351352 0.309417 0.8 0 0
0.786664 0.351352 0.961692 0.8 0 0
0.108702 0.351352 0.742219 0.8 0 0
0.915884 0.351352 0.128388 0.8 0 0
0.180719 0.325837 0.728853 0.8 0 0
0.273611 0.325837 0.886341 0.8 0 0
0.509933 0.298016 0.491942 0.8 0 0
0.908839 0.325837 0.757701 0.8 0 0
0.462884 0.315471 0.485851 0.8 0 0
0.911332 0.325837 0.080869 0.8 0 0
0.654077 0.298016 0.674675 0.8 0 0
0.942093 0.351352 0.609519 0.8 0 0
0.578179 0.351352 0.832096 0.8 0 0
0.857580 0.351352 0.631235 0.8 0 0
0.409007 0.351352 0.898344 0.8 0 0
0.794055 0.322587 0.787487 0.8 0 0
0.948994 0.325837 0.812815 0.8 0 0
0.331510 0.327839 0.025000 0.8 0 0
0.187243 0.351352 0.291007 0.8 0 0
0.368910 0.325837 0.417850 0.8 0 0
0.415443 0.351352 0.759846 0.8 0 0
0.419792 0.325837 0.527210 0.8 0 0
0.341425 0.325837 0.037438 0.8 0 0
0.127547 0.325837 0.564668 0.8 0 0
0.737460 0.308228 0.284153 0.8 0 0
0.201768 0.351352 0.101048 0.8 0 0
0.454621 0.298016 0.477107 0.8 0 0
0.723982 0.351352 0.397845 0.8 0 0
0.828356 0.325837 0.816701 0.8 0 0
0.026131 0.325837 0.259550 0.8 0 0
0.701368 0.351352 0.258854 0.8 0 0
0.549360 0.325837 0.360096 0.8 0 0
0.568350 0.325837 0.461831 0.8 0 0
0.794985 0.351352 0.634685 0.8 0 0
0.770805 0.351352 0.592501 0.8 0 0
0.740160 0.325837 0.372969 0.8 0 0
0.460150 0.325837 0.945515 0.8 0 0
0.685857 0.351352 0.434317 0.8 0 0
0.629843 0.351352 0.170398 0.8 0 0
0.800668 0.351352 0.865727 0.8 0 0
0.322928 0.325837 0.244735 0.8 0 0
0.167035 0.351352 0.312693 0.8 0 0
0.834145 0.175549 0.176239 0.8 0 0
0.469949 0.351352 0.941253 0.8 0 0
0.624828 0.325837 0.056863 0.8 0 0
0.381029 0.351352 0.772284 0.8 0 0
0.689163 0.298016 0.309684 0.8 0 0
0.151118 0.325837 0.109687 0.8 0 0
0.409319 0.303982 0.580455 0.8 0 0
0.176399 0.325837 0.231746 0.8 0 0
0.490505 0.351352 0.106846 0.8 0 0
0.527326 0.351352 0.204464 0.8 0 0
0.101569 0.351352 0.877527 0.8 0 0
0.464035 0.351352 0.944123 0.8 0 0
0.317912 0.351352 0.855638 0.8 0 0
0.211045 0.351352 0.964302 0.8 0 0
0.197303 0.325837 0.438811 0.8 0 0
0.401817 0.351352 0.510017 0.8 0 0
0.257942 0.309699 0.249474 0.8 0 0
0.063299 0.325837 0.788839 0.8 0 0
0.112761 0.351352 0.559565 0.8 0 0
0.276801 0.351352 0.879440 0.8 0 0
0.394221 0.325837 0.934787 0.8 0 0
0.433824 0.351352 0.961403 0.8 0 0
0.975000 0.328218 0.516279 0.8 0 0
0.369896 0.351352 0.822209 0.8 0 0
0.849317 0.351352 0.930438 0.8 0 0
0.736817 0.324495 0.254113 0.8 0 0
0.260420 0.325837 0.946065 0.8 0 0
0.956474 0.351352 0.240589 0.8 0 0
0.870743 0.351352 0.564262 0.8 0 0
0.350935 0.351352 0.302082 0.8 0 0
0.959576 0.325837 0.423561 0.8 0 0
0.501145 0.351352 0.841837 0.8 0 0
0.815367 0.351352 0.369374 0.8 0 0
0.972594 0.325837 0.626567 0.8 0 0
0.181614 0.074959 0.202138 0.8 0 0
0.544141 0.351352 0.535675 0.8 0 0
0.975000 0.339403 0.386914 0.8 0 0
0.208842 0.325837 0.928757 0.8 0 0
0.671245 0.351352 0.770660 0.8 0 0
0.667679 0.351352 0.500044 0.8 0 0
0.703050 0.351352 0.412167 0.8 0 0
0.554637 0.325837 0.824818 0.8 0 0
0.179609 0.280621 0.809280 0.8 0 0
0.135114 0.325837 0.613752 0.8 0 0
0.606272 0.325837 0.250417 0.8 0 0
0.741320 0.325837 0.462092 0.8 0 0
0.816527 0.325837 0.083217 0.8 0 0
0.973058 0.351352 0.238588 0.8 0 0
0.420082 0.325837 0.819281 0.8 0 0
0.045150 0.351352 0.922610 0.8 0 0
0.025000 0.336744 0.184923 0.8 0 0
0.901127 0.325837 0.908665 0.8 0 0
0.395911 0.298016 0.406316 0.8 0 0
0.835575 0.351352 0.648630 0.8 0 0
0.266334 0.351352 0.935454 0.8 0 0
0.599546 0.351352 0.097018 0.8 0 0
0.387059 0.351352 0.949342 0.8 0 0
0.057153 0.345485 0.975000 0.8 0 0
0.569191 0.325837 0.513467 0.8 0 0
0.606794 0.325837 0.487606 0.8 0 0
0.338349 0.298016 0.349636 0.8 0 0
0.926843 0.325837 0.537850 0.8 0 0
0.553448 0.351352 0.522136 0.8 0 0
0.666780 0.325837 0.027928 0.8 0 0
0.508901 0.318014 0.511833 0.8 0 0
0.634395 0.351352 0.156800 0.8 0 0
0.794057 0.325837 0.587920 0.8 0 0
0.230280 0.298016 0.770170 0.8 0 0
0.125140 0.325837 0.964476 0.8 0 0
0.372418 0.325837 0.677478 0.8 0 0
0.204319 0.351352 0.492245 0.8 0 0
0.820357 0.223222 0.170924 0.8 0 0
0.441855 0.325837 0.953285 0.8 0 0
0.189156 0.351352 0.607780 0.8 0 0
0.420522 0.324867 0.413359 0.8 0 0
0.867293 0.351352 0.862886 0.8 0 0
0.790433 0.351352 0.252244 0.8 0 0
0.278038 0.324867 0.298757 0.8 0 0
0.188955 0.157666 0.180194 0.8 0 0
0.653298 0.351352 0.827805 0.8 0 0
0.042222 0.351352 0.445972 0.8 0 0
0.831935 0.298016 0.838193 0.8 0 0
0.831400 0.351352 0.482416 0.8 0 0
0.896430 0.351352 0.599401 0.8 0 0
0.381029 0.351352 0.839315 0.8 0 0
0.205015 0.325837 0.769819 0.8 0 0
0.376308 0.307472 0.368260 0.8 0 0
0.025000 0.330809 0.886167 0.8 0 0
0.087218 0.325837 0.627002 0.8 0 0
0.634627 0.351352 0.862799 0.8 0 0
0.468065 0.351352 0.716734 0.8 0 0
0.052340 0.325837 0.252969 0.8 0 0
0.854159 0.351352 0.537705 0.8 0 0
0.871844 0.325837 0.478415 0.8 0 0
0.533211 0.325837 0.651124 0.8 0 0
0.087450 0.351352 0.468876 0.8 0 0
0.765645 0.351352 0.724968 0.8 0 0
0.358618 0.325837 0.956445 0.8 0 0
0.088494 0.351352 0.176747 0.8 0 0
0.760020 0.325837 0.493607 0.8 0 0
0.243749 0.338262 0.975000 0.8 0 0
0.775502 0.325837 0.729114 0.8 0 0
0.771849 0.351352 0.659242 0.8 0 0
0.350616 0.325837 0.484301 0.8 0 0
0.649355 0.351352 0.822267 0.8 0 0
0.567480 0.351352 0.385784 0.8 0 0
0.781098 0.351352 0.391089 0.8 0 0
0.779300 0.351352 0.737783 0.8 0 0
0.081188 0.325837 0.070141 0.8 0 0
0.853550 0.325837 0.571133 0.8 0 0
0.408311 0.351352 0.132128 0.8 0 0
0.386856 0.351352 0.507698 0.8 0 0
0.598299 0.325837 0.267378 0.8 0 0
0.810731 0.290956 0.196628 0.8 0 0
0.111021 0.325837 0.758628 0.8 0 0
0.437159 0.325837 0.926322 0.8 0 0
0.940151 0.325837 0.930641 0.8 0 0
0.486156 0.325837 0.179299 0.8 0 0
0.490708 0.351352 0.088146 0.8 0 0
0.652226 0.325837 0.225861 0.8 0 0
0.378652 0.325837 0.467340 0.8 0 0
0.522484 0.351352 0.258100 0.8 0 0
0.730703 0.298016 0.274595 0.8 0 0
0.812120 0.325837 0.483605 0.8 0 0
0.263609 0.351352 0.199680 0.8 0 0
0.609230 0.325837 0.102236 0.8 0 0
0.235805 0.348391 0.975000 0.8 0 0
0.971028 0.351352 0.961634 0.8 0 0
0.025000 0.346124 0.061415 0.8 0 0
0.270364 0.351352 0.592936 0.8 0 0
0.167325 0.351352 0.606939 0.8 0 0
0.549969 0.325837 0.428838 0.8 0 0
0.457221 0.351352 0.796522 0.8 0 0
0.951545 0.351352 0.411703 0.8 0 0
0.042019 0.351352 0.147001 0.8 0 0
0.551128 0.325837 0.698092 0.8 0 0
0.573482 0.351352 0.042193 0.8 0 0
0.162698 0.080371 0.184493 0.8 0 0
0.590529 0.325837 0.432317 0.8 0 0
0.162886 0.290440 0.176911 0.8 0 0
0.896981 0.351352 0.917711 0.8 0 0
0.557507 0.351352 0.844562 0.8 0 0
0.123227 0.325837 0.319768 0.8 0 0
0.192954 0.325837 0.883528 0.8 0 0
0.375781 0.351352 0.539763 0.8 0 0
0.182952 0.351352 0.298719 0.8 0 0
0.780439 0.298016 0.223554 0.8 0 0
0.166076 0.319449 0.187896 0.8 0 0
0.525528 0.325837 0.821136 0.8 0 0
0.589080 0.325837 0.328900 0.8 0 0
0.947399 0.325837 0.439971 0.8 0 0
0.371113 0.351352 0.465194 0.8 0 0
0.135723 0.325837 0.640020 0.8 0 0
0.208987 0.325837 0.197361 0.8 0 0
0.331510 0.325837 0.931772 0.8 0 0
0.632290 0.324867 0.362389 0.8 0 0
0.879846 0.325837 0.565741 0.8 0 0
0.119777 0.325837 0.556434 0.8 0 0
0.882833 0.351352 0.686988 0.8 0 0
0.846940 0.325837 0.424663 0.8 0 0
0.808881 0.302353 0.802365 0.8 0 0
0.320058 0.325837 0.756744 0.8 0 0
0.823132 0.324867 0.823862 0.8 0 0
0.162715 0.351352 0.902200 0.8 0 0
0.101048 0.325837 0.809104 0.8 0 0
0.320463 0.351352 0.418806 0.8 0 0
0.572496 0.351352 0.593632 0.8 0 0
0.195969 0.351352 0.363662 0.8 0 0
0.406484 0.325837 0.423909 0.8 0 0
0.873323 0.351352 0.890342 0.8 0 0
0.883354 0.325837 0.389785 0.8 0 0
0.356008 0.325837 0.920755 0.8 0 0
0.185619 0.325837 0.497753 0.8 0 0
0.818556 0.325837 0.853289 0.8 0 0
0.344469 0.325837 0.416458 0.8 0 0
0.037757 0.325837 0.242821 0.8 0 0
0.134070 0.325837 0.128967 0.8 0 0
0.190295 0.264484 0.193334 0.8 0 0
0.745263 0.351352 0.133693 0.8 0 0
0.055761 0.351352 0.672578 0.8 0 0
0.463455 0.325837 0.906085 0.8 0 0
0.038626 0.325837 0.879759 0.8 0 0
0.770863 0.351352 0.506480 0.8 0 0
0.241314 0.351352 0.847983 0.8 0 0
0.245601 0.324867 0.747869 0.8 0 0
0.805190 0.325837 0.288253 0.8 0 0
0.428519 0.351352 0.638802 0.8 0 0
0.700614 0.351352 0.103338 0.8 0 0
0.355313 0.351352 0.794057 0.8 0 0
0.855290 0.325837 0.247112 0.8 0 0
0.206841 0.325837 0.924495 0.8 0 0
0.378710 0.351352 0.807539 0.8 0 0
0.660401 0.325837 0.241894 0.8 0 0
0.499377 0.351352 0.395612 0.8 0 0
0.732332 0.351352 0.102932 0.8 0 0
0.557913 0.325837 0.914145 0.8 0 0
0.621493 0.325837 0.455337 0.8 0 0
0.406102 0.321459 0.398160 0.8 0 0
0.339367 0.325837 0.300401 0.8 0 0
0.759411 0.325837 0.385494 0.8 0 0
0.468442 0.351352 0.198086 0.8 0 0
0.486214 0.325837 0.464789 0.8 0 0
0.776372 0.351352 0.568292 0.8 0 0
0.025000 0.348623 0.031059 0.8 0 0
0.261637 0.325837 0.358415 0.8 0 0
0.341722 0.316922 0.364221 0.8 0 0
0.581629 0.325837 0.195911 0.8 0 0
0.694961 0.325837 0.098583 0.8 0 0
0.553941 0.351352 0.685045 0.8 0 0
0.341425 0.351352 0.521788 0.8 0 0
0.121574 0.325837 0.841663 0.8 0 0
0.515294 0.351352 0.420546 0.8 0 0
0.838706 0.351352 0.345049 0.8 0 0
0.332524 0.351352 0.574380 0.8 0 0
0.571713 0.325837 0.477342 0.8 0 0
0.027696 0.325837 0.594269 0.8 0 0
0.837300 0.204731 0.179394 0.8 0 0
0.243235 0.299770 0.776476 0.8 0 0
0.162599 0.325837 0.327364 0.8 0 0
0.793390 0.325837 0.202580 0.8 0 0
0.685654 0.325837 0.208813 0.8 0 0
0.154365 0.351352 0.738768 0.8 0 0
0.312288 0.325837 0.313505 0.8 0 0
0.694729 0.325837 0.115167 0.8 0 0
0.963316 0.325837 0.413849 0.8 0 0
0.779474 0.325837 0.864944 0.8 0 0
0.964302 0.325837 0.483750 0.8 0 0
0.741610 0.351352 0.250214 0.8 0 0
0.958387 0.325837 0.735405 0.8 0 0
0.282570 0.325837 0.918957 0.8 0 0
0.311099 0.325837 0.394250 0.8 0 0
0.269871 0.351352 0.237951 0.8 0 0
0.621783 0.351352 0.036684 0.8 0 0
0.801218 0.351352 0.215568 0.8 0 0
0.942818 0.325837 0.261811 0.8 0 0
0.874048 0.351352 0.830182 0.8 0 0
0.121632 0.332711 0.975000 0.8 0 0
0.219279 0.351352 0.387900 0.8 0 0
0.774255 0.351352 0.080086 0.8 0 0
0.650950 0.351352 0.925307 0.8 0 0
0.680368 0.298016 0.681948 0.8 0 0
0.958909 0.333963 0.975000 0.8 0 0
0.090581 0.351352 0.638106 0.8 0 0
0.753526 0.325837 0.539444 0.8 0 0
0.339106 0.325837 0.025232 0.8 0 0
0.222613 0.325837 0.682494 0.8 0 0
0.647935 0.325837 0.385320 0.8 0 0
0.835749 0.351352 0.781243 0.8 0 0
0.922118 0.351352 0.753439 0.8 0 0
0.533356 0.325837 0.124879 0.8 0 0
0.431302 0.325837 0.516134 0.8 0 0
0.766091 0.324867 0.241350 0.8 0 0
0.492187 0.325837 0.666751 0.8 0 0
0.423300 0.351352 0.288659 0.8 0 0
0.524339 0.325837 0.381957 0.8 0 0
0.365953 0.325837 0.408833 0.8 0 0
0.347088 0.298016 0.658927 0.8 0 0
0.590993 0.325837 0.953922 0.8 0 0
0.855319 0.351352 0.197796 0.8 0 0
0.932120 0.351352 0.450785 0.8 0 0
0.164033 0.264551 0.824856 0.8 0 0
0.915768 0.334407 0.975000 0.8 0 0
0.796870 0.325837 0.736304 0.8 0 0
0.514946 0.351352 0.137636 0.8 0 0
0.204377 0.311338 0.226345 0.8 0 0
0.751119 0.343093 0.025000 0.8 0 0
0.135433 0.351352 0.666171 0.8 0 0
0.373868 0.351352 0.074258 0.8 0 0
0.532660 0.351352 0.412544 0.8 0 0
0.128532 0.325837 0.350326 0.8 0 0
0.780648 0.324867 0.236061 0.8 0 0
0.827631 0.325837 0.419067 0.8 0 0
0.078462 0.325837 0.892980 0.8 0 0
0.488452 0.298016 0.523690 0.8 0 0
0.704731 0.325837 0.079999 0.8 0 0
0.210292 0.351352 0.378130 0.8 0 0
0.170543 0.325837 0.422053 0.8 0 0
0.132968 0.325837 0.257839 0.8 0 0
0.405847 0.325837 0.560696 0.8 0 0
0.515439 0.325837 0.800059 0.8 0 0
0.221309 0.325837 0.649210 0.8 0 0
0.254331 0.325837 0.580585 0.8 0 0
0.725809 0.325837 0.888747 0.8 0 0
0.815976 0.351352 0.620711 0.8 0 0
0.719005 0.324867 0.740599 0.8 0 0
0.170566 0.164575 0.169339 0.8 0 0
0.343020 0.351352 0.360560 0.8 0 0
0.127141 0.351352 0.139579 0.8 0 0
0.622412 0.324867 0.620126 0.8 0 0
0.027406 0.329168 0.025000 0.8 0 0
0.758106 0.351352 0.952241 0.8 0 0
0.957141 0.351352 0.859378 0.8 0 0
0.080173 0.325837 0.232964 0.8 0 0
0.564378 0.351352 0.703339 0.8 0 0
0.929105 0.351352 0.110035 0.8 0 0
0.883644 0.351352 0.747031 0.8 0 0
0.051035 0.338213 0.975000 0.8 0 0
0.600822 0.351352 0.326407 0.8 0 0
0.311737 0.325837 0.227252 0.8 0 0
0.297878 0.325837 0.818672 0.8 0 0
0.041381 0.325837 0.155931 0.8 0 0
0.177486 0.304806 0.811470 0.8 0 0
0.172895 0.297424 0.834062 0.8 0 0
0.930670 0.351352 0.613694 0.8 0 0
0.975000 0.341759 0.611607 0.8 0 0
0.435651 0.351352 0.108789 0.8 0 0
0.577483 0.325837 0.468036 0.8 0 0
0.740653 0.351352 0.196201 0.8 0 0
0.398656 0.325837 0.698121 0.8 0 0
0.218062 0.351352 0.341773 0.8 0 0
0.814961 0.351352 0.520193 0.8 0 0
0.378594 0.325837 0.552259 0.8 0 0
0.199130 0.325837 0.627408 0.8 0 0
0.975000 0.334134 0.338323 0.8 0 0
0.444465 0.351352 0.196752 0.8 0 0
0.060748 0.339975 0.975000 0.8 0 0
0.324319 0.325837 0.695743 0.8 0 0
0.861407 0.325837 0.974971 0.8 0 0
0.631583 0.325837 0.964969 0.8 0 0
0.881905 0.351352 0.238820 0.8 0 0
0.496680 0.351352 0.576033 0.8 0 0
0.683306 0.351352 0.219917 0.8 0 0
0.325247 0.351352 0.796319 0.8 0 0
0.939426 0.325837 0.087914 0.8 0 0
0.758222 0.351352 0.599865 0.8 0 0
0.434259 0.325837 0.095394 0.8 0 0
0.127025 0.325837 0.394800 0.8 0 0
0.887240 0.351352 0.355313 0.8 0 0
0.407586 0.325837 0.362242 0.8 0 0
0.818081 0.028633 0.203716 0.8 0 0
0.832874 0.194389 0.826464 0.8 0 0
0.736478 0.325837 0.643557 0.8 0 0
0.592122 0.324867 0.586565 0.8 0 0
0.206204 0.325837 0.700237 0.8 0 0
0.025000 0.349280 0.877672 0.8 0 0
0.343947 0.351352 0.868655 0.8 0 0
0.697976 0.351352 0.548664 0.8 0 0
0.750887 0.351352 0.367257 0.8 0 0
0.456004 0.351352 0.215568 0.8 0 0
0.798319 0.325837 0.320637 0.8 0 0
0.908897 0.325837 0.826297 0.8 0 0
0.382201 0.298016 0.619582 0.8 0 0
0.448205 0.325837 0.912811 0.8 0 0
0.606678 0.325837 0.589486 0.8 0 0
0.206465 0.325837 0.144391 0.8 0 0
0.589167 0.325837 0.533472 0.8 0 0
0.323421 0.325837 0.367460 0.8 0 0
0.763267 0.325837 0.197129 0.8 0 0
0.696323 0.351352 0.694410 0.8 0 0
0.552143 0.351352 0.828587 0.8 0 0
0.401469 0.325837 0.139115 0.8 0 0
0.109310 0.325837 0.183184 0.8 0 0
0.688147 0.325837 0.232819 0.8 0 0
0.093683 0.351352 0.382305 0.8 0 0
0.339425 0.351352 0.576381 0.8 0 0
0.612334 0.324867 0.628506 0.8 0 0
0.306286 0.325837 0.324812 0.8 0 0
0.419067 0.351352 0.697077 0.8 0 0
0.127837 0.325837 0.824963 0.8 0 0
0.444552 0.325837 0.940644 0.8 0 0
0.402656 0.298016 0.409699 0.8 0 0
0.174254 0.325837 0.661706 0.8 0 0
0.943601 0.325837 0.163903 0.8 0 0
0.974768 0.351352 0.073476 0.8 0 0
0.963664 0.351352 0.097018 0.8 0 0
0.192171 0.351352 0.454583 0.8 0 0
0.759092 0.325837 0.240560 0.8 0 0
0.659880 0.351352 0.634830 0.8 0 0
0.922987 0.351352 0.221280 0.8 0 0
0.796725 0.351352 0.334177 0.8 0 0
0.734649 0.322091 0.727870 0.8 0 0
0.828413 0.351352 0.800030 0.8 0 0
0.172253 0.351352 0.289557 0.8 0 0
0.045991 0.351352 0.536603 0.8 0 0
0.192374 0.351352 0.730564 0.8 0 0
0.603982 0.325837 0.060400 0.8 0 0
0.747466 0.351352 0.789650 0.8 0 0
0.804178 0.271202 0.822996 0.8 0 0
0.541938 0.325837 0.733608 0.8 0 0
0.710617 0.351352 0.192664 0.8 0 0
0.181269 0.260510 0.810756 0.8 0 0
0.512858 0.325837 0.912463 0.8 0 0
0.122183 0.351352 0.750945 0.8 0 0
0.814468 0.351352 0.948617 0.8 0 0
0.244880 0.351352 0.703803 0.8 0 0
0.182506 0.251747 0.201234 0.8 0 0
0.625147 0.325837 0.815918 0.8 0 0
0.243547 0.323934 0.745643 0.8 0 0
0.277873 0.325837 0.365402 0.8 0 0
0.945457 0.351352 0.260043 0.8 0 0
0.389292 0.325837 0.610621 0.8 0 0
0.125633 0.325837 0.583977 0.8 0 0
0.251461 0.325837 0.462730 0.8 0 0
0.272974 0.351352 0.820267 0.8 0 0
0.347340 0.325837 0.665533 0.8 0 0
0.405963 0.351352 0.389495 0.8 0 0
0.383261 0.351352 0.533878 0.8 0 0
0.550549 0.351352 0.648341 0.8 0 0
0.051209 0.351352 0.828761 0.8 0 0
0.776952 0.351352 0.956387 0.8 0 0
0.711486 0.325837 0.034655 0.8 0 0
0.290514 0.351352 0.495637 0.8 0 0
0.810090 0.325837 0.492737 0.8 0 0
0.025319 0.351352 0.650660 0.8 0 0
0.719372 0.351352 0.124416 0.8 0 0
0.513380 0.325837 0.337105 0.8 0 0
0.394163 0.325837 0.438840 0.8 0 0
0.248968 0.351352 0.839605 0.8 0 0
0.167875 0.325837 0.881470 0.8 0 0
0.451945 0.325837 0.649036 0.8 0 0
0.168349 0.126797 0.190144 0.8 0 0
0.701786 0.324867 0.290879 0.8 0 0
0.377492 0.351352 0.228441 0.8 0 0
0.037148 0.351352 0.630742 0.8 0 0
0.483953 0.351352 0.301328 0.8 0 0
0.404252 0.351352 0.156075 0.8 0 0
0.385726 0.324506 0.377712 0.8 0 0
0.614477 0.325837 0.093944 0.8 0 0
0.353080 0.325837 0.575975 0.8 0 0
0.266160 0.351352 0.474472 0.8 0 0
0.692206 0.351352 0.734622 0.8 0 0
0.784055 0.325837 0.385668 0.8 0 0
0.516395 0.325837 0.759730 0.8 0 0
0.971869 0.325837 0.104875 0.8 0 0
0.914550 0.351352 0.503697 0.8 0 0
0.786548 0.351352 0.954676 0.8 0 0
0.930004 0.325837 0.236820 0.8 0 0
0.931047 0.351352 0.452409 0.8 0 0
0.750684 0.325837 0.440725 0.8 0 0
0.174254 0.231885 0.196049 0.8 0 0
0.071388 0.325837 0.102265 0.8 0 0
0.509466 0.325837 0.517323 0.8 0 0
0.207015 0.328625 0.025000 0.8 0 0
0.156626 0.351352 0.317999 0.8 0 0
0.720445 0.351352 0.320029 0.8 0 0
0.217359 0.298016 0.778994 0.8 0 0
0.962997 0.351352 0.949863 0.8 0 0
0.836676 0.351352 0.295356 0.8 0 0
0.174370 0.351352 0.719749 0.8 0 0
0.289702 0.325837 0.385494 0.8 0 0
0.270770 0.351352 0.357052 0.8 0 0
0.498536 0.326256 0.975000 0.8 0 0
0.470616 0.325837 0.564842 0.8 0 0
0.794753 0.351352 0.202696 0.8 0 0
0.300546 0.325837 0.121835 0.8 0 0
0.804640 0.325837 0.640194 0.8 0 0
0.822296 0.351352 0.674028 0.8 0 0
0.975000 0.335536 0.621203 0.8 0 0
0.054456 0.351352 0.179125 0.8 0 0
0.058863 0.351352 0.947399 0.8 0 0
0.863408 0.325837 0.334728 0.8 0 0
0.583529 0.299421 0.406860 0.8 0 0
0.291152 0.325837 0.863002 0.8 0 0
0.566292 0.325837 0.301444 0.8 0 0
0.396598 0.325837 0.825369 0.8 0 0
0.044802 0.351352 0.933077 0.8 0 0
0.411871 0.298016 0.595991 0.8 0 0
0.271147 0.351352 0.433882 0.8 0 0
0.025000 0.338166 0.329712 0.8 0 0
0.813048 0.297424 0.183249 0.8 0 0
0.655879 0.325837 0.864625 0.8 0 0
0.602097 0.351352 0.362416 0.8 0 0
0.635874 0.351352 0.519874 0.8 0 0
0.455047 0.325837 0.466441 0.8 0 0
0.683567 0.351352 0.659213 0.8 0 0
0.818904 0.325837 0.403121 0.8 0 0
0.090349 0.351352 0.840532 0.8 0 0
0.579686 0.351352 0.566147 0.8 0 0
0.941977 0.325837 0.038105 0.8 0 0
0.675159 0.351352 0.760165 0.8 0 0
0.254302 0.351352 0.587804 0.8 0 0
0.143957 0.351352 0.139289 0.8 0 0
0.901098 0.351352 0.881528 0.8 0 0
0.391060 0.351352 0.025261 0.8 0 0
0.749989 0.325837 0.320434 0.8 0 0
0.288572 0.351352 0.336554 0.8 0 0
0.758020 0.351352 0.296892 0.8 0 0
0.645307 0.298016 0.667048 0.8 0 0
0.766891 0.325837 0.586731 0.8 0 0
0.092089 0.351352 0.119110 0.8 0 0
0.389872 0.351352 0.593371 0.8 0 0
0.664957 0.298016 0.678770 0.8 0 0
0.335598 0.351352 0.966882 0.8 0 0
0.198521 0.325837 0.594124 0.8 0 0
0.025000 0.343592 0.954444 0.8 0 0
0.169325 0.351352 0.632192 0.8 0 0
0.744274 0.298016 0.253262 0.8 0 0
0.166310 0.351352 0.589689 0.8 0 0
0.139463 0.325837 0.618536 0.8 0 0
0.888022 0.325837 0.645644 0.8 0 0
0.239545 0.325837 0.742074 0.8 0 0
0.964041 0.325837 0.305619 0.8 0 0
0.416400 0.325837 0.725316 0.8 0 0
0.393467 0.351352 0.858624 0.8 0 0
0.656951 0.325837 0.921509 0.8 0 0
0.968332 0.325837 0.457946 0.8 0 0
0.140275 0.325837 0.906404 0.8 0 0
0.116704 0.351352 0.232616 0.8 0 0
0.896198 0.351352 0.750278 0.8 0 0
0.231978 0.325837 0.515931 0.8 0 0
0.852448 0.345537 0.025000 0.8 0 0
0.342237 0.351352 0.080724 0.8 0 0
0.287383 0.351352 0.832096 0.8 0 0
0.181241 0.282193 0.838283 0.8 0 0
0.717401 0.325837 0.304865 0.8 0 0
0.623314 0.298016 0.616859 0.8 0 0
0.465734 0.298016 0.527206 0.8 0 0
0.408572 0.351352 0.463774 0.8 0 0
0.169905 0.325837 0.420082 0.8 0 0
0.527933 0.309669 0.492875 0.8 0 0
0.155032 0.325837 0.220294 0.8 0 0
0.709921 0.351352 0.846244 0.8 0 0
0.335105 0.344848 0.025000 0.8 0 0
0.469456 0.351352 0.354559 0.8 0 0
0.717749 0.351352 0.265059 0.8 0 0
0.381435 0.351352 0.316404 0.8 0 0
0.754511 0.325837 0.276453 0.8 0 0
0.759121 0.325837 0.723663 0.8 0 0
0.852477 0.351352 0.871265 0.8 0 0
0.642977 0.325837 0.668200 0.8 0 0
0.555970 0.351352 0.089480 0.8 0 0
0.943050 0.325837 0.717517 0.8 0 0
0.570553 0.351352 0.627350 0.8 0 0
0.527818 0.351352 0.301995 0.8 0 0
0.549911 0.325837 0.797594 0.8 0 0
0.177994 0.325837 0.186895 0.8 0 0
0.651878 0.351352 0.494477 0.8 0 0
0.454479 0.323235 0.477413 0.8 0 0
0.192222 0.104531 0.821710 0.8 0 0
0.166107 0.325837 0.899677 0.8 0 0
0.337134 0.325837 0.218207 0.8 0 0
0.328103 0.323610 0.319884 0.8 0 0
0.947921 0.351352 0.531385 0.8 0 0
0.038134 0.351352 0.835053 0.8 0 0
0.506973 0.351352 0.495202 0.8 0 0
0.103947 0.351352 0.524948 0.8 0 0
0.711573 0.351352 0.569510 0.8 0 0
0.041903 0.351352 0.638773 0.8 0 0
0.106730 0.325837 0.940992 0.8 0 0
0.063444 0.351352 0.829399 0.8 0 0
0.277931 0.325837 0.082724 0.8 0 0
0.930844 0.351352 0.908926 0.8 0 0
0.461657 0.325837 0.706123 0.8 0 0
0.808651 0.297424 0.827952 0.8 0 0
0.835430 0.325837 0.266972 0.8 0 0
0.717227 0.325837 0.836097 0.8 0 0
0.821658 0.351352 0.273785 0.8 0 0
0.852158 0.325837 0.076491 0.8 0 0
0.431592 0.325837 0.420343 0.8 0 0
0.026421 0.351352 0.636164 0.8 0 0
0.921712 0.325837 0.954502 0.8 0 0
0.835920 0.313391 0.829501 0.8 0 0
0.927713 0.325837 0.057878 0.8 0 0
0.552868 0.325837 0.737058 0.8 0 0
0.796957 0.351352 0.669795 0.8 0 0
0.752772 0.351352 0.445334 0.8 0 0
0.192487 0.218832 0.183726 0.8 0 0
0.502334 0.325837 0.324174 0.8 0 0
0.732912 0.325837 0.342440 0.8 0 0
0.520627 0.324867 0.520009 0.8 0 0
0.829370 0.351352 0.045846 0.8 0 0
0.830936 0.351352 0.324001 0.8 0 0
0.810005 0.231170 0.817250 0.8 0 0
0.392394 0.351352 0.186141 0.8 0 0
0.418081 0.325837 0.484706 0.8 0 0
0.092988 0.325837 0.642339 0.8 0 0
0.972536 0.325837 0.435680 0.8 0 0
0.270190 0.351352 0.520077 0.8 0 0
0.336235 0.336259 0.975000 0.8 0 0
0.620711 0.325837 0.730650 0.8 0 0
0.339048 0.351352 0.834502 0.8 0 0
0.820003 0.195902 0.171282 0.8 0 0
0.266334 0.351352 0.877701 0.8 0 0
0.134447 0.325837 0.751728 0.8 0 0
0.481024 0.351352 0.911883 0.8 0 0
0.836560 0.267618 0.178654 0.8 0 0
0.886631 0.351352 0.532921 0.8 0 0
0.620189 0.325837 0.402367 0.8 0 0
0.371867 0.351352 0.802262 0.8 0 0
0.252563 0.325837 0.750250 0.8 0 0
0.116762 0.325837 0.156162 0.8 0 0
0.078520 0.351352 0.608853 0.8 0 0
0.746017 0.351352 0.833052 0.8 0 0
0.366098 0.325837 0.744509 0.8 0 0
0.461715 0.325837 0.778401 0.8 0 0
0.570843 0.325837 0.797391 0.8 0 0
0.090871 0.351352 0.795188 0.8 0 0
0.142304 0.351352 0.718966 0.8 0 0
0.367460 0.325837 0.907302 0.8 0 0
0.516859 0.351352 0.525122 0.8 0 0
0.782460 0.351352 0.631264 0.8 0 0
0.618594 0.325837 0.474617 0.8 0 0
0.293924 0.309774 0.725982 0.8 0 0
0.322841 0.325837 0.675130 0.8 0 0
0.520599 0.351352 0.295443 0.8 0 0
0.417734 0.325837 0.799218 0.8 0 0
0.319043 0.351352 0.066111 0.8 0 0
0.431505 0.351352 0.513873 0.8 0 0
0.044367 0.325837 0.874860 0.8 0 0
0.678290 0.325837 0.739464 0.8 0 0
0.893560 0.351352 0.049325 0.8 0 0
0.698875 0.325837 0.189330 0.8 0 0
0.708993 0.351352 0.341599 0.8 0 0
0.974072 0.351352 0.645905 0.8 0 0
0.175964 0.351352 0.113746 0.8 0 0
0.624190 0.325837 0.872598 0.8 0 0
0.161613 0.325837 0.204580 0.8 0 0
0.092060 0.351352 0.407963 0.8 0 0
0.632076 0.325837 0.738623 0.8 0 0
0.220439 0.351352 0.702267 0.8 0 0
0.807564 0.300543 0.801044 0.8 0 0
0.667128 0.351352 0.233950 0.8 0 0
0.744016 0.325837 0.757990 0.8 0 0
0.943717 0.351352 0.849781 0.8 0 0
0.630771 0.351352 0.033814 0.8 0 0
0.739174 0.325837 0.167759 0.8 0 0
0.302546 0.351352 0.369287 0.8 0 0
0.860595 0.325837 0.666780 0.8 0 0
0.403237 0.351352 0.211161 0.8 0 0
0.830762 0.325837 0.102903 0.8 0 0
0.078375 0.351352 0.248794 0.8 0 0
0.165287 0.299128 0.823627 0.8 0 0
0.945718 0.325837 0.046831 0.8 0 0
0.105309 0.351352 0.192142 0.8 0 0
0.465397 0.325837 0.055355 0.8 0 0
0.823927 0.030895 0.847014 0.8 0 0
0.399083 0.298016 0.591323 0.8 0 0
0.617116 0.351352 0.888138 0.8 0 0
0.403962 0.325837 0.680406 0.8 0 0
0.452728 0.350052 0.025000 0.8 0 0
0.374825 0.351352 0.592385 0.8 0 0
0.631032 0.325837 0.636628 0.8 0 0
0.322348 0.325837 0.174544 0.8 0 0
0.362184 0.325837 0.923393 0.8 0 0
0.557130 0.325837 0.803306 0.8 0 0
0.971173 0.325837 0.564059 0.8 0 0
0.648833 0.351352 0.528659 0.8 0 0
0.290108 0.351352 0.657183 0.8 0 0
0.838126 0.351352 0.603895 0.8 0 0
0.482735 0.351352 0.702035 0.8 0 0
0.183849 0.241679 0.813336 0.8 0 0
0.804524 0.325837 0.189533 0.8 0 0
0.057733 0.325837 0.550491 0.8 0 0
0.430626 0.298016 0.424069 0.8 0 0
0.934352 0.351352 0.587891 0.8 0 0
0.568466 0.351352 0.600967 0.8 0 0
0.252534 0.325837 0.677594 0.8 0 0
0.034886 0.351352 0.485228 0.8 0 0
0.132273 0.325837 0.422111 0.8 0 0
0.029610 0.351352 0.382798 0.8 0 0
0.748887 0.351352 0.474414 0.8 0 0
0.509959 0.325837 0.899184 0.8 0 0
0.913043 0.325837 0.327103 0.8 0 0
0.171586 0.351352 0.058689 0.8 0 0
0.310867 0.351352 0.146044 0.8 0 0
0.901533 0.325837 0.357371 0.8 0 0
0.449712 0.325837 0.461019 0.8 0 0
0.578758 0.325837 0.202812 0.8 0 0
0.478502 0.351352 0.698991 0.8 0 0
0.171644 0.351352 0.480242 0.8 0 0
0.192424 0.302460 0.827092 0.8 0 0
0.863118 0.325837 0.956822 0.8 0 0
0.275235 0.343413 0.025000 0.8 0 0
0.848534 0.351352 0.167788 0.8 0 0
0.416487 0.351352 0.051557 0.8 0 0
0.188054 0.351352 0.595893 0.8 0 0
