0.799437 0.759984 0.563239 0.8 0 0
0.395163 0.598070 0.032654 0.8 0 0
0.488494 0.969180 0.178738 0.8 0 0
0.473567 0.523004 0.033063 0.8 0 0
0.089015 0.373583 0.298079 0.8 0 0
0.247913 0.642640 0.092359 0.8 0 0
0.265184 0.105142 0.653653 0.8 0 0
0.324443 0.306730 0.809782 0.8 0 0
0.098180 0.587509 0.697731 0.8 0 0
0.835507 0.539439 0.257420 0.8 0 0
0.247543 0.611736 0.087592 0.8 0 0
0.598772 0.561664 0.867006 0.8 0 0
0.190459 0.235081 0.683116 0.8 0 0
0.487795 0.025000 0.507495 0.8 0 0
0.395945 0.025000 0.439823 0.8 0 0
0.402548 0.799753 0.796073 0.8 0 0
0.881721 0.635721 0.421556 0.8 0 0
0.782447 0.198603 0.446052 0.8 0 0
0.333588 0.033272 0.277830 0.8 0 0
0.301495 0.144087 0.712174 0.8 0 0
0.068965 0.698171 0.351272 0.8 0 0
0.493836 0.155513 0.762760 0.8 0 0
0.232167 0.051381 0.542306 0.8 0 0
0.282288 0.407841 0.091173 0.8 0 0
0.133717 0.744170 0.651192 0.8 0 0
0.826984 0.428938 0.279974 0.8 0 0
0.241306 0.907259 0.256188 0.8 0 0
0.583929 0.232879 0.784277 0.8 0 0
0.637235 0.025000 0.559864 0.8 0 0
0.235875 0.088745 0.329039 0.8 0 0
0.228020 0.831595 0.257257 0.8 0 0
0.724056 0.388118 0.154723 0.8 0 0
0.783912 0.458980 0.717980 0.8 0 0
0.339196 0.366022 0.836156 0.8 0 0
0.645582 0.892051 0.239538 0.8 0 0
0.231554 0.727900 0.151777 0.8 0 0
0.820463 0.674950 0.272319 0.8 0 0
0.861833 0.677914 0.395551 0.8 0 0
0.115041 0.727357 0.286812 0.8 0 0
0.469431 0.880714 0.168855 0.8 0 0
0.732618 0.972485 0.412285 0.8 0 0
0.762549 0.845792 0.428056 0.8 0 0
0.836571 0.730303 0.480070 0.8 0 0
0.062427 0.432723 0.350176 0.8 0 0
0.729736 0.326574 0.193698 0.8 0 0
0.371363 0.801627 0.786190 0.8 0 0
0.029286 0.616835 0.509691 0.8 0 0
0.229882 0.054717 0.541558 0.8 0 0
0.090132 0.290747 0.475030 0.8 0 0
0.648496 0.919094 0.228222 0.8 0 0
0.348756 0.337164 0.089708 0.8 0 0
0.548081 0.746822 0.109969 0.8 0 0
0.124086 0.711721 0.689062 0.8 0 0
0.616013 0.480352 0.068316 0.8 0 0
0.468651 0.638688 0.036963 0.8 0 0
0.600537 0.888637 0.208694 0.8 0 0
0.319102 0.443472 0.068430 0.8 0 0
0.865142 0.616292 0.584817 0.8 0 0
0.832385 0.704770 0.600936 0.8 0 0
0.687402 0.162799 0.661956 0.8 0 0
0.525980 0.025000 0.377227 0.8 0 0
0.521407 0.965690 0.177963 0.8 0 0
0.109360 0.395626 0.661833 0.8 0 0
0.178919 0.180252 0.312863 0.8 0 0
0.103810 0.306378 0.582662 0.8 0 0
0.459752 0.603215 0.888424 0.8 0 0
0.722700 0.224085 0.247160 0.8 0 0
0.197698 0.559024 0.109721 0.8 0 0
0.832015 0.731847 0.404901 0.8 0 0
0.089680 0.367324 0.302849 0.8 0 0
0.853302 0.403769 0.370919 0.8 0 0
0.717689 0.965405 0.329006 0.8 0 0
0.054558 0.598492 0.307431 0.8 0 0
0.211933 0.210885 0.234165 0.8 0 0
0.161501 0.878972 0.520380 0.8 0 0
0.170196 0.204567 0.626998 0.8 0 0
0.764312 0.841544 0.448623 0.8 0 0
0.883164 0.523771 0.407194 0.8 0 0
0.149191 0.820165 0.388004 0.8 0 0
0.096261 0.667077 0.671401 0.8 0 0
0.337243 0.025000 0.374340 0.8 0 0
0.335198 0.966538 0.746742 0.8 0 0
0.558013 0.706055 0.852444 0.8 0 0
0.578764 0.664948 0.065566 0.8 0 0
0.686932 0.085657 0.354697 0.8 0 0
0.248768 0.541690 0.084347 0.8 0 0
0.428944 0.805926 0.140775 0.8 0 0
0.203284 0.083047 0.506990 0.8 0 0
0.045293 0.680552 0.504050 0.8 0 0
0.538230 0.704964 0.857889 0.8 0 0
0.576291 0.025000 0.424807 0.8 0 0
0.404626 0.723178 0.078869 0.8 0 0
0.396261 0.497171 0.039455 0.8 0 0
0.156782 0.526073 0.758668 0.8 0 0
0.879679 0.541174 0.537142 0.8 0 0
0.699708 0.405333 0.130219 0.8 0 0
0.216174 0.963240 0.607977 0.8 0 0
0.079789 0.737501 0.429720 0.8 0 0
0.662279 0.094868 0.302096 0.8 0 0
0.336176 0.699115 0.850674 0.8 0 0
0.050137 0.460578 0.376718 0.8 0 0
0.355465 0.337458 0.830014 0.8 0 0
0.809627 0.743248 0.354497 0.8 0 0
0.538121 0.492452 0.870559 0.8 0 0
0.377633 0.741599 0.832457 0.8 0 0
0.240667 0.840666 0.688787 0.8 0 0
0.498084 0.033213 0.685764 0.8 0 0
0.752362 0.471258 0.163831 0.8 0 0
0.219777 0.146750 0.285073 0.8 0 0
0.858761 0.633098 0.600883 0.8 0 0
0.667517 0.144135 0.665449 0.8 0 0
0.232429 0.492023 0.812322 0.8 0 0
0.339000 0.255424 0.794633 0.8 0 0
0.193151 0.503802 0.126931 0.8 0 0
0.167540 0.377057 0.182132 0.8 0 0
0.853824 0.500991 0.604369 0.8 0 0
0.702416 0.739705 0.183994 0.8 0 0
0.796466 0.758236 0.579018 0.8 0 0
0.232542 0.708141 0.133436 0.8 0 0
0.131625 0.518251 0.183654 0.8 0 0
0.569971 0.820032 0.767570 0.8 0 0
0.558130 0.605075 0.876093 0.8 0 0
0.237839 0.222470 0.199944 0.8 0 0
0.643676 0.025000 0.536953 0.8 0 0
0.352538 0.675575 0.065232 0.8 0 0
0.871405 0.460022 0.498086 0.8 0 0
0.500791 0.034418 0.685821 0.8 0 0
0.158600 0.183423 0.350065 0.8 0 0
0.054768 0.531124 0.602542 0.8 0 0
0.755418 0.781510 0.630199 0.8 0 0
0.538270 0.570931 0.883045 0.8 0 0
0.721444 0.541472 0.116654 0.8 0 0
0.787930 0.282438 0.614228 0.8 0 0
0.740849 0.908624 0.373566 0.8 0 0
0.308600 0.140704 0.213477 0.8 0 0
0.766222 0.833061 0.497169 0.8 0 0
0.195461 0.706881 0.772597 0.8 0 0
0.239079 0.245710 0.738316 0.8 0 0
0.123735 0.218159 0.394634 0.8 0 0
0.098912 0.267541 0.475760 0.8 0 0
0.183343 0.806090 0.648708 0.8 0 0
0.374499 0.721298 0.084947 0.8 0 0
0.769240 0.336508 0.686175 0.8 0 0
0.405903 0.759206 0.109893 0.8 0 0
0.497830 0.110662 0.733902 0.8 0 0
0.609465 0.267218 0.135818 0.8 0 0
0.747617 0.360468 0.725083 0.8 0 0
0.653645 0.300946 0.774374 0.8 0 0
0.199876 0.228069 0.689111 0.8 0 0
0.233473 0.821938 0.243463 0.8 0 0
0.040167 0.595601 0.357593 0.8 0 0
0.124135 0.643768 0.729394 0.8 0 0
0.882962 0.619404 0.481737 0.8 0 0
0.641609 0.329500 0.124754 0.8 0 0
0.295375 0.961736 0.206919 0.8 0 0
0.528261 0.071905 0.702082 0.8 0 0
0.159100 0.391468 0.186434 0.8 0 0
0.716794 0.219749 0.243678 0.8 0 0
0.678805 0.694948 0.127711 0.8 0 0
0.106980 0.461683 0.236626 0.8 0 0
0.326598 0.025000 0.620955 0.8 0 0
0.453212 0.073476 0.713755 0.8 0 0
0.524449 0.029216 0.676556 0.8 0 0
0.191753 0.130785 0.574445 0.8 0 0
0.204396 0.090386 0.400149 0.8 0 0
0.085759 0.546237 0.244706 0.8 0 0
0.801217 0.765553 0.540319 0.8 0 0
0.476335 0.365635 0.062677 0.8 0 0
0.834711 0.320016 0.483767 0.8 0 0
0.148905 0.353196 0.213681 0.8 0 0
0.714988 0.442144 0.132499 0.8 0 0
0.783122 0.359342 0.235200 0.8 0 0
0.354238 0.914259 0.753049 0.8 0 0
0.194243 0.774297 0.239642 0.8 0 0
0.307420 0.305604 0.116766 0.8 0 0
0.221796 0.761485 0.738077 0.8 0 0
0.830931 0.526320 0.253746 0.8 0 0
0.659332 0.180624 0.704569 0.8 0 0
0.026389 0.575407 0.457934 0.8 0 0
0.224246 0.877372 0.275756 0.8 0 0
0.409439 0.025000 0.607071 0.8 0 0
0.436157 0.358099 0.065332 0.8 0 0
0.426120 0.025000 0.656342 0.8 0 0
0.285292 0.055644 0.631730 0.8 0 0
0.219889 0.553069 0.816746 0.8 0 0
0.339871 0.885305 0.191322 0.8 0 0
0.684804 0.287419 0.748133 0.8 0 0
0.201904 0.972578 0.602348 0.8 0 0
0.423656 0.130820 0.179504 0.8 0 0
0.760484 0.190497 0.357127 0.8 0 0
0.758873 0.961704 0.483251 0.8 0 0
0.167018 0.769267 0.268486 0.8 0 0
0.128444 0.348292 0.667193 0.8 0 0
0.406414 0.852474 0.771221 0.8 0 0
0.462445 0.512782 0.034641 0.8 0 0
0.358995 0.849492 0.758809 0.8 0 0
0.148540 0.194541 0.566656 0.8 0 0
0.501012 0.782767 0.127349 0.8 0 0
0.641644 0.725404 0.804374 0.8 0 0
0.817049 0.516189 0.232464 0.8 0 0
0.732724 0.380027 0.749538 0.8 0 0
0.714817 0.765008 0.226623 0.8 0 0
0.563642 0.583770 0.041495 0.8 0 0
0.428525 0.457411 0.871514 0.8 0 0
0.650485 0.943431 0.217050 0.8 0 0
0.696373 0.113721 0.594213 0.8 0 0
0.862885 0.684571 0.501817 0.8 0 0
0.582095 0.781679 0.787191 0.8 0 0
0.558873 0.071752 0.239167 0.8 0 0
0.211591 0.106541 0.348149 0.8 0 0
0.532484 0.025000 0.632490 0.8 0 0
0.861419 0.488976 0.345111 0.8 0 0
0.472266 0.407056 0.863611 0.8 0 0
0.535126 0.162527 0.170061 0.8 0 0
0.265795 0.041958 0.596819 0.8 0 0
0.687933 0.795268 0.706123 0.8 0 0
0.779509 0.548934 0.743293 0.8 0 0
0.085404 0.558664 0.241233 0.8 0 0
0.408562 0.397161 0.861206 0.8 0 0
0.278087 0.104415 0.263496 0.8 0 0
0.145985 0.680938 0.734212 0.8 0 0
0.134665 0.321494 0.658169 0.8 0 0
0.499219 0.928914 0.773643 0.8 0 0
0.315692 0.941307 0.185019 0.8 0 0
0.772321 0.188353 0.409009 0.8 0 0
0.499561 0.471218 0.874660 0.8 0 0
0.629125 0.025000 0.398870 0.8 0 0
0.691829 0.969622 0.300964 0.8 0 0
0.688419 0.449296 0.114970 0.8 0 0
0.766169 0.608089 0.164291 0.8 0 0
0.728162 0.725157 0.193207 0.8 0 0
0.030243 0.567746 0.382591 0.8 0 0
0.678458 0.726077 0.783037 0.8 0 0
0.156202 0.182183 0.566291 0.8 0 0
0.186338 0.879276 0.596689 0.8 0 0
0.665383 0.793704 0.203962 0.8 0 0
0.812092 0.272777 0.399158 0.8 0 0
0.150673 0.839767 0.418029 0.8 0 0
0.486484 0.959316 0.156763 0.8 0 0
0.734267 0.154160 0.575960 0.8 0 0
0.868226 0.651433 0.552032 0.8 0 0
0.850389 0.381023 0.374882 0.8 0 0
0.614293 0.966998 0.220624 0.8 0 0
0.276317 0.107710 0.667263 0.8 0 0
0.199137 0.544129 0.111767 0.8 0 0
0.643614 0.209172 0.738620 0.8 0 0
0.144729 0.956203 0.438033 0.8 0 0
0.771562 0.306084 0.659498 0.8 0 0
0.114919 0.767083 0.554071 0.8 0 0
0.142752 0.941510 0.510166 0.8 0 0
0.167855 0.192173 0.316896 0.8 0 0
0.630618 0.258351 0.152663 0.8 0 0
0.313132 0.169235 0.736570 0.8 0 0
0.494464 0.930773 0.157003 0.8 0 0
0.243459 0.912732 0.251038 0.8 0 0
0.097315 0.412726 0.646206 0.8 0 0
0.128863 0.713018 0.695387 0.8 0 0
0.173166 0.235375 0.662114 0.8 0 0
0.756700 0.936317 0.540426 0.8 0 0
0.303626 0.025000 0.503275 0.8 0 0
0.084268 0.540390 0.666560 0.8 0 0
0.122271 0.210613 0.479817 0.8 0 0
0.217209 0.724294 0.775755 0.8 0 0
0.720636 0.241179 0.234925 0.8 0 0
0.195842 0.596170 0.803555 0.8 0 0
0.532333 0.355041 0.843475 0.8 0 0
0.735079 0.972490 0.422072 0.8 0 0
0.701272 0.341059 0.760176 0.8 0 0
0.149858 0.239197 0.299032 0.8 0 0
0.356069 0.764233 0.807264 0.8 0 0
0.361441 0.201644 0.148023 0.8 0 0
0.107305 0.541667 0.209883 0.8 0 0
0.187257 0.497543 0.783069 0.8 0 0
0.184069 0.926643 0.320964 0.8 0 0
0.163585 0.969936 0.516195 0.8 0 0
0.263004 0.156333 0.232424 0.8 0 0
0.810675 0.326408 0.607121 0.8 0 0
0.206875 0.184403 0.262463 0.8 0 0
0.384804 0.184716 0.153246 0.8 0 0
0.354462 0.548218 0.041326 0.8 0 0
0.216990 0.083189 0.371794 0.8 0 0
0.705099 0.705199 0.149091 0.8 0 0
0.250077 0.198822 0.207565 0.8 0 0
0.108303 0.549295 0.712438 0.8 0 0
0.664092 0.631771 0.832695 0.8 0 0
0.673416 0.632624 0.095360 0.8 0 0
0.184147 0.616750 0.130142 0.8 0 0
0.198714 0.156717 0.618807 0.8 0 0
0.725016 0.730925 0.196798 0.8 0 0
0.130581 0.738481 0.655249 0.8 0 0
0.139685 0.183323 0.423927 0.8 0 0
0.398799 0.337340 0.842139 0.8 0 0
0.269737 0.447160 0.090688 0.8 0 0
0.612505 0.574966 0.863859 0.8 0 0
0.756259 0.845049 0.402367 0.8 0 0
0.638450 0.161795 0.708626 0.8 0 0
0.342527 0.213902 0.144751 0.8 0 0
0.842534 0.623750 0.645418 0.8 0 0
0.248359 0.025000 0.476776 0.8 0 0
0.669393 0.045235 0.556332 0.8 0 0
0.525984 0.646756 0.881263 0.8 0 0
0.187450 0.762346 0.701830 0.8 0 0
0.169170 0.691890 0.752770 0.8 0 0
0.444085 0.738263 0.842338 0.8 0 0
0.446869 0.516659 0.033809 0.8 0 0
0.685685 0.754184 0.748197 0.8 0 0
0.167657 0.893934 0.531448 0.8 0 0
0.197181 0.385181 0.150704 0.8 0 0
0.058336 0.484630 0.332667 0.8 0 0
0.765846 0.937466 0.485240 0.8 0 0
0.101022 0.763090 0.447025 0.8 0 0
0.083698 0.307234 0.490871 0.8 0 0
0.273706 0.113827 0.669843 0.8 0 0
0.357943 0.025000 0.519883 0.8 0 0
0.040002 0.664401 0.443767 0.8 0 0
0.054642 0.419586 0.526569 0.8 0 0
0.364096 0.157420 0.749927 0.8 0 0
0.294946 0.715889 0.104465 0.8 0 0
0.475753 0.842112 0.776585 0.8 0 0
0.855227 0.423154 0.551277 0.8 0 0
0.326882 0.882092 0.736868 0.8 0 0
0.832300 0.544965 0.665948 0.8 0 0
0.847821 0.452085 0.316717 0.8 0 0
0.290248 0.530809 0.853604 0.8 0 0
0.289996 0.597982 0.858328 0.8 0 0
0.857681 0.648971 0.593207 0.8 0 0
0.123943 0.727886 0.661379 0.8 0 0
0.212543 0.869836 0.288641 0.8 0 0
0.706686 0.579433 0.105401 0.8 0 0
0.049376 0.494056 0.358741 0.8 0 0
0.434571 0.461803 0.872320 0.8 0 0
0.825285 0.310430 0.389481 0.8 0 0
0.617095 0.388193 0.084624 0.8 0 0
0.783273 0.798525 0.525131 0.8 0 0
0.463105 0.025000 0.379526 0.8 0 0
0.120639 0.214203 0.432211 0.8 0 0
0.120200 0.214681 0.444343 0.8 0 0
0.335592 0.611347 0.049934 0.8 0 0
0.494823 0.025000 0.633403 0.8 0 0
0.819161 0.585850 0.691645 0.8 0 0
0.367762 0.364192 0.073370 0.8 0 0
0.373056 0.743860 0.829260 0.8 0 0
0.192051 0.737219 0.736220 0.8 0 0
0.808513 0.459352 0.236666 0.8 0 0
0.314852 0.344563 0.821274 0.8 0 0
0.117404 0.239265 0.386796 0.8 0 0
0.255021 0.554277 0.837835 0.8 0 0
0.478095 0.025000 0.349213 0.8 0 0
0.560394 0.312930 0.098852 0.8 0 0
0.198769 0.961557 0.300600 0.8 0 0
0.326942 0.058520 0.667763 0.8 0 0
0.818846 0.687031 0.649591 0.8 0 0
0.055276 0.485769 0.573843 0.8 0 0
0.284355 0.025000 0.522028 0.8 0 0
0.420864 0.619743 0.887214 0.8 0 0
0.508743 0.892807 0.175140 0.8 0 0
0.288237 0.972796 0.710389 0.8 0 0
0.705933 0.842195 0.283516 0.8 0 0
0.713708 0.111241 0.376885 0.8 0 0
0.451913 0.025000 0.308130 0.8 0 0
0.165757 0.765641 0.671945 0.8 0 0
0.734302 0.965214 0.359415 0.8 0 0
0.373014 0.916817 0.759384 0.8 0 0
0.677306 0.295288 0.758693 0.8 0 0
0.139678 0.498568 0.734558 0.8 0 0
0.178926 0.148457 0.572401 0.8 0 0
0.664514 0.068705 0.593555 0.8 0 0
0.851520 0.710515 0.524351 0.8 0 0
0.193451 0.783085 0.248567 0.8 0 0
0.571176 0.070110 0.247696 0.8 0 0
0.513760 0.857224 0.167706 0.8 0 0
0.749589 0.890279 0.460014 0.8 0 0
0.243339 0.501666 0.095071 0.8 0 0
0.490162 0.597828 0.889030 0.8 0 0
0.096618 0.715577 0.633493 0.8 0 0
0.719952 0.131723 0.575307 0.8 0 0
0.269367 0.785880 0.184126 0.8 0 0
0.374895 0.652174 0.877394 0.8 0 0
0.093834 0.284008 0.406901 0.8 0 0
0.765022 0.451455 0.734674 0.8 0 0
0.647937 0.870005 0.698769 0.8 0 0
0.856236 0.661113 0.344195 0.8 0 0
0.688668 0.826052 0.680723 0.8 0 0
0.680453 0.244223 0.191966 0.8 0 0
0.802193 0.582106 0.720923 0.8 0 0
0.253736 0.157449 0.686861 0.8 0 0
0.447703 0.025000 0.604401 0.8 0 0
0.713664 0.521005 0.116015 0.8 0 0
0.290599 0.941060 0.733956 0.8 0 0
0.229193 0.715062 0.140664 0.8 0 0
0.829096 0.345708 0.346863 0.8 0 0
0.031255 0.634015 0.468396 0.8 0 0
0.349154 0.142228 0.190412 0.8 0 0
0.828843 0.735232 0.403606 0.8 0 0
0.555739 0.473308 0.862756 0.8 0 0
0.208842 0.161163 0.642325 0.8 0 0
0.179449 0.819499 0.625175 0.8 0 0
0.783889 0.606883 0.738744 0.8 0 0
0.825440 0.304420 0.399893 0.8 0 0
0.594843 0.469408 0.064273 0.8 0 0
0.285825 0.361583 0.102790 0.8 0 0
0.157369 0.218289 0.302559 0.8 0 0
0.847187 0.349985 0.434228 0.8 0 0
0.333088 0.853006 0.749941 0.8 0 0
0.760994 0.171100 0.408824 0.8 0 0
0.668845 0.596506 0.832603 0.8 0 0
0.441888 0.510754 0.034737 0.8 0 0
0.445123 0.483198 0.876021 0.8 0 0
0.761073 0.924563 0.459341 0.8 0 0
0.764337 0.806160 0.356028 0.8 0 0
0.170943 0.242113 0.261255 0.8 0 0
0.651523 0.569123 0.070773 0.8 0 0
0.184021 0.123764 0.396229 0.8 0 0
0.537926 0.685560 0.864712 0.8 0 0
0.559064 0.965477 0.751747 0.8 0 0
0.889208 0.567471 0.486875 0.8 0 0
0.825287 0.532928 0.241428 0.8 0 0
0.271618 0.349981 0.116185 0.8 0 0
0.667366 0.791487 0.204104 0.8 0 0
0.230373 0.732777 0.157169 0.8 0 0
0.716763 0.381745 0.148775 0.8 0 0
0.235680 0.046923 0.545113 0.8 0 0
0.423378 0.700590 0.867568 0.8 0 0
0.548885 0.207484 0.143857 0.8 0 0
0.865719 0.507198 0.565852 0.8 0 0
0.811512 0.305462 0.574016 0.8 0 0
0.042360 0.466705 0.453047 0.8 0 0
0.774424 0.327337 0.246450 0.8 0 0
0.689337 0.970818 0.640417 0.8 0 0
0.452666 0.577338 0.889531 0.8 0 0
0.211831 0.154048 0.638879 0.8 0 0
0.238677 0.040629 0.541374 0.8 0 0
0.519180 0.115427 0.197083 0.8 0 0
0.373318 0.025000 0.531254 0.8 0 0
0.459253 0.506437 0.880073 0.8 0 0
0.129866 0.805651 0.468062 0.8 0 0
0.515853 0.049356 0.691251 0.8 0 0
0.432576 0.974928 0.190954 0.8 0 0
0.701705 0.323055 0.750311 0.8 0 0
0.609621 0.364818 0.826179 0.8 0 0
0.108076 0.563405 0.201464 0.8 0 0
0.105956 0.265755 0.529858 0.8 0 0
0.451521 0.870312 0.166272 0.8 0 0
0.158471 0.864677 0.522544 0.8 0 0
0.146462 0.208015 0.588980 0.8 0 0
0.813683 0.570760 0.703597 0.8 0 0
0.370380 0.699644 0.071808 0.8 0 0
0.825665 0.307826 0.395221 0.8 0 0
0.683478 0.956255 0.676907 0.8 0 0
0.741392 0.573606 0.131360 0.8 0 0
0.795044 0.263817 0.572753 0.8 0 0
0.111043 0.775758 0.494754 0.8 0 0
0.105763 0.652787 0.698389 0.8 0 0
0.819679 0.549140 0.688589 0.8 0 0
0.459442 0.025000 0.607662 0.8 0 0
0.724794 0.962019 0.483678 0.8 0 0
0.433724 0.848222 0.160999 0.8 0 0
0.292990 0.056447 0.640304 0.8 0 0
0.041907 0.532321 0.361691 0.8 0 0
0.674236 0.032829 0.423104 0.8 0 0
0.668341 0.968672 0.271157 0.8 0 0
0.732009 0.261992 0.688706 0.8 0 0
0.745291 0.370250 0.183784 0.8 0 0
0.070538 0.489073 0.289082 0.8 0 0
0.646749 0.526577 0.075210 0.8 0 0
0.744945 0.894131 0.413202 0.8 0 0
0.794507 0.764721 0.566681 0.8 0 0
0.835533 0.385725 0.313408 0.8 0 0
0.104862 0.278855 0.545314 0.8 0 0
0.700458 0.961888 0.649533 0.8 0 0
0.268555 0.390369 0.814004 0.8 0 0
0.321855 0.125754 0.711506 0.8 0 0
0.338375 0.835184 0.179587 0.8 0 0
0.427478 0.382953 0.859054 0.8 0 0
0.306623 0.042584 0.290179 0.8 0 0
0.473803 0.138100 0.752702 0.8 0 0
0.759229 0.935480 0.530205 0.8 0 0
0.442706 0.230300 0.804745 0.8 0 0
0.862682 0.586424 0.605396 0.8 0 0
0.251041 0.720532 0.799433 0.8 0 0
0.030008 0.617283 0.453680 0.8 0 0
0.146739 0.769431 0.631570 0.8 0 0
0.180164 0.144518 0.362414 0.8 0 0
0.243346 0.914146 0.683459 0.8 0 0
0.510341 0.025000 0.592257 0.8 0 0
0.836958 0.718488 0.553266 0.8 0 0
0.852485 0.531823 0.290279 0.8 0 0
0.863378 0.678452 0.529434 0.8 0 0
0.552866 0.442676 0.057128 0.8 0 0
0.636100 0.730121 0.803142 0.8 0 0
0.176637 0.512495 0.141031 0.8 0 0
0.786299 0.281038 0.306302 0.8 0 0
0.208392 0.721318 0.163210 0.8 0 0
0.617849 0.025000 0.393797 0.8 0 0
0.133673 0.369223 0.226163 0.8 0 0
0.421726 0.025000 0.589483 0.8 0 0
0.329226 0.389899 0.840079 0.8 0 0
0.833125 0.590293 0.667306 0.8 0 0
0.137223 0.211192 0.362567 0.8 0 0
0.729895 0.326564 0.193867 0.8 0 0
0.437998 0.073724 0.713722 0.8 0 0
0.220576 0.909494 0.275246 0.8 0 0
0.706878 0.651886 0.121461 0.8 0 0
0.728437 0.885053 0.348033 0.8 0 0
0.612850 0.025000 0.520152 0.8 0 0
0.534917 0.202353 0.781352 0.8 0 0
0.138196 0.794473 0.367918 0.8 0 0
0.698253 0.874800 0.642970 0.8 0 0
0.040086 0.483198 0.413359 0.8 0 0
0.886870 0.546294 0.411931 0.8 0 0
0.865493 0.457027 0.535656 0.8 0 0
0.162288 0.823492 0.349064 0.8 0 0
0.148282 0.838595 0.455155 0.8 0 0
0.710715 0.642647 0.805686 0.8 0 0
0.193402 0.214569 0.249007 0.8 0 0
0.851970 0.472993 0.593670 0.8 0 0
0.681850 0.066686 0.561331 0.8 0 0
0.346145 0.816763 0.769971 0.8 0 0
0.865474 0.518938 0.340745 0.8 0 0
0.096088 0.569241 0.696199 0.8 0 0
0.700317 0.284581 0.188419 0.8 0 0
0.384094 0.961665 0.734856 0.8 0 0
0.883770 0.611482 0.494328 0.8 0 0
0.265026 0.057121 0.612241 0.8 0 0
0.625115 0.935180 0.205139 0.8 0 0
0.239200 0.155465 0.670269 0.8 0 0
0.150988 0.275077 0.652410 0.8 0 0
0.107859 0.251965 0.516535 0.8 0 0
0.490906 0.734087 0.087913 0.8 0 0
0.588128 0.025000 0.536819 0.8 0 0
0.339464 0.405974 0.845746 0.8 0 0
0.334480 0.055467 0.261136 0.8 0 0
0.717543 0.095305 0.447850 0.8 0 0
0.655432 0.149307 0.245094 0.8 0 0
0.333803 0.075773 0.246701 0.8 0 0
0.155807 0.293037 0.247542 0.8 0 0
0.410892 0.025000 0.618971 0.8 0 0
0.607791 0.957631 0.195066 0.8 0 0
0.062551 0.644093 0.295902 0.8 0 0
0.155694 0.253384 0.644510 0.8 0 0
0.352136 0.085533 0.701502 0.8 0 0
0.475769 0.144737 0.171182 0.8 0 0
0.859619 0.384625 0.431252 0.8 0 0
0.200885 0.954160 0.285186 0.8 0 0
0.228302 0.049982 0.523719 0.8 0 0
0.396993 0.039803 0.245871 0.8 0 0
0.668428 0.480627 0.097012 0.8 0 0
0.717577 0.149620 0.325913 0.8 0 0
0.761145 0.257235 0.640515 0.8 0 0
0.456874 0.428680 0.048636 0.8 0 0
0.076887 0.734320 0.448475 0.8 0 0
0.840467 0.444480 0.298694 0.8 0 0
0.375768 0.025000 0.366863 0.8 0 0
0.859321 0.386383 0.479938 0.8 0 0
0.545386 0.648654 0.048432 0.8 0 0
0.709626 0.236354 0.226506 0.8 0 0
0.561834 0.152224 0.743368 0.8 0 0
0.488712 0.025000 0.417005 0.8 0 0
0.122519 0.297329 0.300339 0.8 0 0
0.865848 0.678278 0.474274 0.8 0 0
0.561144 0.283881 0.809310 0.8 0 0
0.570825 0.139689 0.195427 0.8 0 0
0.508710 0.372653 0.856144 0.8 0 0
0.750985 0.638197 0.155293 0.8 0 0
0.069595 0.598400 0.645468 0.8 0 0
0.149704 0.313845 0.241799 0.8 0 0
0.804437 0.242226 0.437964 0.8 0 0
0.219121 0.281327 0.185304 0.8 0 0
0.701731 0.193307 0.673993 0.8 0 0
0.209390 0.739622 0.183861 0.8 0 0
0.248858 0.118929 0.648775 0.8 0 0
0.774385 0.818768 0.509309 0.8 0 0
0.755575 0.560719 0.769425 0.8 0 0
0.798699 0.288212 0.322405 0.8 0 0
0.242412 0.218242 0.727483 0.8 0 0
0.633525 0.121692 0.248013 0.8 0 0
0.726537 0.374336 0.162146 0.8 0 0
0.361593 0.445923 0.057153 0.8 0 0
0.440759 0.025000 0.629218 0.8 0 0
0.112676 0.294584 0.324724 0.8 0 0
0.545968 0.622392 0.042869 0.8 0 0
0.566428 0.914218 0.750290 0.8 0 0
0.269604 0.300109 0.779299 0.8 0 0
0.238659 0.869363 0.675805 0.8 0 0
0.449441 0.194990 0.786479 0.8 0 0
0.347819 0.115179 0.719133 0.8 0 0
0.445079 0.402584 0.052860 0.8 0 0
0.412029 0.467765 0.873051 0.8 0 0
0.858185 0.611944 0.611306 0.8 0 0
0.070803 0.341377 0.487768 0.8 0 0
0.241176 0.325111 0.772932 0.8 0 0
0.321967 0.648854 0.060668 0.8 0 0
0.035213 0.542400 0.379296 0.8 0 0
0.756971 0.205146 0.602471 0.8 0 0
0.822560 0.289533 0.412886 0.8 0 0
0.079304 0.696152 0.311551 0.8 0 0
0.297498 0.553544 0.859588 0.8 0 0
0.232371 0.514591 0.098756 0.8 0 0
0.262158 0.706429 0.115910 0.8 0 0
0.358227 0.557816 0.038708 0.8 0 0
0.116223 0.344676 0.274486 0.8 0 0
0.259812 0.265036 0.758745 0.8 0 0
0.087652 0.546048 0.674524 0.8 0 0
0.598358 0.799492 0.167661 0.8 0 0
0.353629 0.749470 0.819063 0.8 0 0
0.190400 0.923891 0.621646 0.8 0 0
0.241676 0.076953 0.333715 0.8 0 0
0.165553 0.161334 0.551661 0.8 0 0
0.825905 0.554231 0.235254 0.8 0 0
0.733508 0.756836 0.698458 0.8 0 0
0.881518 0.543969 0.532321 0.8 0 0
0.875950 0.485466 0.474032 0.8 0 0
0.339576 0.074946 0.686686 0.8 0 0
0.439818 0.966913 0.195156 0.8 0 0
0.140440 0.504638 0.736792 0.8 0 0
0.775992 0.628693 0.178858 0.8 0 0
0.383573 0.025000 0.270515 0.8 0 0
0.155755 0.668164 0.750320 0.8 0 0
0.825134 0.298039 0.409110 0.8 0 0
0.157860 0.441622 0.739560 0.8 0 0
0.220047 0.462416 0.115684 0.8 0 0
0.675398 0.221677 0.200137 0.8 0 0
0.239891 0.743625 0.162325 0.8 0 0
0.738498 0.177300 0.327099 0.8 0 0
0.326291 0.435151 0.847113 0.8 0 0
0.275714 0.025000 0.403144 0.8 0 0
0.095064 0.583483 0.692658 0.8 0 0
0.489265 0.844375 0.160728 0.8 0 0
0.042215 0.618814 0.358914 0.8 0 0
0.671187 0.769863 0.744768 0.8 0 0
0.358229 0.437642 0.856514 0.8 0 0
0.886425 0.545326 0.435210 0.8 0 0
0.241207 0.038273 0.388465 0.8 0 0
0.570091 0.443547 0.853955 0.8 0 0
0.607411 0.861866 0.204973 0.8 0 0
0.292014 0.025000 0.492902 0.8 0 0
0.732274 0.972627 0.481912 0.8 0 0
0.422116 0.025000 0.670668 0.8 0 0
0.833803 0.492109 0.646106 0.8 0 0
0.376820 0.738852 0.099628 0.8 0 0
0.687017 0.375163 0.129611 0.8 0 0
0.587081 0.025000 0.350718 0.8 0 0
0.349832 0.025000 0.547423 0.8 0 0
0.155242 0.381435 0.192546 0.8 0 0
0.359237 0.539542 0.874492 0.8 0 0
0.156325 0.871587 0.427789 0.8 0 0
0.533389 0.863097 0.174674 0.8 0 0
0.745186 0.329608 0.207735 0.8 0 0
0.740729 0.784578 0.281855 0.8 0 0
0.474686 0.152425 0.761291 0.8 0 0
0.378046 0.476080 0.047747 0.8 0 0
0.748562 0.771362 0.277800 0.8 0 0
0.718959 0.933364 0.303025 0.8 0 0
0.727644 0.927576 0.608631 0.8 0 0
0.026989 0.582225 0.456300 0.8 0 0
0.603954 0.537675 0.861543 0.8 0 0
0.420249 0.434229 0.047276 0.8 0 0
0.571885 0.025000 0.537924 0.8 0 0
0.238628 0.401656 0.798434 0.8 0 0
0.603826 0.415589 0.076141 0.8 0 0
0.360494 0.629847 0.046418 0.8 0 0
0.771924 0.544061 0.749563 0.8 0 0
0.767219 0.719934 0.227097 0.8 0 0
0.512134 0.788476 0.133049 0.8 0 0
0.340565 0.362631 0.835269 0.8 0 0
0.306550 0.337702 0.816371 0.8 0 0
0.362630 0.028708 0.264854 0.8 0 0
0.306186 0.671119 0.075022 0.8 0 0
0.478042 0.025000 0.672179 0.8 0 0
0.704566 0.877480 0.301048 0.8 0 0
0.664327 0.770570 0.749955 0.8 0 0
0.260315 0.025000 0.414391 0.8 0 0
0.641687 0.280079 0.148716 0.8 0 0
0.699230 0.487533 0.802604 0.8 0 0
0.212178 0.359132 0.148558 0.8 0 0
0.671815 0.808966 0.710911 0.8 0 0
0.084020 0.308448 0.426172 0.8 0 0
0.827870 0.680777 0.290814 0.8 0 0
0.127329 0.678840 0.213330 0.8 0 0
0.226913 0.191040 0.237045 0.8 0 0
0.872067 0.635479 0.552571 0.8 0 0
0.128718 0.438255 0.708892 0.8 0 0
0.212619 0.071952 0.413103 0.8 0 0
0.615249 0.589641 0.056948 0.8 0 0
0.831637 0.420560 0.626327 0.8 0 0
0.847592 0.693657 0.563201 0.8 0 0
0.084036 0.691007 0.296083 0.8 0 0
0.189739 0.624581 0.126087 0.8 0 0
0.073044 0.648168 0.280304 0.8 0 0
0.107936 0.463240 0.682390 0.8 0 0
0.877285 0.508046 0.394462 0.8 0 0
0.854042 0.368537 0.474944 0.8 0 0
0.599390 0.092411 0.682385 0.8 0 0
0.182181 0.399177 0.162088 0.8 0 0
0.025950 0.562071 0.492004 0.8 0 0
0.691633 0.974438 0.622505 0.8 0 0
0.466151 0.154149 0.165017 0.8 0 0
0.486743 0.659401 0.044985 0.8 0 0
0.612090 0.373221 0.087271 0.8 0 0
0.682480 0.722228 0.149257 0.8 0 0
0.796596 0.581815 0.729041 0.8 0 0
0.274634 0.587966 0.068532 0.8 0 0
0.617766 0.595506 0.861384 0.8 0 0
0.467096 0.025000 0.560339 0.8 0 0
0.163410 0.867945 0.396171 0.8 0 0
0.624848 0.496094 0.846041 0.8 0 0
0.119204 0.788531 0.473996 0.8 0 0
0.106985 0.559574 0.204557 0.8 0 0
0.443638 0.798024 0.136081 0.8 0 0
0.101963 0.741212 0.590687 0.8 0 0
0.351129 0.970932 0.736383 0.8 0 0
0.682570 0.473045 0.809188 0.8 0 0
0.548245 0.153027 0.747334 0.8 0 0
0.105749 0.668779 0.241669 0.8 0 0
0.565083 0.025000 0.484984 0.8 0 0
0.216988 0.576620 0.099094 0.8 0 0
0.240658 0.796962 0.214561 0.8 0 0
0.125436 0.382420 0.231473 0.8 0 0
0.041165 0.477506 0.402845 0.8 0 0
0.248930 0.196531 0.210705 0.8 0 0
0.863476 0.491221 0.351661 0.8 0 0
0.816052 0.433061 0.656691 0.8 0 0
0.768173 0.759646 0.293164 0.8 0 0
0.638260 0.553910 0.064857 0.8 0 0
0.790583 0.259618 0.582598 0.8 0 0
0.105821 0.290228 0.566211 0.8 0 0
0.160909 0.232869 0.285283 0.8 0 0
0.497618 0.805739 0.141430 0.8 0 0
0.250266 0.196041 0.209833 0.8 0 0
0.662314 0.856295 0.690704 0.8 0 0
0.482014 0.622996 0.887776 0.8 0 0
0.295389 0.676515 0.846855 0.8 0 0
0.730342 0.143019 0.360651 0.8 0 0
0.393129 0.593066 0.887502 0.8 0 0
0.315114 0.025000 0.515474 0.8 0 0
0.125493 0.689892 0.225276 0.8 0 0
0.310874 0.042400 0.286191 0.8 0 0
0.736969 0.353440 0.185206 0.8 0 0
0.246518 0.972365 0.674600 0.8 0 0
0.389962 0.044621 0.687167 0.8 0 0
0.866750 0.471166 0.539915 0.8 0 0
0.320478 0.261233 0.791610 0.8 0 0
0.879176 0.506471 0.497342 0.8 0 0
0.781308 0.737079 0.278780 0.8 0 0
0.230304 0.960278 0.678874 0.8 0 0
0.272430 0.933658 0.719696 0.8 0 0
0.305807 0.830254 0.195397 0.8 0 0
0.463364 0.025000 0.626750 0.8 0 0
0.629452 0.225142 0.755853 0.8 0 0
0.270948 0.755768 0.156617 0.8 0 0
0.793391 0.404817 0.685639 0.8 0 0
0.348530 0.025000 0.431062 0.8 0 0
0.119313 0.698295 0.242429 0.8 0 0
0.864414 0.619636 0.333297 0.8 0 0
0.512059 0.431452 0.048824 0.8 0 0
0.235759 0.197198 0.222976 0.8 0 0
0.580553 0.220542 0.780492 0.8 0 0
0.599393 0.842982 0.194698 0.8 0 0
0.764938 0.528587 0.162996 0.8 0 0
0.698396 0.898737 0.294576 0.8 0 0
0.179726 0.873712 0.345704 0.8 0 0
0.167188 0.903167 0.389486 0.8 0 0
0.048878 0.615304 0.589350 0.8 0 0
0.037923 0.489417 0.505747 0.8 0 0
0.322386 0.025000 0.338489 0.8 0 0
0.219109 0.052627 0.487706 0.8 0 0
0.028699 0.544851 0.502574 0.8 0 0
0.492262 0.360531 0.852502 0.8 0 0
0.689776 0.869435 0.658056 0.8 0 0
0.843730 0.503321 0.633046 0.8 0 0
0.356910 0.102278 0.713677 0.8 0 0
0.052399 0.695825 0.519913 0.8 0 0
0.717347 0.095181 0.457705 0.8 0 0
0.502010 0.626766 0.035499 0.8 0 0
0.323019 0.031737 0.646808 0.8 0 0
0.834640 0.732592 0.486347 0.8 0 0
0.232292 0.518216 0.098105 0.8 0 0
0.106978 0.392745 0.259205 0.8 0 0
0.577876 0.321705 0.099963 0.8 0 0
0.793446 0.638583 0.725510 0.8 0 0
0.679837 0.058490 0.549643 0.8 0 0
0.287167 0.816010 0.740742 0.8 0 0
0.156701 0.935082 0.554864 0.8 0 0
0.752366 0.151976 0.506488 0.8 0 0
0.829030 0.416402 0.629358 0.8 0 0
0.543952 0.371185 0.846589 0.8 0 0
0.118125 0.423017 0.230502 0.8 0 0
0.790508 0.227535 0.388331 0.8 0 0
0.520035 0.971013 0.754717 0.8 0 0
0.152108 0.357287 0.208265 0.8 0 0
0.162522 0.871584 0.402362 0.8 0 0
0.774169 0.232355 0.599961 0.8 0 0
0.198238 0.491725 0.791968 0.8 0 0
0.642604 0.025000 0.381558 0.8 0 0
0.129224 0.346599 0.251090 0.8 0 0
0.740300 0.396342 0.169402 0.8 0 0
0.221439 0.333640 0.764801 0.8 0 0
0.844846 0.393564 0.569953 0.8 0 0
0.601938 0.305482 0.113742 0.8 0 0
0.779596 0.809954 0.503146 0.8 0 0
0.607876 0.166530 0.729080 0.8 0 0
0.035839 0.549598 0.372619 0.8 0 0
0.363501 0.025000 0.267943 0.8 0 0
0.293619 0.347592 0.813510 0.8 0 0
0.103082 0.676008 0.677298 0.8 0 0
0.410995 0.275205 0.820633 0.8 0 0
0.600396 0.025000 0.533930 0.8 0 0
0.338147 0.770177 0.136792 0.8 0 0
0.711043 0.113904 0.566030 0.8 0 0
0.815303 0.371757 0.634905 0.8 0 0
0.287369 0.495098 0.071589 0.8 0 0
0.840038 0.646731 0.281642 0.8 0 0
0.036004 0.502290 0.486703 0.8 0 0
0.186411 0.440735 0.148247 0.8 0 0
0.477735 0.968570 0.751437 0.8 0 0
0.032450 0.644570 0.455284 0.8 0 0
0.699147 0.110030 0.344687 0.8 0 0
0.296427 0.929005 0.201525 0.8 0 0
0.174841 0.284385 0.226832 0.8 0 0
0.823327 0.289940 0.439643 0.8 0 0
0.195556 0.114512 0.554090 0.8 0 0
0.787899 0.215065 0.401614 0.8 0 0
0.658217 0.175676 0.701437 0.8 0 0
0.026782 0.586717 0.504792 0.8 0 0
0.074518 0.492509 0.632827 0.8 0 0
0.223483 0.455223 0.799857 0.8 0 0
0.213800 0.749640 0.743862 0.8 0 0
0.558556 0.127962 0.199758 0.8 0 0
0.598983 0.802017 0.169802 0.8 0 0
0.825534 0.353117 0.592633 0.8 0 0
0.583194 0.810158 0.768240 0.8 0 0
0.183170 0.876051 0.592702 0.8 0 0
0.076655 0.558749 0.255953 0.8 0 0
0.028524 0.606361 0.498983 0.8 0 0
0.859856 0.694000 0.430347 0.8 0 0
0.112166 0.654806 0.708395 0.8 0 0
0.193435 0.689624 0.152997 0.8 0 0
0.125709 0.685676 0.221536 0.8 0 0
0.155673 0.823130 0.567423 0.8 0 0
0.390087 0.756001 0.823775 0.8 0 0
0.737878 0.712210 0.744289 0.8 0 0
0.694650 0.947456 0.263668 0.8 0 0
0.177339 0.939393 0.322407 0.8 0 0
0.084029 0.308536 0.422722 0.8 0 0
0.620464 0.881150 0.714982 0.8 0 0
0.420973 0.497566 0.878138 0.8 0 0
0.802089 0.359142 0.269172 0.8 0 0
0.358252 0.254847 0.122260 0.8 0 0
0.586941 0.652317 0.061843 0.8 0 0
0.509694 0.132786 0.182810 0.8 0 0
0.179046 0.348747 0.730586 0.8 0 0
0.241212 0.629313 0.828795 0.8 0 0
0.719501 0.209863 0.255110 0.8 0 0
0.097947 0.759727 0.467483 0.8 0 0
0.760350 0.417004 0.185003 0.8 0 0
0.747758 0.950446 0.352752 0.8 0 0
0.234180 0.300980 0.758637 0.8 0 0
0.672159 0.458997 0.103432 0.8 0 0
0.773192 0.670028 0.196146 0.8 0 0
0.127685 0.201981 0.469989 0.8 0 0
0.852554 0.421745 0.355820 0.8 0 0
0.369853 0.025000 0.536065 0.8 0 0
0.572275 0.118675 0.715844 0.8 0 0
0.354556 0.523828 0.870448 0.8 0 0
0.518960 0.025000 0.631087 0.8 0 0
0.060909 0.664456 0.331180 0.8 0 0
0.044157 0.596492 0.576218 0.8 0 0
0.135446 0.370901 0.221881 0.8 0 0
0.358149 0.419157 0.062650 0.8 0 0
0.841002 0.345728 0.393547 0.8 0 0
0.841503 0.335598 0.432837 0.8 0 0
0.409231 0.195946 0.786520 0.8 0 0
0.479330 0.368131 0.855102 0.8 0 0
0.446168 0.648521 0.039554 0.8 0 0
0.229312 0.036490 0.462540 0.8 0 0
0.175756 0.705912 0.752845 0.8 0 0
0.112781 0.231661 0.452479 0.8 0 0
0.439338 0.042590 0.695093 0.8 0 0
0.184009 0.834937 0.321720 0.8 0 0
0.342558 0.619930 0.872112 0.8 0 0
0.721496 0.920299 0.613351 0.8 0 0
0.481750 0.604288 0.031773 0.8 0 0
0.641082 0.025000 0.579143 0.8 0 0
0.460503 0.290997 0.826945 0.8 0 0
0.039084 0.607729 0.365946 0.8 0 0
0.583934 0.025000 0.471928 0.8 0 0
0.393418 0.395357 0.057746 0.8 0 0
0.721082 0.209456 0.257104 0.8 0 0
0.074279 0.352540 0.378769 0.8 0 0
0.802760 0.655386 0.700379 0.8 0 0
0.521187 0.960349 0.768079 0.8 0 0
0.473735 0.391892 0.861093 0.8 0 0
0.362448 0.723559 0.090001 0.8 0 0
0.667841 0.229219 0.734181 0.8 0 0
0.771630 0.812541 0.536623 0.8 0 0
0.421705 0.099432 0.200173 0.8 0 0
0.652261 0.309573 0.140719 0.8 0 0
0.637983 0.359004 0.807778 0.8 0 0
0.617540 0.231411 0.157939 0.8 0 0
0.316285 0.784485 0.779600 0.8 0 0
0.842668 0.641988 0.283330 0.8 0 0
0.388153 0.888609 0.755257 0.8 0 0
0.875675 0.655548 0.443672 0.8 0 0
0.678168 0.854878 0.258975 0.8 0 0
0.610704 0.254788 0.142569 0.8 0 0
0.291216 0.025000 0.360033 0.8 0 0
0.257157 0.151498 0.685252 0.8 0 0
0.172110 0.197588 0.303090 0.8 0 0
0.528725 0.934986 0.768560 0.8 0 0
0.861166 0.413739 0.524313 0.8 0 0
0.771368 0.800380 0.563544 0.8 0 0
0.794563 0.336454 0.643451 0.8 0 0
0.281445 0.407789 0.825042 0.8 0 0
0.364988 0.971624 0.206625 0.8 0 0
0.026709 0.558612 0.477067 0.8 0 0
0.492699 0.025000 0.538693 0.8 0 0
0.616297 0.465107 0.844905 0.8 0 0
0.643911 0.094307 0.645990 0.8 0 0
0.461260 0.025000 0.566834 0.8 0 0
0.420513 0.520083 0.032926 0.8 0 0
0.044919 0.560645 0.333464 0.8 0 0
0.156065 0.509357 0.161859 0.8 0 0
0.858290 0.696985 0.456448 0.8 0 0
0.632244 0.196218 0.736010 0.8 0 0
0.155144 0.157798 0.440822 0.8 0 0
0.629879 0.690789 0.096439 0.8 0 0
0.683046 0.829069 0.252329 0.8 0 0
0.545937 0.224168 0.133214 0.8 0 0
0.595252 0.277578 0.797277 0.8 0 0
0.613703 0.066284 0.278589 0.8 0 0
0.498235 0.971607 0.185309 0.8 0 0
0.626853 0.936024 0.726543 0.8 0 0
0.182546 0.948674 0.313792 0.8 0 0
0.295734 0.963561 0.697052 0.8 0 0
0.301564 0.474522 0.847007 0.8 0 0
0.844633 0.679514 0.330734 0.8 0 0
0.506464 0.551345 0.888137 0.8 0 0
0.695338 0.223684 0.219372 0.8 0 0
0.602238 0.267913 0.789255 0.8 0 0
0.666901 0.025000 0.428208 0.8 0 0
0.189225 0.349741 0.176232 0.8 0 0
0.583899 0.750104 0.811587 0.8 0 0
0.161061 0.782929 0.298079 0.8 0 0
0.425406 0.945085 0.779945 0.8 0 0
0.049160 0.687971 0.416270 0.8 0 0
0.625821 0.025000 0.363877 0.8 0 0
0.858950 0.443810 0.365987 0.8 0 0
0.358131 0.215703 0.784433 0.8 0 0
0.210801 0.781116 0.229877 0.8 0 0
0.719819 0.244262 0.691316 0.8 0 0
0.484173 0.209397 0.795522 0.8 0 0
0.407721 0.958567 0.157516 0.8 0 0
0.601600 0.583345 0.052083 0.8 0 0
0.168931 0.178339 0.592417 0.8 0 0
0.098318 0.459953 0.251792 0.8 0 0
0.869310 0.443203 0.439296 0.8 0 0
0.716622 0.454502 0.131216 0.8 0 0
0.618200 0.025000 0.453441 0.8 0 0
0.147917 0.534938 0.163842 0.8 0 0
0.585312 0.643917 0.057445 0.8 0 0
0.089788 0.722929 0.332722 0.8 0 0
0.522411 0.129002 0.739014 0.8 0 0
0.286913 0.770118 0.161541 0.8 0 0
0.321259 0.415137 0.072768 0.8 0 0
0.105025 0.419185 0.253838 0.8 0 0
0.081202 0.472638 0.276490 0.8 0 0
0.698682 0.313473 0.169639 0.8 0 0
0.813620 0.670855 0.670501 0.8 0 0
0.746093 0.836519 0.352275 0.8 0 0
0.119590 0.317848 0.289474 0.8 0 0
0.726968 0.256521 0.690761 0.8 0 0
0.037259 0.658449 0.485798 0.8 0 0
0.508099 0.198054 0.138710 0.8 0 0
0.777888 0.218076 0.354666 0.8 0 0
0.472375 0.586033 0.028826 0.8 0 0
0.193581 0.639832 0.799977 0.8 0 0
0.157628 0.877717 0.437339 0.8 0 0
0.786749 0.553366 0.737256 0.8 0 0
0.631362 0.778786 0.761730 0.8 0 0
0.840609 0.355290 0.376401 0.8 0 0
0.096456 0.386635 0.278942 0.8 0 0
0.567951 0.736636 0.826878 0.8 0 0
0.156934 0.222803 0.299733 0.8 0 0
0.763076 0.777709 0.621571 0.8 0 0
0.348266 0.705238 0.852001 0.8 0 0
0.247117 0.451552 0.813173 0.8 0 0
0.637785 0.796621 0.746401 0.8 0 0
0.862117 0.480123 0.353839 0.8 0 0
0.567101 0.126244 0.724005 0.8 0 0
0.565880 0.964051 0.751819 0.8 0 0
0.590603 0.905234 0.198604 0.8 0 0
0.119232 0.404857 0.682581 0.8 0 0
0.741355 0.348282 0.192754 0.8 0 0
0.446355 0.973388 0.760112 0.8 0 0
0.385163 0.548768 0.883373 0.8 0 0
0.744301 0.226894 0.646207 0.8 0 0
0.738558 0.605925 0.135510 0.8 0 0
0.147655 0.837815 0.489763 0.8 0 0
0.823671 0.562180 0.686131 0.8 0 0
0.034925 0.627517 0.531020 0.8 0 0
0.819380 0.751796 0.464110 0.8 0 0
0.681527 0.237396 0.725104 0.8 0 0
0.140444 0.180884 0.485450 0.8 0 0
0.676215 0.719316 0.790535 0.8 0 0
0.234401 0.732436 0.778209 0.8 0 0
0.486425 0.025000 0.379641 0.8 0 0
0.740543 0.382226 0.173029 0.8 0 0
0.759754 0.809503 0.346001 0.8 0 0
0.345257 0.088910 0.699769 0.8 0 0
0.635625 0.281870 0.776413 0.8 0 0
0.702959 0.097507 0.557085 0.8 0 0
0.286390 0.025000 0.343943 0.8 0 0
0.151207 0.812880 0.364039 0.8 0 0
0.722656 0.786933 0.256936 0.8 0 0
0.577002 0.095872 0.697359 0.8 0 0
0.599837 0.117169 0.229494 0.8 0 0
0.566570 0.025000 0.440951 0.8 0 0
0.555476 0.025000 0.526137 0.8 0 0
0.655418 0.114057 0.651604 0.8 0 0
0.260701 0.603527 0.078872 0.8 0 0
0.859990 0.657105 0.572986 0.8 0 0
0.164226 0.466499 0.752038 0.8 0 0
0.105420 0.525117 0.218481 0.8 0 0
0.406550 0.441055 0.046507 0.8 0 0
0.414243 0.536496 0.030108 0.8 0 0
0.879434 0.587198 0.545445 0.8 0 0
0.771020 0.818350 0.411401 0.8 0 0
0.841879 0.337321 0.458082 0.8 0 0
0.377795 0.130678 0.190734 0.8 0 0
0.560779 0.301298 0.815964 0.8 0 0
0.698525 0.323858 0.753839 0.8 0 0
0.236273 0.610807 0.093778 0.8 0 0
0.411127 0.025000 0.436399 0.8 0 0
0.090660 0.345791 0.330072 0.8 0 0
0.652084 0.839485 0.226373 0.8 0 0
0.232387 0.576395 0.826262 0.8 0 0
0.407888 0.612785 0.887382 0.8 0 0
0.053984 0.669615 0.564178 0.8 0 0
0.153458 0.954650 0.390491 0.8 0 0
0.164180 0.864657 0.545100 0.8 0 0
0.082031 0.364304 0.584566 0.8 0 0
0.027458 0.556854 0.439630 0.8 0 0
0.397284 0.559586 0.028425 0.8 0 0
0.629102 0.056424 0.628132 0.8 0 0
0.839757 0.470811 0.629096 0.8 0 0
0.349771 0.925835 0.175830 0.8 0 0
0.225243 0.911662 0.269471 0.8 0 0
0.384218 0.477088 0.045996 0.8 0 0
0.558944 0.967389 0.192468 0.8 0 0
0.414404 0.619944 0.887130 0.8 0 0
0.070451 0.727315 0.493558 0.8 0 0
0.640642 0.025000 0.411047 0.8 0 0
0.792922 0.788482 0.437522 0.8 0 0
0.504958 0.376568 0.858459 0.8 0 0
0.267537 0.777966 0.179493 0.8 0 0
0.818624 0.427289 0.265638 0.8 0 0
0.036157 0.654144 0.444762 0.8 0 0
0.263802 0.111560 0.271141 0.8 0 0
0.122665 0.248598 0.569498 0.8 0 0
0.743540 0.374865 0.736615 0.8 0 0
0.086767 0.402922 0.624057 0.8 0 0
0.437552 0.482745 0.039369 0.8 0 0
0.877017 0.487161 0.409544 0.8 0 0
0.076521 0.724215 0.548154 0.8 0 0
0.318831 0.313929 0.107225 0.8 0 0
0.376853 0.725858 0.845548 0.8 0 0
0.730853 0.241311 0.245314 0.8 0 0
0.453096 0.025000 0.371194 0.8 0 0
0.394287 0.312490 0.831555 0.8 0 0
0.060158 0.636638 0.301652 0.8 0 0
0.652495 0.674786 0.101358 0.8 0 0
0.043232 0.464088 0.417235 0.8 0 0
0.723425 0.969411 0.356676 0.8 0 0
0.527069 0.762083 0.117321 0.8 0 0
0.745319 0.536078 0.773687 0.8 0 0
0.660087 0.041704 0.364169 0.8 0 0
0.758581 0.598129 0.154337 0.8 0 0
0.869757 0.447189 0.457337 0.8 0 0
0.732278 0.936822 0.324035 0.8 0 0
0.246317 0.062470 0.587413 0.8 0 0
0.843530 0.662668 0.302322 0.8 0 0
0.170842 0.901052 0.555548 0.8 0 0
0.357693 0.362763 0.076549 0.8 0 0
0.392483 0.152531 0.172550 0.8 0 0
0.175793 0.969554 0.513775 0.8 0 0
0.850113 0.457766 0.590871 0.8 0 0
0.268724 0.823802 0.724455 0.8 0 0
0.799632 0.231435 0.482069 0.8 0 0
0.601070 0.725009 0.827569 0.8 0 0
0.780798 0.241717 0.591690 0.8 0 0
0.154450 0.350822 0.209594 0.8 0 0
0.810496 0.437184 0.247772 0.8 0 0
0.057120 0.486966 0.335551 0.8 0 0
0.335406 0.580443 0.045204 0.8 0 0
0.734870 0.140781 0.543029 0.8 0 0
0.294847 0.347372 0.814146 0.8 0 0
0.647776 0.363355 0.112032 0.8 0 0
0.497343 0.687736 0.872641 0.8 0 0
0.578184 0.299027 0.810662 0.8 0 0
0.123308 0.409725 0.691509 0.8 0 0
0.157636 0.153411 0.457419 0.8 0 0
0.080437 0.376671 0.322429 0.8 0 0
0.335425 0.904376 0.190795 0.8 0 0
0.104909 0.767946 0.461698 0.8 0 0
0.424889 0.760122 0.109032 0.8 0 0
0.485254 0.384900 0.056291 0.8 0 0
0.499673 0.608278 0.888662 0.8 0 0
0.720194 0.201851 0.263177 0.8 0 0
0.728601 0.344367 0.735215 0.8 0 0
0.578345 0.025000 0.575458 0.8 0 0
0.143639 0.936270 0.482548 0.8 0 0
0.516247 0.412365 0.862330 0.8 0 0
0.713685 0.107179 0.541146 0.8 0 0
0.515568 0.757081 0.109750 0.8 0 0
0.270200 0.061850 0.308745 0.8 0 0
0.321659 0.402469 0.840137 0.8 0 0
0.186382 0.556493 0.121234 0.8 0 0
0.193887 0.180542 0.639577 0.8 0 0
0.440375 0.025000 0.663792 0.8 0 0
0.708654 0.493265 0.118434 0.8 0 0
0.407052 0.727592 0.850557 0.8 0 0
0.757918 0.554449 0.765671 0.8 0 0
0.634179 0.615221 0.068888 0.8 0 0
0.437189 0.783041 0.807695 0.8 0 0
0.157131 0.154450 0.446416 0.8 0 0
0.888552 0.578312 0.432646 0.8 0 0
0.028317 0.602712 0.490500 0.8 0 0
0.694237 0.208493 0.230492 0.8 0 0
0.844905 0.345297 0.469190 0.8 0 0
0.146542 0.833440 0.497122 0.8 0 0
0.373116 0.905599 0.178182 0.8 0 0
0.538973 0.738870 0.100508 0.8 0 0
0.604487 0.173167 0.190354 0.8 0 0
0.596629 0.176426 0.183252 0.8 0 0
0.183696 0.132721 0.376865 0.8 0 0
0.103842 0.766453 0.446991 0.8 0 0
0.293743 0.025000 0.341644 0.8 0 0
0.680050 0.744458 0.169295 0.8 0 0
0.177545 0.965976 0.491169 0.8 0 0
0.582056 0.754824 0.808132 0.8 0 0
0.798055 0.226752 0.458803 0.8 0 0
0.319623 0.102538 0.694034 0.8 0 0
0.705249 0.813564 0.261862 0.8 0 0
0.568115 0.898475 0.742496 0.8 0 0
0.150590 0.190449 0.362491 0.8 0 0
0.645787 0.061165 0.615887 0.8 0 0
0.519340 0.196980 0.142585 0.8 0 0
0.633200 0.404376 0.823765 0.8 0 0
0.370291 0.025000 0.644931 0.8 0 0
0.665948 0.179756 0.227906 0.8 0 0
0.666780 0.597295 0.084975 0.8 0 0
0.805894 0.360247 0.642153 0.8 0 0
0.368247 0.294099 0.103026 0.8 0 0
0.762179 0.695192 0.201162 0.8 0 0
0.829249 0.693007 0.627581 0.8 0 0
0.645033 0.582940 0.846980 0.8 0 0
0.092033 0.330533 0.346947 0.8 0 0
0.029190 0.603887 0.427282 0.8 0 0
0.763009 0.499009 0.747749 0.8 0 0
0.283132 0.025000 0.342140 0.8 0 0
0.423076 0.526050 0.882925 0.8 0 0
0.063926 0.361784 0.417840 0.8 0 0
0.771715 0.823448 0.505072 0.8 0 0
0.458823 0.669689 0.878129 0.8 0 0
0.631914 0.526818 0.066357 0.8 0 0
0.301644 0.035120 0.301624 0.8 0 0
0.767191 0.791753 0.596846 0.8 0 0
0.356270 0.813840 0.774578 0.8 0 0
0.463930 0.771303 0.815812 0.8 0 0
0.851622 0.664760 0.332433 0.8 0 0
0.296570 0.974996 0.712376 0.8 0 0
0.410278 0.044326 0.692689 0.8 0 0
0.318636 0.323618 0.103158 0.8 0 0
0.435135 0.274681 0.099956 0.8 0 0
0.288983 0.070122 0.283110 0.8 0 0
0.686834 0.293018 0.749085 0.8 0 0
0.407692 0.025000 0.562796 0.8 0 0
0.301392 0.839091 0.201411 0.8 0 0
0.262719 0.474190 0.826836 0.8 0 0
0.818505 0.620572 0.686500 0.8 0 0
0.677883 0.864742 0.262409 0.8 0 0
0.745657 0.854691 0.371878 0.8 0 0
0.732495 0.966253 0.574624 0.8 0 0
0.807584 0.314007 0.316685 0.8 0 0
0.264483 0.060191 0.614323 0.8 0 0
0.073526 0.371586 0.562174 0.8 0 0
0.753219 0.876391 0.500190 0.8 0 0
0.680585 0.795011 0.713515 0.8 0 0
0.061097 0.484137 0.595583 0.8 0 0
0.408655 0.676535 0.875303 0.8 0 0
0.502599 0.743167 0.095675 0.8 0 0
0.514760 0.879132 0.759445 0.8 0 0
0.128181 0.718585 0.250140 0.8 0 0
0.839550 0.714418 0.376975 0.8 0 0
0.502836 0.749373 0.100892 0.8 0 0
0.639112 0.091254 0.281685 0.8 0 0
0.262589 0.934432 0.220224 0.8 0 0
0.547519 0.537360 0.039184 0.8 0 0
0.768941 0.364980 0.706621 0.8 0 0
0.510834 0.966552 0.177015 0.8 0 0
0.750934 0.957852 0.371846 0.8 0 0
0.429620 0.496718 0.036939 0.8 0 0
0.414669 0.105862 0.197720 0.8 0 0
0.154103 0.964607 0.444884 0.8 0 0
0.176590 0.913070 0.344140 0.8 0 0
0.854215 0.441141 0.565992 0.8 0 0
0.558649 0.192103 0.156886 0.8 0 0
0.530083 0.905221 0.176303 0.8 0 0
0.601885 0.445081 0.846098 0.8 0 0
0.378458 0.146319 0.747069 0.8 0 0
0.676277 0.770811 0.738728 0.8 0 0
0.449602 0.728261 0.850500 0.8 0 0
0.145637 0.592461 0.163394 0.8 0 0
0.410837 0.401456 0.861951 0.8 0 0
0.838578 0.721571 0.538320 0.8 0 0
0.223240 0.885316 0.653900 0.8 0 0
0.795946 0.222314 0.487937 0.8 0 0
0.504411 0.237988 0.116022 0.8 0 0
0.519494 0.025000 0.559438 0.8 0 0
0.379146 0.025000 0.398727 0.8 0 0
0.316633 0.025000 0.342762 0.8 0 0
0.696034 0.071427 0.409636 0.8 0 0
0.781806 0.806838 0.426450 0.8 0 0
0.088561 0.452732 0.644269 0.8 0 0
0.694922 0.947458 0.263948 0.8 0 0
0.498467 0.401845 0.053613 0.8 0 0
0.651116 0.945075 0.218195 0.8 0 0
0.643833 0.954687 0.716245 0.8 0 0
0.723848 0.857807 0.610170 0.8 0 0
0.166553 0.557713 0.140318 0.8 0 0
0.279083 0.797307 0.748732 0.8 0 0
0.271848 0.747800 0.785813 0.8 0 0
0.417312 0.311726 0.084364 0.8 0 0
0.618396 0.630121 0.064471 0.8 0 0
0.034951 0.650934 0.445365 0.8 0 0
0.879623 0.608139 0.386775 0.8 0 0
0.088458 0.295240 0.472732 0.8 0 0
0.375093 0.230143 0.795292 0.8 0 0
0.646677 0.147683 0.237619 0.8 0 0
0.348193 0.753445 0.119658 0.8 0 0
0.835878 0.532544 0.260435 0.8 0 0
0.783563 0.803469 0.425341 0.8 0 0
0.838740 0.382787 0.585036 0.8 0 0
0.622860 0.359646 0.099037 0.8 0 0
0.044128 0.643294 0.361189 0.8 0 0
0.702955 0.199513 0.678091 0.8 0 0
0.208333 0.106252 0.353993 0.8 0 0
0.764757 0.769178 0.631305 0.8 0 0
0.667799 0.086147 0.319982 0.8 0 0
0.057854 0.384224 0.396424 0.8 0 0
0.181119 0.315504 0.715408 0.8 0 0
0.199804 0.297863 0.725371 0.8 0 0
0.201343 0.280891 0.202911 0.8 0 0
0.852600 0.364011 0.446071 0.8 0 0
0.203285 0.314247 0.182356 0.8 0 0
0.504747 0.776877 0.123770 0.8 0 0
0.219909 0.735536 0.168749 0.8 0 0
0.367987 0.624619 0.043696 0.8 0 0
0.832603 0.735017 0.492329 0.8 0 0
0.106937 0.332446 0.299555 0.8 0 0
0.160229 0.892058 0.493973 0.8 0 0
0.311722 0.272308 0.129880 0.8 0 0
0.188068 0.168243 0.614054 0.8 0 0
0.100168 0.321054 0.590499 0.8 0 0
0.773995 0.528828 0.172220 0.8 0 0
0.424095 0.349002 0.068967 0.8 0 0
0.781471 0.638711 0.186661 0.8 0 0
0.296129 0.969702 0.719261 0.8 0 0
0.500400 0.495161 0.878673 0.8 0 0
0.871767 0.490322 0.384802 0.8 0 0
0.612579 0.238624 0.771037 0.8 0 0
0.167533 0.403048 0.175491 0.8 0 0
0.104255 0.276276 0.380821 0.8 0 0
0.104515 0.254211 0.429669 0.8 0 0
0.138181 0.331786 0.247403 0.8 0 0
0.166505 0.407744 0.175398 0.8 0 0
0.337249 0.141802 0.196590 0.8 0 0
0.594565 0.352124 0.826479 0.8 0 0
0.556339 0.067323 0.240977 0.8 0 0
0.044353 0.462966 0.515553 0.8 0 0
0.750235 0.592167 0.773208 0.8 0 0
0.753316 0.760296 0.664592 0.8 0 0
0.557946 0.025000 0.326280 0.8 0 0
0.613088 0.194819 0.179257 0.8 0 0
0.256055 0.025000 0.449503 0.8 0 0
0.869581 0.559683 0.584532 0.8 0 0
0.628234 0.804989 0.746280 0.8 0 0
0.156388 0.961338 0.399168 0.8 0 0
0.620687 0.406260 0.831157 0.8 0 0
0.320568 0.226615 0.778650 0.8 0 0
0.283935 0.025000 0.389202 0.8 0 0
0.663662 0.722449 0.138294 0.8 0 0
0.356805 0.025000 0.662166 0.8 0 0
0.055781 0.504226 0.329654 0.8 0 0
0.268096 0.064973 0.622132 0.8 0 0
0.689915 0.182165 0.676025 0.8 0 0
0.311584 0.790672 0.772577 0.8 0 0
0.661111 0.188619 0.709652 0.8 0 0
0.790167 0.692419 0.234088 0.8 0 0
0.067780 0.382970 0.553345 0.8 0 0
0.608481 0.533409 0.859651 0.8 0 0
0.208408 0.211263 0.686661 0.8 0 0
0.228346 0.109086 0.612868 0.8 0 0
0.181203 0.764490 0.240806 0.8 0 0
0.152332 0.512043 0.750751 0.8 0 0
0.881347 0.514248 0.425717 0.8 0 0
0.482036 0.839198 0.777525 0.8 0 0
0.286452 0.470107 0.840129 0.8 0 0
0.032244 0.574412 0.535802 0.8 0 0
0.606131 0.351728 0.822592 0.8 0 0
0.757763 0.760793 0.276508 0.8 0 0
0.104847 0.764921 0.409760 0.8 0 0
0.381373 0.447927 0.864798 0.8 0 0
0.768253 0.944071 0.431177 0.8 0 0
0.443486 0.025000 0.357062 0.8 0 0
0.365298 0.025000 0.367916 0.8 0 0
0.654992 0.317335 0.780560 0.8 0 0
0.412681 0.084139 0.718079 0.8 0 0
0.242692 0.908147 0.679339 0.8 0 0
0.170952 0.167971 0.583236 0.8 0 0
0.056825 0.381367 0.436219 0.8 0 0
0.882043 0.627396 0.477412 0.8 0 0
0.749528 0.770126 0.655496 0.8 0 0
0.718575 0.966071 0.542130 0.8 0 0
0.718534 0.542761 0.801412 0.8 0 0
0.198984 0.527350 0.115732 0.8 0 0
0.669865 0.026966 0.512615 0.8 0 0
0.097860 0.662826 0.250201 0.8 0 0
0.309006 0.506654 0.854676 0.8 0 0
0.793629 0.378887 0.676746 0.8 0 0
0.517670 0.758359 0.111449 0.8 0 0
0.631332 0.950904 0.724937 0.8 0 0
0.482379 0.965853 0.171268 0.8 0 0
0.614947 0.971792 0.703621 0.8 0 0
0.721045 0.547995 0.800182 0.8 0 0
0.797731 0.502084 0.710175 0.8 0 0
0.109519 0.762804 0.547317 0.8 0 0
0.160288 0.899480 0.419437 0.8 0 0
0.827375 0.668955 0.648731 0.8 0 0
0.725773 0.594606 0.119932 0.8 0 0
0.827334 0.621529 0.249931 0.8 0 0
0.886336 0.597466 0.423778 0.8 0 0
0.264851 0.776539 0.754484 0.8 0 0
0.331343 0.367187 0.834387 0.8 0 0
0.077855 0.323447 0.466095 0.8 0 0
0.808042 0.515238 0.697103 0.8 0 0
0.536270 0.306779 0.094741 0.8 0 0
0.725842 0.412348 0.150753 0.8 0 0
0.218327 0.603952 0.816504 0.8 0 0
0.288093 0.572997 0.058554 0.8 0 0
0.479013 0.025000 0.389246 0.8 0 0
0.706361 0.180093 0.657509 0.8 0 0
0.031304 0.583781 0.529420 0.8 0 0
0.394563 0.025000 0.505246 0.8 0 0
0.099078 0.423131 0.652902 0.8 0 0
0.210119 0.746413 0.743897 0.8 0 0
0.493472 0.944671 0.152709 0.8 0 0
0.827491 0.301572 0.412592 0.8 0 0
0.153808 0.839641 0.528855 0.8 0 0
0.557135 0.590416 0.877153 0.8 0 0
0.068480 0.508195 0.286289 0.8 0 0
0.285588 0.962648 0.722514 0.8 0 0
0.407500 0.210908 0.795321 0.8 0 0
0.733869 0.163413 0.591019 0.8 0 0
0.321742 0.429241 0.070211 0.8 0 0
0.530981 0.152324 0.175720 0.8 0 0
0.887375 0.586556 0.447137 0.8 0 0
0.327248 0.803384 0.772745 0.8 0 0
0.883895 0.610591 0.404897 0.8 0 0
0.596116 0.763667 0.138078 0.8 0 0
0.148440 0.332314 0.229703 0.8 0 0
