0.427040 0.546535 0.087597 0.8 0 0
0.352430 0.740158 0.119022 0.8 0 0
0.375448 0.695817 0.111825 0.8 0 0
0.170117 0.960710 0.227287 0.8 0 0
0.373205 0.160838 0.268978 0.8 0 0
0.180712 0.887146 0.404669 0.8 0 0
0.444170 0.566153 0.459325 0.8 0 0
0.266288 0.326464 0.417351 0.8 0 0
0.563342 0.393827 0.164813 0.8 0 0
0.409404 0.483580 0.077380 0.8 0 0
0.339795 0.862316 0.200707 0.8 0 0
0.079654 0.077276 0.128471 0.8 0 0
0.077635 0.393915 0.375603 0.8 0 0
0.283957 0.160838 0.267453 0.8 0 0
0.308937 0.441529 0.402759 0.8 0 0
0.135694 0.025000 0.318612 0.8 0 0
0.062377 0.299754 0.047546 0.8 0 0
0.419619 0.547713 0.160812 0.8 0 0
0.313961 0.093850 0.046368 0.8 0 0
0.169995 0.960568 0.262341 0.8 0 0
0.501401 0.114039 0.510147 0.8 0 0
0.241383 0.619659 0.450641 0.8 0 0
0.452291 0.639604 0.447404 0.8 0 0
0.420429 0.713492 0.285291 0.8 0 0
0.178127 0.461213 0.399718 0.8 0 0
0.169020 0.407051 0.169518 0.8 0 0
0.601499 0.224863 0.273104 0.8 0 0
0.124873 0.133755 0.382475 0.8 0 0
0.056450 0.300104 0.373963 0.8 0 0
0.350135 0.038825 0.072749 0.8 0 0
0.429978 0.970482 0.417093 0.8 0 0
0.386929 0.873401 0.202112 0.8 0 0
0.455379 0.290327 0.046016 0.8 0 0
0.171659 0.810271 0.383838 0.8 0 0
0.432654 0.074577 0.465872 0.8 0 0
0.130037 0.175218 0.300345 0.8 0 0
0.136639 0.455735 0.477245 0.8 0 0
0.114385 0.030327 0.345242 0.8 0 0
0.248025 0.538919 0.086361 0.8 0 0
0.459601 0.480699 0.240766 0.8 0 0
0.157931 0.931750 0.327444 0.8 0 0
0.333767 0.713165 0.181793 0.8 0 0
0.400854 0.297572 0.047192 0.8 0 0
0.487783 0.406091 0.485302 0.8 0 0
0.411588 0.908693 0.318414 0.8 0 0
0.329040 0.160838 0.281886 0.8 0 0
0.304518 0.552602 0.461524 0.8 0 0
0.461192 0.580861 0.456938 0.8 0 0
0.121749 0.589262 0.171090 0.8 0 0
0.273586 0.605628 0.168156 0.8 0 0
0.356588 0.251616 0.039733 0.8 0 0
0.087189 0.065755 0.121874 0.8 0 0
0.331175 0.036691 0.064600 0.8 0 0
0.319971 0.810729 0.130475 0.8 0 0
0.442911 0.956390 0.221083 0.8 0 0
0.130686 0.025000 0.162564 0.8 0 0
0.505136 0.060329 0.492979 0.8 0 0
0.226374 0.910709 0.123204 0.8 0 0
0.457456 0.043311 0.475846 0.8 0 0
0.054101 0.146125 0.520403 0.8 0 0
0.469908 0.905983 0.379007 0.8 0 0
0.325904 0.743344 0.119539 0.8 0 0
0.590138 0.121322 0.477356 0.8 0 0
0.224003 0.316557 0.499833 0.8 0 0
0.581506 0.313393 0.267646 0.8 0 0
0.106049 0.519738 0.346788 0.8 0 0
0.244347 0.516487 0.082721 0.8 0 0
0.451766 0.442882 0.402588 0.8 0 0
0.422369 0.302831 0.502061 0.8 0 0
0.287844 0.025000 0.190140 0.8 0 0
0.079773 0.403385 0.143900 0.8 0 0
0.318751 0.156792 0.523813 0.8 0 0
0.505992 0.205005 0.311679 0.8 0 0
0.236882 0.774418 0.425524 0.8 0 0
0.124430 0.601133 0.244292 0.8 0 0
0.308405 0.325700 0.417448 0.8 0 0
0.060929 0.319939 0.495316 0.8 0 0
0.527861 0.550943 0.148554 0.8 0 0
0.558040 0.072197 0.318456 0.8 0 0
0.356072 0.295892 0.128878 0.8 0 0
0.205935 0.025000 0.251298 0.8 0 0
0.292520 0.432714 0.069125 0.8 0 0
0.571968 0.303835 0.048208 0.8 0 0
0.594540 0.255675 0.411988 0.8 0 0
0.248380 0.713318 0.114666 0.8 0 0
0.315727 0.851514 0.413011 0.8 0 0
0.598456 0.134053 0.043850 0.8 0 0
0.227901 0.757223 0.247362 0.8 0 0
0.505553 0.498549 0.470296 0.8 0 0
0.274263 0.281490 0.127052 0.8 0 0
0.398963 0.841062 0.247918 0.8 0 0
0.495197 0.269161 0.365451 0.8 0 0
0.592017 0.266847 0.448111 0.8 0 0
0.140895 0.411852 0.065739 0.8 0 0
0.123618 0.350664 0.494298 0.8 0 0
0.521604 0.156610 0.523754 0.8 0 0
0.595822 0.250001 0.238967 0.8 0 0
0.210512 0.653810 0.257095 0.8 0 0
0.536620 0.039414 0.267074 0.8 0 0
0.527164 0.025000 0.146984 0.8 0 0
0.404214 0.730710 0.432618 0.8 0 0
0.588528 0.282297 0.460767 0.8 0 0
0.419632 0.718228 0.367143 0.8 0 0
0.075447 0.384226 0.298024 0.8 0 0
0.372165 0.313087 0.049710 0.8 0 0
0.200210 0.522771 0.083741 0.8 0 0
0.121739 0.589218 0.323606 0.8 0 0
0.141989 0.025000 0.404016 0.8 0 0
0.125312 0.605039 0.144925 0.8 0 0
0.593052 0.262265 0.193491 0.8 0 0
0.056046 0.298314 0.445544 0.8 0 0
0.081464 0.410870 0.416517 0.8 0 0
0.034664 0.203630 0.172740 0.8 0 0
0.194064 0.025000 0.374522 0.8 0 0
0.245541 0.692151 0.438876 0.8 0 0
0.047754 0.256308 0.509612 0.8 0 0
0.261880 0.117065 0.097759 0.8 0 0
0.216485 0.961033 0.401349 0.8 0 0
0.149455 0.290698 0.334884 0.8 0 0
0.394964 0.864825 0.311065 0.8 0 0
0.232789 0.631683 0.378646 0.8 0 0
0.397297 0.967844 0.419339 0.8 0 0
0.552226 0.374341 0.059651 0.8 0 0
0.606180 0.204132 0.222579 0.8 0 0
0.114983 0.036218 0.359476 0.8 0 0
0.091584 0.059035 0.425719 0.8 0 0
0.395728 0.860286 0.313136 0.8 0 0
0.073578 0.086566 0.235779 0.8 0 0
0.120767 0.093261 0.406167 0.8 0 0
0.354166 0.237934 0.428577 0.8 0 0
0.489718 0.215654 0.033896 0.8 0 0
0.602676 0.219647 0.347746 0.8 0 0
0.260131 0.917055 0.430095 0.8 0 0
0.028021 0.174215 0.452361 0.8 0 0
0.282254 0.072405 0.496839 0.8 0 0
0.596339 0.247710 0.066999 0.8 0 0
0.195262 0.160838 0.250568 0.8 0 0
0.576020 0.278107 0.506074 0.8 0 0
0.545912 0.471011 0.130148 0.8 0 0
0.251920 0.587953 0.094319 0.8 0 0
0.299641 0.401814 0.142310 0.8 0 0
0.154884 0.735990 0.173090 0.8 0 0
0.148383 0.570583 0.458606 0.8 0 0
0.473514 0.223204 0.035122 0.8 0 0
0.456050 0.501801 0.285485 0.8 0 0
0.296778 0.609883 0.381410 0.8 0 0
0.476315 0.381367 0.229640 0.8 0 0
0.476936 0.377679 0.235031 0.8 0 0
0.229602 0.603490 0.382221 0.8 0 0
0.176476 0.968177 0.396686 0.8 0 0
0.078886 0.399457 0.201306 0.8 0 0
0.148318 0.283934 0.185482 0.8 0 0
0.613850 0.157613 0.262415 0.8 0 0
0.514499 0.150242 0.362265 0.8 0 0
0.149147 0.288865 0.337432 0.8 0 0
0.467727 0.697955 0.112172 0.8 0 0
0.135010 0.647984 0.381880 0.8 0 0
0.246997 0.025000 0.099350 0.8 0 0
0.367152 0.508675 0.155861 0.8 0 0
0.252858 0.355792 0.056640 0.8 0 0
0.035989 0.144036 0.408579 0.8 0 0
0.211171 0.788537 0.126874 0.8 0 0
0.334794 0.319307 0.050719 0.8 0 0
0.258661 0.124440 0.449965 0.8 0 0
0.398876 0.471752 0.398927 0.8 0 0
0.204005 0.025000 0.412935 0.8 0 0
0.330909 0.450913 0.478028 0.8 0 0
0.400899 0.576409 0.385655 0.8 0 0
0.148377 0.160838 0.128577 0.8 0 0
0.168362 0.795673 0.250934 0.8 0 0
0.381236 0.730600 0.117471 0.8 0 0
0.563701 0.234595 0.036971 0.8 0 0
0.082050 0.413467 0.130765 0.8 0 0
0.462715 0.462195 0.274270 0.8 0 0
0.496166 0.263400 0.386346 0.8 0 0
0.354376 0.158077 0.439235 0.8 0 0
0.367768 0.931123 0.171316 0.8 0 0
0.579011 0.104292 0.359718 0.8 0 0
0.511783 0.170592 0.408491 0.8 0 0
0.185322 0.025000 0.280502 0.8 0 0
0.396085 0.777495 0.360156 0.8 0 0
0.337621 0.190581 0.434582 0.8 0 0
0.233447 0.934553 0.169384 0.8 0 0
0.121965 0.105080 0.194079 0.8 0 0
0.422917 0.554129 0.461276 0.8 0 0
0.124804 0.602791 0.441184 0.8 0 0
0.367754 0.160838 0.347820 0.8 0 0
0.503616 0.160838 0.212363 0.8 0 0
0.161335 0.764555 0.170970 0.8 0 0
0.331711 0.209915 0.432131 0.8 0 0
0.474738 0.956239 0.156998 0.8 0 0
0.157028 0.335738 0.162408 0.8 0 0
0.396403 0.235904 0.121271 0.8 0 0
0.299532 0.088025 0.048226 0.8 0 0
0.331921 0.025000 0.376440 0.8 0 0
0.235582 0.788690 0.191370 0.8 0 0
0.528971 0.244306 0.511559 0.8 0 0
0.041664 0.135359 0.412980 0.8 0 0
0.165472 0.172403 0.026877 0.8 0 0
0.148997 0.652021 0.104717 0.8 0 0
0.235520 0.897894 0.420309 0.8 0 0
0.103309 0.216265 0.033996 0.8 0 0
0.451916 0.160838 0.122307 0.8 0 0
0.132797 0.638186 0.121546 0.8 0 0
0.205824 0.354330 0.493703 0.8 0 0
0.385300 0.169217 0.112815 0.8 0 0
0.369461 0.160838 0.155230 0.8 0 0
0.048974 0.124183 0.188050 0.8 0 0
0.375483 0.873903 0.202176 0.8 0 0
0.490291 0.298314 0.136167 0.8 0 0
0.151099 0.300475 0.181539 0.8 0 0
0.055316 0.295085 0.276457 0.8 0 0
0.294770 0.256831 0.509527 0.8 0 0
0.148035 0.160838 0.135993 0.8 0 0
0.426880 0.675152 0.328739 0.8 0 0
0.359106 0.960112 0.400565 0.8 0 0
0.056672 0.112414 0.467468 0.8 0 0
0.446029 0.160838 0.132903 0.8 0 0
0.169724 0.160838 0.309665 0.8 0 0
0.278073 0.606828 0.381798 0.8 0 0
0.093619 0.245353 0.511389 0.8 0 0
0.582117 0.310687 0.472870 0.8 0 0
0.176541 0.160838 0.236065 0.8 0 0
0.227134 0.752662 0.263651 0.8 0 0
0.226261 0.428589 0.404400 0.8 0 0
0.028609 0.155320 0.394159 0.8 0 0
0.081336 0.307043 0.048729 0.8 0 0
0.434453 0.967001 0.420057 0.8 0 0
0.297668 0.033739 0.071123 0.8 0 0
0.478435 0.769814 0.238147 0.8 0 0
0.425424 0.160838 0.313273 0.8 0 0
0.515413 0.606064 0.168184 0.8 0 0
0.556020 0.069105 0.107686 0.8 0 0
0.244905 0.351537 0.494156 0.8 0 0
0.039044 0.223030 0.222446 0.8 0 0
0.217959 0.255347 0.426369 0.8 0 0
0.239977 0.239876 0.428331 0.8 0 0
0.252367 0.160838 0.225590 0.8 0 0
0.195960 0.567266 0.202204 0.8 0 0
0.118269 0.068628 0.156465 0.8 0 0
0.512279 0.619943 0.115033 0.8 0 0
0.414293 0.749956 0.326260 0.8 0 0
0.053173 0.285592 0.369267 0.8 0 0
0.378311 0.038212 0.485910 0.8 0 0
0.502452 0.226041 0.201712 0.8 0 0
0.068443 0.223466 0.514942 0.8 0 0
0.496911 0.258970 0.392738 0.8 0 0
0.468492 0.938466 0.108989 0.8 0 0
0.294093 0.762198 0.427507 0.8 0 0
0.363730 0.092871 0.046680 0.8 0 0
0.218897 0.544549 0.160411 0.8 0 0
0.055704 0.113894 0.207617 0.8 0 0
0.234462 0.285112 0.045169 0.8 0 0
0.343656 0.463089 0.074054 0.8 0 0
0.504575 0.213428 0.372349 0.8 0 0
0.490252 0.717486 0.424793 0.8 0 0
0.266680 0.028520 0.482812 0.8 0 0
0.399870 0.833773 0.415891 0.8 0 0
0.444965 0.025000 0.139201 0.8 0 0
0.478177 0.370304 0.178987 0.8 0 0
0.028814 0.177728 0.104569 0.8 0 0
0.410094 0.139704 0.104996 0.8 0 0
0.473488 0.398170 0.200168 0.8 0 0
0.041888 0.235621 0.041096 0.8 0 0
0.258167 0.774113 0.124533 0.8 0 0
0.173686 0.204263 0.518058 0.8 0 0
0.378938 0.671093 0.107813 0.8 0 0
0.233476 0.461409 0.476324 0.8 0 0
0.266804 0.686063 0.178356 0.8 0 0
0.340294 0.508544 0.468674 0.8 0 0
0.199579 0.954696 0.392612 0.8 0 0
0.492026 0.709630 0.131009 0.8 0 0
0.324232 0.472691 0.398808 0.8 0 0
0.167534 0.160838 0.337623 0.8 0 0
0.300163 0.493792 0.079037 0.8 0 0
0.543867 0.480066 0.394390 0.8 0 0
0.049614 0.123204 0.168949 0.8 0 0
0.499206 0.245331 0.241189 0.8 0 0
0.183743 0.109636 0.041332 0.8 0 0
0.609960 0.187395 0.119374 0.8 0 0
0.431995 0.644754 0.218955 0.8 0 0
0.196281 0.724119 0.116419 0.8 0 0
0.427222 0.268266 0.042435 0.8 0 0
0.217291 0.082130 0.463462 0.8 0 0
0.242208 0.634476 0.101870 0.8 0 0
0.410341 0.674519 0.373214 0.8 0 0
0.283207 0.440002 0.147153 0.8 0 0
0.296284 0.727873 0.366448 0.8 0 0
0.293648 0.029092 0.069637 0.8 0 0
0.392756 0.823997 0.132629 0.8 0 0
0.245118 0.455212 0.072776 0.8 0 0
0.472238 0.025000 0.229487 0.8 0 0
0.199293 0.734485 0.432005 0.8 0 0
0.364965 0.163369 0.438033 0.8 0 0
0.303101 0.912147 0.181999 0.8 0 0
0.563376 0.393675 0.186735 0.8 0 0
0.506063 0.196538 0.116279 0.8 0 0
0.315496 0.025000 0.434179 0.8 0 0
0.430614 0.941952 0.273833 0.8 0 0
0.026960 0.157841 0.128459 0.8 0 0
0.472313 0.405153 0.400973 0.8 0 0
0.517877 0.412747 0.484222 0.8 0 0
0.487577 0.314440 0.291034 0.8 0 0
0.234438 0.792028 0.422666 0.8 0 0
0.388109 0.403451 0.407588 0.8 0 0
0.345110 0.287840 0.045612 0.8 0 0
0.419267 0.449865 0.071908 0.8 0 0
0.420329 0.117616 0.452142 0.8 0 0
0.488985 0.723094 0.253172 0.8 0 0
0.475424 0.783147 0.268847 0.8 0 0
0.194442 0.963750 0.127191 0.8 0 0
0.230198 0.770883 0.317116 0.8 0 0
0.392302 0.914181 0.369200 0.8 0 0
0.148130 0.282821 0.235935 0.8 0 0
0.098452 0.048534 0.212940 0.8 0 0
0.507192 0.332923 0.497177 0.8 0 0
0.350984 0.181547 0.435728 0.8 0 0
0.116304 0.049252 0.361649 0.8 0 0
0.196836 0.549241 0.462069 0.8 0 0
0.178101 0.970085 0.366762 0.8 0 0
0.269004 0.160838 0.156167 0.8 0 0
0.515344 0.025000 0.119143 0.8 0 0
0.516979 0.125791 0.246133 0.8 0 0
0.471205 0.960388 0.356189 0.8 0 0
0.538997 0.229663 0.036170 0.8 0 0
0.360560 0.160838 0.122736 0.8 0 0
0.228746 0.909884 0.363460 0.8 0 0
0.531838 0.533333 0.332416 0.8 0 0
0.311044 0.421432 0.405308 0.8 0 0
0.436648 0.617106 0.272856 0.8 0 0
0.524090 0.055686 0.408381 0.8 0 0
0.612119 0.168126 0.026183 0.8 0 0
0.430129 0.025000 0.437396 0.8 0 0
0.122212 0.591313 0.157355 0.8 0 0
0.170647 0.961332 0.241654 0.8 0 0
0.174025 0.900239 0.145545 0.8 0 0
0.391964 0.036500 0.485363 0.8 0 0
0.455406 0.084360 0.087305 0.8 0 0
0.402088 0.719995 0.434357 0.8 0 0
0.526926 0.027724 0.295478 0.8 0 0
0.454249 0.025000 0.381700 0.8 0 0
0.550365 0.246924 0.511134 0.8 0 0
0.520479 0.583632 0.301792 0.8 0 0
0.373833 0.688048 0.371498 0.8 0 0
0.442505 0.025000 0.228326 0.8 0 0
0.389014 0.694311 0.111581 0.8 0 0
0.479076 0.268440 0.042464 0.8 0 0
0.239898 0.944583 0.439149 0.8 0 0
0.150722 0.142278 0.105819 0.8 0 0
0.475475 0.386364 0.399937 0.8 0 0
0.464037 0.454339 0.395234 0.8 0 0
0.398664 0.639081 0.172398 0.8 0 0
0.227406 0.912270 0.361481 0.8 0 0
0.467217 0.025000 0.447248 0.8 0 0
0.591056 0.271103 0.362599 0.8 0 0
0.304363 0.687743 0.178569 0.8 0 0
0.562179 0.078532 0.064008 0.8 0 0
0.481222 0.304010 0.501870 0.8 0 0
0.450249 0.515832 0.393337 0.8 0 0
0.082835 0.072413 0.079625 0.8 0 0
0.205039 0.330043 0.052461 0.8 0 0
0.272548 0.639299 0.447453 0.8 0 0
0.218960 0.910729 0.426864 0.8 0 0
0.348973 0.506012 0.155524 0.8 0 0
0.514117 0.611804 0.229112 0.8 0 0
0.432620 0.641045 0.377150 0.8 0 0
0.606353 0.203368 0.412320 0.8 0 0
0.250642 0.025000 0.079103 0.8 0 0
0.146936 0.700792 0.166347 0.8 0 0
0.270290 0.095964 0.091014 0.8 0 0
0.240795 0.106813 0.507838 0.8 0 0
0.364879 0.553649 0.388542 0.8 0 0
0.201266 0.598820 0.286702 0.8 0 0
0.307915 0.025000 0.211687 0.8 0 0
0.155899 0.740486 0.410076 0.8 0 0
0.157645 0.156195 0.026481 0.8 0 0
0.452922 0.520393 0.232882 0.8 0 0
0.440058 0.603490 0.096841 0.8 0 0
0.198260 0.580948 0.191639 0.8 0 0
0.450908 0.159084 0.025559 0.8 0 0
0.296369 0.136557 0.446100 0.8 0 0
0.316428 0.289455 0.422044 0.8 0 0
0.167672 0.679691 0.109208 0.8 0 0
0.228478 0.025000 0.207045 0.8 0 0
0.178459 0.171967 0.113163 0.8 0 0
0.499790 0.241862 0.183549 0.8 0 0
0.321049 0.764009 0.122893 0.8 0 0
0.569276 0.089393 0.293601 0.8 0 0
0.326087 0.549939 0.161094 0.8 0 0
0.581733 0.312389 0.214904 0.8 0 0
0.532405 0.530824 0.319266 0.8 0 0
0.579703 0.321380 0.390585 0.8 0 0
0.227170 0.160838 0.135843 0.8 0 0
0.317728 0.074639 0.084197 0.8 0 0
0.078502 0.079038 0.083510 0.8 0 0
0.090565 0.060594 0.097376 0.8 0 0
0.111001 0.541669 0.371342 0.8 0 0
0.435322 0.624984 0.378010 0.8 0 0
0.302653 0.467737 0.399436 0.8 0 0
0.133032 0.025000 0.303134 0.8 0 0
0.140909 0.674104 0.266948 0.8 0 0
0.150332 0.295914 0.392330 0.8 0 0
0.097134 0.480263 0.299333 0.8 0 0
0.165292 0.782078 0.380599 0.8 0 0
0.179775 0.172513 0.436874 0.8 0 0
0.495998 0.692042 0.249910 0.8 0 0
0.182122 0.974806 0.305907 0.8 0 0
0.216721 0.357734 0.056956 0.8 0 0
0.512260 0.167755 0.128527 0.8 0 0
0.138510 0.057961 0.078866 0.8 0 0
0.374536 0.282799 0.505312 0.8 0 0
0.557236 0.420864 0.164011 0.8 0 0
0.462041 0.160838 0.162785 0.8 0 0
0.080169 0.296045 0.503162 0.8 0 0
0.139292 0.666947 0.438265 0.8 0 0
0.590948 0.271103 0.507210 0.8 0 0
0.552656 0.253471 0.510072 0.8 0 0
0.443547 0.496389 0.395803 0.8 0 0
0.468219 0.429484 0.398655 0.8 0 0
0.466480 0.899290 0.141403 0.8 0 0
0.158165 0.946676 0.353198 0.8 0 0
0.055132 0.114768 0.288901 0.8 0 0
0.591648 0.268484 0.376277 0.8 0 0
0.149286 0.711201 0.125168 0.8 0 0
0.353401 0.160838 0.175374 0.8 0 0
0.599986 0.231562 0.172208 0.8 0 0
0.607323 0.199069 0.279465 0.8 0 0
0.400782 0.437296 0.403296 0.8 0 0
0.211882 0.166883 0.112519 0.8 0 0
0.155568 0.327053 0.378257 0.8 0 0
0.456527 0.419992 0.483046 0.8 0 0
0.166416 0.152472 0.441023 0.8 0 0
0.515290 0.606610 0.443549 0.8 0 0
0.142432 0.248932 0.346901 0.8 0 0
0.404310 0.390707 0.409204 0.8 0 0
0.509462 0.184384 0.289605 0.8 0 0
0.128891 0.160838 0.426822 0.8 0 0
0.269141 0.939478 0.166612 0.8 0 0
0.116387 0.050064 0.443111 0.8 0 0
0.441399 0.588869 0.226373 0.8 0 0
0.183099 0.160838 0.194741 0.8 0 0
0.036911 0.213581 0.253543 0.8 0 0
0.214270 0.156589 0.110394 0.8 0 0
0.346401 0.265473 0.508124 0.8 0 0
0.298090 0.755150 0.187117 0.8 0 0
0.353761 0.230885 0.513738 0.8 0 0
0.121503 0.100520 0.332754 0.8 0 0
0.242143 0.886030 0.257856 0.8 0 0
0.119905 0.084763 0.192328 0.8 0 0
0.223675 0.378705 0.489747 0.8 0 0
0.394790 0.688550 0.178671 0.8 0 0
0.353474 0.203085 0.518250 0.8 0 0
0.220575 0.159346 0.524629 0.8 0 0
0.398597 0.371438 0.490926 0.8 0 0
0.551397 0.446723 0.227701 0.8 0 0
0.517488 0.596878 0.192456 0.8 0 0
0.473050 0.750851 0.429349 0.8 0 0
0.193197 0.550834 0.330033 0.8 0 0
0.149020 0.710023 0.406030 0.8 0 0
0.118696 0.072836 0.138433 0.8 0 0
0.306169 0.657542 0.375367 0.8 0 0
0.240709 0.108695 0.095084 0.8 0 0
0.119653 0.082279 0.451125 0.8 0 0
0.321766 0.952020 0.432816 0.8 0 0
0.091470 0.059209 0.317083 0.8 0 0
0.201791 0.952099 0.288658 0.8 0 0
0.420684 0.705375 0.436729 0.8 0 0
0.185163 0.878430 0.179195 0.8 0 0
0.421525 0.926343 0.199822 0.8 0 0
0.441708 0.587036 0.177900 0.8 0 0
0.145976 0.025000 0.235416 0.8 0 0
0.461856 0.025000 0.195451 0.8 0 0
0.233534 0.478146 0.398116 0.8 0 0
0.384601 0.798989 0.192676 0.8 0 0
0.308273 0.458834 0.149541 0.8 0 0
0.193228 0.700378 0.112566 0.8 0 0
0.178763 0.601264 0.096480 0.8 0 0
0.505897 0.158487 0.111001 0.8 0 0
0.400913 0.829474 0.346976 0.8 0 0
0.232135 0.092668 0.460101 0.8 0 0
0.059791 0.314899 0.053398 0.8 0 0
0.151249 0.025000 0.185889 0.8 0 0
0.365699 0.059408 0.470711 0.8 0 0
0.360740 0.735729 0.431803 0.8 0 0
0.371844 0.949911 0.434612 0.8 0 0
0.469509 0.905205 0.417325 0.8 0 0
0.184020 0.575361 0.457830 0.8 0 0
0.413081 0.757157 0.321669 0.8 0 0
0.255616 0.160838 0.269068 0.8 0 0
0.474241 0.393696 0.320972 0.8 0 0
0.082001 0.413249 0.316238 0.8 0 0
0.475409 0.783212 0.212064 0.8 0 0
0.199375 0.025000 0.215408 0.8 0 0
0.153528 0.314920 0.410827 0.8 0 0
0.300903 0.582737 0.384853 0.8 0 0
0.098884 0.488010 0.279486 0.8 0 0
0.516881 0.126757 0.219540 0.8 0 0
0.614408 0.158467 0.211757 0.8 0 0
0.120744 0.584810 0.383968 0.8 0 0
0.070647 0.362972 0.224749 0.8 0 0
0.466229 0.441311 0.385872 0.8 0 0
0.178193 0.461605 0.315760 0.8 0 0
0.191908 0.875671 0.409091 0.8 0 0
0.060156 0.316513 0.310265 0.8 0 0
0.434165 0.631858 0.369354 0.8 0 0
0.086539 0.433346 0.480879 0.8 0 0
0.137158 0.128884 0.448548 0.8 0 0
0.309118 0.160838 0.204937 0.8 0 0
0.054977 0.115005 0.104196 0.8 0 0
0.085381 0.428218 0.206879 0.8 0 0
0.313189 0.185278 0.114851 0.8 0 0
0.129008 0.621405 0.130716 0.8 0 0
0.533676 0.525194 0.205028 0.8 0 0
0.232210 0.084091 0.500575 0.8 0 0
0.498679 0.595830 0.454508 0.8 0 0
0.458662 0.376916 0.139153 0.8 0 0
0.456947 0.972871 0.348528 0.8 0 0
0.134543 0.064901 0.468958 0.8 0 0
0.178924 0.350381 0.494344 0.8 0 0
0.517779 0.595590 0.151328 0.8 0 0
0.060899 0.105951 0.482079 0.8 0 0
0.457835 0.973914 0.267804 0.8 0 0
0.052591 0.283017 0.336565 0.8 0 0
0.319341 0.192828 0.519914 0.8 0 0
0.550091 0.452506 0.393890 0.8 0 0
0.563344 0.080314 0.297887 0.8 0 0
0.025320 0.162256 0.045008 0.8 0 0
0.262013 0.108911 0.041564 0.8 0 0
0.199538 0.634913 0.448165 0.8 0 0
0.091881 0.457001 0.274384 0.8 0 0
0.583108 0.306301 0.122692 0.8 0 0
0.049023 0.267218 0.203766 0.8 0 0
0.165469 0.782863 0.338476 0.8 0 0
0.354228 0.656822 0.105497 0.8 0 0
0.044080 0.131666 0.291616 0.8 0 0
0.169309 0.659069 0.105861 0.8 0 0
0.449899 0.511904 0.393835 0.8 0 0
0.471058 0.912621 0.427830 0.8 0 0
0.028918 0.154848 0.027506 0.8 0 0
0.571600 0.092950 0.308504 0.8 0 0
0.611438 0.180848 0.153018 0.8 0 0
0.277666 0.744283 0.185739 0.8 0 0
0.122823 0.113537 0.235801 0.8 0 0
0.084494 0.424290 0.219620 0.8 0 0
0.537857 0.063002 0.056208 0.8 0 0
0.291280 0.160838 0.433151 0.8 0 0
0.102432 0.503721 0.454668 0.8 0 0
0.362803 0.025000 0.293521 0.8 0 0
0.437606 0.611411 0.186519 0.8 0 0
0.395019 0.864498 0.278534 0.8 0 0
0.239369 0.251376 0.123233 0.8 0 0
0.257883 0.910080 0.183163 0.8 0 0
0.166210 0.579617 0.457140 0.8 0 0
0.578249 0.327817 0.487610 0.8 0 0
0.062191 0.325526 0.280979 0.8 0 0
0.276140 0.825241 0.132831 0.8 0 0
0.609906 0.187635 0.446564 0.8 0 0
0.515370 0.141656 0.416001 0.8 0 0
0.183114 0.904691 0.423780 0.8 0 0
0.076636 0.121969 0.037398 0.8 0 0
0.254490 0.757310 0.362715 0.8 0 0
0.417459 0.031944 0.483907 0.8 0 0
0.512351 0.537479 0.086128 0.8 0 0
0.369002 0.031264 0.483689 0.8 0 0
0.050063 0.271823 0.400592 0.8 0 0
0.070460 0.362142 0.488009 0.8 0 0
0.209032 0.395311 0.408620 0.8 0 0
0.212162 0.579769 0.092991 0.8 0 0
0.270539 0.184514 0.028843 0.8 0 0
0.203928 0.160838 0.300216 0.8 0 0
0.481115 0.352846 0.385957 0.8 0 0
0.051238 0.120721 0.339261 0.8 0 0
0.236947 0.387521 0.140498 0.8 0 0
0.483393 0.228027 0.514201 0.8 0 0
0.362190 0.784674 0.190861 0.8 0 0
0.300498 0.436467 0.146705 0.8 0 0
0.464294 0.452811 0.292405 0.8 0 0
0.166029 0.389267 0.230476 0.8 0 0
0.300061 0.430335 0.404179 0.8 0 0
0.354710 0.798378 0.421635 0.8 0 0
0.137629 0.220367 0.401757 0.8 0 0
0.443734 0.417700 0.483418 0.8 0 0
0.546296 0.469308 0.107466 0.8 0 0
0.227989 0.581712 0.384983 0.8 0 0
0.368460 0.044065 0.487781 0.8 0 0
0.195836 0.944915 0.438867 0.8 0 0
0.169295 0.516050 0.082650 0.8 0 0
0.152110 0.723705 0.143670 0.8 0 0
0.384133 0.965179 0.145137 0.8 0 0
0.239878 0.828449 0.322074 0.8 0 0
0.496139 0.124170 0.100031 0.8 0 0
0.184712 0.160838 0.425357 0.8 0 0
0.302311 0.642878 0.446872 0.8 0 0
0.427138 0.758096 0.428173 0.8 0 0
0.286852 0.445261 0.402286 0.8 0 0
0.420971 0.040305 0.476804 0.8 0 0
0.035515 0.144761 0.064438 0.8 0 0
0.425029 0.603446 0.167879 0.8 0 0
0.130162 0.160838 0.284417 0.8 0 0
0.230723 0.774004 0.274514 0.8 0 0
0.195340 0.563578 0.248503 0.8 0 0
0.115727 0.043564 0.203883 0.8 0 0
0.379831 0.592513 0.166493 0.8 0 0
0.317272 0.331243 0.052656 0.8 0 0
0.612271 0.177161 0.408265 0.8 0 0
0.465865 0.966657 0.232083 0.8 0 0
0.446602 0.557948 0.347120 0.8 0 0
0.226849 0.719035 0.367569 0.8 0 0
0.240898 0.952764 0.155709 0.8 0 0
0.508368 0.025000 0.217477 0.8 0 0
0.167818 0.958011 0.141338 0.8 0 0
0.566397 0.380298 0.270309 0.8 0 0
0.402504 0.270775 0.042842 0.8 0 0
0.449918 0.538243 0.209198 0.8 0 0
0.423568 0.050831 0.489944 0.8 0 0
0.192500 0.025000 0.175141 0.8 0 0
0.150079 0.294408 0.241192 0.8 0 0
0.211253 0.658218 0.175473 0.8 0 0
0.220228 0.536301 0.159365 0.8 0 0
0.461869 0.359655 0.413142 0.8 0 0
0.509733 0.120730 0.512286 0.8 0 0
0.169155 0.407859 0.384776 0.8 0 0
0.287775 0.966983 0.129944 0.8 0 0
0.431179 0.300933 0.129517 0.8 0 0
0.339331 0.292226 0.503782 0.8 0 0
0.399671 0.733765 0.365701 0.8 0 0
0.238943 0.749476 0.120534 0.8 0 0
0.170272 0.223684 0.035200 0.8 0 0
0.470791 0.803659 0.284682 0.8 0 0
0.495894 0.692500 0.245067 0.8 0 0
0.600225 0.136761 0.040602 0.8 0 0
0.372863 0.587451 0.094238 0.8 0 0
0.122047 0.105888 0.134807 0.8 0 0
0.434973 0.025000 0.280717 0.8 0 0
0.457931 0.802546 0.420959 0.8 0 0
0.458643 0.486395 0.232020 0.8 0 0
0.420839 0.956768 0.397717 0.8 0 0
0.329581 0.575078 0.164282 0.8 0 0
0.149912 0.713972 0.373918 0.8 0 0
0.287668 0.025000 0.381738 0.8 0 0
0.084913 0.426145 0.262558 0.8 0 0
0.488625 0.484300 0.077497 0.8 0 0
0.256774 0.491850 0.471384 0.8 0 0
0.123309 0.118333 0.405605 0.8 0 0
0.404229 0.138303 0.104548 0.8 0 0
0.425308 0.363495 0.412655 0.8 0 0
0.123480 0.120021 0.302173 0.8 0 0
0.432987 0.662473 0.443692 0.8 0 0
0.215493 0.120750 0.451142 0.8 0 0
0.443023 0.246270 0.511241 0.8 0 0
0.396038 0.036214 0.064753 0.8 0 0
0.189350 0.425512 0.145315 0.8 0 0
0.124640 0.267153 0.507851 0.8 0 0
0.543315 0.482510 0.209303 0.8 0 0
0.379387 0.243542 0.122240 0.8 0 0
0.526196 0.558319 0.279528 0.8 0 0
0.144117 0.688310 0.214934 0.8 0 0
0.205314 0.374035 0.411318 0.8 0 0
0.594545 0.255653 0.462457 0.8 0 0
0.473177 0.912367 0.253789 0.8 0 0
0.078684 0.398563 0.411753 0.8 0 0
0.478334 0.712598 0.114549 0.8 0 0
0.610315 0.185824 0.507626 0.8 0 0
0.234108 0.635262 0.101998 0.8 0 0
0.113721 0.319154 0.499412 0.8 0 0
0.168890 0.130650 0.034629 0.8 0 0
0.363898 0.110038 0.095513 0.8 0 0
0.464786 0.449887 0.382851 0.8 0 0
0.287970 0.025000 0.095149 0.8 0 0
0.356889 0.231213 0.120676 0.8 0 0
0.279682 0.025000 0.326244 0.8 0 0
0.192851 0.187111 0.435022 0.8 0 0
0.366625 0.025000 0.198315 0.8 0 0
0.326095 0.274878 0.043508 0.8 0 0
0.194910 0.561025 0.208679 0.8 0 0
0.397807 0.668496 0.373978 0.8 0 0
0.446107 0.560894 0.211618 0.8 0 0
0.499465 0.588280 0.455734 0.8 0 0
0.412841 0.910920 0.236253 0.8 0 0
0.150058 0.052261 0.059634 0.8 0 0
0.196541 0.239221 0.037721 0.8 0 0
0.164158 0.334167 0.416374 0.8 0 0
0.537924 0.506383 0.102403 0.8 0 0
0.493159 0.281271 0.386043 0.8 0 0
0.359980 0.148327 0.442345 0.8 0 0
0.237632 0.067505 0.468128 0.8 0 0
0.252882 0.517862 0.082944 0.8 0 0
0.163584 0.188159 0.115217 0.8 0 0
0.035984 0.209478 0.145433 0.8 0 0
0.083593 0.420297 0.388155 0.8 0 0
0.108794 0.531893 0.269205 0.8 0 0
0.339843 0.025000 0.097218 0.8 0 0
0.115442 0.040749 0.135493 0.8 0 0
0.367849 0.025000 0.080415 0.8 0 0
0.434093 0.031567 0.070429 0.8 0 0
0.251359 0.506885 0.468944 0.8 0 0
0.141559 0.676985 0.272257 0.8 0 0
0.509414 0.114308 0.096878 0.8 0 0
0.114058 0.027102 0.398242 0.8 0 0
0.128624 0.097452 0.045219 0.8 0 0
0.126380 0.148621 0.143270 0.8 0 0
0.319424 0.946306 0.437682 0.8 0 0
0.450703 0.160838 0.275726 0.8 0 0
0.104835 0.038776 0.248612 0.8 0 0
0.321227 0.064101 0.469214 0.8 0 0
0.572897 0.351515 0.435669 0.8 0 0
0.194747 0.068433 0.467832 0.8 0 0
0.293045 0.448316 0.478449 0.8 0 0
0.295178 0.160838 0.223646 0.8 0 0
0.217096 0.930627 0.338944 0.8 0 0
0.311119 0.025000 0.245394 0.8 0 0
0.477256 0.375781 0.266390 0.8 0 0
0.461202 0.846124 0.270683 0.8 0 0
0.324683 0.381869 0.060873 0.8 0 0
0.448966 0.259886 0.124312 0.8 0 0
0.442321 0.583392 0.330896 0.8 0 0
0.198549 0.092573 0.046775 0.8 0 0
0.543929 0.067824 0.054670 0.8 0 0
0.194514 0.155071 0.523263 0.8 0 0
0.468773 0.426189 0.368792 0.8 0 0
0.027084 0.170069 0.514817 0.8 0 0
0.459131 0.025000 0.356016 0.8 0 0
0.339004 0.133415 0.447102 0.8 0 0
0.127890 0.160838 0.147804 0.8 0 0
0.248422 0.025000 0.188147 0.8 0 0
0.259313 0.160838 0.373137 0.8 0 0
0.341163 0.814417 0.419032 0.8 0 0
0.401679 0.438431 0.403152 0.8 0 0
0.455920 0.971666 0.156183 0.8 0 0
0.496243 0.262941 0.180647 0.8 0 0
0.605786 0.205878 0.474800 0.8 0 0
0.472905 0.794298 0.391159 0.8 0 0
0.173300 0.901658 0.240278 0.8 0 0
0.337024 0.635240 0.171911 0.8 0 0
0.403442 0.814439 0.281872 0.8 0 0
0.366242 0.671006 0.442307 0.8 0 0
0.151725 0.722003 0.213295 0.8 0 0
0.475917 0.074585 0.052513 0.8 0 0
0.110751 0.029730 0.120642 0.8 0 0
0.322414 0.607177 0.097440 0.8 0 0
0.427292 0.034771 0.484810 0.8 0 0
0.216411 0.518669 0.392977 0.8 0 0
0.614173 0.168737 0.348244 0.8 0 0
0.119509 0.036268 0.071931 0.8 0 0
0.052951 0.284610 0.079237 0.8 0 0
0.360633 0.025000 0.438115 0.8 0 0
0.186697 0.969822 0.310344 0.8 0 0
0.131728 0.633451 0.277600 0.8 0 0
0.305923 0.797833 0.357577 0.8 0 0
0.462177 0.841803 0.250412 0.8 0 0
0.223896 0.193047 0.434270 0.8 0 0
0.392407 0.917050 0.430092 0.8 0 0
0.438728 0.160838 0.294773 0.8 0 0
0.039217 0.223793 0.491751 0.8 0 0
0.447570 0.359567 0.057253 0.8 0 0
0.612424 0.176484 0.070839 0.8 0 0
0.287172 0.941686 0.108400 0.8 0 0
0.137864 0.221764 0.425650 0.8 0 0
0.564414 0.081952 0.207145 0.8 0 0
0.123417 0.094716 0.503971 0.8 0 0
0.499984 0.674388 0.258550 0.8 0 0
0.354476 0.217007 0.118875 0.8 0 0
0.325432 0.878070 0.348918 0.8 0 0
0.280540 0.025000 0.291439 0.8 0 0
0.450821 0.532875 0.197927 0.8 0 0
0.438459 0.225124 0.430202 0.8 0 0
0.152225 0.307174 0.389063 0.8 0 0
0.155022 0.736601 0.370337 0.8 0 0
0.370303 0.220564 0.515413 0.8 0 0
0.465504 0.827074 0.262078 0.8 0 0
0.144105 0.258883 0.413690 0.8 0 0
0.429738 0.025000 0.445961 0.8 0 0
0.099199 0.489406 0.100173 0.8 0 0
0.052517 0.282690 0.483291 0.8 0 0
0.413417 0.091478 0.502936 0.8 0 0
0.400884 0.847914 0.136510 0.8 0 0
0.582807 0.307632 0.377883 0.8 0 0
0.316776 0.639953 0.377597 0.8 0 0
0.191039 0.538003 0.280017 0.8 0 0
0.070732 0.095218 0.045932 0.8 0 0
0.154347 0.733612 0.214860 0.8 0 0
0.142513 0.249412 0.319192 0.8 0 0
0.041809 0.235272 0.270550 0.8 0 0
0.573720 0.347871 0.278248 0.8 0 0
0.457758 0.491654 0.296849 0.8 0 0
0.523722 0.059305 0.156025 0.8 0 0
0.460765 0.473782 0.182880 0.8 0 0
0.145152 0.383397 0.488985 0.8 0 0
0.331138 0.915273 0.120867 0.8 0 0
0.376199 0.278915 0.423381 0.8 0 0
0.429775 0.437427 0.480216 0.8 0 0
0.160004 0.758663 0.264656 0.8 0 0
0.455523 0.025000 0.186041 0.8 0 0
0.513817 0.613135 0.201993 0.8 0 0
0.248460 0.025000 0.233549 0.8 0 0
0.250468 0.670809 0.107767 0.8 0 0
0.571227 0.358913 0.398141 0.8 0 0
0.263268 0.606174 0.452829 0.8 0 0
0.518246 0.248910 0.510812 0.8 0 0
0.550363 0.208758 0.517329 0.8 0 0
0.352619 0.488948 0.471855 0.8 0 0
0.120639 0.092573 0.046775 0.8 0 0
0.185461 0.025000 0.458337 0.8 0 0
0.293054 0.548324 0.087888 0.8 0 0
0.214038 0.458114 0.476859 0.8 0 0
0.163897 0.376588 0.210189 0.8 0 0
0.152427 0.160838 0.204439 0.8 0 0
0.479908 0.763289 0.309850 0.8 0 0
0.528131 0.301020 0.047751 0.8 0 0
0.448661 0.423396 0.405059 0.8 0 0
0.336922 0.883851 0.413136 0.8 0 0
0.595999 0.249216 0.152790 0.8 0 0
0.378470 0.628759 0.449164 0.8 0 0
0.121286 0.587211 0.135316 0.8 0 0
0.484772 0.741751 0.343331 0.8 0 0
0.325813 0.050893 0.076607 0.8 0 0
0.514037 0.154794 0.392187 0.8 0 0
0.479867 0.469221 0.075050 0.8 0 0
0.157124 0.142668 0.519298 0.8 0 0
0.186042 0.508282 0.307087 0.8 0 0
0.532873 0.528750 0.351948 0.8 0 0
0.279398 0.157924 0.524174 0.8 0 0
0.425248 0.446374 0.478764 0.8 0 0
0.032573 0.149259 0.335561 0.8 0 0
0.380630 0.324391 0.132492 0.8 0 0
0.115448 0.040807 0.340506 0.8 0 0
0.135666 0.650886 0.242780 0.8 0 0
0.236065 0.284392 0.422686 0.8 0 0
0.492347 0.286094 0.364948 0.8 0 0
0.179515 0.116621 0.039104 0.8 0 0
0.255846 0.724163 0.433680 0.8 0 0
0.600046 0.136487 0.086445 0.8 0 0
0.347180 0.064089 0.494181 0.8 0 0
0.517320 0.597620 0.187280 0.8 0 0
0.399165 0.937868 0.440725 0.8 0 0
0.499416 0.244087 0.138724 0.8 0 0
0.136508 0.654618 0.323569 0.8 0 0
0.311809 0.828798 0.133408 0.8 0 0
0.506278 0.203303 0.299107 0.8 0 0
0.357771 0.820855 0.132119 0.8 0 0
0.116289 0.565084 0.283262 0.8 0 0
0.105768 0.037350 0.234948 0.8 0 0
0.514297 0.025000 0.329247 0.8 0 0
0.320174 0.067310 0.081854 0.8 0 0
0.151532 0.160838 0.259459 0.8 0 0
0.338319 0.527594 0.465583 0.8 0 0
0.513259 0.161820 0.264866 0.8 0 0
0.036507 0.211791 0.326284 0.8 0 0
0.289042 0.661797 0.175279 0.8 0 0
0.393619 0.876778 0.319396 0.8 0 0
0.169878 0.336044 0.133970 0.8 0 0
0.536861 0.039783 0.455292 0.8 0 0
0.040370 0.228900 0.432085 0.8 0 0
0.441590 0.688747 0.439428 0.8 0 0
0.476359 0.160838 0.281208 0.8 0 0
0.368260 0.826070 0.353996 0.8 0 0
0.302730 0.025000 0.337043 0.8 0 0
0.026326 0.166708 0.057564 0.8 0 0
0.155512 0.025000 0.375329 0.8 0 0
0.578737 0.103874 0.202196 0.8 0 0
0.546223 0.469636 0.150346 0.8 0 0
0.512915 0.617128 0.417925 0.8 0 0
0.563717 0.392169 0.102898 0.8 0 0
0.141636 0.025000 0.446592 0.8 0 0
0.373826 0.753797 0.428871 0.8 0 0
0.168073 0.589065 0.094500 0.8 0 0
0.334866 0.753753 0.121228 0.8 0 0
0.179016 0.890467 0.319492 0.8 0 0
0.586163 0.292771 0.159675 0.8 0 0
0.241144 0.835977 0.292375 0.8 0 0
0.054592 0.115593 0.045980 0.8 0 0
0.123156 0.116829 0.417139 0.8 0 0
0.274349 0.160838 0.388108 0.8 0 0
0.207902 0.293884 0.128624 0.8 0 0
0.119862 0.025000 0.251929 0.8 0 0
0.595250 0.252532 0.343712 0.8 0 0
0.409617 0.279984 0.423245 0.8 0 0
0.127762 0.161689 0.192496 0.8 0 0
0.576209 0.336851 0.409625 0.8 0 0
0.236392 0.807718 0.276148 0.8 0 0
0.366145 0.569797 0.386494 0.8 0 0
0.447524 0.552471 0.213450 0.8 0 0
0.464980 0.448731 0.331646 0.8 0 0
0.151676 0.074755 0.497591 0.8 0 0
0.296095 0.183031 0.435540 0.8 0 0
0.595531 0.251289 0.324310 0.8 0 0
0.500935 0.420624 0.067163 0.8 0 0
0.477505 0.374297 0.155529 0.8 0 0
0.052863 0.118238 0.154263 0.8 0 0
0.331848 0.768963 0.123697 0.8 0 0
0.298769 0.025000 0.224491 0.8 0 0
0.546065 0.470334 0.092996 0.8 0 0
0.079103 0.400418 0.170457 0.8 0 0
0.597018 0.131852 0.203158 0.8 0 0
0.432653 0.160838 0.351907 0.8 0 0
0.143580 0.255762 0.152904 0.8 0 0
0.358688 0.160838 0.184325 0.8 0 0
0.146780 0.274790 0.197280 0.8 0 0
0.320262 0.972063 0.139273 0.8 0 0
0.464198 0.497786 0.079686 0.8 0 0
0.392861 0.881109 0.199474 0.8 0 0
0.546582 0.468043 0.091113 0.8 0 0
0.474773 0.786027 0.238263 0.8 0 0
0.482435 0.947201 0.116864 0.8 0 0
0.086850 0.434721 0.389951 0.8 0 0
0.341841 0.525892 0.084247 0.8 0 0
0.293698 0.025000 0.299841 0.8 0 0
0.132466 0.189664 0.378009 0.8 0 0
0.102038 0.101436 0.043948 0.8 0 0
0.461681 0.971571 0.212972 0.8 0 0
0.505516 0.077794 0.464845 0.8 0 0
0.443162 0.578395 0.166782 0.8 0 0
0.143051 0.439369 0.070205 0.8 0 0
0.583305 0.305428 0.128900 0.8 0 0
0.491862 0.288975 0.134815 0.8 0 0
0.508079 0.160838 0.154771 0.8 0 0
0.476500 0.698675 0.437817 0.8 0 0
0.420410 0.713601 0.361889 0.8 0 0
0.542019 0.488250 0.294362 0.8 0 0
0.331231 0.406157 0.142861 0.8 0 0
0.314905 0.081989 0.499903 0.8 0 0
0.448278 0.962692 0.186008 0.8 0 0
0.584557 0.299885 0.366385 0.8 0 0
0.398802 0.162649 0.524812 0.8 0 0
0.466231 0.714998 0.435168 0.8 0 0
0.403215 0.815792 0.261980 0.8 0 0
0.353312 0.223291 0.035136 0.8 0 0
0.578660 0.134551 0.516704 0.8 0 0
0.540846 0.493443 0.186551 0.8 0 0
0.587449 0.287076 0.295518 0.8 0 0
0.596374 0.247557 0.335365 0.8 0 0
0.451086 0.477230 0.473757 0.8 0 0
0.503448 0.025000 0.456192 0.8 0 0
0.067685 0.349857 0.436462 0.8 0 0
0.049359 0.268702 0.201602 0.8 0 0
0.257179 0.336720 0.496561 0.8 0 0
0.042041 0.236297 0.096178 0.8 0 0
0.516493 0.130575 0.355250 0.8 0 0
0.424771 0.578504 0.457320 0.8 0 0
0.512882 0.027881 0.069251 0.8 0 0
0.216929 0.570212 0.091440 0.8 0 0
0.392319 0.820266 0.354732 0.8 0 0
0.257190 0.025000 0.459926 0.8 0 0
0.533656 0.525281 0.255958 0.8 0 0
0.581659 0.312716 0.070467 0.8 0 0
0.394643 0.215043 0.033797 0.8 0 0
0.458846 0.856555 0.246325 0.8 0 0
0.082128 0.325242 0.051682 0.8 0 0
0.259880 0.466275 0.475534 0.8 0 0
0.227640 0.527681 0.391834 0.8 0 0
0.221678 0.025000 0.439061 0.8 0 0
0.336591 0.153952 0.440551 0.8 0 0
0.402679 0.818978 0.264454 0.8 0 0
0.208843 0.643881 0.174014 0.8 0 0
0.321717 0.160838 0.359422 0.8 0 0
0.593555 0.260039 0.361902 0.8 0 0
0.345954 0.947402 0.436748 0.8 0 0
0.309000 0.160838 0.144226 0.8 0 0
0.165345 0.168759 0.437349 0.8 0 0
0.127421 0.614379 0.294874 0.8 0 0
0.410448 0.135198 0.033179 0.8 0 0
0.494567 0.025000 0.369098 0.8 0 0
0.457309 0.474589 0.398567 0.8 0 0
0.199194 0.437231 0.146801 0.8 0 0
0.393167 0.177859 0.522344 0.8 0 0
0.491848 0.710415 0.173215 0.8 0 0
0.421887 0.704829 0.305918 0.8 0 0
0.565966 0.252031 0.510306 0.8 0 0
0.274836 0.397013 0.486775 0.8 0 0
0.434225 0.946191 0.314750 0.8 0 0
0.303393 0.173800 0.113396 0.8 0 0
0.357252 0.025000 0.311485 0.8 0 0
0.451038 0.531587 0.341971 0.8 0 0
0.518326 0.593168 0.432774 0.8 0 0
0.525234 0.044401 0.217053 0.8 0 0
0.244666 0.856926 0.322558 0.8 0 0
0.259423 0.025000 0.339288 0.8 0 0
0.255063 0.669675 0.107583 0.8 0 0
0.175897 0.829038 0.303282 0.8 0 0
0.605474 0.144795 0.340796 0.8 0 0
0.403061 0.893549 0.280101 0.8 0 0
0.159931 0.352999 0.409806 0.8 0 0
0.442736 0.580926 0.231886 0.8 0 0
0.289518 0.238479 0.512505 0.8 0 0
0.339395 0.493356 0.471139 0.8 0 0
0.329365 0.936633 0.109928 0.8 0 0
0.532567 0.530103 0.216554 0.8 0 0
0.576715 0.113135 0.509858 0.8 0 0
0.238354 0.761653 0.187941 0.8 0 0
0.176202 0.513541 0.467863 0.8 0 0
0.243918 0.527681 0.084538 0.8 0 0
0.058909 0.310993 0.371295 0.8 0 0
0.567477 0.086641 0.186058 0.8 0 0
0.053059 0.285090 0.333527 0.8 0 0
0.535795 0.515810 0.163014 0.8 0 0
0.536202 0.083270 0.049743 0.8 0 0
0.423089 0.929120 0.306684 0.8 0 0
0.494805 0.697322 0.382826 0.8 0 0
0.156796 0.933972 0.422883 0.8 0 0
0.237638 0.571892 0.458393 0.8 0 0
0.321682 0.079809 0.085850 0.8 0 0
0.226151 0.094020 0.046314 0.8 0 0
0.200176 0.592339 0.249798 0.8 0 0
0.310513 0.025000 0.078144 0.8 0 0
0.047156 0.258948 0.463899 0.8 0 0
0.281393 0.197476 0.433708 0.8 0 0
0.511157 0.029983 0.483280 0.8 0 0
0.108089 0.528772 0.128245 0.8 0 0
0.283410 0.511359 0.156202 0.8 0 0
0.207001 0.632927 0.240672 0.8 0 0
0.200513 0.953600 0.256692 0.8 0 0
0.294415 0.700421 0.180177 0.8 0 0
0.454883 0.160838 0.284995 0.8 0 0
0.186379 0.506012 0.469085 0.8 0 0
0.203120 0.292313 0.046338 0.8 0 0
0.211334 0.658698 0.285891 0.8 0 0
0.174869 0.243804 0.038465 0.8 0 0
0.456757 0.865807 0.409571 0.8 0 0
0.080738 0.307348 0.048778 0.8 0 0
0.426833 0.345514 0.135171 0.8 0 0
0.121349 0.108210 0.041787 0.8 0 0
0.121456 0.100064 0.268040 0.8 0 0
0.484821 0.741533 0.284786 0.8 0 0
0.554216 0.434241 0.365907 0.8 0 0
0.595221 0.252663 0.048862 0.8 0 0
0.205927 0.121244 0.512450 0.8 0 0
0.287880 0.573659 0.164102 0.8 0 0
0.414625 0.609534 0.452284 0.8 0 0
0.205579 0.569295 0.386557 0.8 0 0
0.563888 0.324326 0.498572 0.8 0 0
0.477483 0.774025 0.154677 0.8 0 0
0.433712 0.945590 0.292216 0.8 0 0
0.119675 0.580075 0.405356 0.8 0 0
0.192502 0.807020 0.420233 0.8 0 0
0.490281 0.611847 0.098197 0.8 0 0
0.569433 0.366856 0.141586 0.8 0 0
0.484118 0.160838 0.300923 0.8 0 0
0.117869 0.025000 0.398276 0.8 0 0
0.426506 0.537566 0.390581 0.8 0 0
0.090595 0.451306 0.157878 0.8 0 0
0.204817 0.473171 0.474415 0.8 0 0
0.403111 0.421344 0.144787 0.8 0 0
0.141632 0.244175 0.333759 0.8 0 0
0.042207 0.134530 0.124127 0.8 0 0
0.479692 0.645169 0.446501 0.8 0 0
0.400874 0.160838 0.387171 0.8 0 0
0.360372 0.468872 0.399292 0.8 0 0
0.080035 0.404542 0.435661 0.8 0 0
0.477696 0.921190 0.399750 0.8 0 0
0.240002 0.103691 0.456584 0.8 0 0
0.132402 0.025000 0.135101 0.8 0 0
0.187930 0.925966 0.434646 0.8 0 0
0.128204 0.314942 0.500095 0.8 0 0
0.604923 0.209697 0.071254 0.8 0 0
0.040272 0.228463 0.474097 0.8 0 0
0.370118 0.383222 0.139953 0.8 0 0
0.587720 0.285876 0.246056 0.8 0 0
0.326048 0.136392 0.032798 0.8 0 0
0.121631 0.588738 0.206986 0.8 0 0
0.468874 0.812148 0.390716 0.8 0 0
0.256230 0.961910 0.402096 0.8 0 0
0.477003 0.626730 0.449493 0.8 0 0
0.078817 0.399152 0.401874 0.8 0 0
0.415866 0.252445 0.426737 0.8 0 0
0.054877 0.115158 0.245645 0.8 0 0
0.147281 0.702320 0.430510 0.8 0 0
0.141423 0.242931 0.157905 0.8 0 0
0.482144 0.436969 0.480291 0.8 0 0
0.491521 0.242647 0.038277 0.8 0 0
0.399204 0.183991 0.114688 0.8 0 0
0.279013 0.823997 0.417477 0.8 0 0
0.184156 0.865611 0.380525 0.8 0 0
0.568817 0.369584 0.305521 0.8 0 0
0.497337 0.256439 0.173996 0.8 0 0
0.176906 0.160838 0.199236 0.8 0 0
0.309609 0.748058 0.363889 0.8 0 0
0.522326 0.073072 0.228571 0.8 0 0
0.458588 0.219800 0.034569 0.8 0 0
0.490507 0.297027 0.208041 0.8 0 0
0.261327 0.708692 0.368881 0.8 0 0
0.187348 0.198851 0.433534 0.8 0 0
0.492215 0.286880 0.217371 0.8 0 0
0.123058 0.115854 0.191746 0.8 0 0
0.410698 0.517883 0.157029 0.8 0 0
0.478249 0.219495 0.034520 0.8 0 0
0.436626 0.561941 0.387490 0.8 0 0
0.232610 0.426909 0.481923 0.8 0 0
0.383264 0.025000 0.429221 0.8 0 0
0.054400 0.115888 0.184317 0.8 0 0
0.127154 0.432168 0.481070 0.8 0 0
0.293747 0.745592 0.185905 0.8 0 0
0.108079 0.528729 0.208780 0.8 0 0
0.557374 0.420253 0.281205 0.8 0 0
0.046042 0.237323 0.037413 0.8 0 0
0.157568 0.338946 0.248963 0.8 0 0
0.227267 0.025000 0.359384 0.8 0 0
0.091862 0.456914 0.121269 0.8 0 0
0.072598 0.371613 0.079967 0.8 0 0
0.476701 0.379076 0.265923 0.8 0 0
0.306275 0.534751 0.085685 0.8 0 0
0.243198 0.848197 0.336423 0.8 0 0
0.397223 0.458550 0.073318 0.8 0 0
0.465707 0.897779 0.372255 0.8 0 0
0.309677 0.574336 0.092109 0.8 0 0
0.187930 0.906837 0.424876 0.8 0 0
0.078491 0.079054 0.497792 0.8 0 0
0.254490 0.025000 0.139718 0.8 0 0
0.152828 0.160838 0.145831 0.8 0 0
0.120224 0.087909 0.414313 0.8 0 0
0.055868 0.297529 0.097283 0.8 0 0
0.042938 0.240269 0.164428 0.8 0 0
0.453640 0.258206 0.124099 0.8 0 0
0.118010 0.066078 0.206993 0.8 0 0
0.072638 0.371788 0.084674 0.8 0 0
0.197498 0.453510 0.477606 0.8 0 0
0.058234 0.308003 0.443285 0.8 0 0
0.371750 0.530584 0.391466 0.8 0 0
0.573981 0.336502 0.053510 0.8 0 0
0.464091 0.173342 0.523077 0.8 0 0
0.233801 0.833686 0.415905 0.8 0 0
0.075082 0.382611 0.338503 0.8 0 0
0.258341 0.715587 0.182100 0.8 0 0
0.299141 0.610014 0.168712 0.8 0 0
0.422380 0.927862 0.350312 0.8 0 0
0.288135 0.851645 0.350753 0.8 0 0
0.479100 0.766868 0.398269 0.8 0 0
0.203080 0.683226 0.109782 0.8 0 0
0.376685 0.729640 0.117315 0.8 0 0
0.359377 0.724774 0.183265 0.8 0 0
0.507130 0.198240 0.322205 0.8 0 0
0.411875 0.025000 0.385762 0.8 0 0
0.320524 0.636026 0.102121 0.8 0 0
0.170005 0.622300 0.099894 0.8 0 0
0.307371 0.327533 0.498052 0.8 0 0
0.167372 0.397253 0.141812 0.8 0 0
0.104971 0.038568 0.400040 0.8 0 0
0.215754 0.604668 0.382072 0.8 0 0
0.511087 0.625224 0.202368 0.8 0 0
0.485363 0.327599 0.399026 0.8 0 0
0.083090 0.418071 0.215745 0.8 0 0
0.119736 0.083096 0.300600 0.8 0 0
0.307058 0.160838 0.405651 0.8 0 0
0.231177 0.392845 0.408933 0.8 0 0
0.285550 0.123138 0.099701 0.8 0 0
0.183195 0.882282 0.271463 0.8 0 0
0.178597 0.891286 0.320745 0.8 0 0
0.440318 0.160838 0.200213 0.8 0 0
0.462003 0.902158 0.422487 0.8 0 0
0.414991 0.745810 0.323028 0.8 0 0
0.543586 0.481310 0.460997 0.8 0 0
0.477322 0.025000 0.184539 0.8 0 0
0.320663 0.591117 0.094833 0.8 0 0
0.374356 0.340495 0.415572 0.8 0 0
0.439748 0.507103 0.081198 0.8 0 0
0.141724 0.025000 0.273412 0.8 0 0
0.216532 0.392278 0.062562 0.8 0 0
0.417284 0.792748 0.127557 0.8 0 0
0.250389 0.197913 0.031017 0.8 0 0
0.406666 0.452528 0.072340 0.8 0 0
0.168875 0.797942 0.220180 0.8 0 0
0.191317 0.160838 0.410525 0.8 0 0
0.230452 0.081347 0.499698 0.8 0 0
0.029854 0.182332 0.493474 0.8 0 0
0.312344 0.160838 0.202296 0.8 0 0
0.213646 0.672446 0.195537 0.8 0 0
0.231490 0.610080 0.168720 0.8 0 0
0.094247 0.467475 0.398722 0.8 0 0
0.141283 0.242102 0.202105 0.8 0 0
0.199682 0.954576 0.277323 0.8 0 0
0.253658 0.050014 0.473707 0.8 0 0
0.153105 0.728113 0.293168 0.8 0 0
0.156643 0.333447 0.324646 0.8 0 0
0.411478 0.688310 0.371465 0.8 0 0
0.448413 0.547190 0.214917 0.8 0 0
0.447232 0.707448 0.436393 0.8 0 0
0.284857 0.350882 0.494262 0.8 0 0
0.254008 0.623304 0.170397 0.8 0 0
0.239209 0.933064 0.170223 0.8 0 0
0.189581 0.275074 0.506566 0.8 0 0
0.242136 0.780703 0.125602 0.8 0 0
0.495219 0.695490 0.123753 0.8 0 0
0.477173 0.775400 0.185608 0.8 0 0
0.160922 0.358891 0.404803 0.8 0 0
0.419406 0.922580 0.238580 0.8 0 0
0.457564 0.973595 0.389694 0.8 0 0
0.522571 0.070659 0.161299 0.8 0 0
0.124344 0.529034 0.084757 0.8 0 0
0.441978 0.901485 0.127928 0.8 0 0
0.163908 0.376654 0.208652 0.8 0 0
0.112121 0.138485 0.517961 0.8 0 0
0.129692 0.173167 0.158328 0.8 0 0
0.236271 0.160838 0.194342 0.8 0 0
0.357479 0.025000 0.181915 0.8 0 0
0.523431 0.570561 0.281698 0.8 0 0
0.311759 0.429659 0.068629 0.8 0 0
0.294691 0.223902 0.035235 0.8 0 0
0.210266 0.542411 0.389967 0.8 0 0
0.509816 0.058509 0.057641 0.8 0 0
0.345760 0.594630 0.454703 0.8 0 0
0.324111 0.133233 0.033806 0.8 0 0
0.531789 0.533551 0.419466 0.8 0 0
0.036753 0.212883 0.330518 0.8 0 0
0.156875 0.744806 0.289726 0.8 0 0
0.272874 0.407531 0.065038 0.8 0 0
0.314593 0.476553 0.151788 0.8 0 0
0.119239 0.479674 0.076746 0.8 0 0
0.126624 0.064930 0.468949 0.8 0 0
0.455280 0.970924 0.409773 0.8 0 0
0.353065 0.868317 0.410284 0.8 0 0
0.408396 0.785002 0.303465 0.8 0 0
0.462895 0.461125 0.235832 0.8 0 0
0.467636 0.307545 0.048810 0.8 0 0
0.515187 0.143456 0.167625 0.8 0 0
0.250992 0.828514 0.353686 0.8 0 0
0.518247 0.593517 0.393727 0.8 0 0
0.104945 0.514850 0.252206 0.8 0 0
0.106276 0.520742 0.412986 0.8 0 0
0.574730 0.343398 0.380849 0.8 0 0
0.064122 0.334080 0.295586 0.8 0 0
0.521689 0.025000 0.070802 0.8 0 0
0.205528 0.351166 0.494216 0.8 0 0
0.369238 0.340364 0.495969 0.8 0 0
0.234659 0.201164 0.518561 0.8 0 0
0.040902 0.231256 0.418287 0.8 0 0
0.568526 0.218905 0.034424 0.8 0 0
0.579821 0.320856 0.106953 0.8 0 0
0.459428 0.481725 0.302424 0.8 0 0
0.557783 0.418442 0.420071 0.8 0 0
0.325459 0.485238 0.152889 0.8 0 0
0.258745 0.653352 0.375898 0.8 0 0
0.368609 0.763944 0.427224 0.8 0 0
0.406820 0.160838 0.218503 0.8 0 0
0.282102 0.207645 0.432418 0.8 0 0
0.362204 0.108173 0.455155 0.8 0 0
0.135335 0.649424 0.350282 0.8 0 0
0.233304 0.493159 0.396212 0.8 0 0
0.077541 0.393500 0.330249 0.8 0 0
0.031731 0.190646 0.131624 0.8 0 0
0.563707 0.080870 0.172597 0.8 0 0
0.551244 0.447399 0.148584 0.8 0 0
0.103087 0.506623 0.270803 0.8 0 0
0.145255 0.693351 0.394297 0.8 0 0
0.073756 0.376741 0.118670 0.8 0 0
0.555226 0.429768 0.104803 0.8 0 0
0.247316 0.081997 0.086550 0.8 0 0
0.403997 0.473629 0.474341 0.8 0 0
0.163219 0.372551 0.241672 0.8 0 0
0.589992 0.121099 0.219746 0.8 0 0
0.241877 0.840341 0.336462 0.8 0 0
0.281947 0.029912 0.480120 0.8 0 0
0.260331 0.025000 0.417338 0.8 0 0
0.146509 0.273176 0.344892 0.8 0 0
0.273066 0.852234 0.350678 0.8 0 0
0.607718 0.197324 0.519119 0.8 0 0
0.427387 0.936754 0.369993 0.8 0 0
0.202007 0.484169 0.077476 0.8 0 0
0.124489 0.129966 0.195676 0.8 0 0
0.565865 0.382655 0.240075 0.8 0 0
0.417965 0.728135 0.348533 0.8 0 0
0.409685 0.777342 0.287914 0.8 0 0
0.178636 0.025000 0.438947 0.8 0 0
0.472699 0.402862 0.169196 0.8 0 0
0.327680 0.765035 0.123059 0.8 0 0
0.529000 0.545902 0.098545 0.8 0 0
0.276931 0.892602 0.193003 0.8 0 0
0.079147 0.078051 0.070043 0.8 0 0
0.489949 0.300344 0.342439 0.8 0 0
0.546469 0.216658 0.516047 0.8 0 0
0.270072 0.342525 0.415314 0.8 0 0
0.387312 0.676876 0.177191 0.8 0 0
0.211977 0.025000 0.124340 0.8 0 0
0.308261 0.207907 0.432385 0.8 0 0
0.470589 0.038896 0.072772 0.8 0 0
0.458969 0.856009 0.366993 0.8 0 0
0.277155 0.671748 0.107919 0.8 0 0
0.545774 0.208955 0.517297 0.8 0 0
0.326873 0.280573 0.423170 0.8 0 0
0.500025 0.160838 0.396581 0.8 0 0
0.202704 0.607374 0.343064 0.8 0 0
0.420666 0.924817 0.370656 0.8 0 0
0.025015 0.160903 0.333322 0.8 0 0
0.086687 0.066522 0.451172 0.8 0 0
0.239143 0.891372 0.260625 0.8 0 0
0.493827 0.277300 0.182235 0.8 0 0
0.172013 0.393762 0.408817 0.8 0 0
0.277047 0.108720 0.095092 0.8 0 0
0.334354 0.543851 0.087162 0.8 0 0
0.476341 0.918544 0.281386 0.8 0 0
0.461359 0.180565 0.114254 0.8 0 0
0.491311 0.712794 0.124379 0.8 0 0
0.069790 0.359175 0.059913 0.8 0 0
0.185359 0.092295 0.046864 0.8 0 0
0.311636 0.523819 0.392324 0.8 0 0
0.381795 0.161078 0.111782 0.8 0 0
0.473839 0.235664 0.037144 0.8 0 0
0.189428 0.528423 0.265665 0.8 0 0
0.174340 0.438693 0.289262 0.8 0 0
0.483047 0.931639 0.181873 0.8 0 0
0.481028 0.268375 0.424717 0.8 0 0
0.409511 0.482183 0.397604 0.8 0 0
0.331884 0.304119 0.501852 0.8 0 0
0.441778 0.160838 0.397607 0.8 0 0
0.403224 0.610560 0.097988 0.8 0 0
0.408230 0.159101 0.025554 0.8 0 0
0.439511 0.095214 0.045933 0.8 0 0
0.279737 0.142096 0.105761 0.8 0 0
0.395955 0.025000 0.476136 0.8 0 0
0.074560 0.380298 0.179171 0.8 0 0
0.037059 0.214235 0.343729 0.8 0 0
0.377549 0.342350 0.134770 0.8 0 0
0.543409 0.482096 0.203680 0.8 0 0
0.185693 0.076571 0.498171 0.8 0 0
0.227783 0.713841 0.435355 0.8 0 0
0.074155 0.163195 0.524724 0.8 0 0
0.445977 0.959991 0.286715 0.8 0 0
0.526907 0.027906 0.398762 0.8 0 0
0.108067 0.320267 0.499231 0.8 0 0
0.447238 0.554173 0.373365 0.8 0 0
0.272970 0.562967 0.387360 0.8 0 0
0.424419 0.379447 0.489626 0.8 0 0
0.133490 0.195753 0.142743 0.8 0 0
0.178691 0.909574 0.426274 0.8 0 0
0.202459 0.660749 0.106134 0.8 0 0
0.296696 0.043821 0.074346 0.8 0 0
0.609078 0.191301 0.374739 0.8 0 0
0.251460 0.160838 0.138893 0.8 0 0
0.508720 0.188791 0.119140 0.8 0 0
0.517345 0.122181 0.390499 0.8 0 0
0.182762 0.352956 0.136114 0.8 0 0
0.080207 0.405306 0.346083 0.8 0 0
0.361479 0.125696 0.036210 0.8 0 0
0.112539 0.505511 0.080939 0.8 0 0
0.126761 0.567157 0.459162 0.8 0 0
0.534036 0.294583 0.046706 0.8 0 0
0.123178 0.595590 0.309492 0.8 0 0
0.378731 0.289062 0.504296 0.8 0 0
0.475306 0.387368 0.357129 0.8 0 0
0.345173 0.604057 0.096933 0.8 0 0
0.232849 0.759863 0.187715 0.8 0 0
0.509928 0.181612 0.120760 0.8 0 0
0.289117 0.642747 0.377243 0.8 0 0
0.394022 0.160838 0.128836 0.8 0 0
0.204397 0.245135 0.427664 0.8 0 0
0.121693 0.102398 0.213355 0.8 0 0
0.236699 0.273459 0.424072 0.8 0 0
0.037537 0.154843 0.026912 0.8 0 0
0.497835 0.160838 0.231570 0.8 0 0
0.233739 0.568117 0.163399 0.8 0 0
0.297998 0.530365 0.084973 0.8 0 0
0.445179 0.025000 0.134432 0.8 0 0
0.493056 0.401029 0.486124 0.8 0 0
0.425923 0.595197 0.166833 0.8 0 0
0.520601 0.090077 0.313369 0.8 0 0
0.038345 0.219931 0.289127 0.8 0 0
0.586454 0.115684 0.357255 0.8 0 0
0.281637 0.946511 0.437508 0.8 0 0
0.257704 0.885073 0.197242 0.8 0 0
0.540827 0.045852 0.239576 0.8 0 0
0.028385 0.175829 0.039951 0.8 0 0
0.448240 0.548215 0.193724 0.8 0 0
0.420260 0.333425 0.133638 0.8 0 0
0.118424 0.246859 0.038961 0.8 0 0
0.501586 0.231191 0.404026 0.8 0 0
0.230024 0.436358 0.146691 0.8 0 0
0.261389 0.966925 0.406368 0.8 0 0
0.327802 0.359218 0.136909 0.8 0 0
0.606624 0.202168 0.388682 0.8 0 0
0.251185 0.025000 0.094216 0.8 0 0
0.358762 0.131081 0.447847 0.8 0 0
0.275084 0.880460 0.199839 0.8 0 0
0.571444 0.108666 0.041642 0.8 0 0
