0.174568 0.191842 0.602033 0.8 0 0
0.882659 0.285441 0.638846 0.8 0 0
0.737561 0.116933 0.471168 0.8 0 0
0.263885 0.535021 0.149258 0.8 0 0
0.509628 0.602925 0.902343 0.8 0 0
0.185622 0.389677 0.147893 0.8 0 0
0.858278 0.308184 0.291489 0.8 0 0
0.488088 0.070223 0.588263 0.8 0 0
0.841449 0.520115 0.252886 0.8 0 0
0.219801 0.171619 0.333077 0.8 0 0
0.467747 0.311878 0.944874 0.8 0 0
0.306428 0.105977 0.277736 0.8 0 0
0.564367 0.248782 0.080545 0.8 0 0
0.202314 0.554654 0.209474 0.8 0 0
0.110738 0.262343 0.404920 0.8 0 0
0.298509 0.060294 0.454778 0.8 0 0
0.628082 0.646785 0.915429 0.8 0 0
0.788545 0.132360 0.647654 0.8 0 0
0.410378 0.082340 0.740516 0.8 0 0
0.868964 0.381765 0.269220 0.8 0 0
0.326337 0.190629 0.841273 0.8 0 0
0.866572 0.543175 0.693017 0.8 0 0
0.386800 0.076573 0.417380 0.8 0 0
0.558072 0.045192 0.648917 0.8 0 0
0.107285 0.563617 0.684051 0.8 0 0
0.573115 0.152068 0.155934 0.8 0 0
0.199635 0.174912 0.279926 0.8 0 0
0.700425 0.382942 0.076912 0.8 0 0
0.539413 0.076764 0.633158 0.8 0 0
0.385126 0.425209 0.917369 0.8 0 0
0.220832 0.142176 0.440565 0.8 0 0
0.438634 0.053495 0.667798 0.8 0 0
0.505573 0.087802 0.767293 0.8 0 0
0.809218 0.195577 0.646706 0.8 0 0
0.456588 0.257569 0.919125 0.8 0 0
0.239698 0.649782 0.808449 0.8 0 0
0.578611 0.160035 0.202772 0.8 0 0
0.216200 0.367315 0.829449 0.8 0 0
0.179009 0.526594 0.222591 0.8 0 0
0.436118 0.067366 0.536881 0.8 0 0
0.133331 0.179130 0.418683 0.8 0 0
0.636464 0.512747 0.930819 0.8 0 0
0.742014 0.086074 0.598771 0.8 0 0
0.917117 0.348844 0.414969 0.8 0 0
0.276270 0.495440 0.871067 0.8 0 0
0.641194 0.047317 0.421932 0.8 0 0
0.237890 0.154273 0.350142 0.8 0 0
0.047731 0.522802 0.517366 0.8 0 0
0.501727 0.573136 0.064404 0.8 0 0
0.828558 0.307727 0.808362 0.8 0 0
0.907721 0.336934 0.615854 0.8 0 0
0.258594 0.348334 0.857448 0.8 0 0
0.728035 0.207728 0.768397 0.8 0 0
0.925216 0.510860 0.505549 0.8 0 0
0.886553 0.479423 0.686288 0.8 0 0
0.930756 0.396509 0.319649 0.8 0 0
0.403381 0.086244 0.356469 0.8 0 0
0.843684 0.441064 0.770591 0.8 0 0
0.551586 0.503682 0.040566 0.8 0 0
0.497959 0.551232 0.909020 0.8 0 0
0.379070 0.112000 0.222430 0.8 0 0
0.861071 0.506822 0.724246 0.8 0 0
0.052338 0.434039 0.646010 0.8 0 0
0.865558 0.577883 0.671066 0.8 0 0
0.415345 0.147355 0.835754 0.8 0 0
0.193998 0.190367 0.341902 0.8 0 0
0.222272 0.396179 0.880045 0.8 0 0
0.789183 0.640110 0.180675 0.8 0 0
0.511467 0.283352 0.902310 0.8 0 0
0.896883 0.612441 0.577410 0.8 0 0
0.523607 0.040245 0.625706 0.8 0 0
0.080623 0.445147 0.618828 0.8 0 0
0.120322 0.412205 0.719649 0.8 0 0
0.088378 0.594516 0.624738 0.8 0 0
0.555675 0.545892 0.935107 0.8 0 0
0.690873 0.089616 0.313072 0.8 0 0
0.256311 0.117909 0.530836 0.8 0 0
0.374724 0.104380 0.235602 0.8 0 0
0.867560 0.229345 0.321696 0.8 0 0
0.303720 0.356869 0.078268 0.8 0 0
0.291901 0.495623 0.879131 0.8 0 0
0.080814 0.303280 0.666265 0.8 0 0
0.169397 0.164285 0.639541 0.8 0 0
0.946830 0.318529 0.468799 0.8 0 0
0.202683 0.557093 0.779227 0.8 0 0
0.312358 0.446001 0.890608 0.8 0 0
0.370164 0.125649 0.784051 0.8 0 0
0.076897 0.461133 0.293267 0.8 0 0
0.529206 0.446863 0.061338 0.8 0 0
0.833090 0.165708 0.641064 0.8 0 0
0.198679 0.548290 0.786239 0.8 0 0
0.666165 0.379662 0.094766 0.8 0 0
0.423559 0.389981 0.965657 0.8 0 0
0.838609 0.358924 0.759319 0.8 0 0
0.756624 0.086363 0.482008 0.8 0 0
0.902337 0.590824 0.548135 0.8 0 0
0.159712 0.625108 0.270427 0.8 0 0
0.310676 0.470750 0.893028 0.8 0 0
0.516691 0.101400 0.213033 0.8 0 0
0.440392 0.156204 0.852216 0.8 0 0
0.737340 0.603326 0.853801 0.8 0 0
0.961869 0.448064 0.438917 0.8 0 0
0.672255 0.054569 0.569623 0.8 0 0
0.688655 0.059561 0.566751 0.8 0 0
0.495475 0.387251 0.027617 0.8 0 0
0.096992 0.445355 0.674800 0.8 0 0
0.536720 0.031934 0.577953 0.8 0 0
0.695008 0.080147 0.648425 0.8 0 0
0.391428 0.448013 0.926289 0.8 0 0
0.261834 0.169677 0.280857 0.8 0 0
0.957502 0.467412 0.592647 0.8 0 0
0.576919 0.041117 0.615197 0.8 0 0
0.056301 0.530975 0.580973 0.8 0 0
0.311550 0.092254 0.505512 0.8 0 0
0.489406 0.304495 0.918734 0.8 0 0
0.119424 0.377417 0.707236 0.8 0 0
0.801062 0.616058 0.808139 0.8 0 0
0.292956 0.576846 0.118575 0.8 0 0
0.496594 0.226878 0.906290 0.8 0 0
0.063174 0.534690 0.602364 0.8 0 0
0.813074 0.336118 0.167720 0.8 0 0
0.303635 0.463056 0.926694 0.8 0 0
0.499664 0.058638 0.299026 0.8 0 0
0.913728 0.469624 0.713210 0.8 0 0
0.491030 0.206606 0.851962 0.8 0 0
0.625805 0.260047 0.878134 0.8 0 0
0.912859 0.650347 0.436411 0.8 0 0
0.349808 0.169571 0.827689 0.8 0 0
0.426083 0.229924 0.873480 0.8 0 0
0.106772 0.571104 0.382460 0.8 0 0
0.930416 0.469534 0.681037 0.8 0 0
0.605796 0.096017 0.753188 0.8 0 0
0.079256 0.633916 0.586780 0.8 0 0
0.137153 0.423807 0.748958 0.8 0 0
0.352971 0.290066 0.920081 0.8 0 0
0.951604 0.473666 0.400210 0.8 0 0
0.720855 0.116388 0.405495 0.8 0 0
0.823402 0.373489 0.212173 0.8 0 0
0.274618 0.068319 0.514954 0.8 0 0
0.309131 0.649958 0.859994 0.8 0 0
0.886850 0.531226 0.342531 0.8 0 0
0.708657 0.471676 0.882021 0.8 0 0
0.744804 0.154213 0.664757 0.8 0 0
0.378224 0.303415 0.899181 0.8 0 0
0.092184 0.649900 0.545425 0.8 0 0
0.138980 0.623541 0.686595 0.8 0 0
0.534775 0.123123 0.755520 0.8 0 0
0.859539 0.257985 0.664392 0.8 0 0
0.301089 0.446745 0.070019 0.8 0 0
0.170211 0.352132 0.220233 0.8 0 0
0.916867 0.328105 0.464607 0.8 0 0
0.464532 0.420161 0.963712 0.8 0 0
0.182978 0.589998 0.756787 0.8 0 0
0.621580 0.212120 0.835422 0.8 0 0
0.812063 0.603693 0.796376 0.8 0 0
0.139987 0.216073 0.558452 0.8 0 0
0.434713 0.376161 0.926595 0.8 0 0
0.443101 0.499280 0.070862 0.8 0 0
0.279959 0.450337 0.081675 0.8 0 0
0.141424 0.293441 0.757297 0.8 0 0
0.113640 0.569688 0.358391 0.8 0 0
0.480065 0.535275 0.079698 0.8 0 0
0.378599 0.115822 0.217196 0.8 0 0
0.463240 0.031202 0.574640 0.8 0 0
0.522145 0.241712 0.912988 0.8 0 0
0.159861 0.282430 0.720132 0.8 0 0
0.855177 0.228380 0.613043 0.8 0 0
0.229634 0.140187 0.692977 0.8 0 0
0.307442 0.564686 0.892763 0.8 0 0
0.722928 0.383028 0.871166 0.8 0 0
0.435248 0.356651 0.071210 0.8 0 0
0.080568 0.451180 0.712337 0.8 0 0
0.928886 0.425595 0.434839 0.8 0 0
0.931580 0.355042 0.656254 0.8 0 0
0.338201 0.601913 0.876015 0.8 0 0
0.938828 0.552711 0.518253 0.8 0 0
0.837307 0.475490 0.181081 0.8 0 0
0.763121 0.236942 0.781136 0.8 0 0
0.176465 0.248524 0.764988 0.8 0 0
0.808578 0.355717 0.157887 0.8 0 0
0.844930 0.211783 0.594110 0.8 0 0
0.287854 0.479019 0.915391 0.8 0 0
0.905794 0.262865 0.374187 0.8 0 0
0.614641 0.334459 0.936383 0.8 0 0
0.316148 0.106277 0.621436 0.8 0 0
0.386484 0.041230 0.415740 0.8 0 0
0.125014 0.594274 0.654782 0.8 0 0
0.353567 0.092752 0.624228 0.8 0 0
0.405752 0.270024 0.107073 0.8 0 0
0.087827 0.394897 0.650474 0.8 0 0
0.235388 0.094117 0.410396 0.8 0 0
0.088539 0.468250 0.273489 0.8 0 0
0.075558 0.566643 0.597828 0.8 0 0
0.273733 0.281683 0.120386 0.8 0 0
0.776671 0.649832 0.802479 0.8 0 0
0.758545 0.286323 0.857918 0.8 0 0
0.878395 0.649379 0.644163 0.8 0 0
0.757627 0.222174 0.768317 0.8 0 0
0.335762 0.107353 0.340608 0.8 0 0
0.264634 0.527075 0.852720 0.8 0 0
0.894424 0.614765 0.416718 0.8 0 0
0.895245 0.272357 0.570447 0.8 0 0
0.837284 0.160541 0.615299 0.8 0 0
0.261909 0.426428 0.864418 0.8 0 0
0.607967 0.474899 0.045937 0.8 0 0
0.743351 0.129820 0.703300 0.8 0 0
0.561098 0.531898 0.082935 0.8 0 0
0.525067 0.067246 0.569409 0.8 0 0
0.648812 0.180314 0.798263 0.8 0 0
0.052176 0.369269 0.365425 0.8 0 0
0.658324 0.104840 0.745497 0.8 0 0
0.757864 0.370265 0.112108 0.8 0 0
0.765748 0.238883 0.781273 0.8 0 0
0.442738 0.317378 0.918852 0.8 0 0
0.428584 0.361810 0.953558 0.8 0 0
0.311352 0.094272 0.546475 0.8 0 0
0.081885 0.305733 0.474108 0.8 0 0
0.913171 0.335988 0.588933 0.8 0 0
0.121248 0.301652 0.744281 0.8 0 0
0.397471 0.192889 0.823184 0.8 0 0
0.723007 0.380132 0.912026 0.8 0 0
0.630201 0.082055 0.719052 0.8 0 0
0.852904 0.390432 0.808097 0.8 0 0
0.742636 0.077474 0.507553 0.8 0 0
0.544243 0.031627 0.572321 0.8 0 0
0.240326 0.151848 0.259923 0.8 0 0
0.829130 0.264815 0.719666 0.8 0 0
0.566987 0.070586 0.432630 0.8 0 0
0.872447 0.622372 0.703282 0.8 0 0
0.621577 0.054256 0.640574 0.8 0 0
0.740992 0.189950 0.788045 0.8 0 0
0.171700 0.204056 0.718756 0.8 0 0
0.792579 0.600973 0.777207 0.8 0 0
0.546781 0.125232 0.807880 0.8 0 0
0.584725 0.034336 0.445800 0.8 0 0
0.407072 0.213067 0.845023 0.8 0 0
0.567503 0.593123 0.927661 0.8 0 0
0.596001 0.300030 0.096171 0.8 0 0
0.107766 0.211731 0.568815 0.8 0 0
0.873997 0.380418 0.279705 0.8 0 0
0.093717 0.523507 0.607770 0.8 0 0
0.770907 0.152677 0.385575 0.8 0 0
0.527718 0.369633 0.935224 0.8 0 0
0.517783 0.116612 0.744597 0.8 0 0
0.111665 0.322181 0.257719 0.8 0 0
0.538822 0.650027 0.086332 0.8 0 0
0.381630 0.403209 0.075866 0.8 0 0
0.543155 0.064239 0.483756 0.8 0 0
0.823890 0.255446 0.726780 0.8 0 0
0.464452 0.080356 0.640200 0.8 0 0
0.421636 0.070179 0.442646 0.8 0 0
0.819516 0.171788 0.522225 0.8 0 0
0.673514 0.055504 0.574256 0.8 0 0
0.252598 0.329273 0.886225 0.8 0 0
0.864435 0.217759 0.516256 0.8 0 0
0.633110 0.091928 0.627174 0.8 0 0
0.277980 0.126937 0.633007 0.8 0 0
0.321829 0.598328 0.860607 0.8 0 0
0.115076 0.649841 0.635151 0.8 0 0
0.070035 0.601207 0.458234 0.8 0 0
0.613017 0.081410 0.400195 0.8 0 0
0.546779 0.123356 0.246251 0.8 0 0
0.434340 0.037269 0.600788 0.8 0 0
0.898549 0.424929 0.750508 0.8 0 0
0.697497 0.168651 0.808572 0.8 0 0
0.137208 0.284633 0.686192 0.8 0 0
0.862985 0.237445 0.695025 0.8 0 0
0.316920 0.054885 0.534062 0.8 0 0
0.687696 0.188742 0.778948 0.8 0 0
0.171837 0.132570 0.490554 0.8 0 0
0.269287 0.137421 0.741417 0.8 0 0
0.575728 0.082802 0.255788 0.8 0 0
0.158734 0.281448 0.724767 0.8 0 0
0.627711 0.569230 0.909141 0.8 0 0
0.404934 0.612789 0.920962 0.8 0 0
0.218630 0.251997 0.778784 0.8 0 0
0.509976 0.565134 0.903623 0.8 0 0
0.712982 0.516951 0.132744 0.8 0 0
0.516856 0.502686 0.931658 0.8 0 0
0.118416 0.495632 0.293910 0.8 0 0
0.401178 0.059122 0.322642 0.8 0 0
0.897346 0.303549 0.298690 0.8 0 0
0.872327 0.192258 0.583931 0.8 0 0
0.604255 0.492536 0.080581 0.8 0 0
0.743965 0.563788 0.174369 0.8 0 0
0.185509 0.491181 0.835203 0.8 0 0
0.166241 0.350345 0.770785 0.8 0 0
0.573671 0.538165 0.936650 0.8 0 0
0.153302 0.244634 0.256201 0.8 0 0
0.320599 0.484471 0.102720 0.8 0 0
0.114293 0.484271 0.298187 0.8 0 0
0.432399 0.041032 0.621304 0.8 0 0
0.364085 0.337941 0.931627 0.8 0 0
0.895066 0.650446 0.648148 0.8 0 0
0.225809 0.329736 0.824521 0.8 0 0
0.171736 0.291464 0.800102 0.8 0 0
0.289157 0.585031 0.147338 0.8 0 0
0.420309 0.572993 0.903258 0.8 0 0
0.483259 0.242951 0.891496 0.8 0 0
0.879870 0.614022 0.366008 0.8 0 0
0.750346 0.502897 0.111792 0.8 0 0
0.146367 0.364547 0.745187 0.8 0 0
0.828204 0.180754 0.486797 0.8 0 0
0.476055 0.172690 0.818285 0.8 0 0
0.314041 0.649553 0.890506 0.8 0 0
0.089996 0.461816 0.339272 0.8 0 0
0.831863 0.253629 0.756742 0.8 0 0
0.123242 0.573931 0.712678 0.8 0 0
0.328856 0.427634 0.935026 0.8 0 0
0.499672 0.107332 0.272606 0.8 0 0
0.711930 0.284326 0.151649 0.8 0 0
0.478847 0.169999 0.814812 0.8 0 0
0.638930 0.046415 0.423431 0.8 0 0
0.754081 0.272969 0.812235 0.8 0 0
0.176855 0.501304 0.778349 0.8 0 0
0.365228 0.548000 0.886493 0.8 0 0
0.120505 0.257886 0.377911 0.8 0 0
0.051159 0.432086 0.641596 0.8 0 0
0.901677 0.604250 0.543161 0.8 0 0
0.417669 0.250186 0.112530 0.8 0 0
0.673281 0.353418 0.930435 0.8 0 0
0.794693 0.112195 0.487053 0.8 0 0
0.091386 0.458598 0.650744 0.8 0 0
0.418973 0.145576 0.222176 0.8 0 0
0.406603 0.246081 0.086515 0.8 0 0
0.169885 0.312164 0.752292 0.8 0 0
0.282182 0.614674 0.871945 0.8 0 0
0.085670 0.513607 0.599385 0.8 0 0
0.089990 0.301838 0.559149 0.8 0 0
0.841239 0.463908 0.813568 0.8 0 0
0.766437 0.204638 0.789340 0.8 0 0
0.689704 0.574560 0.112592 0.8 0 0
0.748460 0.175464 0.706702 0.8 0 0
0.922304 0.510913 0.544114 0.8 0 0
0.078201 0.598823 0.588426 0.8 0 0
0.329141 0.155517 0.750035 0.8 0 0
0.794646 0.170208 0.708815 0.8 0 0
0.354587 0.052809 0.602709 0.8 0 0
0.601515 0.388604 0.952763 0.8 0 0
0.342767 0.090036 0.593071 0.8 0 0
0.066997 0.354018 0.663148 0.8 0 0
0.570506 0.125199 0.810000 0.8 0 0
0.832330 0.138945 0.498316 0.8 0 0
0.695593 0.374184 0.889763 0.8 0 0
0.673548 0.573255 0.131225 0.8 0 0
0.092587 0.269024 0.639383 0.8 0 0
0.134760 0.349356 0.266901 0.8 0 0
0.317185 0.489753 0.105376 0.8 0 0
0.367477 0.255896 0.092680 0.8 0 0
0.942813 0.320521 0.419675 0.8 0 0
0.225603 0.171003 0.252837 0.8 0 0
0.873335 0.489236 0.767066 0.8 0 0
0.536105 0.287239 0.941545 0.8 0 0
0.867733 0.365672 0.782619 0.8 0 0
0.050455 0.316260 0.543019 0.8 0 0
0.158368 0.597701 0.762550 0.8 0 0
0.136998 0.227010 0.303234 0.8 0 0
0.449840 0.064633 0.517461 0.8 0 0
0.158441 0.558149 0.776221 0.8 0 0
0.245535 0.091582 0.593526 0.8 0 0
0.031706 0.390687 0.449242 0.8 0 0
0.798603 0.412303 0.139529 0.8 0 0
0.683256 0.508403 0.113977 0.8 0 0
0.541954 0.225844 0.866345 0.8 0 0
0.162084 0.472343 0.767014 0.8 0 0
0.809820 0.320449 0.785775 0.8 0 0
0.931707 0.411608 0.465971 0.8 0 0
0.118480 0.299615 0.258014 0.8 0 0
0.505141 0.088974 0.680402 0.8 0 0
0.226466 0.629640 0.165346 0.8 0 0
0.703038 0.133457 0.670799 0.8 0 0
0.443598 0.038350 0.604882 0.8 0 0
0.789705 0.364291 0.139853 0.8 0 0
0.602512 0.100193 0.678058 0.8 0 0
0.675170 0.166766 0.182943 0.8 0 0
0.209345 0.271166 0.816381 0.8 0 0
0.221389 0.097741 0.527167 0.8 0 0
0.813649 0.464375 0.840565 0.8 0 0
0.415086 0.383180 0.964576 0.8 0 0
0.271577 0.294047 0.839015 0.8 0 0
0.902404 0.547345 0.321454 0.8 0 0
0.895022 0.516315 0.352049 0.8 0 0
0.900265 0.528027 0.617295 0.8 0 0
0.710862 0.523906 0.901339 0.8 0 0
0.173567 0.593766 0.781628 0.8 0 0
0.082182 0.300568 0.495200 0.8 0 0
0.157487 0.338237 0.191620 0.8 0 0
0.448062 0.058267 0.306761 0.8 0 0
0.097106 0.405546 0.736365 0.8 0 0
0.501053 0.638738 0.935010 0.8 0 0
0.966227 0.457675 0.517842 0.8 0 0
0.411433 0.031586 0.507704 0.8 0 0
0.763237 0.196843 0.784027 0.8 0 0
0.713576 0.144239 0.688445 0.8 0 0
0.675981 0.393663 0.063706 0.8 0 0
0.444304 0.065926 0.465080 0.8 0 0
0.887126 0.343620 0.326096 0.8 0 0
0.511848 0.094688 0.691961 0.8 0 0
0.745178 0.325166 0.838137 0.8 0 0
0.849530 0.207478 0.453276 0.8 0 0
0.847111 0.452905 0.765316 0.8 0 0
0.184652 0.151745 0.342051 0.8 0 0
0.472708 0.063320 0.286810 0.8 0 0
0.212470 0.199331 0.695035 0.8 0 0
0.597994 0.117480 0.719261 0.8 0 0
0.476536 0.253859 0.919101 0.8 0 0
0.489136 0.145316 0.837006 0.8 0 0
0.615101 0.634124 0.916147 0.8 0 0
0.606557 0.593164 0.894338 0.8 0 0
0.113841 0.223317 0.630111 0.8 0 0
0.182324 0.168308 0.455684 0.8 0 0
0.500877 0.025867 0.510340 0.8 0 0
0.849575 0.252999 0.741493 0.8 0 0
0.094088 0.295914 0.572915 0.8 0 0
0.895380 0.616497 0.666700 0.8 0 0
0.410408 0.304056 0.908728 0.8 0 0
0.881787 0.553805 0.287438 0.8 0 0
0.894245 0.271619 0.451802 0.8 0 0
0.184062 0.194979 0.274021 0.8 0 0
0.078232 0.436741 0.617491 0.8 0 0
0.167246 0.498414 0.823567 0.8 0 0
0.474508 0.437793 0.972472 0.8 0 0
0.420608 0.113150 0.274048 0.8 0 0
0.047396 0.329132 0.544176 0.8 0 0
0.146433 0.437635 0.236222 0.8 0 0
0.348419 0.111502 0.671984 0.8 0 0
0.516641 0.259432 0.898548 0.8 0 0
0.740119 0.128020 0.598152 0.8 0 0
0.285084 0.467334 0.909192 0.8 0 0
0.323354 0.522115 0.913682 0.8 0 0
0.087032 0.573546 0.363056 0.8 0 0
0.746746 0.195138 0.206513 0.8 0 0
0.869334 0.452882 0.735162 0.8 0 0
0.209477 0.588697 0.820098 0.8 0 0
0.324657 0.102163 0.625940 0.8 0 0
0.389161 0.145006 0.818057 0.8 0 0
0.068471 0.370415 0.425241 0.8 0 0
0.242713 0.152852 0.649652 0.8 0 0
0.246004 0.525446 0.870408 0.8 0 0
0.563721 0.425771 0.935686 0.8 0 0
0.800079 0.319630 0.205924 0.8 0 0
0.898129 0.650300 0.649127 0.8 0 0
0.438104 0.595864 0.905007 0.8 0 0
0.680298 0.515732 0.879019 0.8 0 0
0.527095 0.540457 0.053224 0.8 0 0
0.835673 0.243201 0.743820 0.8 0 0
0.835188 0.205174 0.396148 0.8 0 0
0.880529 0.540698 0.337299 0.8 0 0
0.209819 0.168731 0.626688 0.8 0 0
0.261708 0.114669 0.511764 0.8 0 0
0.153442 0.171052 0.371801 0.8 0 0
0.461374 0.255885 0.073979 0.8 0 0
0.925898 0.498728 0.545641 0.8 0 0
0.307942 0.631208 0.886163 0.8 0 0
0.202046 0.318705 0.794431 0.8 0 0
0.686973 0.140895 0.702599 0.8 0 0
0.699169 0.332039 0.868361 0.8 0 0
0.218655 0.549316 0.805340 0.8 0 0
0.097921 0.582577 0.571932 0.8 0 0
0.757504 0.477910 0.849485 0.8 0 0
0.166929 0.241100 0.747386 0.8 0 0
0.688949 0.164362 0.802139 0.8 0 0
0.085027 0.534485 0.667151 0.8 0 0
0.108526 0.219726 0.601383 0.8 0 0
0.811181 0.237815 0.769722 0.8 0 0
0.859202 0.271918 0.744576 0.8 0 0
0.189393 0.129355 0.582447 0.8 0 0
0.783279 0.166565 0.630352 0.8 0 0
0.633648 0.151144 0.817766 0.8 0 0
0.905433 0.591232 0.507233 0.8 0 0
0.542905 0.096171 0.699784 0.8 0 0
0.484801 0.573469 0.910061 0.8 0 0
0.416969 0.235484 0.123098 0.8 0 0
0.777834 0.520442 0.812833 0.8 0 0
0.087246 0.551445 0.510578 0.8 0 0
0.902207 0.563179 0.466986 0.8 0 0
0.362157 0.287537 0.921412 0.8 0 0
0.119396 0.625995 0.697517 0.8 0 0
0.554123 0.121960 0.250509 0.8 0 0
0.394836 0.303648 0.931736 0.8 0 0
0.715002 0.109264 0.299570 0.8 0 0
0.313726 0.333082 0.883258 0.8 0 0
0.052117 0.341120 0.390558 0.8 0 0
0.256319 0.218787 0.220776 0.8 0 0
0.692107 0.103910 0.716520 0.8 0 0
0.138497 0.308141 0.284069 0.8 0 0
0.360338 0.565041 0.915026 0.8 0 0
0.743883 0.494694 0.887971 0.8 0 0
0.435856 0.527301 0.080944 0.8 0 0
0.483617 0.509086 0.038616 0.8 0 0
0.574713 0.405593 0.934622 0.8 0 0
0.370480 0.191183 0.813178 0.8 0 0
0.154202 0.503939 0.798932 0.8 0 0
0.735411 0.251213 0.847139 0.8 0 0
0.312213 0.285587 0.893270 0.8 0 0
0.071382 0.501456 0.522355 0.8 0 0
0.328861 0.147448 0.800947 0.8 0 0
0.859789 0.628222 0.735694 0.8 0 0
0.089820 0.649783 0.481432 0.8 0 0
0.560280 0.387085 0.935900 0.8 0 0
0.129832 0.276544 0.733683 0.8 0 0
0.108502 0.605354 0.602744 0.8 0 0
0.229594 0.127119 0.664273 0.8 0 0
0.632086 0.276203 0.117218 0.8 0 0
0.035697 0.486381 0.461321 0.8 0 0
0.245962 0.083136 0.516652 0.8 0 0
0.549523 0.641635 0.924187 0.8 0 0
0.383142 0.092339 0.644093 0.8 0 0
0.036569 0.468441 0.552736 0.8 0 0
0.900623 0.509339 0.646803 0.8 0 0
0.631574 0.536740 0.929000 0.8 0 0
0.072243 0.648204 0.565819 0.8 0 0
0.270789 0.386713 0.903564 0.8 0 0
0.370966 0.436156 0.078841 0.8 0 0
0.305202 0.524314 0.122568 0.8 0 0
0.773392 0.347233 0.822703 0.8 0 0
0.596535 0.351285 0.913245 0.8 0 0
0.489256 0.366075 0.960174 0.8 0 0
0.799521 0.603703 0.803269 0.8 0 0
0.258365 0.533887 0.874568 0.8 0 0
0.224374 0.529672 0.818840 0.8 0 0
0.250547 0.108001 0.651833 0.8 0 0
0.517684 0.291157 0.055049 0.8 0 0
0.188545 0.300091 0.825078 0.8 0 0
0.621598 0.085476 0.607101 0.8 0 0
0.848100 0.239177 0.657761 0.8 0 0
0.053735 0.545139 0.481158 0.8 0 0
0.542180 0.600709 0.906488 0.8 0 0
0.329036 0.399368 0.899123 0.8 0 0
0.471483 0.028211 0.537588 0.8 0 0
0.211222 0.208192 0.283330 0.8 0 0
0.301043 0.575630 0.857781 0.8 0 0
0.451974 0.203559 0.845595 0.8 0 0
0.127613 0.329584 0.291990 0.8 0 0
0.124677 0.254362 0.621671 0.8 0 0
0.136781 0.258950 0.654306 0.8 0 0
0.650823 0.427511 0.940391 0.8 0 0
0.355407 0.357748 0.057989 0.8 0 0
0.837673 0.190917 0.488853 0.8 0 0
0.103414 0.322097 0.639059 0.8 0 0
0.633134 0.243260 0.861462 0.8 0 0
0.117821 0.649849 0.652494 0.8 0 0
0.505445 0.649686 0.091725 0.8 0 0
0.140841 0.515145 0.724761 0.8 0 0
0.764133 0.119045 0.657939 0.8 0 0
0.882417 0.227082 0.648191 0.8 0 0
0.583929 0.127311 0.749521 0.8 0 0
0.887278 0.476912 0.753300 0.8 0 0
0.153341 0.377878 0.230268 0.8 0 0
0.855450 0.228700 0.613144 0.8 0 0
0.401962 0.359748 0.044095 0.8 0 0
0.835428 0.184814 0.497502 0.8 0 0
0.657350 0.519063 0.889591 0.8 0 0
0.927587 0.484747 0.543066 0.8 0 0
0.366258 0.386500 0.080323 0.8 0 0
0.058952 0.490167 0.634220 0.8 0 0
0.907368 0.344234 0.701805 0.8 0 0
0.960438 0.418243 0.593315 0.8 0 0
0.612375 0.096839 0.243394 0.8 0 0
0.281541 0.615952 0.152490 0.8 0 0
0.858738 0.195000 0.370460 0.8 0 0
0.431348 0.529979 0.947699 0.8 0 0
0.704714 0.171617 0.749786 0.8 0 0
0.249101 0.552538 0.828611 0.8 0 0
0.472089 0.552800 0.934945 0.8 0 0
0.913804 0.544555 0.347422 0.8 0 0
0.887193 0.473305 0.754398 0.8 0 0
0.187582 0.221790 0.292837 0.8 0 0
0.662006 0.450984 0.943652 0.8 0 0
0.801252 0.421700 0.141143 0.8 0 0
0.868869 0.249689 0.631118 0.8 0 0
0.889416 0.416124 0.697719 0.8 0 0
0.249469 0.589362 0.845473 0.8 0 0
0.747828 0.158648 0.677781 0.8 0 0
0.140653 0.650417 0.266785 0.8 0 0
0.058780 0.490985 0.640161 0.8 0 0
0.344155 0.149102 0.749560 0.8 0 0
0.380803 0.276531 0.887891 0.8 0 0
0.910222 0.646358 0.635055 0.8 0 0
0.173975 0.294111 0.752529 0.8 0 0
0.823675 0.241784 0.709689 0.8 0 0
0.915583 0.249828 0.564963 0.8 0 0
0.805770 0.585470 0.234477 0.8 0 0
0.135667 0.314545 0.702632 0.8 0 0
0.291079 0.317619 0.866940 0.8 0 0
0.184004 0.381924 0.798773 0.8 0 0
0.931120 0.466162 0.487712 0.8 0 0
0.383556 0.624674 0.890822 0.8 0 0
0.735902 0.530509 0.885307 0.8 0 0
0.856487 0.519195 0.222101 0.8 0 0
0.959107 0.432359 0.600214 0.8 0 0
0.170289 0.149285 0.382719 0.8 0 0
0.891071 0.587634 0.600749 0.8 0 0
0.191177 0.273083 0.237286 0.8 0 0
0.621165 0.077047 0.288834 0.8 0 0
0.425295 0.357373 0.959219 0.8 0 0
0.370871 0.077522 0.710353 0.8 0 0
0.601730 0.288514 0.897801 0.8 0 0
0.891379 0.307619 0.643066 0.8 0 0
0.065222 0.534126 0.610328 0.8 0 0
0.268852 0.412335 0.123561 0.8 0 0
0.896504 0.605404 0.586667 0.8 0 0
0.863821 0.225837 0.581706 0.8 0 0
0.149456 0.571078 0.710761 0.8 0 0
0.568457 0.343181 0.075758 0.8 0 0
0.050646 0.499540 0.384075 0.8 0 0
0.301308 0.280968 0.848786 0.8 0 0
0.204800 0.206419 0.755406 0.8 0 0
0.066807 0.335709 0.646271 0.8 0 0
0.266475 0.554079 0.834972 0.8 0 0
0.322018 0.213236 0.180903 0.8 0 0
0.470842 0.167197 0.810197 0.8 0 0
0.248455 0.426933 0.854213 0.8 0 0
0.763994 0.173735 0.312485 0.8 0 0
0.116598 0.504963 0.759411 0.8 0 0
0.768660 0.093530 0.557649 0.8 0 0
0.099014 0.537024 0.691878 0.8 0 0
0.811874 0.515645 0.782290 0.8 0 0
0.875103 0.265426 0.375493 0.8 0 0
0.902731 0.504889 0.645109 0.8 0 0
0.552927 0.369767 0.932942 0.8 0 0
0.543168 0.031904 0.574442 0.8 0 0
0.882807 0.253480 0.588582 0.8 0 0
0.531536 0.087289 0.328676 0.8 0 0
0.160817 0.272672 0.274930 0.8 0 0
0.809411 0.237607 0.275073 0.8 0 0
0.297108 0.180822 0.817426 0.8 0 0
0.439704 0.629140 0.903992 0.8 0 0
0.066761 0.570314 0.510576 0.8 0 0
0.899822 0.279731 0.474378 0.8 0 0
0.406865 0.064854 0.300353 0.8 0 0
0.896899 0.441710 0.676372 0.8 0 0
0.810679 0.277669 0.245153 0.8 0 0
0.261011 0.240352 0.152138 0.8 0 0
0.893118 0.393188 0.757948 0.8 0 0
0.041806 0.508807 0.515879 0.8 0 0
0.156145 0.447778 0.816809 0.8 0 0
0.760527 0.337328 0.165348 0.8 0 0
0.793288 0.561776 0.779571 0.8 0 0
0.255795 0.114557 0.673469 0.8 0 0
0.587953 0.094692 0.764570 0.8 0 0
0.226006 0.302245 0.856898 0.8 0 0
0.341280 0.134955 0.789477 0.8 0 0
0.653755 0.057046 0.610555 0.8 0 0
0.221656 0.586323 0.800186 0.8 0 0
0.656594 0.405477 0.088873 0.8 0 0
0.028746 0.430573 0.462067 0.8 0 0
0.270602 0.599427 0.859897 0.8 0 0
0.331719 0.196277 0.849071 0.8 0 0
0.175934 0.234546 0.289497 0.8 0 0
0.418331 0.396992 0.065639 0.8 0 0
0.260249 0.430989 0.870626 0.8 0 0
0.324540 0.106468 0.262214 0.8 0 0
0.472186 0.298735 0.085087 0.8 0 0
0.136837 0.630323 0.261313 0.8 0 0
0.187673 0.512394 0.829941 0.8 0 0
0.786308 0.220883 0.725570 0.8 0 0
0.934386 0.411723 0.527442 0.8 0 0
0.289281 0.171737 0.802537 0.8 0 0
0.850943 0.232924 0.359670 0.8 0 0
0.333754 0.146142 0.260649 0.8 0 0
0.051901 0.431484 0.637026 0.8 0 0
0.427830 0.149812 0.835546 0.8 0 0
0.189537 0.614110 0.233109 0.8 0 0
0.497436 0.203790 0.104797 0.8 0 0
0.679206 0.213344 0.143701 0.8 0 0
0.029405 0.415544 0.462222 0.8 0 0
0.519818 0.030285 0.573563 0.8 0 0
0.799650 0.159135 0.554725 0.8 0 0
0.825222 0.305396 0.759205 0.8 0 0
0.065502 0.643618 0.476435 0.8 0 0
0.536859 0.029002 0.551888 0.8 0 0
0.803880 0.318456 0.165818 0.8 0 0
0.031985 0.412238 0.435728 0.8 0 0
0.725090 0.564229 0.159126 0.8 0 0
0.905034 0.225898 0.540825 0.8 0 0
0.738233 0.368985 0.865685 0.8 0 0
0.225509 0.446554 0.113040 0.8 0 0
0.529459 0.068388 0.576649 0.8 0 0
0.121588 0.433003 0.272550 0.8 0 0
0.460254 0.425085 0.963540 0.8 0 0
0.068151 0.388751 0.572281 0.8 0 0
0.899109 0.267239 0.664588 0.8 0 0
0.348235 0.369480 0.902823 0.8 0 0
0.742154 0.416510 0.096853 0.8 0 0
0.212483 0.487223 0.173153 0.8 0 0
0.893357 0.622155 0.588455 0.8 0 0
0.876545 0.648589 0.650700 0.8 0 0
0.915646 0.321063 0.558028 0.8 0 0
0.595073 0.373933 0.041663 0.8 0 0
0.321564 0.593256 0.867730 0.8 0 0
0.880931 0.200532 0.445107 0.8 0 0
0.242907 0.474220 0.885633 0.8 0 0
0.442321 0.121279 0.190718 0.8 0 0
0.166841 0.518424 0.805432 0.8 0 0
0.134978 0.354842 0.731403 0.8 0 0
0.050230 0.316708 0.534722 0.8 0 0
0.232847 0.635892 0.807065 0.8 0 0
0.834678 0.549453 0.781290 0.8 0 0
0.251325 0.317828 0.116175 0.8 0 0
0.571320 0.561719 0.905887 0.8 0 0
0.851297 0.440701 0.242119 0.8 0 0
0.623176 0.544610 0.890590 0.8 0 0
0.853848 0.401643 0.245418 0.8 0 0
0.870460 0.519649 0.696365 0.8 0 0
0.674290 0.480677 0.103109 0.8 0 0
0.495434 0.094217 0.220462 0.8 0 0
0.448160 0.095423 0.688024 0.8 0 0
0.321128 0.252990 0.111930 0.8 0 0
0.153474 0.371609 0.756883 0.8 0 0
0.099972 0.406712 0.673283 0.8 0 0
0.244301 0.592740 0.179502 0.8 0 0
0.493342 0.530147 0.046433 0.8 0 0
0.425527 0.141215 0.772662 0.8 0 0
0.818403 0.181084 0.592462 0.8 0 0
0.041647 0.358175 0.559361 0.8 0 0
0.151812 0.433674 0.818964 0.8 0 0
0.815277 0.238172 0.281480 0.8 0 0
0.531533 0.260536 0.928599 0.8 0 0
0.347946 0.565743 0.882462 0.8 0 0
0.798269 0.622615 0.776070 0.8 0 0
0.118252 0.546958 0.267568 0.8 0 0
0.724775 0.614357 0.860458 0.8 0 0
0.348488 0.497333 0.906335 0.8 0 0
0.306920 0.076991 0.346674 0.8 0 0
0.761369 0.458177 0.891475 0.8 0 0
0.208280 0.556180 0.167281 0.8 0 0
0.671521 0.649849 0.873189 0.8 0 0
0.595952 0.161122 0.787531 0.8 0 0
0.567265 0.072707 0.274140 0.8 0 0
0.615734 0.166451 0.204976 0.8 0 0
0.747337 0.229453 0.172161 0.8 0 0
0.581867 0.162380 0.793384 0.8 0 0
0.157160 0.197597 0.567471 0.8 0 0
0.842230 0.184506 0.648573 0.8 0 0
0.730170 0.384241 0.902094 0.8 0 0
0.617392 0.042188 0.423152 0.8 0 0
0.689453 0.093663 0.528335 0.8 0 0
0.401837 0.362202 0.948660 0.8 0 0
0.328476 0.423986 0.898898 0.8 0 0
0.083490 0.304257 0.463569 0.8 0 0
0.727603 0.073381 0.550887 0.8 0 0
0.923060 0.575028 0.440193 0.8 0 0
0.918328 0.260243 0.430799 0.8 0 0
0.127443 0.468929 0.267846 0.8 0 0
0.383685 0.075684 0.285687 0.8 0 0
0.376074 0.045466 0.601324 0.8 0 0
0.176175 0.497536 0.833249 0.8 0 0
0.632578 0.585466 0.904321 0.8 0 0
0.871401 0.499891 0.773563 0.8 0 0
0.533409 0.079506 0.741190 0.8 0 0
0.665939 0.336497 0.886901 0.8 0 0
0.936826 0.548024 0.468478 0.8 0 0
0.781756 0.546690 0.804865 0.8 0 0
0.843773 0.481751 0.755557 0.8 0 0
0.858410 0.174475 0.427877 0.8 0 0
0.176712 0.195810 0.622542 0.8 0 0
0.439871 0.087082 0.656573 0.8 0 0
0.133789 0.496734 0.213815 0.8 0 0
0.768022 0.420332 0.846522 0.8 0 0
0.773676 0.161061 0.723205 0.8 0 0
0.460629 0.140441 0.779242 0.8 0 0
0.042647 0.360413 0.576253 0.8 0 0
0.914508 0.315652 0.547787 0.8 0 0
0.403680 0.079401 0.385744 0.8 0 0
0.661779 0.522885 0.074533 0.8 0 0
0.139216 0.264503 0.323493 0.8 0 0
0.334970 0.320965 0.918930 0.8 0 0
0.783772 0.320574 0.853397 0.8 0 0
0.093656 0.391836 0.326681 0.8 0 0
0.469717 0.330437 0.043079 0.8 0 0
0.523545 0.217862 0.132438 0.8 0 0
0.074229 0.441610 0.702749 0.8 0 0
0.871766 0.261223 0.710860 0.8 0 0
0.287046 0.063170 0.474982 0.8 0 0
0.960926 0.471094 0.557062 0.8 0 0
0.588713 0.088419 0.745768 0.8 0 0
0.696579 0.642604 0.885935 0.8 0 0
0.691793 0.314863 0.867091 0.8 0 0
0.602713 0.414472 0.920363 0.8 0 0
0.570642 0.393107 0.065286 0.8 0 0
0.127537 0.340005 0.768849 0.8 0 0
0.547861 0.068275 0.716041 0.8 0 0
0.525514 0.092071 0.773949 0.8 0 0
0.170684 0.496789 0.168838 0.8 0 0
0.287834 0.343174 0.908306 0.8 0 0
0.487066 0.066204 0.434202 0.8 0 0
0.370031 0.401454 0.079202 0.8 0 0
0.143589 0.522466 0.263896 0.8 0 0
0.901654 0.389055 0.331312 0.8 0 0
0.721133 0.572977 0.128144 0.8 0 0
0.573090 0.359588 0.928400 0.8 0 0
0.737208 0.614762 0.860100 0.8 0 0
0.673338 0.057070 0.420441 0.8 0 0
0.719737 0.257626 0.860195 0.8 0 0
0.131413 0.291742 0.245964 0.8 0 0
0.221133 0.161028 0.362248 0.8 0 0
0.279523 0.647934 0.123061 0.8 0 0
0.604983 0.091410 0.745898 0.8 0 0
0.165087 0.186033 0.540106 0.8 0 0
0.946777 0.530149 0.496349 0.8 0 0
0.197489 0.172504 0.373506 0.8 0 0
0.217845 0.152711 0.585067 0.8 0 0
0.441796 0.174688 0.824966 0.8 0 0
0.778029 0.650017 0.176824 0.8 0 0
0.893376 0.395629 0.689957 0.8 0 0
0.875908 0.489035 0.294485 0.8 0 0
0.938895 0.453970 0.658802 0.8 0 0
0.633372 0.165761 0.786217 0.8 0 0
0.878190 0.548026 0.338362 0.8 0 0
0.251102 0.326936 0.837057 0.8 0 0
0.507845 0.638411 0.091915 0.8 0 0
0.218798 0.392136 0.876991 0.8 0 0
0.925835 0.589490 0.539750 0.8 0 0
0.549880 0.347129 0.951773 0.8 0 0
0.099581 0.531702 0.617773 0.8 0 0
0.911008 0.546540 0.530651 0.8 0 0
0.533020 0.153712 0.147723 0.8 0 0
0.901208 0.541910 0.314282 0.8 0 0
0.640998 0.500020 0.933743 0.8 0 0
0.545723 0.628412 0.071755 0.8 0 0
0.916269 0.650193 0.514433 0.8 0 0
0.068808 0.459463 0.562902 0.8 0 0
0.526732 0.050841 0.675245 0.8 0 0
0.381523 0.191383 0.817176 0.8 0 0
0.896906 0.534288 0.706103 0.8 0 0
0.560940 0.228165 0.866721 0.8 0 0
0.602762 0.236802 0.871223 0.8 0 0
0.745585 0.200742 0.249606 0.8 0 0
0.720017 0.611865 0.870140 0.8 0 0
0.901755 0.644129 0.662640 0.8 0 0
0.094236 0.488996 0.651300 0.8 0 0
0.507322 0.064632 0.446238 0.8 0 0
0.341470 0.212183 0.868231 0.8 0 0
0.724859 0.622042 0.867023 0.8 0 0
0.116165 0.274040 0.367850 0.8 0 0
0.293332 0.417817 0.923860 0.8 0 0
0.719769 0.239382 0.144401 0.8 0 0
0.318186 0.118396 0.327281 0.8 0 0
0.475549 0.256562 0.920363 0.8 0 0
0.094256 0.344015 0.715033 0.8 0 0
0.074241 0.396614 0.387273 0.8 0 0
0.197645 0.115577 0.446156 0.8 0 0
0.777429 0.119389 0.626187 0.8 0 0
0.523711 0.465094 0.929854 0.8 0 0
0.826777 0.513567 0.231188 0.8 0 0
0.939100 0.408032 0.343559 0.8 0 0
0.798357 0.330705 0.837684 0.8 0 0
0.176557 0.226369 0.244034 0.8 0 0
0.623665 0.182622 0.806601 0.8 0 0
0.289497 0.134549 0.244656 0.8 0 0
0.678280 0.378076 0.927589 0.8 0 0
0.672384 0.183451 0.789260 0.8 0 0
0.038054 0.487807 0.532014 0.8 0 0
0.356861 0.382986 0.948063 0.8 0 0
0.484525 0.284215 0.057675 0.8 0 0
0.372987 0.466297 0.951397 0.8 0 0
0.135531 0.254588 0.720927 0.8 0 0
0.725025 0.345030 0.135534 0.8 0 0
0.107325 0.276453 0.304605 0.8 0 0
0.181579 0.376359 0.153634 0.8 0 0
0.282812 0.127203 0.641723 0.8 0 0
0.520420 0.640744 0.093151 0.8 0 0
0.048105 0.428888 0.630456 0.8 0 0
0.758544 0.094804 0.598705 0.8 0 0
0.756678 0.357685 0.155322 0.8 0 0
0.845961 0.219200 0.700806 0.8 0 0
0.356822 0.140599 0.255667 0.8 0 0
0.174287 0.319219 0.228936 0.8 0 0
0.588703 0.117445 0.206286 0.8 0 0
0.851088 0.305723 0.725359 0.8 0 0
0.365247 0.195215 0.176945 0.8 0 0
0.211997 0.645227 0.782432 0.8 0 0
0.268985 0.175079 0.735908 0.8 0 0
0.135779 0.283634 0.742609 0.8 0 0
0.855733 0.192511 0.642351 0.8 0 0
0.586049 0.377843 0.955653 0.8 0 0
0.351785 0.083489 0.555779 0.8 0 0
0.695619 0.569364 0.888158 0.8 0 0
0.589748 0.407150 0.036722 0.8 0 0
0.921704 0.339596 0.538355 0.8 0 0
0.675022 0.228148 0.128401 0.8 0 0
0.624733 0.286044 0.110698 0.8 0 0
0.646076 0.476465 0.910669 0.8 0 0
0.960693 0.404481 0.436795 0.8 0 0
0.792822 0.337731 0.150755 0.8 0 0
0.386231 0.310717 0.094514 0.8 0 0
0.083129 0.483216 0.374739 0.8 0 0
0.938271 0.378451 0.348685 0.8 0 0
0.780236 0.548161 0.842758 0.8 0 0
0.905190 0.414393 0.736675 0.8 0 0
0.775734 0.430833 0.833238 0.8 0 0
0.639834 0.310881 0.896777 0.8 0 0
0.810474 0.599299 0.762326 0.8 0 0
0.193978 0.214122 0.692674 0.8 0 0
0.619978 0.076456 0.562988 0.8 0 0
0.817355 0.214165 0.674769 0.8 0 0
0.255579 0.544387 0.830495 0.8 0 0
0.558361 0.086020 0.340870 0.8 0 0
0.817514 0.198502 0.716019 0.8 0 0
0.091647 0.274988 0.336622 0.8 0 0
0.829551 0.139064 0.537271 0.8 0 0
0.677662 0.605910 0.134630 0.8 0 0
0.144983 0.158551 0.447892 0.8 0 0
0.561013 0.324286 0.080066 0.8 0 0
0.255358 0.606622 0.848955 0.8 0 0
0.356331 0.046994 0.415152 0.8 0 0
0.694610 0.530143 0.865919 0.8 0 0
0.151018 0.583657 0.712831 0.8 0 0
0.284583 0.079356 0.624719 0.8 0 0
0.933830 0.276067 0.509082 0.8 0 0
0.833243 0.143466 0.551316 0.8 0 0
0.897487 0.454577 0.324967 0.8 0 0
0.843616 0.260827 0.690749 0.8 0 0
0.404516 0.392106 0.069319 0.8 0 0
0.621480 0.039149 0.480415 0.8 0 0
0.916148 0.563683 0.384072 0.8 0 0
0.643245 0.181003 0.801852 0.8 0 0
0.186689 0.550143 0.770450 0.8 0 0
0.587430 0.058959 0.320957 0.8 0 0
0.768909 0.302735 0.816676 0.8 0 0
0.252369 0.569209 0.138381 0.8 0 0
0.072377 0.605517 0.435441 0.8 0 0
0.033928 0.365875 0.474488 0.8 0 0
0.289132 0.647531 0.117941 0.8 0 0
0.825424 0.296911 0.197468 0.8 0 0
0.063753 0.433381 0.525590 0.8 0 0
0.781604 0.169282 0.641731 0.8 0 0
0.747315 0.127827 0.426052 0.8 0 0
0.420221 0.073596 0.590268 0.8 0 0
0.760334 0.464164 0.152385 0.8 0 0
0.471598 0.476909 0.934857 0.8 0 0
0.874318 0.351050 0.708136 0.8 0 0
0.210502 0.156486 0.585420 0.8 0 0
0.165970 0.284292 0.728924 0.8 0 0
0.844708 0.585912 0.710709 0.8 0 0
0.934083 0.411105 0.530740 0.8 0 0
0.773000 0.164487 0.651025 0.8 0 0
0.539804 0.158993 0.195490 0.8 0 0
0.811490 0.166304 0.526876 0.8 0 0
0.433042 0.072635 0.406193 0.8 0 0
0.627161 0.306119 0.898369 0.8 0 0
0.473177 0.619661 0.907398 0.8 0 0
0.607771 0.557034 0.073629 0.8 0 0
0.289188 0.207347 0.790327 0.8 0 0
0.639994 0.294994 0.917132 0.8 0 0
0.350065 0.080729 0.502630 0.8 0 0
0.394433 0.379281 0.073384 0.8 0 0
0.269809 0.564622 0.866240 0.8 0 0
0.236655 0.287583 0.183654 0.8 0 0
0.863098 0.225515 0.583161 0.8 0 0
0.153032 0.621561 0.706815 0.8 0 0
0.775099 0.449308 0.119905 0.8 0 0
0.613753 0.462402 0.078637 0.8 0 0
0.066371 0.424647 0.553889 0.8 0 0
0.561960 0.135727 0.232866 0.8 0 0
0.645377 0.466111 0.905424 0.8 0 0
0.362890 0.079647 0.438433 0.8 0 0
0.547648 0.188208 0.831456 0.8 0 0
0.326168 0.192133 0.156080 0.8 0 0
0.356821 0.576562 0.114355 0.8 0 0
0.899941 0.326553 0.713790 0.8 0 0
0.587800 0.446092 0.931789 0.8 0 0
0.575949 0.525941 0.948552 0.8 0 0
0.115072 0.635006 0.628933 0.8 0 0
0.409754 0.097439 0.312465 0.8 0 0
0.093823 0.302551 0.401157 0.8 0 0
0.919082 0.650324 0.557208 0.8 0 0
0.612212 0.127192 0.200134 0.8 0 0
0.312623 0.057802 0.550762 0.8 0 0
0.079673 0.454478 0.619282 0.8 0 0
0.320445 0.202957 0.799299 0.8 0 0
0.893959 0.320258 0.647841 0.8 0 0
0.128072 0.206687 0.625109 0.8 0 0
0.423898 0.641309 0.097634 0.8 0 0
0.849756 0.363983 0.248586 0.8 0 0
0.863653 0.634723 0.670468 0.8 0 0
0.318796 0.095806 0.706373 0.8 0 0
0.055562 0.510641 0.604669 0.8 0 0
0.207736 0.598744 0.779735 0.8 0 0
0.183257 0.551788 0.231342 0.8 0 0
0.690224 0.569641 0.883781 0.8 0 0
0.729726 0.614044 0.165110 0.8 0 0
0.645229 0.649185 0.881209 0.8 0 0
0.786463 0.301704 0.845094 0.8 0 0
0.333721 0.142210 0.788906 0.8 0 0
0.072520 0.358508 0.547786 0.8 0 0
0.605408 0.455884 0.041756 0.8 0 0
0.765222 0.423315 0.111781 0.8 0 0
0.876848 0.239985 0.427489 0.8 0 0
0.141691 0.475954 0.741054 0.8 0 0
0.952558 0.381039 0.396087 0.8 0 0
0.124481 0.543953 0.741889 0.8 0 0
0.412098 0.228524 0.094727 0.8 0 0
0.446240 0.078962 0.630099 0.8 0 0
0.537768 0.027519 0.499564 0.8 0 0
0.768031 0.136721 0.548716 0.8 0 0
0.348387 0.191313 0.189673 0.8 0 0
0.041964 0.387418 0.388124 0.8 0 0
0.665132 0.120521 0.757570 0.8 0 0
0.810305 0.129769 0.572671 0.8 0 0
0.645357 0.152345 0.180933 0.8 0 0
0.083673 0.253551 0.587551 0.8 0 0
0.846894 0.590626 0.706134 0.8 0 0
0.178145 0.132420 0.539261 0.8 0 0
0.355430 0.255126 0.895621 0.8 0 0
0.894765 0.389793 0.318010 0.8 0 0
0.923678 0.624487 0.541946 0.8 0 0
0.268691 0.229410 0.837301 0.8 0 0
0.373049 0.253827 0.123725 0.8 0 0
0.298467 0.125330 0.332685 0.8 0 0
0.602860 0.429139 0.073367 0.8 0 0
0.639132 0.050731 0.598548 0.8 0 0
0.207347 0.223437 0.723455 0.8 0 0
0.739936 0.535142 0.881069 0.8 0 0
0.550838 0.132896 0.175879 0.8 0 0
0.874162 0.332280 0.690656 0.8 0 0
0.403196 0.043815 0.610768 0.8 0 0
0.307272 0.064318 0.597756 0.8 0 0
0.591197 0.474220 0.959795 0.8 0 0
0.245989 0.424122 0.899643 0.8 0 0
0.922389 0.262923 0.569223 0.8 0 0
0.293400 0.609111 0.120470 0.8 0 0
0.213441 0.147267 0.535912 0.8 0 0
0.639338 0.528071 0.899025 0.8 0 0
0.768682 0.157619 0.271240 0.8 0 0
0.883388 0.234756 0.659793 0.8 0 0
0.230126 0.579063 0.807387 0.8 0 0
0.642501 0.045488 0.561809 0.8 0 0
0.289854 0.555989 0.143015 0.8 0 0
0.805085 0.160876 0.521752 0.8 0 0
0.135167 0.640447 0.316775 0.8 0 0
0.505025 0.220316 0.864692 0.8 0 0
0.116868 0.588008 0.641060 0.8 0 0
0.531752 0.174849 0.827463 0.8 0 0
0.759373 0.405199 0.894140 0.8 0 0
0.760086 0.385550 0.845801 0.8 0 0
0.590299 0.376636 0.071755 0.8 0 0
0.301655 0.307468 0.092958 0.8 0 0
0.129692 0.603668 0.324575 0.8 0 0
0.685545 0.571324 0.885425 0.8 0 0
0.665672 0.650350 0.111273 0.8 0 0
0.251245 0.287980 0.861207 0.8 0 0
0.088098 0.350288 0.370805 0.8 0 0
0.746812 0.136402 0.610354 0.8 0 0
0.683855 0.271257 0.893476 0.8 0 0
0.553840 0.085609 0.652777 0.8 0 0
0.091503 0.313949 0.301022 0.8 0 0
0.754631 0.650109 0.822099 0.8 0 0
0.270787 0.122035 0.604228 0.8 0 0
0.870789 0.460575 0.218186 0.8 0 0
0.582556 0.645799 0.072505 0.8 0 0
0.519438 0.265704 0.901002 0.8 0 0
0.170025 0.496442 0.169296 0.8 0 0
0.586023 0.259755 0.079341 0.8 0 0
0.786067 0.237787 0.804436 0.8 0 0
0.176330 0.544913 0.799827 0.8 0 0
0.258817 0.292603 0.121989 0.8 0 0
0.836027 0.199293 0.692930 0.8 0 0
0.301264 0.089926 0.683578 0.8 0 0
0.833223 0.405434 0.220012 0.8 0 0
0.400798 0.090042 0.648333 0.8 0 0
0.197609 0.303821 0.208397 0.8 0 0
0.108262 0.587029 0.314100 0.8 0 0
0.952711 0.432963 0.622565 0.8 0 0
0.814767 0.528889 0.778432 0.8 0 0
0.335963 0.260663 0.863962 0.8 0 0
0.300257 0.095822 0.513280 0.8 0 0
0.398680 0.035083 0.528596 0.8 0 0
0.065626 0.274995 0.515180 0.8 0 0
0.663457 0.370560 0.062184 0.8 0 0
0.476542 0.592192 0.091102 0.8 0 0
0.648009 0.367342 0.902848 0.8 0 0
0.859197 0.375295 0.747850 0.8 0 0
0.168328 0.481497 0.829564 0.8 0 0
0.580663 0.551081 0.900467 0.8 0 0
0.419187 0.502021 0.073580 0.8 0 0
0.750809 0.133034 0.590189 0.8 0 0
0.886086 0.558679 0.705171 0.8 0 0
0.576054 0.151602 0.843381 0.8 0 0
0.680566 0.101716 0.613859 0.8 0 0
0.495648 0.025229 0.499289 0.8 0 0
0.091852 0.430646 0.657743 0.8 0 0
0.468428 0.218742 0.897255 0.8 0 0
0.949060 0.500126 0.601413 0.8 0 0
0.592756 0.034373 0.462592 0.8 0 0
0.474244 0.152840 0.147430 0.8 0 0
0.895789 0.374673 0.673145 0.8 0 0
0.930950 0.456332 0.469798 0.8 0 0
0.492201 0.287566 0.937405 0.8 0 0
0.143786 0.603566 0.736999 0.8 0 0
0.331333 0.202695 0.804673 0.8 0 0
0.171850 0.551469 0.790034 0.8 0 0
0.370203 0.589064 0.881204 0.8 0 0
0.652804 0.139875 0.735600 0.8 0 0
0.209025 0.398725 0.128363 0.8 0 0
0.060979 0.415104 0.468434 0.8 0 0
0.287976 0.607964 0.842693 0.8 0 0
0.126113 0.289495 0.254263 0.8 0 0
0.243575 0.573232 0.843092 0.8 0 0
0.921137 0.346297 0.563910 0.8 0 0
0.225744 0.315242 0.860783 0.8 0 0
0.207321 0.594213 0.210125 0.8 0 0
0.650813 0.519788 0.930727 0.8 0 0
0.931216 0.563308 0.546432 0.8 0 0
0.799772 0.639790 0.766222 0.8 0 0
0.344608 0.384693 0.905620 0.8 0 0
0.849025 0.575834 0.753476 0.8 0 0
0.195430 0.159468 0.306161 0.8 0 0
0.786062 0.175327 0.651239 0.8 0 0
0.579997 0.650042 0.902381 0.8 0 0
0.413283 0.085433 0.637424 0.8 0 0
0.494274 0.465246 0.970770 0.8 0 0
0.537670 0.068668 0.426695 0.8 0 0
0.495435 0.352029 0.035412 0.8 0 0
0.932465 0.550275 0.588625 0.8 0 0
0.467148 0.061484 0.699840 0.8 0 0
0.201619 0.227719 0.722572 0.8 0 0
0.610869 0.634702 0.891604 0.8 0 0
0.764977 0.474728 0.117373 0.8 0 0
0.056839 0.347653 0.368352 0.8 0 0
0.681127 0.516874 0.878139 0.8 0 0
0.263625 0.197582 0.189862 0.8 0 0
0.466201 0.240496 0.880632 0.8 0 0
0.345736 0.650158 0.884475 0.8 0 0
0.673434 0.578815 0.896452 0.8 0 0
0.439906 0.090843 0.759460 0.8 0 0
0.099588 0.224355 0.576451 0.8 0 0
0.843438 0.545988 0.772769 0.8 0 0
0.112606 0.609982 0.616436 0.8 0 0
0.090930 0.311860 0.397584 0.8 0 0
0.747717 0.279967 0.855584 0.8 0 0
0.366930 0.041194 0.536319 0.8 0 0
0.310029 0.591258 0.110679 0.8 0 0
0.638213 0.176931 0.201111 0.8 0 0
0.553193 0.029455 0.537985 0.8 0 0
0.551776 0.650189 0.916749 0.8 0 0
0.116994 0.310081 0.663906 0.8 0 0
0.060010 0.292046 0.546949 0.8 0 0
0.180462 0.641499 0.786104 0.8 0 0
0.252304 0.180314 0.716676 0.8 0 0
0.236272 0.528607 0.821931 0.8 0 0
0.796959 0.346743 0.850927 0.8 0 0
0.870748 0.230220 0.671849 0.8 0 0
0.125547 0.374929 0.724687 0.8 0 0
0.105289 0.379223 0.239958 0.8 0 0
0.806136 0.134224 0.614736 0.8 0 0
0.731154 0.320825 0.848055 0.8 0 0
0.869128 0.597768 0.712705 0.8 0 0
0.412810 0.068984 0.496337 0.8 0 0
0.091009 0.616466 0.361270 0.8 0 0
0.871140 0.524372 0.698510 0.8 0 0
0.639197 0.527887 0.070180 0.8 0 0
0.362854 0.379107 0.082504 0.8 0 0
0.744280 0.510029 0.851853 0.8 0 0
0.111082 0.292346 0.280159 0.8 0 0
0.127067 0.211941 0.636599 0.8 0 0
0.897127 0.571872 0.581662 0.8 0 0
0.132405 0.243863 0.291464 0.8 0 0
0.592678 0.573042 0.101736 0.8 0 0
0.420894 0.228820 0.900207 0.8 0 0
0.497811 0.048591 0.663817 0.8 0 0
0.960078 0.361755 0.525235 0.8 0 0
0.782435 0.432076 0.834851 0.8 0 0
0.333060 0.481469 0.930116 0.8 0 0
0.671572 0.650086 0.879724 0.8 0 0
0.473325 0.499295 0.068089 0.8 0 0
0.820953 0.562031 0.250926 0.8 0 0
0.817920 0.388466 0.845620 0.8 0 0
0.909760 0.460747 0.646989 0.8 0 0
0.548607 0.454172 0.063995 0.8 0 0
0.946603 0.359019 0.607532 0.8 0 0
0.360779 0.542152 0.887345 0.8 0 0
0.518557 0.621555 0.900878 0.8 0 0
0.726442 0.163774 0.288032 0.8 0 0
0.674408 0.054580 0.447175 0.8 0 0
0.778516 0.356253 0.861850 0.8 0 0
0.668177 0.213317 0.179410 0.8 0 0
0.935646 0.462299 0.664865 0.8 0 0
0.788689 0.412071 0.863667 0.8 0 0
0.089116 0.588112 0.496407 0.8 0 0
0.066640 0.469185 0.439830 0.8 0 0
0.062280 0.363289 0.654956 0.8 0 0
0.742078 0.219668 0.224188 0.8 0 0
0.858612 0.172604 0.568499 0.8 0 0
0.909454 0.602714 0.384625 0.8 0 0
0.674572 0.099781 0.388227 0.8 0 0
0.537619 0.459625 0.968671 0.8 0 0
0.748353 0.093075 0.616582 0.8 0 0
0.592658 0.070952 0.525067 0.8 0 0
0.768661 0.223083 0.195949 0.8 0 0
0.839294 0.413200 0.768834 0.8 0 0
0.107626 0.328651 0.656570 0.8 0 0
0.095727 0.593904 0.643376 0.8 0 0
0.918418 0.345747 0.430664 0.8 0 0
0.574324 0.214990 0.103956 0.8 0 0
0.490927 0.068848 0.722383 0.8 0 0
0.478880 0.535467 0.919873 0.8 0 0
0.530094 0.112953 0.729073 0.8 0 0
0.810802 0.151628 0.347259 0.8 0 0
0.099354 0.390761 0.746329 0.8 0 0
0.833377 0.547172 0.211909 0.8 0 0
0.166706 0.257329 0.717608 0.8 0 0
0.559567 0.066042 0.516566 0.8 0 0
0.670913 0.152006 0.806750 0.8 0 0
0.864594 0.444680 0.259466 0.8 0 0
0.629745 0.219454 0.884546 0.8 0 0
0.705595 0.400848 0.880334 0.8 0 0
0.456477 0.383706 0.961345 0.8 0 0
0.128017 0.634495 0.664611 0.8 0 0
0.559444 0.466406 0.965480 0.8 0 0
0.869345 0.297284 0.323043 0.8 0 0
0.639857 0.530248 0.102700 0.8 0 0
0.648536 0.165232 0.223864 0.8 0 0
0.717582 0.074503 0.589458 0.8 0 0
0.317523 0.646308 0.856506 0.8 0 0
0.924177 0.441104 0.406007 0.8 0 0
0.895805 0.328326 0.282537 0.8 0 0
0.282662 0.079406 0.614174 0.8 0 0
0.862818 0.265095 0.664714 0.8 0 0
0.851031 0.288846 0.295576 0.8 0 0
0.345864 0.081865 0.295161 0.8 0 0
0.899927 0.649990 0.411951 0.8 0 0
0.548116 0.099446 0.295564 0.8 0 0
0.388948 0.477315 0.914027 0.8 0 0
0.702300 0.240110 0.831734 0.8 0 0
0.927481 0.289074 0.402387 0.8 0 0
0.154962 0.177459 0.641300 0.8 0 0
0.557624 0.050135 0.657923 0.8 0 0
0.713005 0.079638 0.627419 0.8 0 0
0.443932 0.647616 0.925107 0.8 0 0
0.535566 0.385264 0.062082 0.8 0 0
0.708392 0.071269 0.600339 0.8 0 0
0.067259 0.365948 0.451379 0.8 0 0
0.677163 0.370895 0.891285 0.8 0 0
0.920020 0.539115 0.648544 0.8 0 0
0.506819 0.089443 0.681829 0.8 0 0
0.951851 0.323907 0.520522 0.8 0 0
0.762401 0.239589 0.824815 0.8 0 0
0.194379 0.338348 0.842581 0.8 0 0
0.367547 0.191286 0.138077 0.8 0 0
0.450874 0.137866 0.823981 0.8 0 0
0.707012 0.125629 0.655854 0.8 0 0
0.871653 0.613987 0.663636 0.8 0 0
0.927197 0.534182 0.630920 0.8 0 0
0.550123 0.411704 0.936899 0.8 0 0
0.698969 0.613398 0.880943 0.8 0 0
0.145000 0.280423 0.238172 0.8 0 0
0.942594 0.382470 0.360163 0.8 0 0
0.317808 0.093239 0.556407 0.8 0 0
0.330425 0.649725 0.898181 0.8 0 0
0.253996 0.106765 0.662128 0.8 0 0
0.899677 0.514583 0.718379 0.8 0 0
0.545880 0.098955 0.774351 0.8 0 0
0.445765 0.329103 0.954146 0.8 0 0
0.341724 0.585613 0.897396 0.8 0 0
0.766224 0.633815 0.799525 0.8 0 0
0.230246 0.482268 0.117194 0.8 0 0
0.052789 0.484436 0.623448 0.8 0 0
0.710793 0.340898 0.864964 0.8 0 0
0.756609 0.605743 0.808586 0.8 0 0
0.381066 0.084584 0.724313 0.8 0 0
0.319756 0.087327 0.688277 0.8 0 0
0.651632 0.414394 0.939549 0.8 0 0
0.925634 0.623195 0.528202 0.8 0 0
0.628388 0.530654 0.894178 0.8 0 0
0.604768 0.194314 0.823416 0.8 0 0
0.078281 0.526665 0.666861 0.8 0 0
0.252123 0.590092 0.854627 0.8 0 0
0.651749 0.644395 0.122706 0.8 0 0
0.925457 0.381268 0.311618 0.8 0 0
0.289507 0.384498 0.078381 0.8 0 0
0.224330 0.104042 0.587346 0.8 0 0
0.958064 0.417344 0.408019 0.8 0 0
0.627563 0.075561 0.526350 0.8 0 0
0.229313 0.645732 0.803756 0.8 0 0
0.277626 0.446657 0.909374 0.8 0 0
0.741480 0.281752 0.827329 0.8 0 0
0.523088 0.467175 0.936653 0.8 0 0
0.394533 0.192545 0.869934 0.8 0 0
0.762673 0.139002 0.578725 0.8 0 0
0.248343 0.141781 0.620283 0.8 0 0
0.747299 0.430265 0.895528 0.8 0 0
0.299361 0.347402 0.908390 0.8 0 0
0.100458 0.593971 0.583245 0.8 0 0
0.839833 0.350084 0.754127 0.8 0 0
0.039596 0.467655 0.580175 0.8 0 0
0.057833 0.466525 0.338272 0.8 0 0
0.102949 0.632924 0.579981 0.8 0 0
0.761369 0.152630 0.637940 0.8 0 0
0.319882 0.261240 0.883588 0.8 0 0
0.125111 0.346836 0.768513 0.8 0 0
0.075348 0.592527 0.410655 0.8 0 0
0.755383 0.624656 0.808737 0.8 0 0
0.221111 0.195826 0.288974 0.8 0 0
0.396504 0.559599 0.891265 0.8 0 0
0.716904 0.321447 0.899026 0.8 0 0
0.786004 0.173589 0.653197 0.8 0 0
0.874074 0.250538 0.694845 0.8 0 0
0.259016 0.502923 0.859058 0.8 0 0
0.651165 0.174016 0.211588 0.8 0 0
0.128755 0.182211 0.425806 0.8 0 0
0.770283 0.293674 0.149121 0.8 0 0
0.378431 0.312409 0.096294 0.8 0 0
0.205621 0.400494 0.866766 0.8 0 0
0.468847 0.081070 0.651005 0.8 0 0
0.117869 0.431530 0.769976 0.8 0 0
0.067237 0.327513 0.640506 0.8 0 0
0.831358 0.188030 0.563224 0.8 0 0
0.190501 0.162685 0.511684 0.8 0 0
0.202871 0.116166 0.568564 0.8 0 0
0.890870 0.539684 0.367238 0.8 0 0
0.881139 0.422676 0.227739 0.8 0 0
0.773271 0.408995 0.835165 0.8 0 0
0.791607 0.331116 0.802458 0.8 0 0
0.575557 0.526406 0.941342 0.8 0 0
0.545680 0.070224 0.576392 0.8 0 0
0.069867 0.484595 0.429904 0.8 0 0
0.491218 0.523131 0.043727 0.8 0 0
0.114122 0.256741 0.581610 0.8 0 0
0.321741 0.098351 0.599799 0.8 0 0
0.697470 0.292424 0.898293 0.8 0 0
0.691544 0.094011 0.525395 0.8 0 0
0.815991 0.319800 0.225445 0.8 0 0
0.615406 0.372926 0.079985 0.8 0 0
0.872834 0.186346 0.550390 0.8 0 0
0.953989 0.371903 0.593251 0.8 0 0
0.573402 0.069709 0.718698 0.8 0 0
0.495210 0.151290 0.797446 0.8 0 0
0.275615 0.157841 0.770275 0.8 0 0
0.802101 0.506263 0.847214 0.8 0 0
0.759010 0.156878 0.655229 0.8 0 0
0.643696 0.509467 0.904555 0.8 0 0
0.391304 0.184400 0.813385 0.8 0 0
0.893229 0.475027 0.743671 0.8 0 0
0.057398 0.285322 0.481481 0.8 0 0
0.172018 0.282084 0.254728 0.8 0 0
0.079880 0.616042 0.590610 0.8 0 0
0.720827 0.213200 0.828025 0.8 0 0
0.642419 0.268524 0.909766 0.8 0 0
0.189342 0.231722 0.713222 0.8 0 0
0.184553 0.167642 0.441417 0.8 0 0
0.088487 0.549761 0.523515 0.8 0 0
0.368068 0.240029 0.898483 0.8 0 0
0.371553 0.112469 0.772933 0.8 0 0
0.443238 0.113484 0.798904 0.8 0 0
0.284962 0.401081 0.918684 0.8 0 0
0.916793 0.614597 0.412671 0.8 0 0
0.768681 0.568880 0.800425 0.8 0 0
0.778250 0.166136 0.723915 0.8 0 0
0.186053 0.533711 0.771736 0.8 0 0
0.489456 0.219674 0.870808 0.8 0 0
0.767145 0.421806 0.113429 0.8 0 0
0.496616 0.121478 0.185518 0.8 0 0
0.454487 0.650401 0.915660 0.8 0 0
0.623650 0.302015 0.103238 0.8 0 0
0.866766 0.239856 0.391910 0.8 0 0
0.300655 0.101342 0.577146 0.8 0 0
0.217115 0.142232 0.470334 0.8 0 0
0.306464 0.350610 0.877641 0.8 0 0
0.139901 0.526054 0.774340 0.8 0 0
0.213623 0.543411 0.156174 0.8 0 0
0.252598 0.184796 0.730550 0.8 0 0
0.936252 0.380138 0.340169 0.8 0 0
0.718994 0.209005 0.784290 0.8 0 0
0.610136 0.374615 0.947906 0.8 0 0
0.565743 0.145882 0.774347 0.8 0 0
0.577492 0.077919 0.619614 0.8 0 0
0.288924 0.138426 0.673780 0.8 0 0
0.167283 0.381876 0.834024 0.8 0 0
0.613993 0.126214 0.266548 0.8 0 0
