0.218095 0.381959 0.151793 0.8 0 0
0.222035 0.405259 0.863801 0.8 0 0
0.283948 0.115306 0.625430 0.8 0 0
0.661750 0.142928 0.262836 0.8 0 0
0.680646 0.379408 0.858306 0.8 0 0
0.421671 0.099860 0.285042 0.8 0 0
0.573730 0.025004 0.484342 0.8 0 0
0.432963 0.096438 0.594758 0.8 0 0
0.755786 0.206891 0.279317 0.8 0 0
0.837976 0.334317 0.287251 0.8 0 0
0.630088 0.025004 0.624941 0.8 0 0
0.687255 0.053047 0.451500 0.8 0 0
0.754730 0.163761 0.665800 0.8 0 0
0.518090 0.081359 0.297797 0.8 0 0
0.679446 0.326089 0.152213 0.8 0 0
0.567457 0.088668 0.432619 0.8 0 0
0.214546 0.187929 0.649823 0.8 0 0
0.307222 0.350838 0.823493 0.8 0 0
0.563884 0.155447 0.724363 0.8 0 0
0.776041 0.207013 0.409233 0.8 0 0
0.572510 0.025003 0.465694 0.8 0 0
0.704130 0.398184 0.925636 0.8 0 0
0.348355 0.109693 0.520142 0.8 0 0
0.817996 0.383704 0.178128 0.8 0 0
0.205751 0.225730 0.416261 0.8 0 0
0.138262 0.273111 0.580377 0.8 0 0
0.143376 0.277505 0.603423 0.8 0 0
0.532449 0.042945 0.688636 0.8 0 0
0.465632 0.405231 0.939204 0.8 0 0
0.327346 0.355682 0.161288 0.8 0 0
0.241750 0.222756 0.735300 0.8 0 0
0.759685 0.353287 0.176770 0.8 0 0
0.647086 0.096886 0.671274 0.8 0 0
0.418232 0.329819 0.854686 0.8 0 0
0.265649 0.191762 0.651230 0.8 0 0
0.676414 0.384861 0.081521 0.8 0 0
0.617592 0.157428 0.774683 0.8 0 0
0.506037 0.382338 0.093020 0.8 0 0
0.400896 0.378588 0.112163 0.8 0 0
0.675986 0.135694 0.715002 0.8 0 0
0.393669 0.362746 0.129047 0.8 0 0
0.679828 0.101519 0.353526 0.8 0 0
0.825991 0.389998 0.172849 0.8 0 0
0.569529 0.048807 0.320750 0.8 0 0
0.593706 0.025004 0.632467 0.8 0 0
0.820587 0.391287 0.770205 0.8 0 0
0.279034 0.105051 0.416886 0.8 0 0
0.462889 0.025004 0.644624 0.8 0 0
0.862344 0.283185 0.407431 0.8 0 0
0.559227 0.397113 0.924339 0.8 0 0
0.175226 0.337861 0.263019 0.8 0 0
0.530062 0.120567 0.677087 0.8 0 0
0.504823 0.135121 0.704235 0.8 0 0
0.056926 0.390741 0.626714 0.8 0 0
0.884486 0.365386 0.445348 0.8 0 0
0.527812 0.162732 0.258145 0.8 0 0
0.332827 0.354446 0.118117 0.8 0 0
0.949901 0.409055 0.492703 0.8 0 0
0.379352 0.145090 0.317287 0.8 0 0
0.381637 0.218475 0.776813 0.8 0 0
0.483897 0.103872 0.363694 0.8 0 0
0.371699 0.394485 0.051717 0.8 0 0
0.631128 0.207780 0.186331 0.8 0 0
0.816954 0.288901 0.638878 0.8 0 0
0.651900 0.121126 0.402052 0.8 0 0
0.478433 0.339786 0.867227 0.8 0 0
0.829510 0.196249 0.487902 0.8 0 0
0.595692 0.320297 0.877254 0.8 0 0
0.152220 0.234455 0.428061 0.8 0 0
0.384247 0.258400 0.155280 0.8 0 0
0.186169 0.372397 0.198131 0.8 0 0
0.541294 0.316049 0.145299 0.8 0 0
0.491871 0.346168 0.126624 0.8 0 0
0.896554 0.364320 0.346451 0.8 0 0
0.496984 0.386836 0.957005 0.8 0 0
0.121104 0.345537 0.343652 0.8 0 0
0.652947 0.025002 0.465704 0.8 0 0
0.834648 0.269994 0.463566 0.8 0 0
0.843433 0.329098 0.382233 0.8 0 0
0.504149 0.081968 0.538145 0.8 0 0
0.758045 0.205835 0.631436 0.8 0 0
0.266822 0.407305 0.888621 0.8 0 0
0.476340 0.025005 0.393544 0.8 0 0
0.115855 0.312332 0.533006 0.8 0 0
0.594169 0.376415 0.113751 0.8 0 0
0.486787 0.310988 0.855211 0.8 0 0
0.276077 0.158382 0.420906 0.8 0 0
0.809565 0.179119 0.565477 0.8 0 0
0.328583 0.350705 0.834788 0.8 0 0
0.728240 0.124834 0.630438 0.8 0 0
0.156547 0.238575 0.592008 0.8 0 0
0.415762 0.271345 0.173173 0.8 0 0
0.288746 0.145260 0.303702 0.8 0 0
0.956530 0.405936 0.516374 0.8 0 0
0.878711 0.351738 0.500143 0.8 0 0
0.641705 0.373612 0.912493 0.8 0 0
0.512829 0.371123 0.066927 0.8 0 0
0.368367 0.324215 0.163038 0.8 0 0
0.695454 0.069030 0.467260 0.8 0 0
0.430759 0.072876 0.686501 0.8 0 0
0.552829 0.206632 0.833945 0.8 0 0
0.360648 0.171250 0.224259 0.8 0 0
0.557454 0.202959 0.169498 0.8 0 0
0.665911 0.032473 0.591118 0.8 0 0
0.625263 0.100259 0.526407 0.8 0 0
0.249099 0.373272 0.804303 0.8 0 0
0.238628 0.367661 0.789811 0.8 0 0
0.234327 0.346529 0.763717 0.8 0 0
0.644357 0.106637 0.690460 0.8 0 0
0.822689 0.289736 0.374012 0.8 0 0
0.101671 0.347023 0.403329 0.8 0 0
0.147101 0.367867 0.256120 0.8 0 0
0.080112 0.393438 0.547359 0.8 0 0
0.600734 0.116697 0.268568 0.8 0 0
0.451001 0.263671 0.862577 0.8 0 0
0.743579 0.157718 0.327193 0.8 0 0
0.171458 0.263654 0.339035 0.8 0 0
0.621540 0.135535 0.335050 0.8 0 0
0.779568 0.348424 0.801525 0.8 0 0
0.398404 0.076305 0.329210 0.8 0 0
0.877420 0.371799 0.389645 0.8 0 0
0.653397 0.201774 0.742523 0.8 0 0
0.527276 0.142734 0.286144 0.8 0 0
0.939835 0.389395 0.369348 0.8 0 0
0.294139 0.306400 0.175637 0.8 0 0
0.458069 0.203101 0.215452 0.8 0 0
0.203221 0.379223 0.169149 0.8 0 0
0.643862 0.201521 0.801117 0.8 0 0
0.632619 0.372636 0.871377 0.8 0 0
0.395610 0.025006 0.412529 0.8 0 0
0.410950 0.246900 0.847907 0.8 0 0
0.548821 0.330900 0.860581 0.8 0 0
0.484570 0.084675 0.559347 0.8 0 0
0.891427 0.386574 0.267691 0.8 0 0
0.593456 0.344738 0.140432 0.8 0 0
0.399646 0.408843 0.935580 0.8 0 0
0.517002 0.025006 0.361165 0.8 0 0
0.868364 0.383627 0.238833 0.8 0 0
0.680183 0.161693 0.741689 0.8 0 0
0.336037 0.365378 0.894214 0.8 0 0
0.576999 0.087179 0.524580 0.8 0 0
0.328136 0.257071 0.216689 0.8 0 0
0.685505 0.248263 0.808290 0.8 0 0
0.582927 0.117315 0.738642 0.8 0 0
0.072099 0.368996 0.533798 0.8 0 0
0.248442 0.177691 0.418796 0.8 0 0
0.428284 0.345352 0.902718 0.8 0 0
0.165983 0.348863 0.330316 0.8 0 0
0.582187 0.382070 0.101493 0.8 0 0
0.387142 0.025004 0.515456 0.8 0 0
0.768387 0.287167 0.715578 0.8 0 0
0.842717 0.292807 0.442230 0.8 0 0
0.527905 0.156258 0.204578 0.8 0 0
0.285294 0.099937 0.579524 0.8 0 0
0.485790 0.025004 0.543617 0.8 0 0
0.152362 0.294587 0.515864 0.8 0 0
0.693055 0.254110 0.806965 0.8 0 0
0.796348 0.286769 0.675425 0.8 0 0
0.593160 0.401531 0.040759 0.8 0 0
0.340731 0.394110 0.894274 0.8 0 0
0.228969 0.133050 0.544368 0.8 0 0
0.464851 0.408627 0.051808 0.8 0 0
0.457726 0.231979 0.191637 0.8 0 0
0.674092 0.109568 0.667639 0.8 0 0
0.566038 0.229864 0.847009 0.8 0 0
0.653920 0.324645 0.173103 0.8 0 0
0.703245 0.293422 0.217902 0.8 0 0
0.564345 0.025004 0.517911 0.8 0 0
0.428540 0.025003 0.547399 0.8 0 0
0.850532 0.317981 0.422628 0.8 0 0
0.090147 0.389520 0.416153 0.8 0 0
0.560951 0.157500 0.792648 0.8 0 0
0.253367 0.299237 0.250172 0.8 0 0
0.599597 0.103083 0.409209 0.8 0 0
0.589965 0.216938 0.834131 0.8 0 0
0.682812 0.124260 0.452785 0.8 0 0
0.673510 0.193712 0.778102 0.8 0 0
0.811307 0.262747 0.377745 0.8 0 0
0.681161 0.308781 0.161331 0.8 0 0
0.131263 0.272391 0.477174 0.8 0 0
0.741442 0.188830 0.367148 0.8 0 0
0.481380 0.273909 0.161853 0.8 0 0
0.285501 0.322100 0.789321 0.8 0 0
0.438357 0.365376 0.116210 0.8 0 0
0.275800 0.152600 0.310111 0.8 0 0
0.136649 0.255307 0.493758 0.8 0 0
0.786896 0.206327 0.545141 0.8 0 0
0.334351 0.025003 0.456310 0.8 0 0
0.133627 0.266071 0.520461 0.8 0 0
0.276904 0.223057 0.768426 0.8 0 0
0.802855 0.278043 0.655038 0.8 0 0
0.520008 0.087596 0.582062 0.8 0 0
0.095765 0.382310 0.533472 0.8 0 0
0.668237 0.203591 0.789989 0.8 0 0
0.670472 0.280444 0.795813 0.8 0 0
0.391549 0.251904 0.190768 0.8 0 0
0.227578 0.133259 0.533160 0.8 0 0
0.654792 0.080227 0.368607 0.8 0 0
0.091689 0.361390 0.393853 0.8 0 0
0.468738 0.254901 0.139280 0.8 0 0
0.227888 0.189491 0.445920 0.8 0 0
0.375675 0.100844 0.465430 0.8 0 0
0.198043 0.182479 0.400073 0.8 0 0
0.387522 0.169101 0.213168 0.8 0 0
0.621367 0.323341 0.129234 0.8 0 0
0.234578 0.177965 0.506495 0.8 0 0
0.187561 0.244511 0.576947 0.8 0 0
0.328964 0.397286 0.939578 0.8 0 0
0.228855 0.368606 0.782784 0.8 0 0
0.925068 0.377845 0.621459 0.8 0 0
0.482701 0.134692 0.775966 0.8 0 0
0.136325 0.292150 0.600811 0.8 0 0
0.400532 0.122656 0.344357 0.8 0 0
0.604556 0.025004 0.517913 0.8 0 0
0.713561 0.371663 0.876858 0.8 0 0
0.600408 0.092391 0.462900 0.8 0 0
0.715165 0.143288 0.689016 0.8 0 0
0.402140 0.379269 0.110703 0.8 0 0
0.633941 0.405073 0.062014 0.8 0 0
0.289258 0.398595 0.922780 0.8 0 0
0.646368 0.180695 0.726223 0.8 0 0
0.748948 0.149927 0.347142 0.8 0 0
0.085207 0.402119 0.289384 0.8 0 0
0.730618 0.153504 0.518930 0.8 0 0
0.703161 0.099981 0.395153 0.8 0 0
0.478921 0.142249 0.285044 0.8 0 0
0.192692 0.399454 0.857744 0.8 0 0
0.594548 0.391461 0.046074 0.8 0 0
0.673703 0.377025 0.092994 0.8 0 0
0.118773 0.304997 0.467965 0.8 0 0
0.663135 0.087313 0.363269 0.8 0 0
0.813722 0.248920 0.585200 0.8 0 0
0.345393 0.084421 0.639180 0.8 0 0
0.478962 0.224006 0.803870 0.8 0 0
0.963865 0.397327 0.410970 0.8 0 0
0.131783 0.401089 0.788361 0.8 0 0
0.472948 0.147246 0.211825 0.8 0 0
0.309115 0.204670 0.716662 0.8 0 0
0.514729 0.108262 0.645903 0.8 0 0
0.635880 0.112278 0.294245 0.8 0 0
0.175515 0.276429 0.320363 0.8 0 0
0.317304 0.038730 0.550408 0.8 0 0
0.593632 0.374228 0.071987 0.8 0 0
0.907904 0.383708 0.482062 0.8 0 0
0.745939 0.371059 0.142784 0.8 0 0
0.352078 0.159151 0.312969 0.8 0 0
0.207388 0.390714 0.801071 0.8 0 0
0.787790 0.144064 0.495321 0.8 0 0
0.264142 0.172900 0.394325 0.8 0 0
0.753773 0.146314 0.362373 0.8 0 0
0.623953 0.239230 0.206833 0.8 0 0
0.374093 0.400335 0.047693 0.8 0 0
0.726026 0.336620 0.832389 0.8 0 0
0.398450 0.405962 0.945583 0.8 0 0
0.608463 0.279179 0.176890 0.8 0 0
0.845540 0.295569 0.458394 0.8 0 0
0.604473 0.079737 0.670522 0.8 0 0
0.687012 0.149636 0.374281 0.8 0 0
0.911708 0.355756 0.571334 0.8 0 0
0.699644 0.114930 0.349273 0.8 0 0
0.446960 0.098528 0.608846 0.8 0 0
0.168271 0.301130 0.613603 0.8 0 0
0.112621 0.367722 0.681718 0.8 0 0
0.401572 0.097075 0.563911 0.8 0 0
0.384620 0.246540 0.160234 0.8 0 0
0.416577 0.170919 0.797184 0.8 0 0
0.546966 0.211354 0.209132 0.8 0 0
0.220104 0.289676 0.296692 0.8 0 0
0.810812 0.357708 0.276966 0.8 0 0
0.315188 0.089981 0.389971 0.8 0 0
0.371535 0.091961 0.675681 0.8 0 0
0.166815 0.253492 0.356536 0.8 0 0
0.842053 0.332233 0.627107 0.8 0 0
0.412069 0.184390 0.757471 0.8 0 0
0.402838 0.273647 0.143125 0.8 0 0
0.234129 0.390846 0.121914 0.8 0 0
0.422122 0.094882 0.416845 0.8 0 0
0.389868 0.112187 0.280622 0.8 0 0
0.672902 0.188757 0.773879 0.8 0 0
0.180490 0.349115 0.302741 0.8 0 0
0.829370 0.404621 0.791498 0.8 0 0
0.174393 0.366428 0.225473 0.8 0 0
0.824693 0.194853 0.549483 0.8 0 0
0.228183 0.144960 0.405350 0.8 0 0
0.228125 0.278777 0.754807 0.8 0 0
0.944029 0.398751 0.663703 0.8 0 0
0.570487 0.394442 0.038525 0.8 0 0
0.702029 0.362078 0.129337 0.8 0 0
0.353440 0.157752 0.759497 0.8 0 0
0.317654 0.167097 0.254427 0.8 0 0
0.811991 0.396411 0.207026 0.8 0 0
0.381575 0.143233 0.681071 0.8 0 0
0.584669 0.270119 0.859157 0.8 0 0
0.201848 0.228344 0.687193 0.8 0 0
0.718493 0.199625 0.682117 0.8 0 0
0.492566 0.155912 0.202843 0.8 0 0
0.814774 0.180358 0.530469 0.8 0 0
0.308150 0.223846 0.736259 0.8 0 0
0.470478 0.056222 0.306979 0.8 0 0
0.246940 0.284270 0.223786 0.8 0 0
0.904901 0.351157 0.412798 0.8 0 0
0.555326 0.368661 0.887094 0.8 0 0
0.723634 0.161336 0.407241 0.8 0 0
0.853499 0.345796 0.295438 0.8 0 0
0.563130 0.368715 0.113631 0.8 0 0
0.120926 0.306871 0.561712 0.8 0 0
0.624507 0.141604 0.756462 0.8 0 0
0.389847 0.188169 0.196331 0.8 0 0
0.158076 0.397376 0.824906 0.8 0 0
0.368909 0.358967 0.139766 0.8 0 0
0.383040 0.196565 0.757145 0.8 0 0
0.725687 0.385730 0.154859 0.8 0 0
0.117051 0.325883 0.585005 0.8 0 0
0.741877 0.251752 0.231809 0.8 0 0
0.684428 0.190097 0.767952 0.8 0 0
0.189279 0.250656 0.600008 0.8 0 0
0.670410 0.177010 0.700826 0.8 0 0
0.672361 0.176710 0.301317 0.8 0 0
0.823412 0.344104 0.318679 0.8 0 0
0.284050 0.145677 0.455364 0.8 0 0
0.601110 0.180000 0.799501 0.8 0 0
0.265614 0.155753 0.506340 0.8 0 0
0.343952 0.235466 0.181899 0.8 0 0
0.038697 0.404621 0.500120 0.8 0 0
0.752922 0.318106 0.205774 0.8 0 0
0.628812 0.407805 0.932692 0.8 0 0
0.181422 0.239394 0.500740 0.8 0 0
0.554862 0.172488 0.751959 0.8 0 0
0.203874 0.225267 0.688314 0.8 0 0
0.615550 0.025005 0.392019 0.8 0 0
0.231792 0.400741 0.114165 0.8 0 0
0.114875 0.315448 0.463944 0.8 0 0
0.561498 0.408866 0.054981 0.8 0 0
0.274278 0.170422 0.382569 0.8 0 0
0.533272 0.089557 0.406117 0.8 0 0
0.179069 0.298173 0.294854 0.8 0 0
0.280671 0.226688 0.716160 0.8 0 0
0.273678 0.395953 0.862447 0.8 0 0
0.240860 0.362042 0.833376 0.8 0 0
0.290425 0.369727 0.875796 0.8 0 0
0.120229 0.407987 0.253738 0.8 0 0
0.290440 0.333946 0.160679 0.8 0 0
0.905652 0.387465 0.586921 0.8 0 0
0.805543 0.381490 0.827924 0.8 0 0
0.861962 0.301692 0.619895 0.8 0 0
0.263117 0.405227 0.892296 0.8 0 0
0.869370 0.275239 0.471715 0.8 0 0
0.720486 0.100414 0.437269 0.8 0 0
0.924623 0.406080 0.378010 0.8 0 0
0.344730 0.111262 0.512046 0.8 0 0
0.511177 0.170841 0.754867 0.8 0 0
0.193127 0.266188 0.296296 0.8 0 0
0.283449 0.197805 0.749661 0.8 0 0
0.545847 0.205007 0.214263 0.8 0 0
0.893472 0.376874 0.441342 0.8 0 0
0.388874 0.408240 0.931354 0.8 0 0
0.690149 0.044231 0.481603 0.8 0 0
0.531570 0.279879 0.129047 0.8 0 0
0.290208 0.161071 0.620043 0.8 0 0
0.083884 0.358259 0.548449 0.8 0 0
0.376016 0.286455 0.178225 0.8 0 0
0.669094 0.380734 0.084990 0.8 0 0
0.449166 0.149127 0.718302 0.8 0 0
0.806720 0.401188 0.852842 0.8 0 0
0.408137 0.095727 0.568327 0.8 0 0
0.886430 0.335322 0.398624 0.8 0 0
0.715128 0.277276 0.803645 0.8 0 0
0.289364 0.106526 0.390027 0.8 0 0
0.250192 0.385188 0.879790 0.8 0 0
0.658717 0.119546 0.300471 0.8 0 0
0.236316 0.169394 0.658720 0.8 0 0
0.233718 0.127256 0.488698 0.8 0 0
0.860758 0.321786 0.505766 0.8 0 0
0.117572 0.363320 0.441578 0.8 0 0
0.807798 0.227257 0.491583 0.8 0 0
0.466368 0.304461 0.850289 0.8 0 0
0.774343 0.347643 0.804948 0.8 0 0
0.428508 0.376123 0.891594 0.8 0 0
0.334665 0.394501 0.892538 0.8 0 0
0.267449 0.338512 0.829130 0.8 0 0
0.354499 0.025006 0.519495 0.8 0 0
0.725071 0.154173 0.309164 0.8 0 0
0.842537 0.382719 0.790555 0.8 0 0
0.181617 0.330101 0.325017 0.8 0 0
0.878940 0.309065 0.572225 0.8 0 0
0.613796 0.084888 0.673456 0.8 0 0
0.491551 0.025005 0.427924 0.8 0 0
0.414393 0.387938 0.049519 0.8 0 0
0.133508 0.279634 0.573893 0.8 0 0
0.794232 0.296457 0.688501 0.8 0 0
0.320323 0.168471 0.749202 0.8 0 0
0.153038 0.232775 0.572270 0.8 0 0
0.033556 0.398506 0.419664 0.8 0 0
0.360989 0.241887 0.169815 0.8 0 0
0.120128 0.384336 0.655498 0.8 0 0
0.407604 0.264446 0.821153 0.8 0 0
0.536987 0.229755 0.807047 0.8 0 0
0.476482 0.186860 0.179252 0.8 0 0
0.242360 0.173421 0.522176 0.8 0 0
0.464986 0.118771 0.671094 0.8 0 0
0.333740 0.286173 0.163847 0.8 0 0
0.322004 0.135115 0.396721 0.8 0 0
0.273059 0.107436 0.574711 0.8 0 0
0.803497 0.287715 0.662939 0.8 0 0
0.419839 0.369932 0.115006 0.8 0 0
0.393939 0.231475 0.792411 0.8 0 0
0.401804 0.282784 0.827896 0.8 0 0
0.300826 0.386276 0.860254 0.8 0 0
0.230431 0.403205 0.122931 0.8 0 0
0.078723 0.368988 0.410414 0.8 0 0
0.601582 0.025005 0.447126 0.8 0 0
0.548989 0.094602 0.399809 0.8 0 0
0.419198 0.025005 0.437891 0.8 0 0
0.795007 0.380367 0.224826 0.8 0 0
0.071105 0.398881 0.700185 0.8 0 0
0.325019 0.198770 0.218041 0.8 0 0
0.569744 0.222236 0.843225 0.8 0 0
0.794936 0.235940 0.610380 0.8 0 0
0.547372 0.145394 0.215333 0.8 0 0
0.131502 0.364981 0.288647 0.8 0 0
0.374480 0.173047 0.725479 0.8 0 0
0.427159 0.319029 0.852392 0.8 0 0
0.869112 0.396536 0.789853 0.8 0 0
0.121211 0.386833 0.755814 0.8 0 0
0.819502 0.301106 0.710364 0.8 0 0
0.315225 0.212829 0.269649 0.8 0 0
0.527097 0.188680 0.225901 0.8 0 0
0.136400 0.362891 0.283281 0.8 0 0
0.459667 0.409068 0.053384 0.8 0 0
0.450626 0.083503 0.514317 0.8 0 0
0.636291 0.025006 0.534373 0.8 0 0
0.162397 0.275765 0.467457 0.8 0 0
0.412042 0.287328 0.865513 0.8 0 0
0.685951 0.305334 0.165489 0.8 0 0
0.136770 0.268971 0.435520 0.8 0 0
0.508268 0.409247 0.052083 0.8 0 0
0.645606 0.259537 0.201414 0.8 0 0
0.675240 0.392996 0.884646 0.8 0 0
0.301656 0.135756 0.445649 0.8 0 0
0.504862 0.026252 0.314258 0.8 0 0
0.602506 0.379448 0.933254 0.8 0 0
0.204811 0.323191 0.244974 0.8 0 0
0.253126 0.243391 0.759667 0.8 0 0
0.260718 0.170356 0.585500 0.8 0 0
0.165375 0.394892 0.171894 0.8 0 0
0.189014 0.359340 0.275088 0.8 0 0
0.426813 0.025006 0.592371 0.8 0 0
0.578344 0.344847 0.901630 0.8 0 0
0.190980 0.218552 0.341673 0.8 0 0
0.078134 0.383642 0.661064 0.8 0 0
0.292128 0.260960 0.800970 0.8 0 0
0.148438 0.371762 0.676331 0.8 0 0
0.882127 0.302601 0.487103 0.8 0 0
0.190122 0.314800 0.323506 0.8 0 0
0.677595 0.085156 0.609456 0.8 0 0
0.840139 0.340914 0.279312 0.8 0 0
0.218738 0.168097 0.623607 0.8 0 0
0.187629 0.235003 0.526941 0.8 0 0
0.694303 0.066430 0.462504 0.8 0 0
0.243703 0.221119 0.661356 0.8 0 0
0.374846 0.111038 0.290715 0.8 0 0
0.195037 0.392779 0.150359 0.8 0 0
0.418648 0.145073 0.775946 0.8 0 0
0.394617 0.238796 0.798904 0.8 0 0
0.429259 0.310695 0.150835 0.8 0 0
0.499502 0.067160 0.697887 0.8 0 0
0.285205 0.393043 0.136415 0.8 0 0
0.770200 0.178223 0.661693 0.8 0 0
0.695266 0.357745 0.171473 0.8 0 0
0.263136 0.214790 0.679380 0.8 0 0
0.708519 0.177949 0.264542 0.8 0 0
0.284116 0.235825 0.781098 0.8 0 0
0.678294 0.320470 0.845621 0.8 0 0
0.165418 0.270581 0.539758 0.8 0 0
0.205815 0.336084 0.771854 0.8 0 0
0.827987 0.230028 0.630950 0.8 0 0
0.443661 0.049368 0.316701 0.8 0 0
0.571687 0.103875 0.722743 0.8 0 0
0.604415 0.073278 0.668359 0.8 0 0
0.873739 0.283257 0.517366 0.8 0 0
0.203564 0.219979 0.439757 0.8 0 0
0.696679 0.198139 0.295038 0.8 0 0
0.593545 0.224090 0.163203 0.8 0 0
0.406215 0.408082 0.063636 0.8 0 0
0.838369 0.308339 0.318660 0.8 0 0
0.472751 0.135885 0.776633 0.8 0 0
0.921265 0.361846 0.527514 0.8 0 0
0.726254 0.107628 0.577883 0.8 0 0
0.575837 0.168303 0.739491 0.8 0 0
0.255544 0.111542 0.487511 0.8 0 0
0.395200 0.152065 0.296060 0.8 0 0
0.720503 0.213409 0.697527 0.8 0 0
0.967782 0.396362 0.465058 0.8 0 0
0.791064 0.209468 0.676318 0.8 0 0
0.218833 0.376258 0.782603 0.8 0 0
0.686561 0.136329 0.590494 0.8 0 0
0.522638 0.404905 0.939860 0.8 0 0
0.621047 0.088339 0.674836 0.8 0 0
0.815604 0.256945 0.400777 0.8 0 0
0.232283 0.197579 0.694262 0.8 0 0
0.269380 0.284774 0.794897 0.8 0 0
0.375912 0.220519 0.826006 0.8 0 0
0.427086 0.214230 0.212345 0.8 0 0
0.531663 0.212497 0.793319 0.8 0 0
0.270318 0.196333 0.335782 0.8 0 0
0.545200 0.149067 0.279276 0.8 0 0
0.138277 0.401296 0.255903 0.8 0 0
0.353697 0.343787 0.841838 0.8 0 0
0.408184 0.025006 0.574604 0.8 0 0
0.779490 0.338593 0.209302 0.8 0 0
0.358094 0.317115 0.138124 0.8 0 0
0.715525 0.228125 0.777320 0.8 0 0
0.352520 0.391772 0.894132 0.8 0 0
0.158706 0.212622 0.472308 0.8 0 0
0.425274 0.089096 0.438243 0.8 0 0
0.520280 0.152646 0.206766 0.8 0 0
0.653914 0.129677 0.377721 0.8 0 0
0.311712 0.350272 0.133456 0.8 0 0
0.549215 0.228190 0.804551 0.8 0 0
0.964926 0.402706 0.510216 0.8 0 0
0.815441 0.204321 0.383608 0.8 0 0
0.233510 0.296048 0.228577 0.8 0 0
0.244916 0.130435 0.409128 0.8 0 0
0.569972 0.157006 0.275208 0.8 0 0
0.840907 0.353044 0.262182 0.8 0 0
0.523031 0.025006 0.557034 0.8 0 0
0.469404 0.191290 0.224090 0.8 0 0
0.106766 0.368589 0.326561 0.8 0 0
0.729519 0.406966 0.120255 0.8 0 0
0.125926 0.392096 0.226374 0.8 0 0
0.305031 0.135748 0.699195 0.8 0 0
0.666191 0.089762 0.361808 0.8 0 0
0.524056 0.406293 0.954913 0.8 0 0
0.392530 0.304474 0.835139 0.8 0 0
0.694725 0.276076 0.816257 0.8 0 0
0.780681 0.185553 0.345327 0.8 0 0
0.342321 0.189244 0.727511 0.8 0 0
0.638264 0.188380 0.207953 0.8 0 0
0.256373 0.335924 0.226649 0.8 0 0
0.716658 0.179063 0.270054 0.8 0 0
0.571633 0.031985 0.326173 0.8 0 0
0.853757 0.281592 0.381369 0.8 0 0
0.559134 0.025006 0.606399 0.8 0 0
0.894141 0.335030 0.568613 0.8 0 0
0.307363 0.152653 0.374585 0.8 0 0
0.738309 0.190746 0.642053 0.8 0 0
0.537226 0.063923 0.693671 0.8 0 0
0.372154 0.177251 0.269231 0.8 0 0
0.770936 0.253974 0.311372 0.8 0 0
0.260625 0.294462 0.792837 0.8 0 0
0.090485 0.384361 0.511719 0.8 0 0
0.183424 0.207573 0.378282 0.8 0 0
0.506695 0.296051 0.119953 0.8 0 0
0.202013 0.261111 0.648208 0.8 0 0
0.598640 0.092187 0.535963 0.8 0 0
0.272947 0.100506 0.534371 0.8 0 0
0.516064 0.331575 0.135892 0.8 0 0
0.569023 0.266892 0.170623 0.8 0 0
0.135336 0.347899 0.585503 0.8 0 0
0.822833 0.283442 0.384108 0.8 0 0
0.537427 0.313898 0.884353 0.8 0 0
0.875840 0.390827 0.768565 0.8 0 0
0.558220 0.184047 0.184958 0.8 0 0
0.320849 0.317076 0.156410 0.8 0 0
0.081344 0.394912 0.292905 0.8 0 0
0.894451 0.355154 0.366558 0.8 0 0
0.257495 0.405563 0.111624 0.8 0 0
0.644077 0.381998 0.924520 0.8 0 0
0.732654 0.219264 0.309694 0.8 0 0
0.371615 0.059661 0.646677 0.8 0 0
0.858335 0.331099 0.571698 0.8 0 0
0.908384 0.350596 0.559999 0.8 0 0
0.359460 0.063230 0.363407 0.8 0 0
0.753925 0.290555 0.264431 0.8 0 0
0.753518 0.273676 0.275741 0.8 0 0
0.342787 0.113908 0.538559 0.8 0 0
0.721168 0.191967 0.668937 0.8 0 0
0.849008 0.233638 0.438523 0.8 0 0
0.650241 0.056792 0.623336 0.8 0 0
0.507034 0.025006 0.432085 0.8 0 0
0.863605 0.377451 0.752807 0.8 0 0
0.713133 0.409058 0.105437 0.8 0 0
0.739930 0.181198 0.377812 0.8 0 0
0.292223 0.100057 0.403548 0.8 0 0
0.401422 0.090658 0.472579 0.8 0 0
0.953931 0.402340 0.396022 0.8 0 0
0.849214 0.305714 0.341227 0.8 0 0
0.860067 0.407546 0.226135 0.8 0 0
0.433140 0.311151 0.880326 0.8 0 0
0.837368 0.314879 0.383974 0.8 0 0
0.711486 0.196101 0.313909 0.8 0 0
0.331547 0.283204 0.166396 0.8 0 0
0.624817 0.231333 0.214653 0.8 0 0
0.568768 0.152128 0.281960 0.8 0 0
0.732646 0.324819 0.814417 0.8 0 0
0.228383 0.406733 0.135565 0.8 0 0
0.309360 0.335762 0.187138 0.8 0 0
0.588552 0.025004 0.455120 0.8 0 0
0.613037 0.404470 0.945839 0.8 0 0
0.475530 0.285905 0.874128 0.8 0 0
0.232361 0.182661 0.542220 0.8 0 0
0.519748 0.378024 0.100967 0.8 0 0
0.212638 0.229985 0.704488 0.8 0 0
0.754476 0.161102 0.661708 0.8 0 0
0.671708 0.209502 0.737537 0.8 0 0
0.514881 0.309314 0.884690 0.8 0 0
0.248238 0.119300 0.547115 0.8 0 0
0.155627 0.300878 0.336365 0.8 0 0
0.872870 0.338933 0.655854 0.8 0 0
0.843770 0.369356 0.758417 0.8 0 0
0.236754 0.357505 0.175019 0.8 0 0
0.585154 0.025006 0.610736 0.8 0 0
0.786369 0.239706 0.362497 0.8 0 0
0.562014 0.144288 0.291430 0.8 0 0
0.311451 0.256157 0.810323 0.8 0 0
0.294829 0.082871 0.509165 0.8 0 0
0.518360 0.082789 0.458518 0.8 0 0
0.718962 0.154049 0.425465 0.8 0 0
0.144286 0.279160 0.391247 0.8 0 0
0.541711 0.242705 0.182722 0.8 0 0
0.611059 0.157614 0.709221 0.8 0 0
0.870738 0.315173 0.609955 0.8 0 0
0.849655 0.257053 0.597589 0.8 0 0
0.200751 0.161215 0.470009 0.8 0 0
0.751642 0.386098 0.119690 0.8 0 0
0.059418 0.400289 0.664935 0.8 0 0
0.255311 0.186879 0.708667 0.8 0 0
0.063515 0.403230 0.345874 0.8 0 0
0.816859 0.261267 0.680753 0.8 0 0
0.559866 0.106006 0.270610 0.8 0 0
0.727055 0.296577 0.764368 0.8 0 0
0.422049 0.088423 0.454433 0.8 0 0
0.948018 0.401459 0.630751 0.8 0 0
0.676899 0.136565 0.608162 0.8 0 0
0.740736 0.185618 0.711874 0.8 0 0
0.735238 0.178092 0.621933 0.8 0 0
0.774299 0.331473 0.260641 0.8 0 0
0.211625 0.152893 0.437811 0.8 0 0
0.425422 0.166653 0.262900 0.8 0 0
0.592952 0.129615 0.324622 0.8 0 0
0.276221 0.096251 0.492079 0.8 0 0
0.797641 0.162289 0.555187 0.8 0 0
0.500283 0.048619 0.692479 0.8 0 0
0.835451 0.349399 0.260454 0.8 0 0
0.709963 0.086372 0.509631 0.8 0 0
0.734157 0.113562 0.579939 0.8 0 0
0.453187 0.325025 0.141841 0.8 0 0
0.847100 0.402853 0.234348 0.8 0 0
0.960159 0.393423 0.568723 0.8 0 0
0.549586 0.329502 0.108742 0.8 0 0
0.135472 0.307806 0.620051 0.8 0 0
0.152469 0.360580 0.260081 0.8 0 0
0.163777 0.401548 0.224226 0.8 0 0
0.597401 0.353572 0.865872 0.8 0 0
0.432344 0.406094 0.937245 0.8 0 0
0.192148 0.291225 0.281007 0.8 0 0
0.860033 0.340914 0.581219 0.8 0 0
0.415826 0.115765 0.644938 0.8 0 0
0.363304 0.231640 0.826671 0.8 0 0
0.576285 0.025006 0.619726 0.8 0 0
0.144949 0.316290 0.538829 0.8 0 0
0.302266 0.129796 0.522367 0.8 0 0
0.109449 0.370218 0.683488 0.8 0 0
0.763559 0.178074 0.673861 0.8 0 0
0.399662 0.291748 0.863646 0.8 0 0
0.824656 0.194846 0.549803 0.8 0 0
0.384578 0.242908 0.200609 0.8 0 0
0.842022 0.217243 0.558468 0.8 0 0
0.052158 0.409302 0.477835 0.8 0 0
0.096857 0.396186 0.359083 0.8 0 0
0.456468 0.159821 0.736381 0.8 0 0
0.897218 0.386997 0.722781 0.8 0 0
0.783215 0.344006 0.739111 0.8 0 0
0.538862 0.025006 0.470842 0.8 0 0
0.700317 0.396833 0.925448 0.8 0 0
0.474856 0.025005 0.555739 0.8 0 0
0.643414 0.283638 0.811882 0.8 0 0
0.224519 0.236649 0.723260 0.8 0 0
0.769653 0.348730 0.189999 0.8 0 0
0.785703 0.325098 0.278996 0.8 0 0
0.768965 0.230733 0.654419 0.8 0 0
0.538702 0.397262 0.926589 0.8 0 0
0.767564 0.183507 0.675700 0.8 0 0
0.480986 0.313792 0.144111 0.8 0 0
0.689575 0.209190 0.216277 0.8 0 0
0.360998 0.258462 0.162306 0.8 0 0
0.398038 0.092745 0.533025 0.8 0 0
0.340142 0.025003 0.568406 0.8 0 0
0.811030 0.292844 0.716163 0.8 0 0
0.156496 0.338832 0.710609 0.8 0 0
0.588419 0.365611 0.082534 0.8 0 0
0.337564 0.168460 0.691930 0.8 0 0
0.747672 0.358693 0.208373 0.8 0 0
0.687277 0.116253 0.331401 0.8 0 0
0.488475 0.081375 0.531696 0.8 0 0
0.759716 0.199532 0.293497 0.8 0 0
0.532453 0.025006 0.678730 0.8 0 0
0.390888 0.025002 0.480760 0.8 0 0
0.364005 0.171382 0.222344 0.8 0 0
0.193155 0.319698 0.261428 0.8 0 0
0.613983 0.025005 0.392122 0.8 0 0
0.809056 0.256853 0.620670 0.8 0 0
0.406684 0.099784 0.709029 0.8 0 0
0.136703 0.360719 0.625896 0.8 0 0
0.286790 0.125569 0.656727 0.8 0 0
0.558355 0.403784 0.957586 0.8 0 0
0.542662 0.025005 0.386773 0.8 0 0
0.328453 0.357796 0.117202 0.8 0 0
0.139388 0.253619 0.472990 0.8 0 0
0.578206 0.395045 0.080692 0.8 0 0
0.446808 0.392383 0.039831 0.8 0 0
0.596544 0.035413 0.337083 0.8 0 0
0.605132 0.345482 0.143342 0.8 0 0
0.586488 0.025004 0.459476 0.8 0 0
0.649389 0.171117 0.292566 0.8 0 0
0.128771 0.402074 0.780965 0.8 0 0
0.429302 0.172631 0.747146 0.8 0 0
0.777289 0.231470 0.282282 0.8 0 0
0.692599 0.205496 0.222627 0.8 0 0
0.791969 0.369021 0.239515 0.8 0 0
0.332008 0.384694 0.921362 0.8 0 0
0.559021 0.092371 0.587272 0.8 0 0
0.202338 0.339137 0.228262 0.8 0 0
0.909360 0.387234 0.442089 0.8 0 0
0.209909 0.185954 0.637757 0.8 0 0
0.674463 0.025005 0.469104 0.8 0 0
0.457376 0.337720 0.135768 0.8 0 0
0.134254 0.360714 0.291250 0.8 0 0
0.770201 0.130411 0.515770 0.8 0 0
0.510924 0.322200 0.109626 0.8 0 0
0.310655 0.181377 0.693160 0.8 0 0
0.171877 0.261535 0.564390 0.8 0 0
0.637271 0.054731 0.637271 0.8 0 0
0.819132 0.274529 0.385531 0.8 0 0
0.388175 0.312365 0.837477 0.8 0 0
0.056954 0.399530 0.663090 0.8 0 0
0.307955 0.143156 0.601149 0.8 0 0
0.113991 0.406835 0.259546 0.8 0 0
0.281349 0.170928 0.632132 0.8 0 0
0.742640 0.355627 0.839811 0.8 0 0
0.345123 0.344856 0.878732 0.8 0 0
0.428583 0.401197 0.929386 0.8 0 0
0.674142 0.027033 0.433427 0.8 0 0
0.087804 0.403231 0.648014 0.8 0 0
0.377499 0.025005 0.396831 0.8 0 0
0.499380 0.141179 0.286796 0.8 0 0
0.549533 0.201862 0.782776 0.8 0 0
0.182433 0.275398 0.379041 0.8 0 0
0.542413 0.156051 0.268955 0.8 0 0
0.653953 0.361630 0.894024 0.8 0 0
0.263454 0.360163 0.849837 0.8 0 0
0.657876 0.096495 0.658477 0.8 0 0
0.287676 0.171874 0.355143 0.8 0 0
0.556601 0.300992 0.153520 0.8 0 0
0.031708 0.394881 0.492210 0.8 0 0
0.943001 0.378551 0.477746 0.8 0 0
0.219518 0.199586 0.553740 0.8 0 0
0.684871 0.139893 0.284993 0.8 0 0
0.764647 0.203879 0.384324 0.8 0 0
0.797516 0.215305 0.512590 0.8 0 0
0.174197 0.263451 0.575548 0.8 0 0
0.615218 0.254953 0.156590 0.8 0 0
0.683170 0.306419 0.802094 0.8 0 0
0.800106 0.259005 0.707664 0.8 0 0
0.521223 0.025006 0.416453 0.8 0 0
0.491400 0.221556 0.849252 0.8 0 0
0.437198 0.180249 0.760844 0.8 0 0
0.714546 0.123053 0.350383 0.8 0 0
0.668965 0.200884 0.787115 0.8 0 0
0.536520 0.365411 0.113707 0.8 0 0
0.455165 0.100127 0.725498 0.8 0 0
0.601382 0.092977 0.535398 0.8 0 0
0.882442 0.308879 0.535895 0.8 0 0
0.703662 0.134722 0.495148 0.8 0 0
0.530172 0.025006 0.360283 0.8 0 0
0.550751 0.151735 0.210507 0.8 0 0
0.463312 0.161927 0.259567 0.8 0 0
0.270339 0.208888 0.319489 0.8 0 0
0.165111 0.213804 0.421275 0.8 0 0
0.776333 0.397479 0.827751 0.8 0 0
0.665883 0.397762 0.897874 0.8 0 0
0.675689 0.351322 0.833072 0.8 0 0
0.667384 0.306574 0.810609 0.8 0 0
0.081596 0.402188 0.296495 0.8 0 0
0.712842 0.285081 0.190350 0.8 0 0
0.640729 0.157607 0.310072 0.8 0 0
0.466235 0.111327 0.742062 0.8 0 0
0.289555 0.348552 0.853030 0.8 0 0
0.465525 0.153959 0.207095 0.8 0 0
0.460286 0.040846 0.314526 0.8 0 0
0.348393 0.134820 0.267514 0.8 0 0
0.271221 0.153263 0.534254 0.8 0 0
0.219317 0.253455 0.672113 0.8 0 0
0.421645 0.204780 0.172632 0.8 0 0
0.031214 0.397475 0.541272 0.8 0 0
0.557860 0.066638 0.311903 0.8 0 0
0.219805 0.293954 0.294064 0.8 0 0
0.787544 0.143742 0.504520 0.8 0 0
0.709633 0.409308 0.104247 0.8 0 0
0.837192 0.324386 0.631137 0.8 0 0
0.560610 0.087876 0.703115 0.8 0 0
0.422237 0.235290 0.804273 0.8 0 0
0.149052 0.227504 0.483808 0.8 0 0
0.136925 0.324387 0.648196 0.8 0 0
0.210287 0.279446 0.680946 0.8 0 0
0.616291 0.243447 0.799591 0.8 0 0
0.832371 0.388094 0.251813 0.8 0 0
0.674912 0.318628 0.812650 0.8 0 0
0.845328 0.326421 0.684651 0.8 0 0
0.289305 0.403948 0.090227 0.8 0 0
0.611735 0.095911 0.532995 0.8 0 0
0.655911 0.030522 0.396384 0.8 0 0
0.248495 0.357724 0.212537 0.8 0 0
0.161185 0.299853 0.588289 0.8 0 0
0.855506 0.377169 0.678655 0.8 0 0
0.603345 0.408595 0.934279 0.8 0 0
0.061601 0.408659 0.590099 0.8 0 0
0.587502 0.290810 0.132861 0.8 0 0
0.092809 0.387035 0.423159 0.8 0 0
0.579696 0.231231 0.155951 0.8 0 0
0.827652 0.291940 0.387006 0.8 0 0
0.608287 0.170683 0.210558 0.8 0 0
0.635162 0.221095 0.822602 0.8 0 0
0.194895 0.168771 0.467060 0.8 0 0
0.611856 0.385266 0.939261 0.8 0 0
0.803246 0.243063 0.603151 0.8 0 0
0.460369 0.025005 0.597820 0.8 0 0
0.449951 0.025003 0.454631 0.8 0 0
0.529767 0.321739 0.888329 0.8 0 0
0.166576 0.359625 0.689344 0.8 0 0
0.701234 0.182030 0.254290 0.8 0 0
0.215526 0.194457 0.662868 0.8 0 0
0.673377 0.308136 0.157469 0.8 0 0
0.493971 0.408833 0.950562 0.8 0 0
0.237178 0.268201 0.709094 0.8 0 0
0.784934 0.377602 0.219185 0.8 0 0
0.108951 0.354089 0.641514 0.8 0 0
0.539455 0.129862 0.767110 0.8 0 0
0.744492 0.159222 0.673614 0.8 0 0
0.226438 0.135201 0.548840 0.8 0 0
0.520369 0.226643 0.806114 0.8 0 0
0.640579 0.135422 0.260673 0.8 0 0
0.544251 0.187544 0.819263 0.8 0 0
0.357673 0.198186 0.745096 0.8 0 0
0.250695 0.144828 0.356568 0.8 0 0
0.448579 0.387115 0.047355 0.8 0 0
0.432378 0.346948 0.868154 0.8 0 0
0.714324 0.363054 0.823232 0.8 0 0
0.229125 0.165260 0.361831 0.8 0 0
0.098844 0.409330 0.697092 0.8 0 0
0.874032 0.282786 0.487568 0.8 0 0
0.643883 0.025006 0.566496 0.8 0 0
0.539430 0.172771 0.754792 0.8 0 0
0.226584 0.132321 0.490089 0.8 0 0
0.678487 0.139287 0.612503 0.8 0 0
0.709063 0.086785 0.524552 0.8 0 0
0.549238 0.408633 0.053210 0.8 0 0
0.815472 0.236968 0.511928 0.8 0 0
0.452041 0.249012 0.143344 0.8 0 0
0.489672 0.088518 0.287142 0.8 0 0
0.423128 0.307548 0.845846 0.8 0 0
0.425336 0.341941 0.100508 0.8 0 0
0.597195 0.302327 0.162740 0.8 0 0
0.715339 0.330767 0.166855 0.8 0 0
0.749439 0.164696 0.674571 0.8 0 0
0.201345 0.406897 0.827977 0.8 0 0
0.679036 0.036878 0.557714 0.8 0 0
0.923799 0.407179 0.663304 0.8 0 0
0.557809 0.396774 0.923961 0.8 0 0
0.105638 0.381029 0.590391 0.8 0 0
0.094209 0.387216 0.414842 0.8 0 0
0.480413 0.080717 0.478561 0.8 0 0
0.150934 0.291032 0.353685 0.8 0 0
0.186274 0.176035 0.494595 0.8 0 0
0.536667 0.084352 0.545304 0.8 0 0
0.605501 0.025004 0.523399 0.8 0 0
0.310768 0.074186 0.438478 0.8 0 0
0.735823 0.383638 0.166257 0.8 0 0
0.220397 0.196640 0.675730 0.8 0 0
0.907303 0.353641 0.586609 0.8 0 0
0.714611 0.176719 0.729171 0.8 0 0
0.522514 0.366412 0.925686 0.8 0 0
0.407897 0.258799 0.852065 0.8 0 0
0.183642 0.399294 0.149185 0.8 0 0
0.649488 0.298630 0.183822 0.8 0 0
0.406992 0.167871 0.733194 0.8 0 0
0.440820 0.162809 0.263932 0.8 0 0
0.459741 0.396789 0.967882 0.8 0 0
0.699053 0.322138 0.164701 0.8 0 0
0.171458 0.397645 0.775769 0.8 0 0
0.534237 0.280046 0.839345 0.8 0 0
0.593664 0.055118 0.329138 0.8 0 0
0.685167 0.033782 0.533225 0.8 0 0
0.472986 0.083128 0.539185 0.8 0 0
0.459333 0.083859 0.463238 0.8 0 0
0.206573 0.233523 0.391489 0.8 0 0
0.630170 0.234514 0.169859 0.8 0 0
0.665654 0.111467 0.320833 0.8 0 0
0.151001 0.382928 0.290576 0.8 0 0
0.287454 0.408677 0.891770 0.8 0 0
0.564208 0.089041 0.572788 0.8 0 0
0.250292 0.139761 0.633812 0.8 0 0
0.760718 0.283888 0.769727 0.8 0 0
0.446180 0.157187 0.729353 0.8 0 0
0.742179 0.339297 0.776475 0.8 0 0
0.571659 0.222435 0.157271 0.8 0 0
0.579438 0.362490 0.916704 0.8 0 0
0.677100 0.177924 0.303013 0.8 0 0
0.299469 0.143557 0.705997 0.8 0 0
0.475192 0.403847 0.039263 0.8 0 0
0.319458 0.130177 0.298325 0.8 0 0
0.351412 0.385244 0.116588 0.8 0 0
0.474726 0.244259 0.179820 0.8 0 0
0.334309 0.314977 0.849811 0.8 0 0
0.695104 0.072461 0.540240 0.8 0 0
0.759287 0.390522 0.171959 0.8 0 0
0.581245 0.388528 0.909041 0.8 0 0
0.495232 0.253441 0.170217 0.8 0 0
0.121378 0.385361 0.247475 0.8 0 0
0.780286 0.378048 0.213753 0.8 0 0
0.649288 0.376862 0.084868 0.8 0 0
0.429802 0.025004 0.624535 0.8 0 0
0.396665 0.093636 0.694088 0.8 0 0
0.198339 0.380848 0.231779 0.8 0 0
0.764482 0.354118 0.179787 0.8 0 0
0.328883 0.317243 0.152038 0.8 0 0
0.203507 0.301525 0.260529 0.8 0 0
0.691425 0.192652 0.703441 0.8 0 0
0.281006 0.327813 0.788912 0.8 0 0
0.411504 0.025005 0.476913 0.8 0 0
0.767285 0.302762 0.727826 0.8 0 0
0.692519 0.051380 0.486777 0.8 0 0
0.811382 0.328705 0.259061 0.8 0 0
0.359614 0.213207 0.239868 0.8 0 0
0.522622 0.402392 0.936018 0.8 0 0
0.769160 0.172045 0.653028 0.8 0 0
0.438531 0.389008 0.088277 0.8 0 0
0.373891 0.230677 0.784044 0.8 0 0
0.302205 0.136667 0.440114 0.8 0 0
0.312769 0.401655 0.928555 0.8 0 0
0.927601 0.370824 0.563957 0.8 0 0
0.387538 0.122419 0.645024 0.8 0 0
0.322755 0.086236 0.386739 0.8 0 0
0.159820 0.315775 0.684402 0.8 0 0
0.522372 0.189206 0.177231 0.8 0 0
0.277680 0.189864 0.736611 0.8 0 0
0.587887 0.167818 0.264879 0.8 0 0
0.701641 0.093680 0.410668 0.8 0 0
0.750240 0.377622 0.866033 0.8 0 0
0.529865 0.025006 0.550263 0.8 0 0
0.585990 0.161050 0.274444 0.8 0 0
0.572223 0.401641 0.038613 0.8 0 0
0.632682 0.154613 0.235966 0.8 0 0
0.575047 0.324585 0.854298 0.8 0 0
0.674375 0.161110 0.745844 0.8 0 0
0.235420 0.294753 0.227695 0.8 0 0
0.220763 0.177853 0.644149 0.8 0 0
0.428535 0.149390 0.712239 0.8 0 0
0.312524 0.329805 0.152896 0.8 0 0
0.253566 0.166804 0.460697 0.8 0 0
0.690011 0.124880 0.503468 0.8 0 0
0.625615 0.122707 0.727502 0.8 0 0
0.408122 0.335200 0.110798 0.8 0 0
0.792270 0.365745 0.755922 0.8 0 0
0.687814 0.319581 0.840121 0.8 0 0
0.881839 0.316631 0.574359 0.8 0 0
0.309815 0.381139 0.095020 0.8 0 0
0.801919 0.335665 0.708635 0.8 0 0
0.731929 0.313133 0.191177 0.8 0 0
0.351623 0.165530 0.698177 0.8 0 0
0.283783 0.364413 0.823456 0.8 0 0
0.605981 0.395977 0.957322 0.8 0 0
0.666870 0.230149 0.190149 0.8 0 0
0.578024 0.112911 0.360205 0.8 0 0
0.405811 0.382218 0.939988 0.8 0 0
0.365715 0.401475 0.086432 0.8 0 0
0.661140 0.402883 0.907662 0.8 0 0
0.137982 0.370153 0.263332 0.8 0 0
0.685570 0.197563 0.713468 0.8 0 0
0.696823 0.299691 0.173917 0.8 0 0
0.142004 0.329515 0.568788 0.8 0 0
0.353712 0.387724 0.932552 0.8 0 0
0.850460 0.234700 0.448832 0.8 0 0
0.473521 0.337842 0.900711 0.8 0 0
0.542552 0.339180 0.099721 0.8 0 0
0.700713 0.380063 0.897579 0.8 0 0
0.633456 0.129458 0.354922 0.8 0 0
0.478119 0.319721 0.888277 0.8 0 0
0.130174 0.341200 0.497012 0.8 0 0
0.707352 0.341936 0.192898 0.8 0 0
0.759663 0.235841 0.678871 0.8 0 0
0.839556 0.359031 0.323150 0.8 0 0
0.225310 0.323423 0.220827 0.8 0 0
0.138570 0.259606 0.456309 0.8 0 0
0.312710 0.117015 0.670197 0.8 0 0
0.373994 0.316226 0.133681 0.8 0 0
0.895647 0.348513 0.609907 0.8 0 0
0.736699 0.397571 0.859691 0.8 0 0
0.538301 0.234274 0.189350 0.8 0 0
0.679180 0.163666 0.332577 0.8 0 0
0.344468 0.354711 0.112647 0.8 0 0
0.489956 0.169759 0.191836 0.8 0 0
0.536539 0.385197 0.048692 0.8 0 0
0.403530 0.284486 0.829209 0.8 0 0
0.570722 0.114837 0.649396 0.8 0 0
0.291378 0.131147 0.674131 0.8 0 0
0.253513 0.345699 0.825655 0.8 0 0
0.172609 0.295718 0.380370 0.8 0 0
0.689923 0.194118 0.293767 0.8 0 0
0.762291 0.266476 0.241444 0.8 0 0
0.163336 0.259973 0.357424 0.8 0 0
0.108646 0.327513 0.531234 0.8 0 0
0.172963 0.264449 0.664470 0.8 0 0
0.668820 0.025005 0.467902 0.8 0 0
0.729171 0.347096 0.841413 0.8 0 0
0.866528 0.263386 0.492314 0.8 0 0
0.639581 0.259472 0.837950 0.8 0 0
0.155368 0.295616 0.551043 0.8 0 0
0.391024 0.084155 0.324928 0.8 0 0
0.274449 0.408914 0.111681 0.8 0 0
0.334003 0.392915 0.934462 0.8 0 0
0.776297 0.250840 0.731412 0.8 0 0
0.475523 0.296542 0.121503 0.8 0 0
0.835524 0.302468 0.396863 0.8 0 0
0.798461 0.370161 0.245965 0.8 0 0
0.350113 0.216528 0.758149 0.8 0 0
0.837238 0.351984 0.740857 0.8 0 0
0.245021 0.173591 0.450794 0.8 0 0
0.601935 0.141405 0.233400 0.8 0 0
0.888878 0.385528 0.632061 0.8 0 0
0.466458 0.133239 0.699975 0.8 0 0
0.516866 0.158064 0.736385 0.8 0 0
0.515044 0.402174 0.936432 0.8 0 0
0.759206 0.317014 0.211509 0.8 0 0
0.786189 0.327740 0.277741 0.8 0 0
0.513022 0.095718 0.613017 0.8 0 0
0.613918 0.115853 0.377090 0.8 0 0
0.566612 0.211635 0.836658 0.8 0 0
0.514875 0.230106 0.147853 0.8 0 0
0.651595 0.375354 0.912140 0.8 0 0
0.499418 0.102819 0.733577 0.8 0 0
0.474514 0.100086 0.374899 0.8 0 0
0.371795 0.025004 0.503550 0.8 0 0
0.285509 0.109640 0.388155 0.8 0 0
0.493154 0.284667 0.844103 0.8 0 0
0.126665 0.352150 0.558147 0.8 0 0
0.604018 0.195134 0.188578 0.8 0 0
0.592865 0.025004 0.553727 0.8 0 0
0.250064 0.193815 0.625652 0.8 0 0
0.738287 0.302814 0.241270 0.8 0 0
0.172916 0.361261 0.234247 0.8 0 0
0.895564 0.381370 0.411784 0.8 0 0
0.700989 0.132922 0.493391 0.8 0 0
0.724628 0.260653 0.212945 0.8 0 0
0.511323 0.178204 0.185093 0.8 0 0
0.294197 0.106775 0.380260 0.8 0 0
0.734098 0.233252 0.764789 0.8 0 0
0.613737 0.025004 0.378546 0.8 0 0
0.824061 0.405877 0.175947 0.8 0 0
0.520345 0.339976 0.903151 0.8 0 0
0.809335 0.404585 0.159849 0.8 0 0
0.345446 0.123116 0.289270 0.8 0 0
0.146437 0.245314 0.436062 0.8 0 0
0.381248 0.254385 0.842095 0.8 0 0
0.719987 0.175014 0.641515 0.8 0 0
0.571753 0.388006 0.090823 0.8 0 0
0.690665 0.203550 0.223077 0.8 0 0
0.142241 0.326828 0.440960 0.8 0 0
0.391152 0.396015 0.043491 0.8 0 0
0.609372 0.197742 0.187995 0.8 0 0
0.799300 0.161919 0.535286 0.8 0 0
0.449719 0.367748 0.886845 0.8 0 0
0.124637 0.370672 0.386019 0.8 0 0
0.681240 0.169624 0.749127 0.8 0 0
0.306093 0.092967 0.398278 0.8 0 0
0.350762 0.358856 0.145847 0.8 0 0
0.398946 0.025005 0.409368 0.8 0 0
0.681308 0.299580 0.200352 0.8 0 0
0.632837 0.025005 0.383599 0.8 0 0
0.258695 0.195319 0.723560 0.8 0 0
0.178903 0.282151 0.619642 0.8 0 0
0.284427 0.318453 0.213653 0.8 0 0
0.575553 0.406819 0.051429 0.8 0 0
0.828541 0.259485 0.449136 0.8 0 0
0.676110 0.385166 0.919146 0.8 0 0
0.866313 0.309562 0.616638 0.8 0 0
0.745556 0.132899 0.378434 0.8 0 0
0.933230 0.373710 0.549640 0.8 0 0
0.167129 0.329512 0.647324 0.8 0 0
0.887837 0.369213 0.447645 0.8 0 0
0.520813 0.025006 0.652142 0.8 0 0
0.384345 0.400628 0.954682 0.8 0 0
0.884615 0.382276 0.370941 0.8 0 0
0.891864 0.327789 0.471540 0.8 0 0
0.657302 0.059404 0.615709 0.8 0 0
0.131875 0.343323 0.462138 0.8 0 0
0.419490 0.025004 0.414926 0.8 0 0
0.847151 0.352063 0.650629 0.8 0 0
0.374636 0.152989 0.233545 0.8 0 0
0.062794 0.397632 0.680584 0.8 0 0
0.693338 0.395965 0.119903 0.8 0 0
0.185513 0.203949 0.381503 0.8 0 0
0.775998 0.206541 0.589571 0.8 0 0
0.402599 0.392606 0.045199 0.8 0 0
0.390163 0.309726 0.131554 0.8 0 0
0.501287 0.141691 0.213806 0.8 0 0
0.623785 0.025006 0.581569 0.8 0 0
0.539673 0.095476 0.608153 0.8 0 0
0.148886 0.382611 0.779858 0.8 0 0
0.672900 0.365935 0.889978 0.8 0 0
0.891055 0.332530 0.422105 0.8 0 0
0.842251 0.286576 0.534286 0.8 0 0
0.849260 0.223962 0.518558 0.8 0 0
0.476770 0.332405 0.136228 0.8 0 0
0.642488 0.195308 0.742328 0.8 0 0
0.353164 0.108600 0.485842 0.8 0 0
0.253709 0.166100 0.469262 0.8 0 0
0.328856 0.283758 0.202878 0.8 0 0
0.456774 0.025004 0.647868 0.8 0 0
0.893826 0.381147 0.407221 0.8 0 0
0.142250 0.288515 0.384782 0.8 0 0
0.779641 0.284232 0.699811 0.8 0 0
0.367075 0.201304 0.806764 0.8 0 0
0.868709 0.306446 0.604352 0.8 0 0
0.947721 0.409014 0.493355 0.8 0 0
0.409513 0.338129 0.892245 0.8 0 0
0.465276 0.351066 0.911278 0.8 0 0
0.643053 0.294054 0.148326 0.8 0 0
0.815408 0.236687 0.510224 0.8 0 0
0.953486 0.406509 0.533258 0.8 0 0
0.237953 0.213988 0.722111 0.8 0 0
0.682967 0.388153 0.920406 0.8 0 0
0.395259 0.099841 0.431330 0.8 0 0
0.762255 0.133847 0.583391 0.8 0 0
0.337795 0.265886 0.792909 0.8 0 0
0.650795 0.179371 0.222921 0.8 0 0
0.237965 0.375061 0.797046 0.8 0 0
0.683078 0.379412 0.094069 0.8 0 0
0.487096 0.206394 0.790127 0.8 0 0
0.190300 0.303414 0.666111 0.8 0 0
0.082532 0.403591 0.632524 0.8 0 0
0.438847 0.108719 0.364190 0.8 0 0
0.673303 0.409151 0.084399 0.8 0 0
0.852845 0.405714 0.234485 0.8 0 0
0.077103 0.401605 0.301930 0.8 0 0
0.409809 0.038215 0.332072 0.8 0 0
0.729554 0.228570 0.233958 0.8 0 0
0.765656 0.387078 0.816033 0.8 0 0
0.850261 0.227448 0.522932 0.8 0 0
0.790471 0.346718 0.266257 0.8 0 0
0.803682 0.398560 0.138429 0.8 0 0
0.186567 0.380154 0.818936 0.8 0 0
0.685726 0.123665 0.480632 0.8 0 0
0.400129 0.370138 0.919903 0.8 0 0
0.408973 0.212800 0.219067 0.8 0 0
0.405111 0.113985 0.368627 0.8 0 0
0.800779 0.316842 0.695439 0.8 0 0
0.673515 0.392964 0.067744 0.8 0 0
0.209319 0.355317 0.199959 0.8 0 0
0.415199 0.171101 0.796920 0.8 0 0
0.907164 0.348760 0.556349 0.8 0 0
0.198757 0.356479 0.733120 0.8 0 0
0.857906 0.270586 0.410548 0.8 0 0
0.406235 0.322726 0.152241 0.8 0 0
0.056912 0.385930 0.397438 0.8 0 0
0.903449 0.366923 0.361503 0.8 0 0
0.351676 0.380933 0.078387 0.8 0 0
0.492817 0.146968 0.789906 0.8 0 0
0.565426 0.025006 0.575008 0.8 0 0
0.564572 0.089142 0.573514 0.8 0 0
0.425797 0.132685 0.313750 0.8 0 0
0.214664 0.373394 0.774168 0.8 0 0
0.598175 0.094776 0.551412 0.8 0 0
0.361199 0.348096 0.151336 0.8 0 0
0.844427 0.375381 0.304080 0.8 0 0
0.332460 0.246789 0.776915 0.8 0 0
0.341453 0.203942 0.795490 0.8 0 0
0.171645 0.193489 0.498969 0.8 0 0
0.515519 0.380122 0.097343 0.8 0 0
0.437008 0.281593 0.837203 0.8 0 0
0.555182 0.025004 0.387261 0.8 0 0
0.864552 0.378095 0.246870 0.8 0 0
0.151397 0.246563 0.586280 0.8 0 0
0.111621 0.323475 0.463499 0.8 0 0
0.783482 0.164765 0.611430 0.8 0 0
0.665125 0.146393 0.646541 0.8 0 0
0.450860 0.136698 0.224400 0.8 0 0
0.760325 0.365024 0.787898 0.8 0 0
0.365256 0.036994 0.366171 0.8 0 0
0.729455 0.248601 0.268284 0.8 0 0
0.335172 0.209567 0.743253 0.8 0 0
0.092843 0.383649 0.475402 0.8 0 0
0.683996 0.253477 0.774209 0.8 0 0
0.246585 0.134656 0.388014 0.8 0 0
0.403741 0.116144 0.637242 0.8 0 0
0.863766 0.377946 0.334294 0.8 0 0
0.147710 0.241148 0.559490 0.8 0 0
0.762844 0.139145 0.606545 0.8 0 0
0.374101 0.025006 0.536628 0.8 0 0
0.956936 0.404972 0.464153 0.8 0 0
0.179537 0.401517 0.840543 0.8 0 0
0.528988 0.115280 0.663266 0.8 0 0
0.280689 0.378272 0.115315 0.8 0 0
0.920285 0.370993 0.602893 0.8 0 0
0.593315 0.154581 0.219638 0.8 0 0
0.267059 0.316599 0.190174 0.8 0 0
0.797451 0.249987 0.705086 0.8 0 0
0.940360 0.378611 0.549964 0.8 0 0
0.606835 0.098825 0.558390 0.8 0 0
0.804051 0.234566 0.423558 0.8 0 0
0.757639 0.366185 0.160802 0.8 0 0
0.655512 0.224997 0.763035 0.8 0 0
0.423529 0.217299 0.789212 0.8 0 0
0.806740 0.243542 0.407008 0.8 0 0
0.369879 0.347261 0.149412 0.8 0 0
0.687484 0.142358 0.607361 0.8 0 0
0.273257 0.173918 0.374311 0.8 0 0
0.685596 0.130109 0.303352 0.8 0 0
0.772805 0.408828 0.852993 0.8 0 0
0.254644 0.203209 0.728693 0.8 0 0
0.916231 0.387388 0.688419 0.8 0 0
0.916145 0.397251 0.396357 0.8 0 0
0.777994 0.134980 0.500738 0.8 0 0
0.401623 0.025006 0.642615 0.8 0 0
0.287336 0.379437 0.158758 0.8 0 0
0.284237 0.114705 0.375763 0.8 0 0
0.048279 0.396771 0.371574 0.8 0 0
0.193592 0.167254 0.492824 0.8 0 0
0.299090 0.310614 0.793882 0.8 0 0
0.772308 0.371661 0.836706 0.8 0 0
0.428774 0.180638 0.241134 0.8 0 0
0.358511 0.157670 0.689465 0.8 0 0
0.155309 0.347762 0.352184 0.8 0 0
0.952276 0.407184 0.529005 0.8 0 0
0.062431 0.388664 0.634457 0.8 0 0
0.584292 0.271450 0.859840 0.8 0 0
0.635824 0.403607 0.941092 0.8 0 0
0.823698 0.284609 0.385177 0.8 0 0
0.281089 0.407845 0.113068 0.8 0 0
0.950976 0.385187 0.539748 0.8 0 0
0.060071 0.405614 0.376940 0.8 0 0
0.321062 0.155708 0.736442 0.8 0 0
0.790543 0.155427 0.562111 0.8 0 0
0.863419 0.340940 0.434117 0.8 0 0
0.857675 0.379981 0.683676 0.8 0 0
0.151445 0.307286 0.435971 0.8 0 0
0.525797 0.366347 0.074693 0.8 0 0
0.824903 0.371487 0.786292 0.8 0 0
0.343686 0.362437 0.853670 0.8 0 0
0.484794 0.208025 0.791246 0.8 0 0
0.520326 0.138618 0.218909 0.8 0 0
0.844198 0.295755 0.556069 0.8 0 0
0.404529 0.143571 0.695725 0.8 0 0
0.192475 0.359769 0.212428 0.8 0 0
0.211325 0.387163 0.147557 0.8 0 0
0.889866 0.352438 0.640543 0.8 0 0
0.160374 0.288021 0.338635 0.8 0 0
0.662615 0.025003 0.459806 0.8 0 0
0.277782 0.195078 0.671688 0.8 0 0
0.843821 0.217992 0.453613 0.8 0 0
0.225822 0.149108 0.598436 0.8 0 0
0.587647 0.407887 0.937914 0.8 0 0
0.139246 0.325268 0.521570 0.8 0 0
0.926264 0.371687 0.586664 0.8 0 0
0.675591 0.094779 0.634445 0.8 0 0
0.709261 0.286010 0.813080 0.8 0 0
0.434970 0.323066 0.855492 0.8 0 0
0.063063 0.405700 0.632218 0.8 0 0
0.530982 0.337029 0.899568 0.8 0 0
0.403239 0.296153 0.866613 0.8 0 0
0.125491 0.378058 0.640261 0.8 0 0
0.387410 0.402950 0.077504 0.8 0 0
0.889017 0.365073 0.493943 0.8 0 0
0.118483 0.300377 0.490179 0.8 0 0
0.602480 0.333309 0.884294 0.8 0 0
0.368350 0.115967 0.286497 0.8 0 0
0.972820 0.399692 0.496132 0.8 0 0
0.816062 0.209379 0.628450 0.8 0 0
0.827256 0.401031 0.785458 0.8 0 0
0.630038 0.025002 0.475777 0.8 0 0
0.300763 0.178147 0.325152 0.8 0 0
0.603738 0.236174 0.202848 0.8 0 0
0.431681 0.184370 0.763403 0.8 0 0
0.333029 0.289934 0.162484 0.8 0 0
0.226403 0.396400 0.882196 0.8 0 0
0.264190 0.168115 0.585918 0.8 0 0
0.615380 0.209927 0.179510 0.8 0 0
0.829039 0.386604 0.748671 0.8 0 0
0.163968 0.271597 0.470369 0.8 0 0
0.869186 0.367429 0.374732 0.8 0 0
0.570441 0.302182 0.123712 0.8 0 0
0.496124 0.405067 0.040143 0.8 0 0
0.781689 0.312462 0.717058 0.8 0 0
0.463174 0.379268 0.942614 0.8 0 0
0.202231 0.351798 0.268643 0.8 0 0
0.664000 0.025003 0.565407 0.8 0 0
0.822761 0.406603 0.822867 0.8 0 0
0.490455 0.141027 0.286535 0.8 0 0
0.228259 0.159054 0.625890 0.8 0 0
0.430965 0.402641 0.959290 0.8 0 0
0.795352 0.159335 0.445974 0.8 0 0
0.424077 0.138130 0.770674 0.8 0 0
0.370205 0.132493 0.346729 0.8 0 0
0.666989 0.198100 0.214384 0.8 0 0
0.165689 0.275809 0.566171 0.8 0 0
0.846806 0.251452 0.400910 0.8 0 0
0.691093 0.346284 0.820198 0.8 0 0
0.647121 0.108526 0.493250 0.8 0 0
0.765154 0.199739 0.606065 0.8 0 0
0.813349 0.336758 0.749412 0.8 0 0
0.539643 0.243360 0.181978 0.8 0 0
0.731917 0.407501 0.879386 0.8 0 0
0.214320 0.271094 0.319369 0.8 0 0
0.226744 0.195841 0.568315 0.8 0 0
0.297205 0.081407 0.487243 0.8 0 0
0.381547 0.183646 0.255693 0.8 0 0
0.271082 0.266098 0.745346 0.8 0 0
0.533828 0.372776 0.933422 0.8 0 0
0.149387 0.241256 0.572181 0.8 0 0
0.053622 0.379748 0.505731 0.8 0 0
0.845645 0.377728 0.301092 0.8 0 0
0.343645 0.142649 0.740398 0.8 0 0
0.472122 0.025005 0.361314 0.8 0 0
0.664808 0.115274 0.496248 0.8 0 0
0.792383 0.179207 0.621882 0.8 0 0
0.160325 0.326952 0.626873 0.8 0 0
0.253511 0.343539 0.776669 0.8 0 0
0.520975 0.165213 0.253992 0.8 0 0
0.345122 0.234422 0.181757 0.8 0 0
0.538606 0.305112 0.119373 0.8 0 0
0.813421 0.233755 0.505817 0.8 0 0
0.775980 0.214288 0.388433 0.8 0 0
0.583190 0.299704 0.127753 0.8 0 0
0.445966 0.173244 0.193334 0.8 0 0
0.866364 0.313247 0.621660 0.8 0 0
0.391486 0.100825 0.566599 0.8 0 0
0.541940 0.143496 0.286518 0.8 0 0
0.425287 0.352765 0.091198 0.8 0 0
0.617363 0.395179 0.047343 0.8 0 0
0.324455 0.190420 0.285900 0.8 0 0
0.213915 0.226756 0.386445 0.8 0 0
0.143329 0.321019 0.658098 0.8 0 0
0.561887 0.181908 0.763239 0.8 0 0
0.743172 0.121192 0.413638 0.8 0 0
0.707971 0.137278 0.522717 0.8 0 0
0.618079 0.401232 0.047570 0.8 0 0
0.903424 0.355120 0.603761 0.8 0 0
0.367708 0.138233 0.748138 0.8 0 0
0.650067 0.385187 0.117127 0.8 0 0
0.553807 0.357225 0.085302 0.8 0 0
0.935167 0.403229 0.658485 0.8 0 0
0.382894 0.137556 0.671914 0.8 0 0
0.835867 0.303451 0.318219 0.8 0 0
0.230326 0.260974 0.695691 0.8 0 0
0.197124 0.372483 0.751629 0.8 0 0
0.668301 0.112714 0.320740 0.8 0 0
0.716748 0.345982 0.847166 0.8 0 0
0.925888 0.366524 0.478559 0.8 0 0
0.135109 0.364486 0.717201 0.8 0 0
0.786680 0.310357 0.242879 0.8 0 0
0.376541 0.149676 0.688791 0.8 0 0
0.263645 0.105800 0.514184 0.8 0 0
0.286976 0.171089 0.724578 0.8 0 0
0.395914 0.351846 0.137621 0.8 0 0
0.565224 0.110020 0.638366 0.8 0 0
0.119530 0.310098 0.439000 0.8 0 0
0.602672 0.191351 0.241022 0.8 0 0
0.713858 0.169475 0.363127 0.8 0 0
0.399201 0.109166 0.611470 0.8 0 0
0.312088 0.123711 0.517790 0.8 0 0
0.610536 0.041694 0.345278 0.8 0 0
