0.026620 0.571705 0.374793 0.8 0 0
0.112502 0.514030 0.603590 0.8 0 0
0.162836 0.339155 0.534390 0.8 0 0
0.514457 0.518522 0.060119 0.8 0 0
0.427450 0.313694 0.640957 0.8 0 0
0.512261 0.879832 0.431120 0.8 0 0
0.336704 0.931666 0.273658 0.8 0 0
0.620919 0.751900 0.409723 0.8 0 0
0.541057 0.741251 0.601708 0.8 0 0
0.452761 0.031137 0.569600 0.8 0 0
0.423412 0.697192 0.705965 0.8 0 0
0.346124 0.536097 0.743344 0.8 0 0
0.277808 0.314782 0.160867 0.8 0 0
0.378612 0.140323 0.211127 0.8 0 0
0.363658 0.195428 0.199258 0.8 0 0
0.072116 0.689895 0.408737 0.8 0 0
0.683474 0.399775 0.317652 0.8 0 0
0.662367 0.361217 0.327130 0.8 0 0
0.149220 0.695631 0.592917 0.8 0 0
0.370987 0.707421 0.693930 0.8 0 0
0.217044 0.412275 0.131376 0.8 0 0
0.316908 0.468976 0.714656 0.8 0 0
0.564691 0.145524 0.458717 0.8 0 0
0.490489 0.028592 0.461172 0.8 0 0
0.075067 0.670397 0.508767 0.8 0 0
0.515790 0.949922 0.321616 0.8 0 0
0.258804 0.431413 0.095668 0.8 0 0
0.203173 0.647031 0.687034 0.8 0 0
0.572681 0.965310 0.416665 0.8 0 0
0.370797 0.963315 0.532256 0.8 0 0
0.521013 0.847852 0.407585 0.8 0 0
0.234402 0.963805 0.407345 0.8 0 0
0.409124 0.229263 0.185938 0.8 0 0
0.469714 0.862903 0.287849 0.8 0 0
0.324331 0.766948 0.589241 0.8 0 0
0.703239 0.477743 0.261003 0.8 0 0
0.167878 0.758796 0.411187 0.8 0 0
0.581493 0.389447 0.617108 0.8 0 0
0.620333 0.278394 0.427848 0.8 0 0
0.319065 0.116718 0.223863 0.8 0 0
0.086496 0.529572 0.573402 0.8 0 0
0.590057 0.537181 0.094466 0.8 0 0
0.299494 0.311526 0.625201 0.8 0 0
0.261148 0.535832 0.719929 0.8 0 0
0.438598 0.927862 0.542100 0.8 0 0
0.474984 0.165841 0.562800 0.8 0 0
0.480795 0.030881 0.302038 0.8 0 0
0.595856 0.056240 0.484386 0.8 0 0
0.570976 0.959764 0.330884 0.8 0 0
0.292305 0.025872 0.454816 0.8 0 0
0.591629 0.220175 0.346207 0.8 0 0
0.040420 0.615308 0.476722 0.8 0 0
0.522012 0.576909 0.052740 0.8 0 0
0.323575 0.686542 0.077405 0.8 0 0
0.540523 0.386360 0.137123 0.8 0 0
0.209087 0.230173 0.283519 0.8 0 0
0.578878 0.664290 0.677625 0.8 0 0
0.477357 0.871830 0.481990 0.8 0 0
0.417527 0.195820 0.587330 0.8 0 0
0.496353 0.620101 0.736254 0.8 0 0
0.324458 0.765916 0.590887 0.8 0 0
0.671730 0.585195 0.163194 0.8 0 0
0.521434 0.700880 0.118144 0.8 0 0
0.500087 0.746085 0.613419 0.8 0 0
0.594031 0.210716 0.386056 0.8 0 0
0.481707 0.876764 0.432191 0.8 0 0
0.053473 0.580068 0.522948 0.8 0 0
0.633625 0.735981 0.484915 0.8 0 0
0.515663 0.622064 0.056117 0.8 0 0
0.367239 0.505208 0.735941 0.8 0 0
0.277479 0.746148 0.178974 0.8 0 0
0.561334 0.555042 0.707823 0.8 0 0
0.481850 0.131392 0.234493 0.8 0 0
0.344784 0.957483 0.238637 0.8 0 0
0.679215 0.523694 0.186522 0.8 0 0
0.632886 0.459026 0.613444 0.8 0 0
0.542218 0.171282 0.279858 0.8 0 0
0.429710 0.130897 0.575016 0.8 0 0
0.080698 0.409828 0.376915 0.8 0 0
0.225709 0.802886 0.424158 0.8 0 0
0.365310 0.738179 0.648923 0.8 0 0
0.381860 0.037479 0.603775 0.8 0 0
0.275223 0.875554 0.323846 0.8 0 0
0.752699 0.596054 0.399597 0.8 0 0
0.456734 0.945946 0.496178 0.8 0 0
0.300973 0.685398 0.081113 0.8 0 0
0.317321 0.378869 0.672276 0.8 0 0
0.508528 0.226300 0.563726 0.8 0 0
0.118262 0.340846 0.370589 0.8 0 0
0.212746 0.054256 0.264670 0.8 0 0
0.206903 0.420666 0.643698 0.8 0 0
0.088756 0.570773 0.589765 0.8 0 0
0.490884 0.541478 0.735555 0.8 0 0
0.564007 0.355717 0.607274 0.8 0 0
0.325382 0.395922 0.095678 0.8 0 0
0.631680 0.314667 0.463364 0.8 0 0
0.100806 0.385683 0.319949 0.8 0 0
0.713221 0.567397 0.228271 0.8 0 0
0.631694 0.521195 0.133544 0.8 0 0
0.476500 0.785396 0.230246 0.8 0 0
0.464786 0.926152 0.291752 0.8 0 0
0.485144 0.043248 0.583522 0.8 0 0
0.617029 0.297628 0.480869 0.8 0 0
0.557291 0.780182 0.494137 0.8 0 0
0.637519 0.557306 0.128781 0.8 0 0
0.420744 0.254074 0.610543 0.8 0 0
0.228743 0.801987 0.434622 0.8 0 0
0.233430 0.920710 0.363661 0.8 0 0
0.693729 0.417107 0.462125 0.8 0 0
0.387758 0.804069 0.551067 0.8 0 0
0.159897 0.361755 0.223574 0.8 0 0
0.135178 0.507126 0.147540 0.8 0 0
0.297277 0.139314 0.234546 0.8 0 0
0.497280 0.835044 0.307520 0.8 0 0
0.334724 0.117413 0.571614 0.8 0 0
0.189823 0.718927 0.592014 0.8 0 0
0.484883 0.905561 0.487574 0.8 0 0
0.520516 0.360969 0.639268 0.8 0 0
0.398284 0.030328 0.353919 0.8 0 0
0.431887 0.941055 0.206523 0.8 0 0
0.273103 0.926624 0.385549 0.8 0 0
0.032521 0.524965 0.395964 0.8 0 0
0.151831 0.405580 0.192985 0.8 0 0
0.282978 0.027762 0.320164 0.8 0 0
0.262491 0.029492 0.538273 0.8 0 0
0.208329 0.104272 0.454097 0.8 0 0
0.409638 0.701190 0.702898 0.8 0 0
0.406453 0.971085 0.560538 0.8 0 0
0.228495 0.724315 0.616350 0.8 0 0
0.580279 0.251934 0.501136 0.8 0 0
0.580225 0.364034 0.181042 0.8 0 0
0.576565 0.221233 0.302873 0.8 0 0
0.218948 0.933512 0.341247 0.8 0 0
0.557054 0.190491 0.290422 0.8 0 0
0.518941 0.716996 0.142504 0.8 0 0
0.138457 0.425328 0.579289 0.8 0 0
0.450554 0.720491 0.677238 0.8 0 0
0.328001 0.952525 0.561233 0.8 0 0
0.334697 0.895606 0.473681 0.8 0 0
0.167795 0.262535 0.443360 0.8 0 0
0.670955 0.381820 0.309779 0.8 0 0
0.308526 0.431189 0.695351 0.8 0 0
0.177628 0.765446 0.401806 0.8 0 0
0.497498 0.932000 0.510952 0.8 0 0
0.232262 0.026928 0.299789 0.8 0 0
0.170213 0.356797 0.562841 0.8 0 0
0.656940 0.649348 0.617974 0.8 0 0
0.519518 0.247252 0.565809 0.8 0 0
0.089009 0.433751 0.276461 0.8 0 0
0.167477 0.306126 0.271963 0.8 0 0
0.505179 0.080377 0.588279 0.8 0 0
0.558132 0.034430 0.268456 0.8 0 0
0.503300 0.740483 0.623199 0.8 0 0
0.371680 0.029673 0.302526 0.8 0 0
0.641178 0.729161 0.497049 0.8 0 0
0.264583 0.732848 0.623374 0.8 0 0
0.529011 0.952768 0.390978 0.8 0 0
0.495362 0.916360 0.346624 0.8 0 0
0.494020 0.674819 0.710848 0.8 0 0
0.345628 0.027694 0.426516 0.8 0 0
0.172966 0.240740 0.382891 0.8 0 0
0.378380 0.028680 0.251677 0.8 0 0
0.631638 0.727092 0.284665 0.8 0 0
0.386794 0.773355 0.190689 0.8 0 0
0.523209 0.032226 0.320908 0.8 0 0
0.410915 0.351375 0.664236 0.8 0 0
0.056764 0.637834 0.269433 0.8 0 0
0.668070 0.548746 0.616623 0.8 0 0
0.142965 0.740670 0.441535 0.8 0 0
0.538805 0.368592 0.633405 0.8 0 0
0.582829 0.766080 0.491311 0.8 0 0
0.205259 0.251735 0.269446 0.8 0 0
0.682462 0.382730 0.403309 0.8 0 0
0.307964 0.249470 0.593879 0.8 0 0
0.232786 0.026753 0.358390 0.8 0 0
0.323524 0.290208 0.620524 0.8 0 0
0.265114 0.943438 0.335798 0.8 0 0
0.570655 0.308138 0.561713 0.8 0 0
0.202778 0.943826 0.410520 0.8 0 0
0.665192 0.670193 0.206625 0.8 0 0
0.106603 0.406679 0.503857 0.8 0 0
0.199331 0.174265 0.363656 0.8 0 0
0.135807 0.313945 0.351175 0.8 0 0
0.463771 0.590050 0.034883 0.8 0 0
0.198802 0.714338 0.610643 0.8 0 0
0.491368 0.122782 0.547967 0.8 0 0
0.477840 0.386608 0.674431 0.8 0 0
0.087440 0.690520 0.487488 0.8 0 0
0.606928 0.710923 0.204211 0.8 0 0
0.396807 0.954246 0.573385 0.8 0 0
0.199364 0.782630 0.375867 0.8 0 0
0.245183 0.519552 0.064977 0.8 0 0
0.216967 0.236858 0.266886 0.8 0 0
0.443456 0.970213 0.222303 0.8 0 0
0.350361 0.688921 0.710786 0.8 0 0
0.484209 0.858400 0.476340 0.8 0 0
0.204862 0.752247 0.528302 0.8 0 0
0.616910 0.397066 0.587419 0.8 0 0
0.132969 0.379535 0.245890 0.8 0 0
0.494356 0.796305 0.260036 0.8 0 0
0.714882 0.571354 0.551676 0.8 0 0
0.350880 0.927716 0.270712 0.8 0 0
0.136592 0.736518 0.438208 0.8 0 0
0.271293 0.859831 0.443604 0.8 0 0
0.751103 0.574040 0.421071 0.8 0 0
0.713552 0.450485 0.343825 0.8 0 0
0.191453 0.077877 0.491096 0.8 0 0
0.150678 0.726445 0.258155 0.8 0 0
0.402384 0.453983 0.717929 0.8 0 0
0.360729 0.760342 0.609059 0.8 0 0
0.333221 0.509971 0.042543 0.8 0 0
0.133975 0.381539 0.241981 0.8 0 0
0.661011 0.653950 0.609115 0.8 0 0
0.145322 0.530456 0.644926 0.8 0 0
0.097048 0.708694 0.434219 0.8 0 0
0.503412 0.039423 0.565584 0.8 0 0
0.716912 0.486048 0.486258 0.8 0 0
0.250951 0.063588 0.571389 0.8 0 0
0.549641 0.542348 0.710282 0.8 0 0
0.525463 0.219516 0.237425 0.8 0 0
0.648405 0.351167 0.298560 0.8 0 0
0.195854 0.209882 0.331293 0.8 0 0
0.484329 0.031569 0.371070 0.8 0 0
0.440101 0.544078 0.744569 0.8 0 0
0.541596 0.968418 0.484382 0.8 0 0
0.129615 0.730236 0.448201 0.8 0 0
0.291749 0.029857 0.396452 0.8 0 0
0.495774 0.790120 0.252541 0.8 0 0
0.588116 0.237092 0.473590 0.8 0 0
0.374919 0.956949 0.234125 0.8 0 0
0.182402 0.736494 0.240660 0.8 0 0
0.345374 0.030443 0.410623 0.8 0 0
0.596739 0.044034 0.334084 0.8 0 0
0.688466 0.705646 0.377697 0.8 0 0
0.203065 0.226154 0.295888 0.8 0 0
0.740388 0.554346 0.474821 0.8 0 0
0.168771 0.639942 0.114195 0.8 0 0
0.154229 0.729742 0.261445 0.8 0 0
0.555447 0.582795 0.068845 0.8 0 0
0.100431 0.609992 0.603188 0.8 0 0
0.487576 0.906227 0.278407 0.8 0 0
0.404667 0.465056 0.056531 0.8 0 0
0.673511 0.419689 0.520253 0.8 0 0
0.166654 0.486782 0.647281 0.8 0 0
0.254964 0.907954 0.333922 0.8 0 0
0.210242 0.146519 0.344467 0.8 0 0
0.655384 0.383724 0.517657 0.8 0 0
0.590987 0.773432 0.402453 0.8 0 0
0.527256 0.462873 0.086031 0.8 0 0
0.498818 0.246272 0.579594 0.8 0 0
0.649629 0.562582 0.642063 0.8 0 0
0.117610 0.666510 0.185425 0.8 0 0
0.518996 0.880369 0.388936 0.8 0 0
0.239330 0.049706 0.234891 0.8 0 0
0.143063 0.666058 0.155026 0.8 0 0
0.462271 0.924530 0.528100 0.8 0 0
0.565235 0.232061 0.508406 0.8 0 0
0.643253 0.660605 0.624032 0.8 0 0
0.419654 0.042311 0.606599 0.8 0 0
0.111885 0.657257 0.591177 0.8 0 0
0.324830 0.538495 0.739866 0.8 0 0
0.629432 0.298818 0.340974 0.8 0 0
0.169112 0.331037 0.240528 0.8 0 0
0.328280 0.823670 0.255923 0.8 0 0
0.609702 0.419358 0.168060 0.8 0 0
0.601829 0.294413 0.507822 0.8 0 0
0.286921 0.750471 0.181281 0.8 0 0
0.273663 0.643931 0.056653 0.8 0 0
0.080283 0.436491 0.475972 0.8 0 0
0.176979 0.048588 0.365908 0.8 0 0
0.393920 0.521465 0.035376 0.8 0 0
0.034929 0.628237 0.350871 0.8 0 0
0.243040 0.918109 0.333637 0.8 0 0
0.331143 0.881061 0.268893 0.8 0 0
0.137050 0.348387 0.499820 0.8 0 0
0.133797 0.548371 0.639468 0.8 0 0
0.384568 0.141312 0.211190 0.8 0 0
0.409992 0.853824 0.257189 0.8 0 0
0.365289 0.935062 0.261071 0.8 0 0
0.549025 0.937937 0.460007 0.8 0 0
0.423338 0.467566 0.722620 0.8 0 0
0.349145 0.027544 0.229919 0.8 0 0
0.108276 0.368170 0.323609 0.8 0 0
0.196739 0.095201 0.344675 0.8 0 0
0.628780 0.694145 0.605016 0.8 0 0
0.371419 0.932317 0.551190 0.8 0 0
0.167001 0.758158 0.412638 0.8 0 0
0.035907 0.532554 0.435911 0.8 0 0
0.400218 0.648419 0.741613 0.8 0 0
0.503240 0.029425 0.482681 0.8 0 0
0.564799 0.514528 0.086168 0.8 0 0
0.053122 0.613147 0.518073 0.8 0 0
0.377115 0.738617 0.648345 0.8 0 0
0.207755 0.226619 0.288532 0.8 0 0
0.445107 0.530433 0.037012 0.8 0 0
0.664064 0.452118 0.210788 0.8 0 0
0.200504 0.740355 0.555339 0.8 0 0
0.225543 0.968937 0.381153 0.8 0 0
0.465098 0.308098 0.628602 0.8 0 0
0.114957 0.677083 0.204121 0.8 0 0
0.316760 0.542782 0.037443 0.8 0 0
0.359283 0.027831 0.221417 0.8 0 0
0.124311 0.728458 0.432291 0.8 0 0
0.120906 0.359408 0.476368 0.8 0 0
0.709432 0.662280 0.519120 0.8 0 0
0.268978 0.154634 0.539106 0.8 0 0
0.537671 0.719315 0.160331 0.8 0 0
0.416775 0.915624 0.488455 0.8 0 0
0.352946 0.438410 0.707485 0.8 0 0
0.509208 0.867539 0.433726 0.8 0 0
0.067616 0.603172 0.224776 0.8 0 0
0.415809 0.789514 0.213359 0.8 0 0
0.559098 0.706979 0.152513 0.8 0 0
0.282767 0.964648 0.498560 0.8 0 0
0.425020 0.269649 0.617243 0.8 0 0
0.279399 0.142089 0.247352 0.8 0 0
0.253153 0.205249 0.540016 0.8 0 0
0.605129 0.761840 0.381194 0.8 0 0
0.331920 0.226923 0.593712 0.8 0 0
0.506616 0.719479 0.140567 0.8 0 0
0.252196 0.224674 0.549347 0.8 0 0
0.575091 0.233882 0.494951 0.8 0 0
0.055608 0.481377 0.317575 0.8 0 0
0.666864 0.464192 0.573130 0.8 0 0
0.331869 0.858915 0.503737 0.8 0 0
0.301468 0.769453 0.577085 0.8 0 0
0.497178 0.334772 0.633699 0.8 0 0
0.192557 0.953156 0.394420 0.8 0 0
0.065705 0.465624 0.299807 0.8 0 0
0.362910 0.896614 0.283553 0.8 0 0
0.269581 0.924992 0.491018 0.8 0 0
0.567194 0.539043 0.700733 0.8 0 0
0.358073 0.030079 0.567216 0.8 0 0
0.221860 0.187599 0.495971 0.8 0 0
0.432850 0.642387 0.042731 0.8 0 0
0.218252 0.371849 0.620009 0.8 0 0
0.678466 0.398219 0.303394 0.8 0 0
0.685262 0.400537 0.322387 0.8 0 0
0.505067 0.884917 0.326749 0.8 0 0
0.339832 0.120193 0.217797 0.8 0 0
0.676987 0.645931 0.594168 0.8 0 0
0.391964 0.961410 0.530808 0.8 0 0
0.475668 0.030470 0.210206 0.8 0 0
0.566725 0.961321 0.448320 0.8 0 0
0.201895 0.070669 0.286431 0.8 0 0
0.122569 0.675510 0.588361 0.8 0 0
0.098261 0.584851 0.605420 0.8 0 0
0.484986 0.153568 0.555318 0.8 0 0
0.199189 0.762251 0.287178 0.8 0 0
0.363732 0.786588 0.207155 0.8 0 0
0.478642 0.031053 0.518206 0.8 0 0
0.640467 0.669100 0.619813 0.8 0 0
0.636580 0.573623 0.655370 0.8 0 0
0.063466 0.666502 0.481842 0.8 0 0
0.515735 0.916830 0.466885 0.8 0 0
0.037470 0.630029 0.334632 0.8 0 0
0.049675 0.602114 0.511973 0.8 0 0
0.470946 0.030097 0.467003 0.8 0 0
0.286184 0.680254 0.079755 0.8 0 0
0.529116 0.412579 0.666544 0.8 0 0
0.403142 0.030886 0.528807 0.8 0 0
0.534832 0.083580 0.235148 0.8 0 0
0.220419 0.127935 0.323527 0.8 0 0
0.686877 0.520501 0.198893 0.8 0 0
0.520972 0.915013 0.307820 0.8 0 0
0.242906 0.289559 0.200101 0.8 0 0
0.554228 0.350385 0.171376 0.8 0 0
0.468782 0.949175 0.269328 0.8 0 0
0.149307 0.524266 0.646203 0.8 0 0
0.408454 0.526726 0.034181 0.8 0 0
0.437176 0.360591 0.112616 0.8 0 0
0.441063 0.424108 0.078785 0.8 0 0
0.396511 0.609289 0.751252 0.8 0 0
0.745122 0.529817 0.374569 0.8 0 0
0.591915 0.533673 0.683700 0.8 0 0
0.398487 0.682428 0.720222 0.8 0 0
0.651713 0.729189 0.462213 0.8 0 0
0.141178 0.704237 0.567028 0.8 0 0
0.239228 0.915097 0.362574 0.8 0 0
0.286016 0.188197 0.228611 0.8 0 0
0.528630 0.830233 0.412160 0.8 0 0
0.326171 0.758737 0.177442 0.8 0 0
0.378196 0.445917 0.712847 0.8 0 0
0.041749 0.499717 0.399630 0.8 0 0
0.523651 0.815358 0.461163 0.8 0 0
0.423752 0.030734 0.509717 0.8 0 0
0.377613 0.945135 0.512044 0.8 0 0
0.732251 0.559309 0.274113 0.8 0 0
0.422481 0.771631 0.191784 0.8 0 0
0.117473 0.448540 0.568479 0.8 0 0
0.498291 0.152312 0.241644 0.8 0 0
0.395029 0.029419 0.197554 0.8 0 0
0.033666 0.571287 0.459230 0.8 0 0
0.045643 0.551753 0.491049 0.8 0 0
0.414624 0.321171 0.133634 0.8 0 0
0.360412 0.406742 0.694670 0.8 0 0
0.259292 0.709981 0.126565 0.8 0 0
0.095941 0.643859 0.195763 0.8 0 0
0.273207 0.883321 0.325907 0.8 0 0
0.606676 0.759829 0.452144 0.8 0 0
0.652830 0.581839 0.640364 0.8 0 0
0.659616 0.674851 0.204595 0.8 0 0
0.452965 0.851306 0.501542 0.8 0 0
0.540667 0.032746 0.453820 0.8 0 0
0.625983 0.567895 0.116546 0.8 0 0
0.483377 0.783900 0.558703 0.8 0 0
0.493283 0.948332 0.468273 0.8 0 0
0.191887 0.526999 0.092645 0.8 0 0
0.666668 0.685171 0.569208 0.8 0 0
0.207570 0.245106 0.272172 0.8 0 0
0.286014 0.896491 0.370287 0.8 0 0
0.681718 0.425938 0.509006 0.8 0 0
0.215149 0.790448 0.339756 0.8 0 0
0.702170 0.648487 0.242021 0.8 0 0
0.044851 0.515673 0.458693 0.8 0 0
0.488771 0.904465 0.421874 0.8 0 0
0.445417 0.955019 0.248511 0.8 0 0
0.323492 0.757646 0.603356 0.8 0 0
0.576454 0.957704 0.421405 0.8 0 0
0.410156 0.305892 0.637901 0.8 0 0
0.706569 0.492772 0.253118 0.8 0 0
0.440392 0.537441 0.034487 0.8 0 0
0.080020 0.489810 0.236819 0.8 0 0
0.532666 0.963613 0.504029 0.8 0 0
0.308965 0.671323 0.066229 0.8 0 0
0.604608 0.677964 0.647348 0.8 0 0
0.131310 0.730724 0.325838 0.8 0 0
0.383903 0.029316 0.198639 0.8 0 0
0.104094 0.494902 0.189551 0.8 0 0
0.381370 0.948375 0.196493 0.8 0 0
0.195387 0.182125 0.409974 0.8 0 0
0.299443 0.107081 0.565025 0.8 0 0
0.703079 0.680654 0.498022 0.8 0 0
0.340685 0.373648 0.105351 0.8 0 0
0.204133 0.627141 0.084142 0.8 0 0
0.200938 0.239628 0.498210 0.8 0 0
0.427213 0.968180 0.201524 0.8 0 0
0.635754 0.485150 0.625379 0.8 0 0
0.625484 0.538287 0.121249 0.8 0 0
0.612440 0.284662 0.313724 0.8 0 0
0.342788 0.212421 0.589639 0.8 0 0
0.105901 0.403952 0.272666 0.8 0 0
0.645791 0.656677 0.624527 0.8 0 0
0.321597 0.030041 0.475607 0.8 0 0
0.563664 0.233288 0.271783 0.8 0 0
0.748488 0.595633 0.344683 0.8 0 0
0.606331 0.251416 0.439699 0.8 0 0
0.400595 0.235619 0.182727 0.8 0 0
0.401723 0.929471 0.549585 0.8 0 0
0.203990 0.388121 0.619933 0.8 0 0
0.516979 0.387458 0.123955 0.8 0 0
0.511977 0.352993 0.639070 0.8 0 0
0.671986 0.470206 0.208653 0.8 0 0
0.244923 0.959492 0.513272 0.8 0 0
0.287250 0.513956 0.723361 0.8 0 0
0.643320 0.428191 0.199652 0.8 0 0
0.051157 0.499931 0.465904 0.8 0 0
0.571477 0.149043 0.346891 0.8 0 0
0.089589 0.519057 0.573844 0.8 0 0
0.214592 0.225215 0.280191 0.8 0 0
0.517545 0.940754 0.356506 0.8 0 0
0.224337 0.947723 0.282741 0.8 0 0
0.282312 0.064119 0.592611 0.8 0 0
0.541240 0.198316 0.263867 0.8 0 0
0.300404 0.796255 0.532760 0.8 0 0
0.409090 0.478735 0.728520 0.8 0 0
0.726828 0.650744 0.320554 0.8 0 0
0.096642 0.381513 0.350545 0.8 0 0
0.600579 0.754460 0.314238 0.8 0 0
0.147060 0.708076 0.217636 0.8 0 0
0.224833 0.076910 0.256340 0.8 0 0
0.170151 0.565842 0.675741 0.8 0 0
0.526222 0.906344 0.427903 0.8 0 0
0.074407 0.489440 0.520848 0.8 0 0
0.369020 0.477460 0.726496 0.8 0 0
0.329587 0.847428 0.267278 0.8 0 0
0.445273 0.030030 0.436570 0.8 0 0
0.661981 0.401400 0.253567 0.8 0 0
0.259947 0.946420 0.341074 0.8 0 0
0.519578 0.926607 0.279148 0.8 0 0
0.667201 0.447672 0.219472 0.8 0 0
0.112873 0.547190 0.158400 0.8 0 0
0.446243 0.737343 0.648722 0.8 0 0
0.356903 0.743434 0.149890 0.8 0 0
0.639917 0.671514 0.174769 0.8 0 0
0.211878 0.455394 0.111411 0.8 0 0
0.385376 0.453066 0.716817 0.8 0 0
0.282396 0.399352 0.105367 0.8 0 0
0.636452 0.485399 0.154244 0.8 0 0
0.276552 0.385863 0.661377 0.8 0 0
0.083252 0.653083 0.552340 0.8 0 0
0.578658 0.065475 0.277950 0.8 0 0
0.531520 0.257428 0.562911 0.8 0 0
0.696287 0.700268 0.414152 0.8 0 0
0.618381 0.730544 0.544359 0.8 0 0
0.348163 0.879658 0.263135 0.8 0 0
0.195284 0.665237 0.669019 0.8 0 0
0.049170 0.524119 0.484803 0.8 0 0
0.262618 0.027892 0.306065 0.8 0 0
0.565380 0.636004 0.085491 0.8 0 0
0.536310 0.061603 0.567613 0.8 0 0
0.588912 0.077387 0.300456 0.8 0 0
0.522836 0.308474 0.602418 0.8 0 0
0.302725 0.051151 0.601208 0.8 0 0
0.516608 0.254729 0.212249 0.8 0 0
0.341276 0.876715 0.265889 0.8 0 0
0.323644 0.030213 0.432638 0.8 0 0
0.235723 0.029974 0.522108 0.8 0 0
0.408008 0.031926 0.542178 0.8 0 0
0.190205 0.526615 0.093905 0.8 0 0
0.189800 0.773249 0.353950 0.8 0 0
0.387047 0.912528 0.233617 0.8 0 0
0.346598 0.027718 0.270732 0.8 0 0
0.320299 0.312991 0.632870 0.8 0 0
0.288410 0.070954 0.202845 0.8 0 0
0.575830 0.153774 0.367466 0.8 0 0
0.248309 0.448709 0.683175 0.8 0 0
0.197818 0.777092 0.442159 0.8 0 0
0.128527 0.606496 0.138368 0.8 0 0
0.606444 0.524035 0.110102 0.8 0 0
0.429039 0.028958 0.421096 0.8 0 0
0.598844 0.660859 0.123785 0.8 0 0
0.520495 0.798112 0.291929 0.8 0 0
0.480930 0.205560 0.571582 0.8 0 0
0.531467 0.903515 0.376934 0.8 0 0
0.360861 0.806395 0.230883 0.8 0 0
0.089487 0.395395 0.351925 0.8 0 0
0.368724 0.145198 0.578672 0.8 0 0
0.600129 0.751724 0.304608 0.8 0 0
0.058010 0.472200 0.325602 0.8 0 0
0.278345 0.029393 0.386952 0.8 0 0
0.631294 0.359208 0.532317 0.8 0 0
0.176732 0.037824 0.407682 0.8 0 0
0.492701 0.883767 0.384872 0.8 0 0
0.527577 0.782224 0.269031 0.8 0 0
0.198262 0.200910 0.453549 0.8 0 0
0.419009 0.702217 0.701416 0.8 0 0
0.273185 0.486465 0.066442 0.8 0 0
0.204134 0.635536 0.087796 0.8 0 0
0.716075 0.668696 0.318599 0.8 0 0
0.061787 0.455891 0.355744 0.8 0 0
0.557247 0.499187 0.087650 0.8 0 0
0.188340 0.431238 0.139805 0.8 0 0
0.591740 0.413977 0.626073 0.8 0 0
0.154160 0.332559 0.260146 0.8 0 0
0.355392 0.065946 0.179176 0.8 0 0
0.643167 0.509996 0.630170 0.8 0 0
0.248333 0.398582 0.120762 0.8 0 0
0.225736 0.772582 0.268056 0.8 0 0
0.581417 0.189257 0.434920 0.8 0 0
0.511645 0.855008 0.433758 0.8 0 0
0.509415 0.777228 0.552044 0.8 0 0
0.158251 0.286277 0.322426 0.8 0 0
0.436375 0.034378 0.591038 0.8 0 0
0.480565 0.963264 0.504963 0.8 0 0
0.083034 0.506585 0.219419 0.8 0 0
0.446196 0.224305 0.591983 0.8 0 0
0.229592 0.966514 0.345106 0.8 0 0
0.475356 0.235808 0.585921 0.8 0 0
0.696749 0.407476 0.374802 0.8 0 0
0.198074 0.738655 0.227372 0.8 0 0
0.558518 0.030940 0.403882 0.8 0 0
0.475052 0.893294 0.325406 0.8 0 0
0.194210 0.218219 0.462018 0.8 0 0
0.499477 0.891510 0.312260 0.8 0 0
0.163931 0.392329 0.188481 0.8 0 0
0.413267 0.058972 0.620633 0.8 0 0
0.524582 0.832593 0.356687 0.8 0 0
0.442095 0.851979 0.267438 0.8 0 0
0.715374 0.551138 0.236156 0.8 0 0
0.484996 0.690697 0.092151 0.8 0 0
0.282225 0.936565 0.521504 0.8 0 0
0.025786 0.591473 0.383734 0.8 0 0
0.331914 0.167941 0.574874 0.8 0 0
0.303246 0.315262 0.149736 0.8 0 0
0.255325 0.700131 0.670492 0.8 0 0
0.540991 0.745196 0.210935 0.8 0 0
0.028126 0.560541 0.357409 0.8 0 0
0.566982 0.192318 0.477819 0.8 0 0
0.694876 0.562867 0.583523 0.8 0 0
0.206096 0.031533 0.309108 0.8 0 0
0.137234 0.309276 0.361656 0.8 0 0
0.433442 0.698541 0.704069 0.8 0 0
0.618429 0.353856 0.236201 0.8 0 0
0.054842 0.624615 0.515246 0.8 0 0
0.350127 0.786026 0.570075 0.8 0 0
0.558118 0.354344 0.171272 0.8 0 0
0.358468 0.939985 0.258811 0.8 0 0
0.118739 0.436031 0.559925 0.8 0 0
0.543494 0.190330 0.515061 0.8 0 0
0.421431 0.193962 0.586402 0.8 0 0
0.076262 0.417763 0.387448 0.8 0 0
0.194676 0.364266 0.593793 0.8 0 0
0.502764 0.099952 0.233487 0.8 0 0
0.364693 0.493684 0.045009 0.8 0 0
0.625113 0.727563 0.542524 0.8 0 0
0.516518 0.910039 0.456269 0.8 0 0
0.348832 0.150792 0.213960 0.8 0 0
0.431599 0.521698 0.739737 0.8 0 0
0.520899 0.369197 0.137337 0.8 0 0
0.172930 0.413874 0.164139 0.8 0 0
0.576590 0.783976 0.400639 0.8 0 0
0.156443 0.751168 0.348426 0.8 0 0
0.345877 0.409967 0.693749 0.8 0 0
0.607573 0.054301 0.435279 0.8 0 0
0.393255 0.357929 0.669634 0.8 0 0
0.222485 0.281205 0.556921 0.8 0 0
0.312117 0.691853 0.085395 0.8 0 0
0.229313 0.085483 0.542716 0.8 0 0
0.522908 0.480178 0.076629 0.8 0 0
0.707233 0.445964 0.320532 0.8 0 0
0.459464 0.945544 0.268242 0.8 0 0
0.114529 0.634948 0.611516 0.8 0 0
0.377299 0.347651 0.117539 0.8 0 0
0.055046 0.609016 0.524485 0.8 0 0
0.304295 0.336424 0.643385 0.8 0 0
0.285003 0.659009 0.062711 0.8 0 0
0.282115 0.963955 0.496439 0.8 0 0
0.170043 0.071406 0.416645 0.8 0 0
0.518622 0.232323 0.558392 0.8 0 0
0.432359 0.762476 0.179711 0.8 0 0
0.593980 0.368384 0.191944 0.8 0 0
0.532474 0.236428 0.549616 0.8 0 0
0.516726 0.944973 0.408302 0.8 0 0
0.363916 0.033551 0.597344 0.8 0 0
0.639353 0.717415 0.545085 0.8 0 0
0.628782 0.387822 0.215777 0.8 0 0
0.086679 0.655651 0.223106 0.8 0 0
0.033619 0.628144 0.424566 0.8 0 0
0.366886 0.954758 0.236792 0.8 0 0
0.650564 0.719436 0.298374 0.8 0 0
0.030042 0.548803 0.352151 0.8 0 0
0.260675 0.028399 0.341933 0.8 0 0
0.589493 0.293110 0.525093 0.8 0 0
0.440811 0.724879 0.125466 0.8 0 0
0.032841 0.549770 0.328228 0.8 0 0
0.468325 0.166889 0.222836 0.8 0 0
0.615937 0.378755 0.209098 0.8 0 0
0.593403 0.640552 0.105038 0.8 0 0
0.464506 0.031011 0.398418 0.8 0 0
0.657896 0.702608 0.252196 0.8 0 0
0.182619 0.732469 0.231421 0.8 0 0
0.166330 0.374234 0.202789 0.8 0 0
0.393986 0.031297 0.496601 0.8 0 0
0.643693 0.603276 0.135033 0.8 0 0
0.544267 0.802571 0.454812 0.8 0 0
0.452871 0.031549 0.578886 0.8 0 0
0.522026 0.789125 0.522563 0.8 0 0
0.201024 0.717476 0.606057 0.8 0 0
0.224053 0.180942 0.496175 0.8 0 0
0.426550 0.885885 0.511101 0.8 0 0
0.448635 0.949022 0.205535 0.8 0 0
0.598781 0.382196 0.185187 0.8 0 0
0.403348 0.682484 0.065592 0.8 0 0
0.576509 0.773480 0.334025 0.8 0 0
0.524841 0.498227 0.070408 0.8 0 0
0.525901 0.028522 0.490594 0.8 0 0
0.035180 0.587110 0.466525 0.8 0 0
0.434327 0.050719 0.612603 0.8 0 0
0.033825 0.572401 0.460599 0.8 0 0
0.664398 0.518546 0.608556 0.8 0 0
0.325048 0.573616 0.746988 0.8 0 0
0.252050 0.828149 0.428800 0.8 0 0
0.532686 0.087524 0.237534 0.8 0 0
0.206217 0.244398 0.274667 0.8 0 0
0.257400 0.966776 0.520794 0.8 0 0
0.198676 0.209784 0.464999 0.8 0 0
0.205827 0.284997 0.239769 0.8 0 0
0.245437 0.963678 0.447026 0.8 0 0
0.544731 0.919924 0.407947 0.8 0 0
0.209825 0.105309 0.453359 0.8 0 0
0.509673 0.185004 0.545887 0.8 0 0
0.469111 0.883301 0.322436 0.8 0 0
0.545817 0.199792 0.269271 0.8 0 0
0.605757 0.708550 0.608771 0.8 0 0
0.369737 0.029236 0.277440 0.8 0 0
0.524801 0.031028 0.298134 0.8 0 0
0.284742 0.968672 0.248379 0.8 0 0
0.496175 0.586489 0.738975 0.8 0 0
0.293904 0.726196 0.647487 0.8 0 0
0.563396 0.334901 0.591596 0.8 0 0
0.715167 0.499729 0.267567 0.8 0 0
0.562268 0.113079 0.468786 0.8 0 0
0.054832 0.617794 0.255705 0.8 0 0
0.263565 0.865940 0.424026 0.8 0 0
0.203315 0.316139 0.564153 0.8 0 0
0.521922 0.788383 0.275593 0.8 0 0
0.627622 0.308217 0.464690 0.8 0 0
0.571209 0.943984 0.328359 0.8 0 0
0.381857 0.925308 0.266279 0.8 0 0
0.609977 0.312673 0.515127 0.8 0 0
0.441937 0.030698 0.528559 0.8 0 0
0.311739 0.030042 0.408033 0.8 0 0
0.172734 0.680547 0.635680 0.8 0 0
0.466010 0.168721 0.221509 0.8 0 0
0.051474 0.473148 0.383617 0.8 0 0
0.469539 0.689777 0.707591 0.8 0 0
0.362832 0.609865 0.750131 0.8 0 0
0.257524 0.095000 0.555760 0.8 0 0
0.228904 0.705466 0.137399 0.8 0 0
0.628012 0.286037 0.394805 0.8 0 0
0.189247 0.236042 0.315529 0.8 0 0
0.673108 0.664856 0.210489 0.8 0 0
0.718270 0.504075 0.271653 0.8 0 0
0.314458 0.926381 0.233702 0.8 0 0
0.729474 0.487921 0.345812 0.8 0 0
0.283154 0.207206 0.563950 0.8 0 0
0.188648 0.594716 0.087245 0.8 0 0
0.508876 0.771621 0.562621 0.8 0 0
0.321737 0.645442 0.045976 0.8 0 0
0.322633 0.349249 0.656368 0.8 0 0
0.485355 0.808404 0.266401 0.8 0 0
0.250044 0.957351 0.246389 0.8 0 0
0.121761 0.387593 0.517184 0.8 0 0
0.042191 0.495578 0.377034 0.8 0 0
0.422506 0.915457 0.234717 0.8 0 0
0.070391 0.651993 0.253383 0.8 0 0
0.352805 0.816774 0.530662 0.8 0 0
0.313357 0.244867 0.594100 0.8 0 0
0.422980 0.882199 0.511996 0.8 0 0
0.149724 0.747209 0.365163 0.8 0 0
0.228995 0.667208 0.091595 0.8 0 0
0.427909 0.584442 0.029205 0.8 0 0
0.400706 0.350172 0.664362 0.8 0 0
0.164837 0.393949 0.586952 0.8 0 0
0.616158 0.286152 0.320977 0.8 0 0
0.245420 0.321849 0.602616 0.8 0 0
0.503284 0.720377 0.659599 0.8 0 0
0.277056 0.410060 0.101454 0.8 0 0
0.708105 0.554793 0.559722 0.8 0 0
0.556349 0.776835 0.296507 0.8 0 0
0.675143 0.640963 0.190177 0.8 0 0
0.526838 0.093967 0.240618 0.8 0 0
0.034889 0.516795 0.389151 0.8 0 0
0.173565 0.069856 0.353253 0.8 0 0
0.415778 0.029723 0.301779 0.8 0 0
0.240151 0.133567 0.287858 0.8 0 0
0.298990 0.026799 0.244386 0.8 0 0
0.558616 0.711994 0.160899 0.8 0 0
0.476956 0.966322 0.242549 0.8 0 0
0.089172 0.598643 0.184943 0.8 0 0
0.298747 0.534053 0.043282 0.8 0 0
0.352058 0.598028 0.028661 0.8 0 0
0.555711 0.370343 0.157746 0.8 0 0
0.183952 0.056638 0.318776 0.8 0 0
0.728010 0.583782 0.527430 0.8 0 0
0.218860 0.199977 0.497531 0.8 0 0
0.536445 0.236140 0.238818 0.8 0 0
0.038105 0.645953 0.394964 0.8 0 0
0.198592 0.194646 0.342539 0.8 0 0
0.266429 0.657627 0.712360 0.8 0 0
0.627249 0.322842 0.492703 0.8 0 0
0.513628 0.032399 0.428724 0.8 0 0
0.310766 0.782532 0.218247 0.8 0 0
0.231210 0.144102 0.297665 0.8 0 0
0.122095 0.637568 0.619053 0.8 0 0
0.424603 0.965516 0.533714 0.8 0 0
0.144777 0.743316 0.426764 0.8 0 0
0.333178 0.807220 0.532784 0.8 0 0
0.193315 0.240642 0.299746 0.8 0 0
0.403144 0.028359 0.231289 0.8 0 0
0.707686 0.470832 0.282090 0.8 0 0
0.076175 0.648440 0.544263 0.8 0 0
0.469919 0.409956 0.687696 0.8 0 0
0.579838 0.353667 0.189624 0.8 0 0
0.742359 0.527186 0.355604 0.8 0 0
0.603228 0.702957 0.185157 0.8 0 0
0.607328 0.080722 0.352422 0.8 0 0
0.196060 0.653240 0.102052 0.8 0 0
0.487713 0.031020 0.500310 0.8 0 0
0.183354 0.243450 0.319706 0.8 0 0
0.145783 0.426595 0.589913 0.8 0 0
0.540061 0.777066 0.525047 0.8 0 0
0.269430 0.897249 0.321882 0.8 0 0
0.250624 0.387389 0.651048 0.8 0 0
0.583532 0.036808 0.326423 0.8 0 0
0.502579 0.312743 0.165298 0.8 0 0
0.416250 0.079914 0.615311 0.8 0 0
0.221776 0.509164 0.080175 0.8 0 0
0.569735 0.050296 0.260245 0.8 0 0
0.551341 0.131568 0.303392 0.8 0 0
0.253594 0.971227 0.513811 0.8 0 0
0.240110 0.685823 0.102367 0.8 0 0
0.041201 0.575138 0.485913 0.8 0 0
0.672794 0.430300 0.533397 0.8 0 0
0.466857 0.203569 0.209695 0.8 0 0
0.276544 0.934551 0.427730 0.8 0 0
0.141011 0.738753 0.445984 0.8 0 0
0.189351 0.475307 0.114394 0.8 0 0
0.552424 0.080034 0.550533 0.8 0 0
0.675489 0.649926 0.593557 0.8 0 0
0.502600 0.619514 0.734361 0.8 0 0
0.481734 0.630087 0.048498 0.8 0 0
0.078626 0.417762 0.421454 0.8 0 0
0.037572 0.637830 0.354656 0.8 0 0
0.387363 0.518284 0.741179 0.8 0 0
0.639016 0.380362 0.541568 0.8 0 0
0.289186 0.596545 0.738168 0.8 0 0
0.504197 0.740376 0.622959 0.8 0 0
0.522886 0.624713 0.059580 0.8 0 0
0.640179 0.377143 0.244797 0.8 0 0
0.166240 0.706687 0.595371 0.8 0 0
0.328354 0.820260 0.518813 0.8 0 0
0.724034 0.605096 0.529938 0.8 0 0
0.607603 0.611355 0.103267 0.8 0 0
0.482708 0.861848 0.298357 0.8 0 0
0.481243 0.914775 0.445815 0.8 0 0
0.438926 0.599027 0.031972 0.8 0 0
0.490371 0.680519 0.708339 0.8 0 0
0.387058 0.875043 0.257357 0.8 0 0
0.460718 0.965743 0.522134 0.8 0 0
0.391102 0.687817 0.069025 0.8 0 0
0.183755 0.252676 0.306541 0.8 0 0
0.602178 0.236047 0.424343 0.8 0 0
0.312129 0.722133 0.660064 0.8 0 0
0.066197 0.650481 0.519411 0.8 0 0
0.645455 0.728960 0.486131 0.8 0 0
0.672275 0.657170 0.200031 0.8 0 0
0.655011 0.619571 0.151149 0.8 0 0
0.106873 0.478383 0.574527 0.8 0 0
0.674687 0.533044 0.602030 0.8 0 0
0.571579 0.607436 0.079843 0.8 0 0
0.027525 0.599443 0.365044 0.8 0 0
0.198026 0.725531 0.199101 0.8 0 0
0.282899 0.321257 0.153518 0.8 0 0
0.304887 0.705420 0.104232 0.8 0 0
0.480718 0.028788 0.461085 0.8 0 0
0.330575 0.902779 0.255937 0.8 0 0
0.116092 0.669197 0.190998 0.8 0 0
0.476882 0.914794 0.503797 0.8 0 0
0.136320 0.730919 0.473482 0.8 0 0
0.238029 0.968902 0.311012 0.8 0 0
0.212772 0.794658 0.370890 0.8 0 0
0.605924 0.756290 0.335238 0.8 0 0
0.165770 0.489300 0.647534 0.8 0 0
0.292389 0.315340 0.153468 0.8 0 0
0.459400 0.728039 0.662786 0.8 0 0
0.280762 0.952376 0.470912 0.8 0 0
0.428220 0.306757 0.636805 0.8 0 0
0.449640 0.315359 0.143455 0.8 0 0
0.477157 0.624675 0.045749 0.8 0 0
0.556417 0.031664 0.421576 0.8 0 0
0.376761 0.884996 0.515759 0.8 0 0
0.653480 0.349371 0.466094 0.8 0 0
0.235968 0.291846 0.203092 0.8 0 0
0.561329 0.702225 0.146523 0.8 0 0
0.290222 0.923525 0.440982 0.8 0 0
0.121224 0.520094 0.158053 0.8 0 0
0.495850 0.908155 0.396523 0.8 0 0
0.194916 0.055097 0.294949 0.8 0 0
0.189892 0.775169 0.403015 0.8 0 0
0.515327 0.070411 0.583658 0.8 0 0
0.298626 0.219946 0.576437 0.8 0 0
0.179596 0.450252 0.638217 0.8 0 0
0.406110 0.879653 0.487990 0.8 0 0
0.141898 0.620948 0.128433 0.8 0 0
0.633258 0.409738 0.579184 0.8 0 0
0.686382 0.396195 0.344494 0.8 0 0
0.594614 0.234461 0.336226 0.8 0 0
0.552424 0.412161 0.128728 0.8 0 0
0.171929 0.302764 0.510357 0.8 0 0
0.337625 0.340698 0.125046 0.8 0 0
0.717696 0.578000 0.548293 0.8 0 0
0.205402 0.509691 0.684180 0.8 0 0
0.386615 0.756387 0.167297 0.8 0 0
0.421113 0.566073 0.027865 0.8 0 0
0.496470 0.723585 0.143033 0.8 0 0
0.471522 0.847931 0.286995 0.8 0 0
0.301855 0.147802 0.230582 0.8 0 0
0.158673 0.268066 0.385076 0.8 0 0
0.105362 0.490994 0.190567 0.8 0 0
0.162071 0.755981 0.372423 0.8 0 0
0.358413 0.156229 0.579053 0.8 0 0
0.490809 0.762162 0.590884 0.8 0 0
0.111636 0.522854 0.605586 0.8 0 0
0.341883 0.356145 0.664245 0.8 0 0
0.258724 0.715262 0.651766 0.8 0 0
0.215862 0.796998 0.389821 0.8 0 0
0.585477 0.665000 0.115987 0.8 0 0
0.327173 0.723097 0.663385 0.8 0 0
0.112738 0.354066 0.433713 0.8 0 0
0.541990 0.129313 0.498777 0.8 0 0
0.434029 0.028949 0.222616 0.8 0 0
0.487428 0.028648 0.263849 0.8 0 0
0.432691 0.165196 0.578451 0.8 0 0
0.102581 0.644778 0.589324 0.8 0 0
0.300253 0.883938 0.437756 0.8 0 0
0.282733 0.083196 0.590031 0.8 0 0
0.553468 0.035915 0.255517 0.8 0 0
0.542882 0.761987 0.246266 0.8 0 0
0.446531 0.952728 0.508882 0.8 0 0
0.494186 0.951395 0.286736 0.8 0 0
0.386322 0.948446 0.246184 0.8 0 0
0.723435 0.670891 0.410733 0.8 0 0
0.251514 0.091110 0.557511 0.8 0 0
0.207398 0.656671 0.683075 0.8 0 0
0.320048 0.313098 0.632877 0.8 0 0
0.168371 0.249874 0.386603 0.8 0 0
0.391907 0.137203 0.579111 0.8 0 0
0.273441 0.932940 0.416005 0.8 0 0
0.440796 0.923843 0.230459 0.8 0 0
0.502191 0.092377 0.223036 0.8 0 0
0.488090 0.647255 0.057968 0.8 0 0
0.405152 0.057140 0.174070 0.8 0 0
0.249051 0.105637 0.268386 0.8 0 0
0.751125 0.603217 0.406130 0.8 0 0
0.295124 0.029026 0.532089 0.8 0 0
0.545746 0.439178 0.672276 0.8 0 0
0.674749 0.368928 0.380460 0.8 0 0
0.090502 0.552291 0.185377 0.8 0 0
0.462495 0.849667 0.280371 0.8 0 0
0.450416 0.515210 0.042420 0.8 0 0
0.510112 0.632221 0.728047 0.8 0 0
0.250263 0.091130 0.556285 0.8 0 0
0.215864 0.793630 0.354040 0.8 0 0
0.207266 0.085230 0.291092 0.8 0 0
0.315104 0.544018 0.037462 0.8 0 0
0.605619 0.272794 0.472812 0.8 0 0
0.378865 0.953482 0.521222 0.8 0 0
0.409338 0.277559 0.161297 0.8 0 0
0.534543 0.822053 0.395725 0.8 0 0
0.269604 0.902798 0.457157 0.8 0 0
0.688693 0.687924 0.289218 0.8 0 0
0.094283 0.491634 0.208282 0.8 0 0
0.079642 0.620945 0.567748 0.8 0 0
0.571010 0.035598 0.293181 0.8 0 0
0.096055 0.603442 0.598552 0.8 0 0
0.633385 0.740749 0.461754 0.8 0 0
0.402544 0.032073 0.345138 0.8 0 0
0.357938 0.030248 0.566011 0.8 0 0
0.491216 0.892466 0.364161 0.8 0 0
0.176612 0.749708 0.282880 0.8 0 0
0.218068 0.746829 0.559492 0.8 0 0
0.473432 0.095320 0.210709 0.8 0 0
0.532017 0.050197 0.559956 0.8 0 0
0.663878 0.378771 0.293644 0.8 0 0
0.435716 0.789849 0.565976 0.8 0 0
0.249245 0.103566 0.265012 0.8 0 0
0.036611 0.533279 0.441901 0.8 0 0
0.564406 0.967453 0.421419 0.8 0 0
0.209913 0.791572 0.406798 0.8 0 0
0.094949 0.710050 0.407524 0.8 0 0
0.135810 0.431687 0.193312 0.8 0 0
0.240032 0.299863 0.194421 0.8 0 0
0.070392 0.482437 0.266006 0.8 0 0
0.294336 0.885298 0.295877 0.8 0 0
0.726502 0.649626 0.316929 0.8 0 0
0.439659 0.246570 0.182695 0.8 0 0
0.111231 0.562828 0.618504 0.8 0 0
0.241272 0.773038 0.249907 0.8 0 0
0.647334 0.571545 0.136526 0.8 0 0
0.633286 0.467968 0.160844 0.8 0 0
0.513291 0.155763 0.535290 0.8 0 0
0.313892 0.027905 0.217438 0.8 0 0
0.328332 0.644458 0.737185 0.8 0 0
0.628715 0.302492 0.449529 0.8 0 0
0.427194 0.908911 0.482727 0.8 0 0
0.069355 0.677109 0.474366 0.8 0 0
0.426543 0.887593 0.511595 0.8 0 0
0.373840 0.292823 0.631374 0.8 0 0
0.109622 0.465790 0.569310 0.8 0 0
0.611738 0.063753 0.358609 0.8 0 0
0.533791 0.954917 0.369675 0.8 0 0
0.436047 0.409320 0.085717 0.8 0 0
0.692423 0.633641 0.579144 0.8 0 0
0.628052 0.644190 0.137433 0.8 0 0
0.631002 0.404954 0.577901 0.8 0 0
0.566846 0.169353 0.463547 0.8 0 0
0.285233 0.952614 0.543293 0.8 0 0
0.558277 0.136418 0.470650 0.8 0 0
0.341485 0.117118 0.217034 0.8 0 0
0.625369 0.676022 0.164299 0.8 0 0
0.214210 0.226061 0.508078 0.8 0 0
0.689430 0.454725 0.526166 0.8 0 0
0.638026 0.706079 0.572673 0.8 0 0
0.534625 0.033196 0.344957 0.8 0 0
0.166375 0.752329 0.461662 0.8 0 0
0.082307 0.658073 0.234634 0.8 0 0
0.579835 0.084912 0.512796 0.8 0 0
0.260904 0.878259 0.409750 0.8 0 0
0.565598 0.701485 0.651926 0.8 0 0
0.710257 0.471827 0.288986 0.8 0 0
0.419722 0.333113 0.126145 0.8 0 0
0.529757 0.033324 0.347526 0.8 0 0
0.117005 0.724385 0.422651 0.8 0 0
0.520113 0.949236 0.411595 0.8 0 0
0.412980 0.624613 0.747160 0.8 0 0
0.571836 0.949127 0.322899 0.8 0 0
0.273631 0.779728 0.236923 0.8 0 0
0.648557 0.339369 0.460502 0.8 0 0
0.269056 0.735585 0.620579 0.8 0 0
0.597785 0.423108 0.626340 0.8 0 0
0.213066 0.960181 0.473079 0.8 0 0
0.583563 0.426682 0.640435 0.8 0 0
0.399599 0.279543 0.159455 0.8 0 0
0.527063 0.959849 0.306126 0.8 0 0
0.258332 0.895644 0.353462 0.8 0 0
0.515359 0.062942 0.209627 0.8 0 0
0.637072 0.456586 0.172539 0.8 0 0
0.308310 0.672235 0.067148 0.8 0 0
0.104921 0.428065 0.524488 0.8 0 0
0.118095 0.361200 0.304572 0.8 0 0
0.412973 0.090170 0.189146 0.8 0 0
0.328337 0.502338 0.729354 0.8 0 0
0.372314 0.941457 0.561072 0.8 0 0
0.328858 0.958628 0.519759 0.8 0 0
0.071245 0.428179 0.397588 0.8 0 0
0.209248 0.115274 0.433964 0.8 0 0
0.394872 0.029746 0.321247 0.8 0 0
0.319271 0.381781 0.104453 0.8 0 0
0.309626 0.189792 0.214631 0.8 0 0
0.740566 0.540492 0.465469 0.8 0 0
0.613833 0.616947 0.672345 0.8 0 0
0.591530 0.438587 0.641101 0.8 0 0
0.383322 0.684622 0.718668 0.8 0 0
0.170573 0.252837 0.350211 0.8 0 0
0.062219 0.482406 0.287156 0.8 0 0
0.068663 0.658614 0.267787 0.8 0 0
0.588044 0.443252 0.135131 0.8 0 0
0.100660 0.372326 0.356316 0.8 0 0
0.189279 0.584588 0.086159 0.8 0 0
0.301865 0.029619 0.539647 0.8 0 0
0.458626 0.960140 0.206382 0.8 0 0
0.618989 0.332595 0.522848 0.8 0 0
0.338371 0.872148 0.267368 0.8 0 0
0.549461 0.968913 0.436459 0.8 0 0
0.153904 0.391864 0.572311 0.8 0 0
0.225074 0.028662 0.325548 0.8 0 0
0.344120 0.777246 0.580736 0.8 0 0
0.154901 0.520793 0.123070 0.8 0 0
0.282688 0.394337 0.668944 0.8 0 0
0.504139 0.768790 0.571942 0.8 0 0
0.500642 0.084901 0.211820 0.8 0 0
0.533733 0.969613 0.486124 0.8 0 0
0.530685 0.143370 0.515172 0.8 0 0
0.607555 0.370752 0.575936 0.8 0 0
0.491058 0.183372 0.558301 0.8 0 0
0.613203 0.581358 0.105511 0.8 0 0
0.507028 0.212110 0.558962 0.8 0 0
0.532458 0.597515 0.058023 0.8 0 0
0.378713 0.861613 0.517182 0.8 0 0
0.417838 0.844648 0.258051 0.8 0 0
0.108878 0.694484 0.253409 0.8 0 0
0.359028 0.030490 0.476143 0.8 0 0
0.607391 0.434844 0.624178 0.8 0 0
0.442572 0.144480 0.215796 0.8 0 0
0.525047 0.724548 0.644389 0.8 0 0
0.608430 0.724631 0.578325 0.8 0 0
0.132387 0.716374 0.522259 0.8 0 0
0.354474 0.970381 0.207815 0.8 0 0
0.120213 0.712295 0.507064 0.8 0 0
0.667252 0.679496 0.575407 0.8 0 0
0.076046 0.495017 0.530075 0.8 0 0
0.746872 0.606237 0.334941 0.8 0 0
0.683136 0.584571 0.177962 0.8 0 0
0.577519 0.724502 0.607890 0.8 0 0
0.207120 0.723960 0.598043 0.8 0 0
0.738910 0.642176 0.427518 0.8 0 0
0.388551 0.030720 0.509827 0.8 0 0
0.451258 0.737641 0.647814 0.8 0 0
0.683783 0.695753 0.510013 0.8 0 0
0.250649 0.756347 0.213194 0.8 0 0
0.593824 0.770756 0.389763 0.8 0 0
0.217102 0.683446 0.116390 0.8 0 0
0.235496 0.119071 0.497916 0.8 0 0
0.614831 0.259840 0.408772 0.8 0 0
0.637400 0.573166 0.125635 0.8 0 0
0.550279 0.182871 0.502609 0.8 0 0
0.470102 0.770261 0.585856 0.8 0 0
0.421145 0.079578 0.181547 0.8 0 0
0.421457 0.033694 0.180682 0.8 0 0
0.073498 0.630181 0.222842 0.8 0 0
0.181911 0.492017 0.112100 0.8 0 0
0.450076 0.318729 0.638789 0.8 0 0
0.540920 0.517321 0.071595 0.8 0 0
0.389562 0.126196 0.579332 0.8 0 0
0.171743 0.076039 0.415978 0.8 0 0
0.156910 0.464229 0.626962 0.8 0 0
0.578506 0.460130 0.662829 0.8 0 0
0.376180 0.686911 0.716125 0.8 0 0
0.724278 0.669287 0.426112 0.8 0 0
0.412067 0.028920 0.250935 0.8 0 0
0.205278 0.452411 0.659654 0.8 0 0
0.119879 0.339391 0.352740 0.8 0 0
0.365549 0.879670 0.485522 0.8 0 0
0.365825 0.223544 0.188348 0.8 0 0
0.363890 0.347198 0.661818 0.8 0 0
0.175063 0.237669 0.413086 0.8 0 0
0.336947 0.062454 0.615116 0.8 0 0
0.179122 0.088499 0.404262 0.8 0 0
0.159226 0.273904 0.348931 0.8 0 0
0.605110 0.383427 0.191598 0.8 0 0
0.188478 0.774479 0.371506 0.8 0 0
0.250141 0.312460 0.178900 0.8 0 0
0.156577 0.650458 0.126877 0.8 0 0
0.451280 0.664854 0.057565 0.8 0 0
0.696526 0.487771 0.237042 0.8 0 0
0.219966 0.592227 0.709648 0.8 0 0
0.211484 0.516596 0.690512 0.8 0 0
0.422828 0.467706 0.722739 0.8 0 0
0.547194 0.768044 0.536980 0.8 0 0
0.511910 0.938017 0.248307 0.8 0 0
0.247657 0.444577 0.094199 0.8 0 0
0.490826 0.158193 0.552903 0.8 0 0
0.677275 0.569330 0.171131 0.8 0 0
0.624429 0.520260 0.652416 0.8 0 0
0.669650 0.490964 0.191654 0.8 0 0
0.282535 0.906208 0.291837 0.8 0 0
0.100794 0.434255 0.249337 0.8 0 0
0.599109 0.767246 0.397043 0.8 0 0
0.248733 0.578639 0.722662 0.8 0 0
0.386440 0.571371 0.025700 0.8 0 0
0.487266 0.508746 0.725936 0.8 0 0
0.545616 0.113249 0.294875 0.8 0 0
0.481119 0.030167 0.472403 0.8 0 0
0.248338 0.718602 0.147810 0.8 0 0
0.542885 0.351043 0.163584 0.8 0 0
0.135396 0.325432 0.318087 0.8 0 0
0.222104 0.060713 0.542565 0.8 0 0
0.202320 0.694314 0.136947 0.8 0 0
0.715393 0.663497 0.304110 0.8 0 0
0.191500 0.087442 0.331825 0.8 0 0
0.240532 0.183214 0.269597 0.8 0 0
0.211354 0.566080 0.703279 0.8 0 0
0.681156 0.529662 0.187016 0.8 0 0
0.742974 0.611476 0.460071 0.8 0 0
0.631768 0.445149 0.605255 0.8 0 0
0.199346 0.217099 0.473284 0.8 0 0
0.266255 0.769532 0.225208 0.8 0 0
0.154525 0.745500 0.320760 0.8 0 0
0.530550 0.732872 0.180701 0.8 0 0
0.432839 0.122053 0.573760 0.8 0 0
0.531937 0.908836 0.350988 0.8 0 0
0.326704 0.730962 0.138510 0.8 0 0
0.505202 0.095894 0.229489 0.8 0 0
0.307208 0.278932 0.170943 0.8 0 0
0.143381 0.447411 0.603062 0.8 0 0
0.511317 0.525778 0.723855 0.8 0 0
0.114856 0.662374 0.184402 0.8 0 0
0.576975 0.273841 0.257934 0.8 0 0
0.034744 0.556363 0.454781 0.8 0 0
0.255838 0.027583 0.379204 0.8 0 0
0.040177 0.635240 0.327363 0.8 0 0
0.044590 0.604181 0.493252 0.8 0 0
0.524542 0.279170 0.203439 0.8 0 0
0.290986 0.260785 0.592782 0.8 0 0
0.104520 0.450353 0.225817 0.8 0 0
0.446014 0.624592 0.744639 0.8 0 0
0.037378 0.568719 0.473045 0.8 0 0
0.405267 0.205908 0.593524 0.8 0 0
0.088629 0.475995 0.229168 0.8 0 0
0.055579 0.542185 0.515421 0.8 0 0
0.365655 0.955062 0.521931 0.8 0 0
0.536100 0.456670 0.094298 0.8 0 0
0.548144 0.033408 0.256680 0.8 0 0
0.166176 0.333787 0.241906 0.8 0 0
0.030072 0.595716 0.342570 0.8 0 0
0.503767 0.942499 0.316895 0.8 0 0
0.288653 0.350198 0.132127 0.8 0 0
0.704230 0.649604 0.248723 0.8 0 0
0.268084 0.028969 0.339406 0.8 0 0
0.367637 0.075828 0.179719 0.8 0 0
0.355217 0.939831 0.259844 0.8 0 0
0.155109 0.556756 0.661621 0.8 0 0
0.268310 0.630277 0.053520 0.8 0 0
0.503455 0.718917 0.661426 0.8 0 0
0.156163 0.494948 0.640786 0.8 0 0
0.127042 0.341559 0.461420 0.8 0 0
0.520706 0.515920 0.062969 0.8 0 0
0.614632 0.755210 0.387523 0.8 0 0
0.539391 0.697455 0.122538 0.8 0 0
0.328203 0.834022 0.509146 0.8 0 0
0.581269 0.168351 0.395819 0.8 0 0
0.230951 0.055720 0.552552 0.8 0 0
0.712907 0.681313 0.370568 0.8 0 0
0.057889 0.665127 0.459890 0.8 0 0
0.653476 0.362259 0.293817 0.8 0 0
0.263290 0.206597 0.236968 0.8 0 0
0.603441 0.292817 0.281322 0.8 0 0
0.383689 0.429609 0.071219 0.8 0 0
0.442774 0.965330 0.562109 0.8 0 0
0.225044 0.314553 0.194127 0.8 0 0
0.206395 0.180717 0.457922 0.8 0 0
0.231936 0.254574 0.236668 0.8 0 0
0.496224 0.446261 0.697996 0.8 0 0
0.357107 0.054883 0.176702 0.8 0 0
0.437708 0.029675 0.381036 0.8 0 0
0.521316 0.842269 0.368146 0.8 0 0
0.493144 0.048855 0.195329 0.8 0 0
0.028073 0.548792 0.376489 0.8 0 0
0.076441 0.442805 0.303565 0.8 0 0
0.394098 0.803828 0.550573 0.8 0 0
0.312889 0.508198 0.048209 0.8 0 0
0.301276 0.576644 0.036266 0.8 0 0
0.383285 0.181514 0.201792 0.8 0 0
0.742533 0.536251 0.335598 0.8 0 0
0.302744 0.332258 0.640388 0.8 0 0
0.258334 0.859447 0.374945 0.8 0 0
0.409236 0.575762 0.026320 0.8 0 0
0.079835 0.529901 0.210705 0.8 0 0
0.715115 0.655942 0.285495 0.8 0 0
0.619082 0.305267 0.297800 0.8 0 0
0.495325 0.316233 0.622471 0.8 0 0
0.178050 0.459692 0.132176 0.8 0 0
0.155310 0.352007 0.239219 0.8 0 0
0.647601 0.524348 0.147950 0.8 0 0
0.050062 0.520197 0.286258 0.8 0 0
0.546089 0.729222 0.623487 0.8 0 0
0.424120 0.146123 0.577095 0.8 0 0
0.287888 0.299420 0.166067 0.8 0 0
0.203481 0.242105 0.280478 0.8 0 0
0.538507 0.958627 0.348693 0.8 0 0
0.615410 0.507002 0.123973 0.8 0 0
0.370492 0.043333 0.612090 0.8 0 0
0.211365 0.267484 0.533655 0.8 0 0
0.110364 0.354920 0.420607 0.8 0 0
0.749943 0.594267 0.355794 0.8 0 0
0.139662 0.677859 0.173180 0.8 0 0
0.118243 0.681028 0.575371 0.8 0 0
0.586810 0.055871 0.502320 0.8 0 0
0.129655 0.361392 0.270708 0.8 0 0
0.386362 0.214707 0.191598 0.8 0 0
0.679226 0.375504 0.388676 0.8 0 0
0.378077 0.029514 0.403853 0.8 0 0
0.231782 0.971446 0.489055 0.8 0 0
0.593842 0.217008 0.365456 0.8 0 0
0.336057 0.634044 0.039226 0.8 0 0
0.266992 0.456502 0.694257 0.8 0 0
0.554222 0.611612 0.713568 0.8 0 0
0.055445 0.630851 0.510716 0.8 0 0
0.524457 0.219500 0.236636 0.8 0 0
0.434724 0.846286 0.512725 0.8 0 0
0.092405 0.387643 0.361189 0.8 0 0
0.223372 0.795892 0.437984 0.8 0 0
0.515332 0.069248 0.211838 0.8 0 0
0.475433 0.723529 0.665299 0.8 0 0
0.599932 0.268351 0.303622 0.8 0 0
0.719356 0.538411 0.250253 0.8 0 0
0.600537 0.053815 0.465973 0.8 0 0
0.234869 0.775391 0.260183 0.8 0 0
0.212106 0.079645 0.524285 0.8 0 0
0.608674 0.611766 0.677630 0.8 0 0
0.427392 0.263907 0.614266 0.8 0 0
0.650637 0.326486 0.383471 0.8 0 0
0.378283 0.890203 0.487556 0.8 0 0
0.342914 0.120049 0.217123 0.8 0 0
0.043575 0.569635 0.279690 0.8 0 0
0.488018 0.322265 0.628994 0.8 0 0
0.272312 0.942631 0.322876 0.8 0 0
0.378383 0.030962 0.551987 0.8 0 0
0.401716 0.856271 0.518798 0.8 0 0
0.624105 0.464964 0.152884 0.8 0 0
0.387069 0.259293 0.170357 0.8 0 0
0.079020 0.697291 0.396317 0.8 0 0
0.670781 0.647058 0.602159 0.8 0 0
0.638962 0.631301 0.140467 0.8 0 0
0.408998 0.778192 0.199078 0.8 0 0
0.426315 0.685806 0.071685 0.8 0 0
0.377597 0.842726 0.520585 0.8 0 0
0.093113 0.664256 0.556211 0.8 0 0
0.181549 0.508818 0.669191 0.8 0 0
0.494101 0.105733 0.236156 0.8 0 0
0.140470 0.305723 0.354149 0.8 0 0
0.509383 0.560116 0.732494 0.8 0 0
0.157904 0.310722 0.284320 0.8 0 0
0.466734 0.822021 0.268698 0.8 0 0
0.088648 0.666924 0.235255 0.8 0 0
0.255950 0.817150 0.312709 0.8 0 0
0.470769 0.354086 0.655747 0.8 0 0
0.061600 0.651091 0.504685 0.8 0 0
0.465821 0.908425 0.504304 0.8 0 0
0.075666 0.429523 0.331911 0.8 0 0
0.103438 0.717121 0.388638 0.8 0 0
0.590653 0.101370 0.409609 0.8 0 0
0.303746 0.725714 0.651392 0.8 0 0
0.261381 0.189552 0.541554 0.8 0 0
0.286717 0.930226 0.444082 0.8 0 0
0.230171 0.935985 0.457672 0.8 0 0
0.552746 0.281292 0.225040 0.8 0 0
0.606133 0.326024 0.536422 0.8 0 0
0.135374 0.368345 0.253028 0.8 0 0
0.348280 0.027782 0.264309 0.8 0 0
0.546420 0.748755 0.580003 0.8 0 0
0.371565 0.940615 0.560155 0.8 0 0
0.099610 0.522938 0.183514 0.8 0 0
0.134945 0.319508 0.443052 0.8 0 0
0.430546 0.515580 0.737957 0.8 0 0
0.350346 0.084585 0.187309 0.8 0 0
0.072240 0.471544 0.272513 0.8 0 0
0.633002 0.561456 0.123445 0.8 0 0
0.538940 0.538967 0.714525 0.8 0 0
0.101746 0.469317 0.213494 0.8 0 0
0.587651 0.035156 0.373029 0.8 0 0
0.490674 0.936306 0.309558 0.8 0 0
0.529522 0.949067 0.251006 0.8 0 0
0.437954 0.449045 0.065428 0.8 0 0
0.215767 0.118863 0.456317 0.8 0 0
0.240410 0.772755 0.250006 0.8 0 0
0.488420 0.029564 0.241192 0.8 0 0
0.431737 0.755354 0.618376 0.8 0 0
0.174720 0.270814 0.478360 0.8 0 0
0.366321 0.761434 0.608488 0.8 0 0
0.221016 0.131800 0.470401 0.8 0 0
0.534981 0.677989 0.098349 0.8 0 0
0.403728 0.532846 0.032811 0.8 0 0
0.458407 0.776290 0.580016 0.8 0 0
0.353277 0.579937 0.750808 0.8 0 0
0.344376 0.031676 0.509833 0.8 0 0
0.140647 0.402138 0.212133 0.8 0 0
0.571685 0.296117 0.231981 0.8 0 0
0.731406 0.629673 0.291208 0.8 0 0
0.534093 0.248444 0.555490 0.8 0 0
0.252541 0.027329 0.494077 0.8 0 0
0.178130 0.055641 0.462668 0.8 0 0
0.350139 0.777224 0.581859 0.8 0 0
0.751125 0.599611 0.424988 0.8 0 0
0.314126 0.155703 0.566160 0.8 0 0
0.627821 0.332466 0.280407 0.8 0 0
0.276292 0.454915 0.696886 0.8 0 0
0.615938 0.343355 0.539725 0.8 0 0
0.363119 0.788732 0.568641 0.8 0 0
0.293431 0.028988 0.487694 0.8 0 0
0.630991 0.678519 0.173992 0.8 0 0
0.574021 0.749436 0.552171 0.8 0 0
0.415947 0.556915 0.749968 0.8 0 0
0.388691 0.182728 0.201459 0.8 0 0
0.587192 0.038757 0.320914 0.8 0 0
0.458194 0.030341 0.544200 0.8 0 0
0.468789 0.593152 0.036574 0.8 0 0
0.376404 0.029801 0.575971 0.8 0 0
0.660311 0.643749 0.618951 0.8 0 0
0.170575 0.451405 0.141397 0.8 0 0
0.358047 0.388742 0.094521 0.8 0 0
0.288456 0.227998 0.574833 0.8 0 0
0.372606 0.725401 0.669711 0.8 0 0
0.273564 0.615729 0.048303 0.8 0 0
0.219636 0.213356 0.506449 0.8 0 0
0.327379 0.395925 0.682500 0.8 0 0
0.508781 0.723953 0.652571 0.8 0 0
0.584059 0.767380 0.323394 0.8 0 0
0.737337 0.523186 0.320571 0.8 0 0
0.619644 0.752782 0.407848 0.8 0 0
0.293222 0.439471 0.695103 0.8 0 0
0.352242 0.225761 0.597282 0.8 0 0
0.044028 0.655495 0.415601 0.8 0 0
0.518222 0.344961 0.629952 0.8 0 0
0.193832 0.056714 0.503475 0.8 0 0
0.076345 0.446165 0.297214 0.8 0 0
0.368650 0.941019 0.201743 0.8 0 0
0.642889 0.332049 0.464350 0.8 0 0
0.701483 0.598839 0.576315 0.8 0 0
0.525535 0.655495 0.075867 0.8 0 0
0.413454 0.641658 0.040429 0.8 0 0
0.562454 0.295232 0.223857 0.8 0 0
0.302418 0.215938 0.576651 0.8 0 0
0.309310 0.664797 0.721644 0.8 0 0
0.650392 0.487169 0.169375 0.8 0 0
0.230913 0.238631 0.537529 0.8 0 0
0.217381 0.782548 0.475581 0.8 0 0
0.243580 0.640389 0.711585 0.8 0 0
0.280674 0.667640 0.710737 0.8 0 0
0.567698 0.766987 0.288420 0.8 0 0
0.751587 0.589498 0.367500 0.8 0 0
0.738181 0.534586 0.468859 0.8 0 0
0.251836 0.608277 0.723842 0.8 0 0
0.479799 0.749253 0.175921 0.8 0 0
0.144415 0.558976 0.123196 0.8 0 0
0.678197 0.394637 0.308626 0.8 0 0
0.274317 0.746307 0.180810 0.8 0 0
0.319302 0.820895 0.513129 0.8 0 0
0.611954 0.359044 0.559426 0.8 0 0
